# .PCD v0.7 - Point Cloud Data file format
VERSION 0.7
FIELDS x y z intensity ring
SIZE 4 4 4 4 2
TYPE F F F F U
COUNT 1 1 1 1 1
WIDTH 1263
HEIGHT 1
VIEWPOINT 0 0 0 1 0 0 0
POINTS 1263
DATA ascii
4.5771117 -1.1788017 -0.15220556 0 28
4.5646048 -1.1755805 -0.10840283 0 29
4.5909629 -1.1823689 -0.065409899 0 30
4.5911365 -1.1824135 -0.021802893 0 31
4.5668306 -1.1761537 0.021687467 0 32
4.5787435 -1.1792219 0.065235801 0 33
4.5912805 -1.1824507 0.10903634 0 34
4.5833068 -1.180397 0.15241155 0 35
4.5832171 -1.1803739 0.19599812 0 36
4.575037 -1.1782672 0.2391932 0 37
4.5740852 -1.1780221 0.28271988 0 38
4.5872474 -1.1814119 0.32728335 0 39
4.5825577 -1.1802042 0.3707096 0 40
4.591743 -1.1825697 0.41536441 0 41
4.5755787 -1.1784068 0.45772997 0 42
4.5858202 -1.1810445 0.50275868 0 43
4.5900502 -1.1821338 0.54735333 0 44
4.5888014 -1.181812 0.59141707 0 45
4.585618 -1.1809924 0.63529044 0 46
4.5855565 -1.1809764 0.67967433 0 47
4.5681043 -1.1764817 0.72142798 0 48
4.5781951 -1.1790806 0.76758516 0 49
4.5893316 -1.1819488 0.81425792 0 50
4.5781913 -1.1790795 0.85711962 0 51
4.5766706 -1.178688 0.90180814 0 52
4.5675411 -1.1763368 0.94505048 0 53
4.5809598 -1.1797926 0.99316734 0 54
4.5784764 -1.1791531 1.0381202 0 55
4.5870624 -1.1813643 1.0858278 0 56
4.5885 -1.1817346 1.1321369 0 57
4.5741391 -1.178036 1.1746203 0 58
4.5782366 -1.1790912 1.2219516 0 59
4.5749936 -1.178256 1.267553 0 60
4.5739727 -1.1779931 1.3139564 0 61
4.5770788 -1.1787931 1.3618065 0 62
4.5759196 -1.1784945 1.4086568 0 63
2.3956423 -0.58566743 -0.73520499 0 0
2.4812627 -0.60659921 -0.73596877 0 1
2.5674527 -0.62767029 -0.73527449 0 2
2.6570492 -0.6495741 -0.73389661 0 3
2.7637393 -0.67565686 -0.73538125 0 4
2.8659155 -0.70063609 -0.73368758 0 5
2.9877629 -0.73042434 -0.73490971 0 6
3.100755 -0.75804776 -0.73173434 0 7
3.2469742 -0.79379421 -0.73394763 0 8
3.3993638 -0.8310492 -0.73472226 0 9
3.5559165 -0.869322 -0.73347235 0 10
3.7520585 -0.91727322 -0.73704451 0 11
3.9650745 -0.96934962 -0.74004567 0 12
4.1406994 -1.012285 -0.73239583 0 13
4.3836946 -1.0716906 -0.73271018 0 14
4.5858455 -1.1211107 -0.72199804 0 15
4.5727472 -1.1179086 -0.67568719 0 16
4.583446 -1.1205242 -0.6330328 0 17
4.5785017 -1.1193155 -0.58827132 0 18
4.5746927 -1.1183842 -0.54384094 0 19
4.5777769 -1.1191382 -0.50033033 0 20
4.5784955 -1.119314 -0.45661035 0 21
4.5930557 -1.1228734 -0.41420284 0 22
4.5598679 -1.1147599 -0.36773738 0 23
4.5782971 -1.1192653 -0.32563823 0 24
4.5734463 -1.1180795 -0.2818093 0 25
4.5884805 -1.1217549 -0.23915683 0 26
4.5746927 -1.1183841 -0.19503072 0 27
4.5597849 -1.1147397 -0.15116212 0 28
4.5839138 -1.1206385 -0.10852593 0 29
4.5821042 -1.1201961 -0.065082513 0 30
4.5821867 -1.1202163 -0.021693338 0 31
4.5821762 -1.1202137 0.021693287 0 32
4.5825644 -1.1203085 0.065089047 0 33
4.5675554 -1.1166394 0.10813864 0 34
4.5893822 -1.1219754 0.15214331 0 35
4.5766015 -1.1188509 0.19511212 0 36
4.5885267 -1.1217662 0.23915923 0 37
4.5685863 -1.1168914 0.28150985 0 38
4.5718036 -1.1176779 0.32517639 0 39
4.5924973 -1.1227371 0.37036887 0 40
4.5700073 -1.1172388 0.41212431 0 41
4.5817666 -1.1201136 0.45693657 0 42
4.5960774 -1.1236122 0.50233048 0 43
4.5719628 -1.1177169 0.54351646 0 44
4.5835938 -1.1205603 0.5889256 0 45
4.5787411 -1.119374 0.63238305 0 46
4.5769229 -1.1189295 0.67630422 0 47
4.5885959 -1.1217831 0.72243112 0 48
4.5704546 -1.1173481 0.76392603 0 49
4.5866623 -1.1213105 0.81127661 0 50
4.5778174 -1.1191481 0.85440862 0 51
4.5895753 -1.1220226 0.90156418 0 52
4.5734344 -1.1180766 0.94335383 0 53
4.5860939 -1.1211715 0.99121648 0 54
4.5919404 -1.1226008 1.0379645 0 55
4.581265 -1.1199909 1.0811137 0 56
4.5823765 -1.1202627 1.127142 0 57
4.5646062 -1.1159184 1.1685603 0 58
4.5759411 -1.1186894 1.2175754 0 59
4.5665059 -1.1163828 1.2613027 0 60
4.5878944 -1.1216116 1.3138944 0 61
4.5678101 -1.1167016 1.3548608 0 62
4.5760617 -1.118719 1.4043598 0 63
2.3980072 -0.55508989 -0.73378062 0 0
2.4933572 -0.57716149 -0.73739535 0 1
2.5761583 -0.59632826 -0.73561203 0 2
2.6730249 -0.61875087 -0.73615205 0 3
2.7649291 -0.64002484 -0.73354828 0 4
2.869087 -0.66413528 -0.73235351 0 5
2.9886968 -0.69182253 -0.73299152 0 6
3.1187205 -0.72192037 -0.7338236 0 7
3.2700853 -0.75695819 -0.73701203 0 8
3.4311645 -0.79424483 -0.73942882 0 9
3.5673738 -0.82577443 -0.73368561 0 10
3.7515912 -0.86841702 -0.7347995 0 11
3.9463174 -0.9134922 -0.73439282 0 12
4.1734085 -0.96605915 -0.73602456 0 13
4.3913269 -1.0165029 -0.73184133 0 14
4.588017 -1.0620326 -0.72022945 0 15
4.5766296 -1.0593966 -0.67428499 0 16
4.57408 -1.0588064 -0.62989342 0 17
4.5880337 -1.0620365 -0.58777368 0 18
4.5679045 -1.057377 -0.5414474 0 19
4.5832524 -1.0609297 -0.4994652 0 20
4.5970612 -1.0641261 -0.45712236 0 21
4.5695481 -1.0577574 -0.4108789 0 22
4.5759354 -1.059236 -0.36795497 0 23
4.5717602 -1.0582694 -0.32422319 0 24
4.5893912 -1.0623507 -0.28196555 0 25
4.570672 -1.0580176 -0.23753259 0 26
4.5811744 -1.0604486 -0.19473642 0 27
4.5872684 -1.0618593 -0.1516289 0 28
4.5707641 -1.0580389 -0.10789843 0 29
4.5933032 -1.0632563 -0.065050952 0 30
4.5900278 -1.0624981 -0.021666968 0 31
4.5828586 -1.0608386 0.021633126 0 32
4.5891128 -1.0622863 0.064991616 0 33
4.5809255 -1.0603911 0.1081383 0 34
4.5846272 -1.0612479 0.15154162 0 35
4.5714707 -1.0582025 0.19432394 0 36
4.5822673 -1.0607016 0.23813516 0 37
4.5700641 -1.0578768 0.28077811 0 38
4.5688939 -1.057606 0.32401994 0 39
4.5767164 -1.0594167 0.36801773 0 40
4.572753 -1.0584992 0.41116706 0 41
4.5645514 -1.0566008 0.45388967 0 42
4.5816617 -1.0605615 0.49929184 0 43
4.5865788 -1.0616997 0.54366088 0 44
4.5725412 -1.0584502 0.58578891 0 45
4.5842414 -1.0611587 0.63129276 0 46
4.5780568 -1.059727 0.67449522 0 47
4.5898929 -1.0624669 0.72052395 0 48
4.5676742 -1.0573236 0.76123065 0 49
4.5773067 -1.0595534 0.80725634 0 50
4.5767674 -1.0594286 0.85171682 0 51
4.5840254 -1.0611086 0.89784288 0 52
4.5801449 -1.0602103 0.94197768 0 53
4.5793004 -1.060015 0.9868564 0 54
4.5740471 -1.0587988 1.0308989 0 55
4.5689607 -1.0576215 1.0750598 0 56
4.5754619 -1.0591264 1.1221529 0 57
4.5862198 -1.0616165 1.170663 0 58
4.5720701 -1.0583413 1.212991 0 59
4.5747213 -1.058955 1.2598799 0 60
4.5799813 -1.0601724 1.307796 0 61
4.5688219 -1.0575893 1.3512015 0 62
4.5642281 -1.0565259 1.3966355 0 63
2.4054744 -0.52574307 -0.7340318 0 0
2.4976256 -0.54588377 -0.73661685 0 1
2.5824544 -0.56442398 -0.73537248 0 2
2.6769903 -0.58508587 -0.73520714 0 3
2.7792449 -0.60743481 -0.73530912 0 4
2.9039719 -0.63469523 -0.73921001 0 5
2.9913654 -0.65379608 -0.731619 0 6
3.1278331 -0.6836226 -0.73393434 0 7
3.2663894 -0.71390557 -0.73414499 0 8
3.4271488 -0.74904132 -0.73652279 0 9
3.5938981 -0.78548622 -0.73709863 0 10
3.7659016 -0.82307947 -0.73556447 0 11
3.9428802 -0.86176014 -0.73172587 0 12
4.1675506 -0.91086429 -0.7329607 0 13
4.427258 -0.96762633 -0.73579091 0 14
4.5821877 -1.0014879 -0.71732694 0 15
4.5844069 -1.0019729 -0.67356467 0 16
4.5953364 -1.0043616 -0.63107222 0 17
4.5700636 -0.99883801 -0.5838539 0 18
4.5771656 -1.0003903 -0.54104608 0 19
4.5871344 -1.002569 -0.49850708 0 20
4.5739655 -0.99969089 -0.45356914 0 21
4.591928 -1.0036167 -0.41175044 0 22
4.5915198 -1.0035275 -0.36818802 0 23
4.5698819 -0.99879837 -0.32319459 0 24
4.5823932 -1.0015328 -0.28075776 0 25
4.5916467 -1.0035553 -0.23796332 0 26
4.5725012 -0.99937075 -0.19383071 0 27
4.5776844 -1.0005037 -0.15089405 0 28
4.5827775 -1.0016168 -0.10788313 0 29
4.5817404 -1.0013901 -0.064707927 0 30
4.5917478 -1.0035774 -0.0216152 0 31
4.5753255 -0.99998814 0.021537894 0 32
4.6028028 -1.0059935 0.065005384 0 33
4.5795493 -1.0009112 0.10780713 0 34
4.5839229 -1.0018671 0.15109968 0 35
4.568325 -0.99845803 0.19365369 0 36
4.581718 -1.0013852 0.23744875 0 37
4.5714626 -0.99914378 0.28008804 0 38
4.5886669 -1.0029039 0.32452309 0 39
4.5992727 -1.005222 0.3688097 0 40
4.579195 -1.0008339 0.41060871 0 41
4.5816121 -1.0013621 0.4543274 0 42
4.5743799 -0.99978143 0.49712101 0 43
4.5743713 -0.99977952 0.54071581 0 44
4.5878143 -1.0027176 0.58612168 0 45
4.5870166 -1.0025433 0.62992966 0 46
4.5818701 -1.0014185 0.67319191 0 47
4.5939655 -1.0040621 0.71917075 0 48
4.5835767 -1.0017915 0.76177037 0 49
4.5684605 -0.99848765 0.80347008 0 50
4.5783129 -1.000641 0.84965044 0 51
4.5808644 -1.0011986 0.89474481 0 52
4.5730119 -0.99948245 0.93791217 0 53
4.5792985 -1.0008564 0.98412931 0 54
4.5808077 -1.0011863 1.0295702 0 55
4.5867257 -1.0024797 1.0762579 0 56
4.5667906 -0.99812269 1.1169317 0 57
4.5776362 -1.000493 1.1652435 0 58
4.5636516 -0.99743664 1.2074124 0 59
4.5650969 -0.99775243 1.2537557 0 60
4.5763569 -1.0002135 1.3031505 0 61
4.5693998 -0.99869299 1.3476387 0 62
4.5709591 -0.99903375 1.3948307 0 63
2.4193857 -0.49769607 -0.7363537 0 0
2.496815 -0.51362413 -0.73445952 0 1
2.5792856 -0.53058934 -0.73255688 0 2
2.6696489 -0.54917818 -0.73128104 0 3
2.7811573 -0.57211673 -0.73389828 0 4
2.8777912 -0.59199542 -0.73063743 0 5
3.0142269 -0.62006193 -0.73529005 0 6
3.1611311 -0.65028185 -0.73981541 0 7
3.2700658 -0.67269099 -0.73305678 0 8
3.4262938 -0.70482886 -0.7344209 0 9
3.5883167 -0.73815888 -0.73403674 0 10
3.7832487 -0.77825874 -0.73702782 0 11
3.984236 -0.81960416 -0.73747462 0 12
4.170599 -0.85794121 -0.73158616 0 13
4.4269795 -0.91068172 -0.73382807 0 14
4.5781698 -0.94178331 -0.71483099 0 15
4.5865898 -0.94351542 -0.67212999 0 16
4.5662174 -0.93932456 -0.62543982 0 17
4.5866241 -0.94352251 -0.58444321 0 18
4.5808711 -0.942339 -0.54007357 0 19
4.5850134 -0.94319105 -0.49697858 0 20
4.5831714 -0.94281226 -0.45329815 0 21
4.5797172 -0.94210166 -0.4095858 0 22
4.5655251 -0.93918216 -0.36514986 0 23
4.5811625 -0.94239897 -0.3231484 0 24
4.5837331 -0.94292778 -0.28010827 0 25
4.5767288 -0.9414869 -0.23657233 0 26
4.5808697 -0.94233876 -0.19367963 0 27
4.5859385 -0.94338137 -0.15077235 0 28
4.574935 -0.94111788 -0.10741796 0 29
4.5793643 -0.942029 -0.064505897 0 30
4.5769143 -0.9415251 -0.02148925 0 31
4.5744019 -0.94100821 0.021477453 0 32
4.5837326 -0.94292766 0.064567424 0 33
4.5754046 -0.94121444 0.10742898 0 34
4.5671678 -0.93952 0.15015522 0 35
4.5842972 -0.94304377 0.19382453 0 36
4.5860734 -0.9434092 0.23705535 0 37
4.5849724 -0.94318271 0.280184 0 38
4.5704079 -0.94018662 0.32238978 0 39
4.5854673 -0.94328451 0.36674482 0 40
4.577652 -0.94167686 0.40940112 0 41
4.5808034 -0.94232506 0.45306391 0 42
4.5914154 -0.94450814 0.49767256 0 43
4.5685058 -0.93979526 0.5386157 0 44
4.5932055 -0.94487637 0.58528185 0 45
4.5824032 -0.94265419 0.62765682 0 46
4.5919614 -0.94462037 0.67291713 0 47
4.5890403 -0.9440195 0.7165283 0 48
4.5913019 -0.94448477 0.76106656 0 49
4.5731697 -0.94075477 0.80220318 0 50
4.5804749 -0.94225752 0.84783733 0 51
4.5760255 -0.94134218 0.89147139 0 52
4.5905828 -0.94433677 0.93906331 0 53
4.5666399 -0.93941146 0.97885233 0 54
4.5883098 -0.94386923 1.0285701 0 55
4.5843387 -0.94305235 1.0728958 0 56
4.5885587 -0.94392043 1.1193322 0 57
4.5783529 -0.94182098 1.1623901 0 58
4.5741253 -0.94095129 1.2070309 0 59
4.5844083 -0.9430666 1.2557796 0 60
4.5891633 -0.94404483 1.3033931 0 61
4.5776539 -0.94167721 1.3465562 0 62
4.5956368 -0.94537646 1.398708 0 63
2.4189069 -0.46667308 -0.73440593 0 0
2.513799 -0.48498037 -0.73764557 0 1
2.5916123 -0.49999267 -0.73425615 0 2
2.6860745 -0.51821697 -0.73397934 0 3
2.7723496 -0.5348618 -0.72978342 0 4
2.8942478 -0.55837929 -0.73301697 0 5
3.0264299 -0.58388084 -0.73645973 0 6
3.1447096 -0.60670018 -0.73417068 0 7
3.2717454 -0.6312089 -0.73163801 0 8
3.4541261 -0.66639513 -0.7385745 0 9
3.5885117 -0.69232172 -0.73227984 0 10
3.7698367 -0.72730428 -0.73261732 0 11
3.9980371 -0.77133036 -0.73821783 0 12
4.2261596 -0.81534147 -0.73951781 0 13
4.4263477 -0.85396314 -0.73192734 0 14
4.5773144 -0.88308877 -0.71294808 0 15
4.5780315 -0.88322711 -0.66923368 0 16
4.583024 -0.88419026 -0.62620533 0 17
4.5936294 -0.88623631 -0.58390307 0 18
4.5754952 -0.88273776 -0.53811938 0 19
4.5782084 -0.8832612 -0.49502632 0 20
4.5752954 -0.88269925 -0.45141152 0 21
4.5823307 -0.88405651 -0.4088164 0 22
4.5877757 -0.88510698 -0.36603129 0 23
4.592783 -0.88607299 -0.32317507 0 24
4.5818734 -0.88396835 -0.27930927 0 25
4.5668445 -0.88106883 -0.23548359 0 26
4.5689669 -0.88147831 -0.19270353 0 27
4.5857162 -0.88470972 -0.15039602 0 28
4.5892739 -0.88539612 -0.10749087 0 29
4.5693069 -0.88154387 -0.064206675 0 30
4.5913477 -0.88579619 -0.021504251 0 31
4.5836167 -0.88430464 0.021468041 0 32
4.5920448 -0.88593066 0.064526185 0 33
4.5800009 -0.88360703 0.10727368 0 34
4.5786643 -0.88334918 0.15016474 0 35
4.5810914 -0.88381743 0.19321491 0 36
4.5817699 -0.88394833 0.2362532 0 37
4.5795622 -0.88352239 0.27916837 0 38
4.5845423 -0.88448316 0.32259521 0 39
4.572814 -0.88222051 0.36483762 0 40
4.5750122 -0.88264465 0.40816349 0 41
4.5935221 -0.88621563 0.45320979 0 42
4.5776553 -0.88315451 0.49496654 0 43
4.5792727 -0.88346654 0.53856361 0 44
4.5788274 -0.88338065 0.58202159 0 45
4.5853596 -0.88464087 0.62652445 0 46
4.5698867 -0.88165575 0.66804302 0 47
4.576972 -0.88302267 0.71289474 0 48
4.576313 -0.88289559 0.75672519 0 49
4.5789323 -0.88340092 0.80124801 0 50
4.5808649 -0.88377368 0.84583402 0 51
4.585691 -0.88470483 0.8911677 0 52
4.5847893 -0.88453084 0.93558252 0 53
4.5733089 -0.88231599 0.97788244 0 54
4.5713091 -0.88193017 1.0222507 0 55
4.5803022 -0.88366514 1.0693272 0 56
4.5843043 -0.88443732 1.1155572 0 57
4.5778708 -0.88319606 1.1594228 0 58
4.5805244 -0.883708 1.2057608 0 59
4.579411 -0.88349319 1.2513403 0 60
4.5851407 -0.88459861 1.2990631 0 61
4.5746665 -0.8825779 1.3423836 0 62
4.5729136 -0.88223976 1.3883854 0 63
2.4292593 -0.43776053 -0.7358591 0 0
2.507261 -0.45181668 -0.73404133 0 1
2.608732 -0.4701021 -0.73741305 0 2
2.703831 -0.48723924 -0.73713857 0 3
2.8051467 -0.50549668 -0.73672491 0 4
2.9267759 -0.52741468 -0.73955685 0 5
3.0136356 -0.54306704 -0.73166597 0 6
3.1373603 -0.56536263 -0.73077661 0 7
3.3088911 -0.59627306 -0.73824924 0 8
3.453552 -0.62234145 -0.73675972 0 9
3.6168582 -0.65176976 -0.73637319 0 10
3.7731736 -0.67993832 -0.73158568 0 11
3.9816914 -0.71751392 -0.73351508 0 12
4.2172055 -0.75995433 -0.73626006 0 13
4.4336181 -0.79895258 -0.73144978 0 14
4.5849094 -0.82621574 -0.71249473 0 15
4.5777764 -0.82493037 -0.6676631 0 16
4.5791426 -0.8251766 -0.62424141 0 17
4.5848784 -0.82621014 -0.58145535 0 18
4.5698972 -0.82351047 -0.53622949 0 19
4.5756254 -0.82454276 -0.49361342 0 20
4.575841 -0.82458162 -0.4504309 0 21
4.5926476 -0.82761019 -0.40879801 0 22
4.5948 -0.8279981 -0.36575177 0 23
4.5779762 -0.82496637 -0.32139507 0 24
4.5773211 -0.82484835 -0.2783924 0 25
4.5783429 -0.82503247 -0.23553556 0 26
4.5790305 -0.82515639 -0.19268547 0 27
4.5691476 -0.82337546 -0.14950927 0 28
4.5801034 -0.82534975 -0.10703028 0 29
4.5728326 -0.82403946 -0.06410899 0 30
4.5964284 -0.82829154 -0.021478718 0 31
4.572896 -0.8240509 0.021368755 0 32
4.5901885 -0.82716709 0.064352311 0 33
4.5795789 -0.82525522 0.10701802 0 34
4.5869932 -0.82659131 0.1500932 0 35
4.5835576 -0.82597214 0.19287597 0 36
4.5726476 -0.82400614 0.23524256 0 37
4.5815024 -0.82560182 0.27864671 0 38
4.5870271 -0.82659739 0.32203051 0 39
4.5696621 -0.82346821 0.36375076 0 40
4.5711141 -0.82372981 0.4068813 0 41
4.5662479 -0.82285285 0.44948655 0 42
4.5796347 -0.82526523 0.49404594 0 43
4.5866885 -0.82653636 0.53819978 0 44
4.5739217 -0.82423574 0.58006585 0 45
4.5747938 -0.82439291 0.62364858 0 46
4.5832953 -0.82592487 0.668468 0 47
4.5936489 -0.82779068 0.71385288 0 48
4.5909848 -0.82731056 0.75741178 0 49
4.5822744 -0.82574093 0.79999554 0 50
4.5794964 -0.82524037 0.84364396 0 51
4.5606418 -0.82184267 0.88426894 0 52
4.5850024 -0.82623249 0.93348217 0 53
4.5804324 -0.825409 0.97716153 0 54
4.5795393 -0.82524806 1.0217446 0 55
4.5751081 -0.82444954 1.0656673 0 56
4.5808802 -0.8254897 1.1121697 0 57
4.571135 -0.82373357 1.1550642 0 58
4.5753827 -0.82449901 1.2016478 0 59
4.5705466 -0.82362753 1.2460564 0 60
4.579227 -0.8251918 1.294415 0 61
4.5780206 -0.82497436 1.3402897 0 62
4.5882158 -0.82681161 1.3898395 0 63
2.4229288 -0.40592682 -0.73237419 0 0
2.5100782 -0.4205274 -0.73329669 0 1
2.6073549 -0.43682474 -0.73544985 0 2
2.6936369 -0.45128003 -0.73279107 0 3
2.7924864 -0.46784085 -0.73183364 0 4
2.9120433 -0.4878709 -0.7342627 0 5
3.0322077 -0.5080027 -0.73460293 0 6
3.1605999 -0.52951294 -0.73461765 0 7
3.2887208 -0.55097777 -0.73218209 0 8
3.4608061 -0.57980818 -0.73673058 0 9
3.6208763 -0.60662562 -0.73561692 0 10
3.8035645 -0.63723242 -0.73590332 0 11
3.9903731 -0.66852951 -0.73354459 0 12
4.2121072 -0.70567781 -0.73379952 0 13
4.4837232 -0.75118321 -0.73813629 0 14
4.5741644 -0.76633537 -0.70930701 0 15
4.5769157 -0.76679623 -0.66611201 0 16
4.5953813 -0.76988989 -0.62511724 0 17
4.5866551 -0.76842797 -0.58043855 0 18
4.5869427 -0.76847613 -0.53708023 0 19
4.5869832 -0.76848292 -0.49378198 0 20
4.5849915 -0.7681492 -0.45036781 0 21
4.5876989 -0.76860285 -0.40748546 0 22
4.573626 -0.76624513 -0.36328882 0 23
4.5848017 -0.76811743 -0.3211869 0 24
4.5726914 -0.76608849 -0.27751693 0 25
4.5796952 -0.76726192 -0.235102 0 26
4.5801606 -0.76733994 -0.19232145 0 27
4.5780115 -0.76697987 -0.1494794 0 28
4.5764647 -0.76672065 -0.10671686 0 29
4.5908508 -0.76913089 -0.064224154 0 30
4.5939002 -0.76964176 -0.021421062 0 31
4.5787964 -0.7671113 0.021350633 0 32
4.5785298 -0.76706666 0.064051785 0 33
4.5715451 -0.7658965 0.10660215 0 34
4.5664191 -0.76503772 0.1491009 0 35
4.5807343 -0.76743597 0.19234551 0 36
4.5737662 -0.76626855 0.23479763 0 37
4.5776324 -0.76691633 0.2778168 0 38
4.5742207 -0.76634473 0.32044566 0 39
4.5670204 -0.76513845 0.36276412 0 40
4.5810962 -0.76749665 0.40689901 0 41
4.5686722 -0.76541519 0.44876483 0 42
4.5809321 -0.76746917 0.49313056 0 43
4.5773692 -0.76687223 0.53595924 0 44
4.582109 -0.76766634 0.57986325 0 45
4.5872583 -0.76852906 0.62401235 0 46
4.5901294 -0.76901001 0.66803509 0 47
4.5829964 -0.76781499 0.71067655 0 48
4.5706787 -0.7657513 0.75245142 0 49
4.5765867 -0.76674116 0.79729629 0 50
4.5726361 -0.76607925 0.84058112 0 51
4.586009 -0.76831973 0.88728857 0 52
4.5932999 -0.76954114 0.93317443 0 53
4.5871062 -0.76850355 0.97649544 0 54
4.5754375 -0.76654863 1.0186495 0 55
4.5842485 -0.76802474 1.065516 0 56
4.5872316 -0.76852453 1.1113334 0 57
4.5725374 -0.7660628 1.1529512 0 58
4.5712943 -0.76585448 1.1980102 0 59
4.5819497 -0.76763964 1.2464976 0 60
4.5781531 -0.7670036 1.2913479 0 61
4.5776682 -0.7669223 1.3373245 0 62
4.5796509 -0.76725447 1.3842825 0 63
2.4417162 -0.37827057 -0.73659128 0 0
2.5275719 -0.39157137 -0.73694503 0 1
2.6068997 -0.40386084 -0.7338652 0 2
2.6991243 -0.41814825 -0.73282975 0 3
2.7921786 -0.43256423 -0.73030382 0 4
2.9114361 -0.45103958 -0.73265576 0 5
3.0381882 -0.470676 -0.73459411 0 6
3.1653423 -0.49037474 -0.73426288 0 7
3.307996 -0.5124746 -0.73501492 0 8
3.4550266 -0.53525263 -0.73404366 0 9
3.6218481 -0.56109661 -0.73435718 0 10
3.8157706 -0.59113902 -0.73680282 0 11
4.0336742 -0.62489665 -0.74003607 0 12
4.2086873 -0.65200967 -0.73175174 0 13
4.4703469 -0.69254595 -0.73447675 0 14
4.5615005 -0.70666748 -0.70594239 0 15
4.571887 -0.70827663 -0.66406244 0 16
4.5851092 -0.71032494 -0.62248474 0 17
4.5786338 -0.7093218 -0.57827592 0 18
4.5856137 -0.71040308 -0.53586125 0 19
4.5686655 -0.7077775 -0.49083608 0 20
4.5878177 -0.71074456 -0.44975296 0 21
4.574676 -0.7087087 -0.40552408 0 22
4.5885925 -0.7108646 -0.36375579 0 23
4.584619 -0.71024901 -0.32053804 0 24
4.5779791 -0.70922041 -0.2772876 0 25
4.5800743 -0.70954496 -0.23465583 0 26
4.5891142 -0.71094543 -0.19231579 0 27
4.5652657 -0.70725077 -0.14876802 0 28
4.5712352 -0.70817554 -0.10638382 0 29
4.5679169 -0.70766151 -0.063776761 0 30
4.5645957 -0.707147 -0.021242265 0 31
4.5760593 -0.70892292 0.021295613 0 32
4.5712919 -0.70818442 0.063823886 0 33
4.5979347 -0.71231186 0.10700518 0 34
4.5759516 -0.70890623 0.14911623 0 35
4.5764937 -0.70899028 0.19178689 0 36
4.5891762 -0.71095502 0.23512214 0 37
4.5856123 -0.71040291 0.27774996 0 38
4.5657024 -0.70731848 0.31921548 0 39
4.5800428 -0.70954013 0.36307806 0 40
4.5970125 -0.71216905 0.40750408 0 41
4.566587 -0.70745552 0.44767168 0 42
4.5789456 -0.70937008 0.49194053 0 43
4.5813599 -0.70974416 0.53536421 0 44
4.5787501 -0.70933986 0.57829064 0 45
4.5868378 -0.71059275 0.62271941 0 46
4.5766535 -0.70901501 0.66475475 0 47
4.5764604 -0.70898509 0.70825762 0 48
4.5573378 -0.70602262 0.74876934 0 49
4.5790162 -0.70938098 0.79613966 0 50
4.5768323 -0.70904267 0.83968627 0 51
4.5879302 -0.71076202 0.88590235 0 52
4.5781579 -0.70924807 0.92825621 0 53
4.5906587 -0.71118468 0.97531629 0 54
4.5933948 -0.71160853 1.020622 0 55
4.5816975 -0.70979643 1.0628141 0 56
4.5966382 -0.712111 1.1114068 0 57
4.5861034 -0.71047902 1.1540817 0 58
4.5855341 -0.71039075 1.199362 0 59
4.5734873 -0.70852447 1.2417314 0 60
4.5827346 -0.70995706 1.2900801 0 61
4.5894227 -0.71099317 1.3381032 0 62
4.5788345 -0.70935285 1.3812947 0 63
2.4434519 -0.34783101 -0.73576897 0 0
2.5146265 -0.35796291 -0.73183197 0 1
2.6194196 -0.37288046 -0.73604327 0 2
2.7271821 -0.3882207 -0.73909569 0 3
2.8342497 -0.40346202 -0.73995417 0 4
2.9153733 -0.41501012 -0.73230696 0 5
3.0393097 -0.43265277 -0.73352349 0 6
3.1719716 -0.45153752 -0.73445719 0 7
3.3143098 -0.47179967 -0.73507315 0 8
3.4723091 -0.49429125 -0.73636848 0 9
3.6194196 -0.51523274 -0.73252481 0 10
3.8014381 -0.54114354 -0.73269504 0 11
4.0164876 -0.5717563 -0.73553741 0 12
4.2304673 -0.60221678 -0.73419553 0 13
4.4717574 -0.63656503 -0.73336703 0 14
4.5861974 -0.65285581 -0.70846856 0 15
4.5862846 -0.65286827 -0.66493738 0 16
4.5743642 -0.65117133 -0.619892 0 17
4.5825825 -0.65234119 -0.57771784 0 18
4.5861692 -0.65285182 -0.53494769 0 19
4.578527 -0.65176392 -0.4909974 0 20
4.5830173 -0.65240312 -0.44846201 0 21
4.5781426 -0.6517092 -0.40509036 0 22
4.5885477 -0.65319037 -0.36308807 0 23
4.5656929 -0.64993697 -0.31863198 0 24
4.5740204 -0.65112239 -0.27654195 0 25
4.5841136 -0.65255916 -0.23443393 0 26
4.5794868 -0.65190059 -0.19156191 0 27
4.5825438 -0.6523357 -0.1490584 0 28
4.5682001 -0.65029389 -0.10611907 0 29
4.5870743 -0.65298063 -0.063927293 0 30
4.5750723 -0.65127218 -0.021252146 0 31
4.584425 -0.65260351 0.021295588 0 32
4.5805569 -0.65205288 0.063836463 0 33
4.5761957 -0.65143204 0.1063048 0 34
4.5801382 -0.65199327 0.14898016 0 35
4.5796947 -0.65193015 0.19157061 0 36
4.5886426 -0.65320385 0.23466554 0 37
4.6020269 -0.65510923 0.27823523 0 38
4.5967226 -0.6543541 0.32079747 0 39
4.5772309 -0.65157944 0.36219257 0 40
4.5828514 -0.65237951 0.405507 0 41
4.5759206 -0.65139288 0.44776759 0 42
4.5725551 -0.65091383 0.49035701 0 43
4.5786209 -0.65177733 0.53406721 0 44
4.5777941 -0.65165955 0.57711416 0 45
4.5732398 -0.65101123 0.61973965 0 46
4.5726376 -0.65092552 0.66295868 0 47
4.5704761 -0.65061784 0.70603997 0 48
4.576376 -0.65145773 0.75052446 0 49
4.5850964 -0.65269911 0.79574126 0 50
4.598423 -0.65459621 0.84210706 0 51
4.5724573 -0.65089989 0.88130254 0 52
4.5796413 -0.65192252 0.92686152 0 53
4.5860848 -0.65283978 0.97256553 0 54
4.5819087 -0.65224534 1.016211 0 55
4.5846334 -0.65263319 1.0615532 0 56
4.5708342 -0.65066886 1.1031499 0 57
4.5869188 -0.65295851 1.1521792 0 58
4.5840268 -0.65254682 1.1967785 0 59
4.5816994 -0.65221554 1.2416897 0 60
4.5788107 -0.65180427 1.2866219 0 61
4.5861988 -0.65285599 1.3347217 0 62
4.5840425 -0.65254909 1.3803409 0 63
2.4462759 -0.31759655 -0.73538786 0 0
2.5267985 -0.32805067 -0.73414487 0 1
2.6056182 -0.33828375 -0.73094106 0 2
2.7161777 -0.35263753 -0.73488259 0 3
2.8232653 -0.36654055 -0.73585397 0 4
2.9354017 -0.38109905 -0.73610508 0 5
3.061821 -0.3975119 -0.73772103 0 6
3.1690805 -0.41143724 -0.73256087 0 7
3.3151226 -0.43039769 -0.73402417 0 8
3.45699 -0.44881612 -0.73189402 0 9
3.6527674 -0.47423363 -0.73803794 0 10
3.8141277 -0.49518281 -0.73391181 0 11
4.0231128 -0.52231508 -0.73551899 0 12
4.2722545 -0.5546608 -0.74020809 0 13
4.4889016 -0.58278781 -0.73494786 0 14
4.5925446 -0.59624362 -0.70826298 0 15
4.5623665 -0.59232557 -0.66036361 0 16
4.5759225 -0.59408557 -0.61906642 0 17
4.5602102 -0.59204566 -0.57393628 0 18
4.5915041 -0.5961085 -0.53467447 0 19
4.5691361 -0.5932045 -0.48917112 0 20
4.5835996 -0.59508228 -0.44776911 0 21
4.5866117 -0.59547329 -0.40516117 0 22
4.580523 -0.59468287 -0.3618471 0 23
4.5672245 -0.5929563 -0.31820595 0 24
4.5743995 -0.59388787 -0.27610248 0 25
4.5743604 -0.5938828 -0.23354404 0 26
4.5824409 -0.59493184 -0.191365 0 27
4.574338 -0.59387982 -0.14854272 0 28
4.5899072 -0.59590113 -0.10644505 0 29
4.5682683 -0.59309185 -0.063558765 0 30
4.5634151 -0.59246176 -0.021162555 0 31
4.5774512 -0.59428406 0.021227645 0 32
4.5839877 -0.59513265 0.063777469 0 33
4.5882416 -0.59568495 0.10640643 0 34
4.5661902 -0.59282202 0.14827813 0 35
4.5895352 -0.59585285 0.19166125 0 36
4.5703216 -0.5933584 0.23333782 0 37
4.5818553 -0.59485579 0.2765525 0 38
4.5823312 -0.5949176 0.31925845 0 39
4.5722213 -0.59360504 0.36119127 0 40
4.5727024 -0.59366751 0.40393248 0 41
4.5966258 -0.59677345 0.44904166 0 42
4.5846262 -0.59521556 0.49082947 0 43
4.589107 -0.5957973 0.5343954 0 44
4.579298 -0.59452379 0.57633859 0 45
4.5901227 -0.59592915 0.62098753 0 46
4.5650487 -0.59267384 0.66075188 0 47
4.5839081 -0.59512228 0.70693099 0 48
4.5873532 -0.59556955 0.75106686 0 49
4.5818863 -0.59485984 0.79385465 0 50
4.5895905 -0.59586006 0.83908433 0 51
4.5822744 -0.59491026 0.8817181 0 52
4.5864167 -0.59544802 0.92668092 0 53
4.5793872 -0.59453541 0.96952152 0 54
4.5672359 -0.59295779 1.0112633 0 55
4.5787692 -0.59445512 1.0584229 0 56
4.5887241 -0.59574759 1.105616 0 57
4.5763965 -0.59414709 1.1476142 0 58
4.5847893 -0.59523672 1.1949764 0 59
4.5766525 -0.59418035 1.2382482 0 60
4.5841699 -0.59515631 1.2859743 0 61
4.5865712 -0.5954681 1.3325984 0 62
4.572062 -0.59358436 1.3744315 0 63
2.4571087 -0.28832889 -0.73752272 0 0
2.5187926 -0.29556718 -0.73070759 0 1
2.6183178 -0.30724594 -0.7333883 0 2
2.7199478 -0.3191717 -0.73478526 0 3
2.8256607 -0.33157656 -0.73536009 0 4
2.9344199 -0.34433886 -0.73474157 0 5
3.0644834 -0.35960114 -0.73724139 0 6
3.2032769 -0.37588784 -0.73934138 0 7
3.3094015 -0.38834101 -0.73164481 0 8
3.4758997 -0.4078787 -0.73478007 0 9
3.6393957 -0.42706412 -0.73421973 0 10
3.8077443 -0.44681895 -0.73157096 0 11
4.0292354 -0.47280976 -0.73551977 0 12
4.2649579 -0.50047058 -0.73782182 0 13
4.4832039 -0.52608061 -0.73290044 0 14
4.589613 -0.53856713 -0.70673603 0 15
4.5835276 -0.53785306 -0.6624192 0 16
4.5826035 -0.53774458 -0.61902893 0 17
4.5775332 -0.53714967 -0.57524174 0 18
4.5703187 -0.5363031 -0.53139937 0 19
4.5828838 -0.53777748 -0.48989794 0 20
4.5784307 -0.53725499 -0.44658506 0 21
4.5731807 -0.53663886 -0.40336132 0 22
4.5824041 -0.53772128 -0.36144605 0 23
4.5796466 -0.53739762 -0.31858692 0 24
4.589232 -0.53852242 -0.27657714 0 25
4.5761805 -0.53699094 -0.23328221 0 26
4.5781746 -0.53722495 -0.19089654 0 27
4.5774641 -0.5371415 -0.14841853 0 28
4.5862393 -0.53817123 -0.10619849 0 29
4.5844493 -0.53796124 -0.063687041 0 30
4.5885429 -0.5384416 -0.021246772 0 31
4.5793695 -0.53736514 0.021204296 0 32
4.5578485 -0.53483975 0.063317508 0 33
4.60532 -0.54041028 0.10664032 0 34
4.5767145 -0.53705359 0.14839423 0 35
4.5842757 -0.53794086 0.19115093 0 36
4.5642128 -0.53558654 0.23267211 0 37
4.5908847 -0.53871638 0.27667677 0 38
4.5824428 -0.53772575 0.31878147 0 39
4.58638 -0.5381878 0.36175966 0 40
4.593771 -0.53905505 0.40517744 0 41
4.5789094 -0.53731114 0.4466317 0 42
4.5753284 -0.53689092 0.48909029 0 43
4.5615115 -0.53526962 0.53037536 0 44
4.5728889 -0.5366047 0.5746581 0 45
4.5755444 -0.53691626 0.61807537 0 46
4.5739832 -0.53673309 0.66103983 0 47
4.5695319 -0.53621072 0.70364386 0 48
4.5723543 -0.53654194 0.74747449 0 49
4.5863142 -0.53818005 0.79341531 0 50
4.5770006 -0.53708714 0.83551198 0 51
4.5944552 -0.5391354 0.88271952 0 52
4.5747123 -0.53681862 0.92291254 0 53
4.5756779 -0.53693193 0.96726525 0 54
4.5736132 -0.53668964 1.0111376 0 55
4.5786138 -0.53727645 1.05678 0 56
4.5792065 -0.53734601 1.1016475 0 57
4.5703731 -0.53630942 1.1443635 0 58
4.5756693 -0.53693092 1.1907886 0 59
4.556613 -0.53469473 1.2309544 0 60
4.5757651 -0.53694218 1.2816675 0 61
4.5635524 -0.53550911 1.3238972 0 62
4.5694633 -0.53620267 1.3715645 0 63
2.4522545 -0.25723404 -0.73506075 0 0
2.535151 -0.26592964 -0.73444909 0 1
2.6262996 -0.27549085 -0.73461962 0 2
2.7331545 -0.28669959 -0.73734486 0 3
2.8126686 -0.29504037 -0.73097956 0 4
2.9333515 -0.30769965 -0.73347127 0 5
3.0729718 -0.32234538 -0.7382741 0 6
3.1899452 -0.33461553 -0.73525906 0 7
3.3092883 -0.34713426 -0.73062086 0 8
3.4800453 -0.36504617 -0.73465204 0 9
3.649708 -0.38284326 -0.73529476 0 10
3.851963 -0.4040592 -0.73905617 0 11
4.0182543 -0.42150265 -0.73251373 0 12
4.2622294 -0.44709486 -0.73634303 0 13
4.49228 -0.47122651 -0.73338151 0 14
4.5833426 -0.48077866 -0.70480686 0 15
4.5749841 -0.47990191 -0.66028172 0 16
4.5759978 -0.48000824 -0.61729264 0 17
4.5768595 -0.48009863 -0.57437176 0 18
4.5754442 -0.47995016 -0.53126895 0 19
4.5788078 -0.48030302 -0.48879397 0 20
4.5885849 -0.48132861 -0.44696441 0 21
4.5684547 -0.47921702 -0.40239438 0 22
4.5860705 -0.48106483 -0.36124134 0 23
4.5774832 -0.48016405 -0.31800166 0 24
4.5823174 -0.48067117 -0.27578339 0 25
4.5629435 -0.47863889 -0.23228982 0 26
4.5819836 -0.48063612 -0.1907945 0 27
4.5677772 -0.47914591 -0.14790224 0 28
4.5687523 -0.4792482 -0.10564912 0 29
4.5876827 -0.48123392 -0.063644946 0 30
4.5808892 -0.48052132 -0.021182369 0 31
4.5766449 -0.4800761 0.021162745 0 32
4.583302 -0.4807744 0.063584171 0 33
4.5787544 -0.48029739 0.10588041 0 34
4.5752392 -0.47992867 0.14814386 0 35
4.5960736 -0.48211411 0.1913812 0 36
4.57622 -0.48003158 0.23296571 0 37
4.5782576 -0.48024526 0.27553904 0 38
4.5680408 -0.47917357 0.31734568 0 39
4.5835133 -0.48079661 0.36103994 0 40
4.581861 -0.48062328 0.40357518 0 41
4.5824299 -0.48068294 0.44636485 0 42
4.5824571 -0.48068577 0.48918349 0 43
4.578382 -0.48025832 0.53161007 0 44
4.5738921 -0.47978735 0.57399935 0 45
4.5888939 -0.481361 0.61903232 0 46
4.5721741 -0.47960714 0.65987617 0 47
4.5851941 -0.48097292 0.7050916 0 48
4.5850735 -0.48096025 0.74853039 0 49
4.5803723 -0.48046711 0.79130548 0 50
4.5857944 -0.48103589 0.83597434 0 51
4.5674729 -0.479114 0.87633729 0 52
4.5828538 -0.4807274 0.92329264 0 53
4.5749106 -0.47989419 0.96578264 0 54
4.5675273 -0.47911969 1.0084133 0 55
4.5734315 -0.47973904 1.0541425 0 56
4.5678225 -0.47915068 1.0974084 0 57
4.5827541 -0.48071697 1.1458969 0 58
4.5706053 -0.47944257 1.1878467 0 59
4.5857849 -0.48103487 1.2371438 0 60
4.5792527 -0.48034969 1.2808931 0 61
4.5597949 -0.47830862 1.3210011 0 62
4.5684285 -0.47921422 1.3693817 0 63
2.4616139 -0.22765301 -0.73697144 0 0
2.5321858 -0.23417959 -0.73270041 0 1
2.6247852 -0.24274328 -0.73330563 0 2
2.7232511 -0.2518495 -0.73378217 0 3
2.8396468 -0.26261392 -0.73709589 0 4
2.9267054 -0.27066523 -0.73092192 0 5
3.0490162 -0.28197667 -0.7316305 0 6
3.2115111 -0.2970044 -0.7393322 0 7
3.3362727 -0.30854249 -0.73568517 0 8
3.4802384 -0.32185662 -0.73380178 0 9
3.65802 -0.33829808 -0.7360757 0 10
3.855577 -0.35656837 -0.73885244 0 11
4.0255837 -0.37229082 -0.73295999 0 12
4.2605624 -0.3940219 -0.73516244 0 13
4.5324149 -0.41916314 -0.73903632 0 14
4.5849628 -0.42402285 -0.70420104 0 15
4.586925 -0.42420432 -0.66120225 0 16
4.575706 -0.42316675 -0.61650473 0 17
4.5894947 -0.42444196 -0.57525891 0 18
4.5829744 -0.42383897 -0.53149801 0 19
4.578577 -0.42343229 -0.48817658 0 20
4.5802088 -0.42358318 -0.44560742 0 21
4.5778127 -0.4233616 -0.40272963 0 22
4.5923038 -0.42470175 -0.36129367 0 23
4.5798864 -0.42355338 -0.31778276 0 24
4.5748973 -0.42309195 -0.2750029 0 25
4.5843525 -0.42396638 -0.23309667 0 26
4.5699182 -0.42263153 -0.19006133 0 27
4.5860806 -0.42412624 -0.14831482 0 28
4.5892138 -0.42441601 -0.10599359 0 29
4.5651011 -0.42218602 -0.06325487 0 30
4.5778375 -0.42336389 -0.021142589 0 31
4.5784755 -0.4234229 0.021145536 0 32
4.5717859 -0.42280424 0.063347496 0 33
4.5756111 -0.42315799 0.10567942 0 34
4.5814648 -0.42369932 0.14816552 0 35
4.5829539 -0.42383707 0.19060348 0 36
4.576189 -0.42321146 0.23268162 0 37
4.5776372 -0.42334536 0.27516758 0 38
4.5807633 -0.4236345 0.31784362 0 39
4.5627503 -0.42196861 0.35896856 0 40
4.5812078 -0.4236756 0.40302831 0 41
4.5766439 -0.42325351 0.44526061 0 42
4.5923738 -0.42470822 0.48964763 0 43
4.5753498 -0.42313385 0.53061378 0 44
4.5844121 -0.42397195 0.57462192 0 45
4.581255 -0.42367995 0.61725241 0 46
4.5759196 -0.42318651 0.65961581 0 47
4.586421 -0.42415768 0.70442498 0 48
4.5737672 -0.42298746 0.7457791 0 49
4.5765185 -0.42324191 0.78968084 0 50
4.5753436 -0.42313325 0.8330577 0 51
4.5762796 -0.42321983 0.87696224 0 52
4.5821414 -0.42376193 0.92202961 0 53
4.5797129 -0.42353731 0.96562397 0 54
4.5727663 -0.42289487 1.0083457 0 55
4.5798111 -0.4235464 1.0543329 0 56
4.5878744 -0.42429212 1.1008891 0 57
4.5793104 -0.42350009 1.1436472 0 58
4.5789986 -0.42347127 1.1885848 0 59
4.5724525 -0.42286587 1.232051 0 60
4.5822611 -0.42377296 1.2801801 0 61
4.5866528 -0.42417914 1.3271705 0 62
4.583827 -0.42391783 1.3723311 0 63
2.4545636 -0.19659495 -0.73408145 0 0
2.5338626 -0.20294628 -0.73240811 0 1
2.640554 -0.21149158 -0.73692882 0 2
2.7374849 -0.21925513 -0.73683536 0 3
2.8433897 -0.22773744 -0.73728484 0 4
2.9622881 -0.23726045 -0.73902398 0 5
3.0617948 -0.2452303 -0.73391771 0 6
3.1971583 -0.25607204 -0.73524749 0 7
3.3510027 -0.26839402 -0.7381497 0 8
3.4713886 -0.27803618 -0.73115969 0 9
3.645118 -0.29195079 -0.73270178 0 10
3.8573387 -0.30894831 -0.73840624 0 11
4.0344739 -0.3231357 -0.7337997 0 12
4.2651272 -0.34160957 -0.73516971 0 13
4.498507 -0.36030179 -0.73272961 0 14
4.581686 -0.36696395 -0.70295161 0 15
4.5760694 -0.36651406 -0.65893793 0 16
4.5773883 -0.36661971 -0.61607742 0 17
4.5810633 -0.36691403 -0.5735932 0 18
4.5838814 -0.36713976 -0.53103948 0 19
4.5593286 -0.36517322 -0.48560879 0 20
4.572927 -0.36626238 -0.44442722 0 21
4.581995 -0.36698866 -0.40267012 0 22
4.5872154 -0.36740679 -0.36051065 0 23
4.5909829 -0.36770853 -0.31821492 0 24
4.5890975 -0.36755753 -0.27556399 0 25
4.5751019 -0.3664366 -0.23237966 0 26
4.5836139 -0.36711833 -0.19042878 0 27
4.5876284 -0.3674399 -0.14820755 0 28
4.5738473 -0.36633611 -0.10552666 0 29
4.5765877 -0.3665556 -0.063346788 0 30
4.5825772 -0.3670353 -0.021142038 0 31
4.5914288 -0.36774424 0.021182872 0 32
4.5881538 -0.36748198 0.063506879 0 33
4.5808835 -0.36689964 0.10568899 0 34
4.5789452 -0.3667444 0.14792702 0 35
4.5700717 -0.3660337 0.18986617 0 36
4.5835714 -0.36711493 0.23280984 0 37
4.5812325 -0.36692759 0.27509171 0 38
4.5874443 -0.36742511 0.31796962 0 39
4.5678892 -0.36585888 0.3589918 0 40
4.5856295 -0.36727977 0.40298951 0 41
4.5695882 -0.36599499 0.44410276 0 42
4.5792837 -0.36677152 0.4877342 0 43
4.573441 -0.36630356 0.52982998 0 44
4.5923457 -0.36781767 0.57500589 0 45
4.5867858 -0.36737239 0.61734229 0 46
4.572824 -0.36625412 0.65847063 0 47
4.5789127 -0.36674181 0.70252603 0 48
4.5859938 -0.36730894 0.74697971 0 49
4.5758481 -0.36649632 0.78872794 0 50
4.5765982 -0.36655644 0.83240253 0 51
4.5808759 -0.36689904 0.87691218 0 52
4.5787077 -0.36672539 0.9203617 0 53
4.5735745 -0.36631426 0.96330714 0 54
4.5818162 -0.36697435 1.0092701 0 55
4.5889764 -0.36754784 1.0553226 0 56
4.5777473 -0.36664847 1.0972942 0 57
4.5747328 -0.36640701 1.1412925 0 58
4.5971026 -0.36819872 1.1920189 0 59
4.5736432 -0.36631975 1.231065 0 60
4.5670972 -0.36579546 1.2745907 0 61
4.5780153 -0.36666995 1.3232666 0 62
4.5919237 -0.3677839 1.3732973 0 63
2.4560285 -0.16634795 -0.73385227 0 0
2.5264592 -0.17111826 -0.72960478 0 1
2.6193397 -0.1774091 -0.7303443 0 2
2.7447927 -0.1859061 -0.73813123 0 3
2.8384101 -0.19224684 -0.7353251 0 4
2.9617186 -0.20059857 -0.73821068 0 5
3.0588262 -0.20717572 -0.73254007 0 6
3.1918397 -0.21618479 -0.73335761 0 7
3.3375347 -0.22605278 -0.73451519 0 8
3.4993272 -0.23701106 -0.73637474 0 9
3.6591737 -0.24783754 -0.73485887 0 10
3.8415613 -0.26019076 -0.73471797 0 11
4.0575881 -0.27482235 -0.73733336 0 12
4.2497849 -0.28783992 -0.7318598 0 13
4.4939542 -0.30437762 -0.73132318 0 14
4.5905604 -0.3109208 -0.70367336 0 15
4.571156 -0.30960655 -0.65763259 0 16
4.5766048 -0.30997556 -0.61541241 0 17
4.5626602 -0.3090311 -0.57077003 0 18
4.5817876 -0.31032661 -0.53031474 0 19
4.5815058 -0.31030753 -0.48752758 0 20
4.5782785 -0.31008896 -0.44454315 0 21
4.5973916 -0.31138349 -0.40365621 0 22
4.5887685 -0.31079945 -0.36030513 0 23
4.5878201 -0.3107352 -0.31770685 0 24
4.5856886 -0.31059083 -0.27510917 0 25
4.5763555 -0.3099587 -0.23223218 0 26
4.5858636 -0.31060269 -0.19034919 0 27
4.5955377 -0.3112579 -0.14832819 0 28
4.5857329 -0.31059384 -0.10570478 0 29
4.5870175 -0.31068084 -0.063433476 0 30
4.5940485 -0.31115705 -0.021175709 0 31
4.5706749 -0.30957392 0.02106797 0 32
4.5745234 -0.30983463 0.063260697 0 33
4.5686603 -0.30943748 0.10531123 0 34
4.5716414 -0.30963939 0.1475569 0 35
4.5744591 -0.30983025 0.1898758 0 36
4.591897 -0.31101134 0.23302086 0 37
4.587029 -0.31068161 0.27518958 0 38
4.5858932 -0.31060466 0.3175734 0 39
4.5935388 -0.31112251 0.36067966 0 40
4.5848041 -0.31053093 0.402551 0 41
4.5703168 -0.30954972 0.44377011 0 42
4.5699463 -0.3095246 0.48629755 0 43
4.5725522 -0.30970109 0.52924579 0 44
4.5841799 -0.31048864 0.57346207 0 45
4.5882163 -0.31076205 0.61697382 0 46
4.5941839 -0.31116623 0.66094548 0 47
4.5900602 -0.31088692 0.70359665 0 48
4.5717063 -0.30964381 0.74397612 0 49
4.5898075 -0.31086981 0.79041541 0 50
4.5764585 -0.3099657 0.83162105 0 51
4.5928192 -0.31107381 0.87839985 0 52
4.5736551 -0.3097758 0.91851097 0 53
4.5949349 -0.3112171 0.96692699 0 54
4.5792336 -0.31015363 1.0077848 0 55
4.5987287 -0.31147403 1.0566046 0 56
4.5684137 -0.30942079 1.0940622 0 57
4.5729332 -0.30972689 1.1398072 0 58
4.5906215 -0.31092495 1.189257 0 59
4.6014643 -0.31165931 1.2374284 0 60
4.5675192 -0.30936021 1.2735506 0 61
4.5769129 -0.30999646 1.3217462 0 62
4.5768228 -0.30999035 1.3675379 0 63
2.4627037 -0.1364039 -0.73529005 0 0
2.5401111 -0.14069134 -0.73299229 0 1
2.641118 -0.14628589 -0.73585951 0 2
2.7341526 -0.15143888 -0.73471355 0 3
2.8415139 -0.15738539 -0.73557216 0 4
2.9593 -0.16390932 -0.73704976 0 5
3.085079 -0.17087594 -0.7382682 0 6
3.197731 -0.1771155 -0.7341553 0 7
3.3410702 -0.18505475 -0.73473698 0 8
3.4931128 -0.19347607 -0.7345109 0 9
3.6457779 -0.20193186 -0.73161471 0 10
3.8467822 -0.21306506 -0.73515981 0 11
4.0692754 -0.22538847 -0.73889762 0 12
4.2570977 -0.23579156 -0.73256445 0 13
4.534255 -0.25114271 -0.73732316 0 14
4.5806499 -0.25371242 -0.7016229 0 15
4.5583839 -0.25247917 -0.65529895 0 16
4.5883985 -0.2541416 -0.61653149 0 17
4.5737443 -0.25332993 -0.5717237 0 18
4.5915289 -0.25431499 -0.53104013 0 19
4.5882239 -0.25413194 -0.48787311 0 20
4.5793796 -0.25364205 -0.44431362 0 21
4.5844612 -0.25392351 -0.40221632 0 22
4.5896864 -0.25421295 -0.36010453 0 23
4.5745616 -0.2533752 -0.31654897 0 24
4.5811028 -0.25373751 -0.27462611 0 25
4.5827112 -0.25382659 -0.23237877 0 26
4.5860763 -0.254013 -0.19021399 0 27
4.5658889 -0.25289485 -0.14725974 0 28
4.5701361 -0.25313008 -0.10526555 0 29
4.5901775 -0.25424013 -0.06342914 0 30
4.5724726 -0.25325951 -0.021060308 0 31
4.5778356 -0.25355655 0.021085011 0 32
4.586935 -0.25406054 0.063384339 0 33
4.5733533 -0.25330827 0.10533965 0 34
4.5819759 -0.25378588 0.14777857 0 35
4.5834036 -0.25386497 0.19010314 0 36
4.5657563 -0.25288749 0.23151901 0 37
4.5820637 -0.25379071 0.27468368 0 38
4.578311 -0.25358286 0.31680843 0 39
4.5752287 -0.25341216 0.3589702 0 40
4.5782337 -0.2535786 0.40166998 0 41
4.5746598 -0.25338066 0.4438557 0 42
4.5886908 -0.25415781 0.48792273 0 43
4.5821934 -0.25379792 0.52996039 0 44
4.5802517 -0.25369036 0.57253712 0 45
4.5665212 -0.25292987 0.61359191 0 46
4.573123 -0.25329554 0.65741777 0 47
4.5911226 -0.25429249 0.70322698 0 48
4.5791483 -0.25362927 0.74462336 0 49
4.5742149 -0.25335601 0.78713417 0 50
4.5819716 -0.25378561 0.83199281 0 51
4.5786285 -0.25360048 0.87502319 0 52
4.587707 -0.2541033 0.92063582 0 53
4.5812445 -0.25374535 0.96331668 0 54
4.5710917 -0.25318304 1.0052319 0 55
4.5830922 -0.25384769 1.0522152 0 56
4.5743446 -0.25336319 1.0946537 0 57
4.5871668 -0.25407338 1.1424898 0 58
4.5783691 -0.25358608 1.1851854 0 59
4.5749478 -0.2533966 1.2293667 0 60
4.5868826 -0.25405765 1.277982 0 61
4.5899506 -0.25422758 1.3245083 0 62
4.5790019 -0.25362113 1.3671538 0 63
2.4746244 -0.10656244 -0.73840219 0 0
2.5359652 -0.1092039 -0.7313531 0 1
2.6405878 -0.11370917 -0.73526663 0 2
2.7331097 -0.11769335 -0.73398894 0 3
2.8344262 -0.12205625 -0.73329341 0 4
2.953438 -0.12718114 -0.73514467 0 5
3.0881019 -0.13298005 -0.73854446 0 6
3.2025278 -0.13790746 -0.73481166 0 7
3.3413155 -0.14388396 -0.73434633 0 8
3.5002122 -0.15072638 -0.73555833 0 9
3.6466722 -0.15703325 -0.73135144 0 10
3.8523507 -0.16589019 -0.73577857 0 11
4.0732727 -0.17540355 -0.73917598 0 12
4.2404089 -0.18260078 -0.72925115 0 13
4.5272422 -0.19495241 -0.73573744 0 14
4.585125 -0.19744496 -0.70188344 0 15
4.5789561 -0.19717932 -0.65785801 0 16
4.5750532 -0.19701125 -0.61436641 0 17
4.5784192 -0.19715619 -0.57196182 0 18
4.5681973 -0.19671603 -0.52802205 0 19
4.5895243 -0.19763441 -0.48771608 0 20
4.5666771 -0.19665056 -0.4428131 0 21
4.5734239 -0.19694108 -0.40100518 0 22
4.5815253 -0.19728994 -0.3592467 0 23
4.5613542 -0.19642134 -0.31544408 0 24
4.5877337 -0.1975573 -0.27485722 0 25
4.5822301 -0.1973203 -0.23221377 0 26
4.5830073 -0.19735378 -0.18997169 0 27
4.594007 -0.19782744 -0.14807695 0 28
4.5799108 -0.19722043 -0.10542687 0 29
4.5850072 -0.19743988 -0.063319363 0 30
4.573575 -0.19694759 -0.02105264 0 31
4.5773401 -0.19710973 0.021069972 0 32
4.5731964 -0.19693129 0.063156255 0 33
4.5545497 -0.19612834 0.10484307 0 34
4.5815849 -0.19729251 0.14767656 0 35
4.5847278 -0.19742785 0.19004299 0 36
4.5862751 -0.19749449 0.23241878 0 37
4.5884743 -0.19758917 0.27490157 0 38
4.5644956 -0.19655661 0.31566134 0 39
4.5730648 -0.19692563 0.3585833 0 40
4.5737123 -0.19695351 0.40103048 0 41
4.5768051 -0.19708669 0.44379514 0 42
4.5830665 -0.19735633 0.48702985 0 43
4.5884113 -0.19758648 0.53035843 0 44
4.5960617 -0.19791591 0.57416582 0 45
4.5576248 -0.19626075 0.61202604 0 46
4.5726767 -0.19690891 0.65695578 0 47
4.5799351 -0.19722147 0.70108896 0 48
4.5805717 -0.19724888 0.74440414 0 49
4.5842657 -0.19740796 0.78838646 0 50
4.5807514 -0.19725662 0.83126801 0 51
4.5777435 -0.1971271 0.87432474 0 52
4.5757565 -0.19704154 0.91768217 0 53
4.5871925 -0.19753399 0.96398377 0 54
4.5821548 -0.19731705 1.0070549 0 55
4.57337 -0.19693877 1.0493479 0 56
4.5772324 -0.19710508 1.094682 0 57
4.5810652 -0.19727014 1.1402799 0 58
4.5965657 -0.19793764 1.189176 0 59
4.5822291 -0.19732027 1.2305784 0 60
4.5845203 -0.19741891 1.2765509 0 61
4.5743093 -0.19697921 1.3191961 0 62
4.5717473 -0.19686888 1.3641618 0 63
2.4534864 -0.075443022 -0.73176271 0 0
2.5443003 -0.078235485 -0.73342401 0 1
2.6391239 -0.081151247 -0.73452562 0 2
2.7362792 -0.084138706 -0.73450679 0 3
2.8445287 -0.087467305 -0.73557323 0 4
2.9514573 -0.090755284 -0.73431838 0 5
3.0792639 -0.094685256 -0.73609674 0 6
3.1831384 -0.097879328 -0.73003149 0 7
3.3405366 -0.1027192 -0.73384202 0 8
3.5019534 -0.10768266 -0.7355904 0 9
3.6604013 -0.11255483 -0.7337718 0 10
3.8419228 -0.11813649 -0.73345399 0 11
4.0401587 -0.12423211 -0.73283416 0 12
4.2528167 -0.1307712 -0.73105317 0 13
4.5260043 -0.13917153 -0.73520255 0 14
4.5940118 -0.14126271 -0.70292479 0 15
4.5774341 -0.14075296 -0.65734094 0 16
4.570117 -0.14052796 -0.61342508 0 17
4.5800743 -0.14083414 -0.57190901 0 18
4.579977 -0.14083116 -0.52914339 0 19
4.5769668 -0.14073858 -0.48616093 0 20
4.5816016 -0.14088111 -0.44405872 0 21
4.5818534 -0.14088885 -0.40156206 0 22
4.588994 -0.14110842 -0.35966912 0 23
4.5840726 -0.14095709 -0.31687137 0 24
4.5829167 -0.14092155 -0.27444404 0 25
4.5770764 -0.14074197 -0.23184738 0 26
4.590055 -0.14114104 -0.1901775 0 27
4.5757484 -0.14070113 -0.14742152 0 28
4.5796723 -0.14082178 -0.10537355 0 29
4.5903692 -0.14115071 -0.063364655 0 30
4.5752482 -0.14068574 -0.021050787 0 31
4.5726213 -0.14060497 0.021038702 0 32
4.5790057 -0.14080128 0.06320779 0 33
4.5767484 -0.14073187 0.10530627 0 34
4.5831432 -0.14092851 0.14765976 0 35
4.563334 -0.14031939 0.18907037 0 36
4.5869298 -0.14104494 0.23234648 0 37
4.5924168 -0.14121367 0.27501297 0 38
4.5788832 -0.14079751 0.31651267 0 39
4.5653958 -0.1403828 0.35781959 0 40
4.5771551 -0.14074437 0.40115026 0 41
4.5763612 -0.14071998 0.4435508 0 42
4.5709085 -0.1405523 0.48551744 0 43
4.5803275 -0.14084193 0.52918392 0 44
4.5810518 -0.14086421 0.57203108 0 45
4.5881767 -0.14108329 0.61584914 0 46
4.5784512 -0.14078423 0.65748703 0 47
4.5757251 -0.1407004 0.70012671 0 48
4.5764899 -0.14072393 0.74340343 0 49
4.5807309 -0.14085433 0.78742117 0 50
4.5696459 -0.14051348 0.8288765 0 51
4.5903678 -0.14115065 0.87633812 0 52
4.5713291 -0.14056525 0.91637832 0 53
4.570107 -0.14052765 0.9599576 0 54
4.5713325 -0.14056534 1.0042207 0 55
4.5787835 -0.14079446 1.0501134 0 56
4.5742083 -0.14065377 1.0934626 0 57
4.5893607 -0.1411197 1.1418265 0 58
4.5698571 -0.14051998 1.1817299 0 59
4.5690284 -0.1404945 1.2264766 0 60
4.5734491 -0.14063042 1.2728904 0 61
4.5762668 -0.14071706 1.3191619 0 62
4.5819883 -0.140893 1.3665974 0 63
2.4517903 -0.0452254 -0.73103571 0 0
2.5497043 -0.047031511 -0.73475951 0 1
2.6521578 -0.048921354 -0.73793 0 2
2.7292633 -0.050343633 -0.73240197 0 3
2.8317461 -0.052234016 -0.73204625 0 4
2.9351091 -0.054140635 -0.73003012 0 5
3.0829268 -0.056867264 -0.73674947 0 6
3.1900096 -0.058842499 -0.73138613 0 7
3.337836 -0.061569285 -0.7330271 0 8
3.5062535 -0.06467589 -0.7362709 0 9
3.673692 -0.067764439 -0.73621333 0 10
3.8500199 -0.071016967 -0.73477757 0 11
4.0602813 -0.074895412 -0.73626137 0 12
4.25003 -0.078395501 -0.73035324 0 13
4.5330782 -0.08361657 -0.73612899 0 14
4.5736499 -0.084364943 -0.6995976 0 15
4.5732961 -0.084358416 -0.65654814 0 16
4.5813861 -0.084507644 -0.6147517 0 17
4.5834932 -0.084546514 -0.57216287 0 18
4.5862908 -0.084598117 -0.52971268 0 19
4.5768566 -0.084424093 -0.48600227 0 20
4.5880585 -0.08463072 -0.44455004 0 21
4.5792675 -0.084468566 -0.40121406 0 22
4.5811257 -0.084502846 -0.35894385 0 23
4.5773859 -0.084433861 -0.31631351 0 24
4.57937 -0.084470458 -0.2741487 0 25
4.5647006 -0.084199868 -0.23115055 0 26
4.5952396 -0.084763184 -0.19033474 0 27
4.5744028 -0.084378831 -0.14733359 0 28
4.5761485 -0.084411032 -0.10526063 0 29
4.5726256 -0.084346049 -0.063100636 0 30
4.5796828 -0.084476233 -0.02106482 0 31
4.5808649 -0.084498033 0.021070257 0 32
4.5707536 -0.084311515 0.063074805 0 33
4.5869207 -0.084609732 0.10550841 0 34
4.5841818 -0.084559217 0.14764856 0 35
4.5844998 -0.084565081 0.18988989 0 36
4.5768199 -0.084423415 0.23176426 0 37
4.5788774 -0.084461369 0.27411923 0 38
4.5882607 -0.084634453 0.31706497 0 39
4.5770907 -0.084428415 0.35862768 0 40
4.5908484 -0.084682189 0.40222874 0 41
4.5574307 -0.084065765 0.44158244 0 42
4.5880957 -0.084631406 0.4871957 0 43
4.5786076 -0.084456399 0.52882522 0 44
4.5643859 -0.084194057 0.56977767 0 45
4.5976596 -0.084807821 0.61693537 0 46
4.5855556 -0.084584557 0.65830809 0 47
4.5828376 -0.084534422 0.70100296 0 48
4.5718451 -0.084331654 0.74242437 0 49
4.5843573 -0.084562451 0.78780621 0 50
4.5905991 -0.084677584 0.83242536 0 51
4.5910726 -0.084686317 0.87620765 0 52
4.5746641 -0.084383652 0.9167695 0 53
4.5906439 -0.084678411 0.96397978 0 54
4.5789962 -0.084463567 1.0056001 0 55
4.5876117 -0.08462248 1.0518198 0 56
4.5673537 -0.084248804 1.0914937 0 57
4.574461 -0.084379911 1.1377753 0 58
4.5702453 -0.084302142 1.1814728 0 59
4.5611744 -0.084134817 1.223998 0 60
4.5912433 -0.084689468 1.2774565 0 61
4.5853858 -0.084581427 1.3213909 0 62
4.5755315 -0.084399648 1.3642589 0 63
2.4675877 -0.015170736 -0.73563462 0 0
2.5578933 -0.015725935 -0.73700798 0 1
2.6521063 -0.016305158 -0.73780417 0 2
2.7404151 -0.01684808 -0.73528332 0 3
2.8348863 -0.01742889 -0.73274726 0 4
2.950732 -0.018141109 -0.73380494 0 5
3.0754054 -0.018907601 -0.73484087 0 6
3.1953437 -0.019644983 -0.73249835 0 7
3.3484089 -0.020586029 -0.73523784 0 8
3.5009153 -0.021523638 -0.73503882 0 9
3.6907451 -0.022690713 -0.739519 0 10
