# .PCD v0.7 - Point Cloud Data file format
VERSION 0.7
FIELDS x y z intensity ring
SIZE 4 4 4 4 2
TYPE F F F F U
COUNT 1 1 1 1 1
WIDTH 1328
HEIGHT 1
VIEWPOINT 0 0 0 1 0 0 0
POINTS 1328
DATA ascii
2.5819595 2.4960942 0.28133568 0 40
2.5826175 2.4967306 0.31467432 0 41
2.5782669 2.4925244 0.34740868 0 42
2.5761821 2.490509 0.38042462 0 43
2.5870345 2.5010006 0.4155297 0 44
2.5787179 2.4929607 0.4476597 0 45
2.5771871 2.4914806 0.48091674 0 46
2.5791509 2.4933791 0.51491445 0 47
2.5897148 2.5035918 0.5508818 0 48
2.581831 2.49597 0.58305502 0 49
2.5774536 2.4917383 0.61596054 0 50
2.5875144 2.5014644 0.65249884 0 51
2.5796862 2.4938965 0.68466926 0 52
2.5737672 2.4881747 0.71728426 0 53
2.5857909 2.4997983 0.75510758 0 54
2.5829654 2.4970667 0.78885049 0 55
2.5717232 2.4861984 0.81997395 0 56
2.5796494 2.4938612 0.85731101 0 57
2.5784476 2.4926991 0.89185846 0 58
2.5755446 2.489893 0.92592198 0 59
2.5808599 2.4950311 0.96314025 0 60
2.5750036 2.4893696 0.99635643 0 61
2.5779014 2.4921713 1.0331011 0 62
2.5874088 2.5013623 1.0728558 0 63
1.7565935 1.7404662 -0.73718089 0 0
1.8222487 1.8055187 -0.73911262 0 1
1.8752127 1.8579965 -0.73436826 0 2
1.957072 1.9391042 -0.73919392 0 3
2.0145295 1.9960341 -0.73300236 0 4
2.1016064 2.0823116 -0.73572487 0 5
2.1767867 2.1568017 -0.73218364 0 6
2.2741616 2.2532825 -0.73387748 0 7
2.3741009 2.3523045 -0.73384058 0 8
2.4830511 2.4602544 -0.73388422 0 9
2.5693724 2.545783 -0.72472882 0 10
2.5709217 2.5473182 -0.69060433 0 11
2.5834167 2.5596986 -0.65935296 0 12
2.5787642 2.5550885 -0.62373501 0 13
2.5826216 2.5589108 -0.5902949 0 14
2.5822847 2.5585771 -0.55595171 0 15
2.5844252 2.5606978 -0.52221429 0 16
2.5787179 2.555043 -0.48702836 0 17
2.5874543 2.563699 -0.45461449 0 18
2.573745 2.5501158 -0.41840014 0 19
2.5797665 2.5560818 -0.38556615 0 20
2.5874903 2.5637345 -0.35287264 0 21
2.5786705 2.554996 -0.31799737 0 22
2.5765119 2.5528572 -0.28414106 0 23
2.580513 2.5568216 -0.25098848 0 24
2.5753875 2.551743 -0.21700545 0 25
2.5856662 2.5619273 -0.18429038 0 26
2.5816658 2.5579636 -0.15050726 0 27
2.5815487 2.5578477 -0.11702947 0 28
2.576997 2.5533378 -0.083430976 0 29
2.5649371 2.5413888 -0.049818698 0 30
2.5752702 2.5516269 -0.016672192 0 31
2.5807385 2.557045 0.016707594 0 32
2.5617375 2.5382185 0.049756553 0 33
2.5737493 2.5501199 0.083325826 0 34
2.5816493 2.5579474 0.11703403 0 35
2.5800211 2.5563343 0.15041138 0 36
2.5771005 2.5534403 0.18367986 0 37
2.5784254 2.5547531 0.21726142 0 38
2.5707111 2.5471096 0.25003511 0 39
2.5777988 2.5541322 0.28428298 0 40
2.5793879 2.5557065 0.31808582 0 41
2.5829637 2.5592496 0.35225531 0 42
2.5753834 2.551739 0.38491109 0 43
2.5747452 2.5511065 0.41856271 0 44
2.5802312 2.5565422 0.45334539 0 45
2.597028 2.5731847 0.49048647 0 46
2.5710278 2.5474234 0.51950723 0 47
2.5864406 2.5626948 0.55684644 0 48
2.5756664 2.5520194 0.58870512 0 49
2.57619 2.5525382 0.62311238 0 50
2.5740902 2.5504577 0.65697259 0 51
2.5759623 2.5523124 0.69195831 0 52
2.5763783 2.5527248 0.72670496 0 53
2.5780013 2.5543327 0.76194739 0 54
2.5783165 2.5546451 0.79696417 0 55
2.5797927 2.5561078 0.8325054 0 56
2.5734499 2.5498233 0.86560524 0 57
2.5787411 2.5550659 0.90275902 0 58
2.5648482 2.5413005 0.93324018 0 59
2.580158 2.5564699 0.974536 0 60
2.5807738 2.5570798 1.0106791 0 61
2.5767083 2.5530517 1.045125 0 62
2.589509 2.5657349 1.0867264 0 63
1.7360072 1.7628942 -0.73758298 0 0
1.7885234 1.8162237 -0.73443633 0 1
1.8600372 1.8888451 -0.73746526 0 2
1.9202545 1.949995 -0.73428887 0 3
1.9983869 2.0293374 -0.73615271 0 4
2.0701489 2.102211 -0.7337063 0 5
2.1524823 2.1858194 -0.73299384 0 6
2.2521663 2.2870474 -0.73579919 0 7
2.3550937 2.3915691 -0.73699981 0 8
2.4565992 2.4946465 -0.7350769 0 9
2.57638 2.6162825 -0.73572409 0 10
2.5852616 2.6253016 -0.70307481 0 11
2.5844553 2.6244826 -0.66780406 0 12
2.5759842 2.6158807 -0.63079506 0 13
2.5865107 2.62657 -0.59852058 0 14
2.5813289 2.6213081 -0.56264293 0 15
2.5824933 2.6224904 -0.52829993 0 16
2.5734346 2.6132913 -0.49206233 0 17
2.5853877 2.6254296 -0.45988882 0 18
2.5835896 2.6236038 -0.42521289 0 19
2.5780988 2.6180279 -0.39009884 0 20
2.5848532 2.6248868 -0.35688782 0 21
2.5817761 2.621762 -0.32233155 0 22
2.5767107 2.6166182 -0.28768954 0 23
2.5908229 2.630949 -0.25511855 0 24
2.5783761 2.6183095 -0.21995351 0 25
2.5817821 2.6217682 -0.18629722 0 26
2.5717618 2.6115928 -0.15179057 0 27
2.596904 2.6371243 -0.1191866 0 28
2.5753295 2.6152155 -0.084411725 0 29
2.5772672 2.6171832 -0.050679423 0 30
2.5736787 2.6135392 -0.016868668 0 31
2.584059 2.6240804 0.016936705 0 32
2.581032 2.6210065 0.050753456 0 33
2.5790658 2.6190097 0.084534191 0 34
2.5804503 2.6204157 0.11843144 0 35
2.5793862 2.6193352 0.15224056 0 36
2.5825884 2.6225872 0.18635541 0 37
2.5841227 2.624145 0.22044373 0 38
2.5793109 2.6192589 0.25398496 0 39
2.5741129 2.6139801 0.2873995 0 40
2.5918372 2.631979 0.32358766 0 41
2.5792589 2.619206 0.35611543 0 42
2.580327 2.6202908 0.39043599 0 43
2.5780537 2.6179821 0.42430177 0 44
2.5865161 2.6265755 0.46008953 0 45
2.5853846 2.6254265 0.4943473 0 46
2.5830283 2.6230338 0.52840942 0 47
2.583631 2.6236458 0.56314468 0 48
2.5808578 2.6208296 0.59721249 0 49
2.5794954 2.619446 0.63165486 0 50
2.5789332 2.6188753 0.66637725 0 51
2.5829623 2.6229668 0.7024495 0 52
2.5868959 2.6269615 0.73872715 0 53
2.5775449 2.6174655 0.77126688 0 54
2.5844629 2.6244905 0.80877823 0 55
2.5755692 2.615459 0.84145725 0 56
2.5892646 2.6293666 0.88173318 0 57
2.5813334 2.6213124 0.91488129 0 58
2.5803223 2.620286 0.9505223 0 59
2.5810125 2.6209867 0.98695713 0 60
2.5833342 2.6233444 1.0242372 0 61
2.5802937 2.6202567 1.0595676 0 62
2.5814981 2.62148 1.0968095 0 63
1.702589 1.7720213 -0.73258698 0 0
1.7589476 1.8306782 -0.73147994 0 1
1.8282771 1.902835 -0.73409444 0 2
1.8969697 1.9743289 -0.73461288 0 3
1.9604155 2.0403621 -0.73135203 0 4
2.0547755 2.1385701 -0.73752207 0 5
2.1306024 2.2174892 -0.73477292 0 6
2.2265425 2.3173418 -0.73668158 0 7
2.3220618 2.4167564 -0.73590696 0 8
2.4353034 2.534616 -0.73797476 0 9
2.5400338 2.6436174 -0.73457229 0 10
2.58149 2.6867642 -0.71098012 0 11
2.5739977 2.6789663 -0.67356294 0 12
2.5750389 2.6800499 -0.63858515 0 13
2.5774922 2.6826034 -0.60402113 0 14
2.5814552 2.686728 -0.56982839 0 15
2.5962873 2.7021649 -0.53787839 0 16
2.573272 2.6782112 -0.49829057 0 17
2.5775275 2.6826403 -0.46432328 0 18
2.5662012 2.6708519 -0.42772394 0 19
2.5758083 2.6808507 -0.39471045 0 20
2.5746982 2.6796954 -0.36000797 0 21
2.5796099 2.6848073 -0.32615814 0 22
2.5774536 2.6825633 -0.29143336 0 23
2.5710728 2.6759222 -0.25639448 0 24
2.5809391 2.6861908 -0.22297305 0 25
2.5737166 2.678674 -0.18807778 0 26
2.5804439 2.6856754 -0.15424049 0 27
2.5701697 2.6749823 -0.11946021 0 28
2.58377 2.6891375 -0.085765734 0 29
2.5816445 2.6869252 -0.051411308 0 30
2.5855265 2.6909652 -0.017161902 0 31
2.5808041 2.6860504 0.017130557 0 32
2.5749466 2.6799541 0.051277924 0 33
2.5724359 2.677341 0.08538951 0 34
2.5819285 2.6872206 0.12000675 0 35
2.5790205 2.6841941 0.15415542 0 36
2.5809507 2.686203 0.18860643 0 37
2.5895162 2.6951177 0.22371404 0 38
2.5794337 2.684624 0.25722826 0 39
2.5848482 2.6902595 0.29226947 0 40
2.5864909 2.6919689 0.32702816 0 41
2.5741436 2.6791182 0.35993046 0 42
2.5789235 2.6840932 0.39518782 0 43
2.5780056 2.6831377 0.42969143 0 44
2.5867727 2.6922624 0.46598876 0 45
2.5880382 2.6935794 0.50114989 0 46
2.5804467 2.6856785 0.53459668 0 47
2.579869 2.685077 0.56947821 0 48
2.5811889 2.686451 0.60488749 0 49
2.5765054 2.6815765 0.63894892 0 50
2.5817201 2.6870036 0.67558372 0 51
2.5602829 2.6646924 0.70513934 0 52
2.5811687 2.6864297 0.74646837 0 53
2.5857983 2.6912482 0.78357953 0 54
2.5808969 2.686147 0.81793684 0 55
2.5823989 2.6877103 0.8544215 0 56
2.5714741 2.6763399 0.88681471 0 57
2.5819194 2.6872113 0.92673028 0 58
2.5699298 2.6747327 0.95873719 0 59
2.5743952 2.6793799 0.99694997 0 60
2.5792713 2.6844549 1.0356355 0 61
2.5767174 2.681797 1.0715595 0 62
2.5790827 2.6842587 1.1097231 0 63
1.6706922 1.7821755 -0.72823673 0 0
1.7452521 1.8617107 -0.73524904 0 1
1.8208487 1.9423517 -0.74064577 0 2
1.8768355 2.0020745 -0.73629373 0 3
1.9522699 2.0825424 -0.73781067 0 4
2.0277796 2.1630909 -0.73732364 0 5
2.1024771 2.2427728 -0.73452866 0 6
2.2020442 2.348984 -0.73807698 0 7
2.2826176 2.4349341 -0.73283982 0 8
2.3993366 2.5594416 -0.73655707 0 9
2.5074451 2.6747639 -0.73460394 0 10
2.5798333 2.7519825 -0.71978933 0 11
2.5710104 2.7425706 -0.68155456 0 12
2.5803638 2.7525482 -0.64825034 0 13
2.5919697 2.7649288 -0.61533481 0 14
2.5853643 2.7578826 -0.57813334 0 15
2.5755827 2.7474484 -0.54054725 0 16
2.5772879 2.7492673 -0.50557625 0 17
2.572072 2.7437034 -0.4693827 0 18
2.5815969 2.7538636 -0.43590117 0 19
2.5852187 2.7577271 -0.40131846 0 20
2.5776968 2.7497034 -0.36512738 0 21
2.580888 2.7531075 -0.33057511 0 22
2.5759931 2.7478859 -0.29506645 0 23
2.5820453 2.7543421 -0.26084644 0 24
2.5767353 2.7486777 -0.22551279 0 25
2.5779893 2.7500155 -0.1908467 0 26
2.5837259 2.756135 -0.1564506 0 27
2.5735099 2.7452371 -0.1211753 0 28
2.5815568 2.7538209 -0.086809725 0 29
2.5786653 2.7507365 -0.052021626 0 30
2.5854464 2.7579701 -0.017385162 0 31
2.5841818 2.7566211 0.017376659 0 32
2.583174 2.7555461 0.052112587 0 33
2.572911 2.7445982 0.086518995 0 34
2.5829797 2.7553389 0.12162119 0 35
2.5768416 2.7487912 0.15603372 0 36
2.575814 2.7476952 0.19068566 0 37
2.5779049 2.7499254 0.22561514 0 38
2.5651691 2.7363398 0.25914153 0 39
2.5847082 2.7571826 0.29606473 0 40
2.580543 2.7527394 0.33053091 0 41
2.5792642 2.7513754 0.36534941 0 42
2.576426 2.748348 0.39995354 0 43
2.5865114 2.7591062 0.43673098 0 44
2.5824223 2.7547441 0.47127149 0 45
2.5878639 2.7605491 0.50765091 0 46
2.5860496 2.7586136 0.54274392 0 47
2.589175 2.7619474 0.57898545 0 48
2.5768411 2.7487905 0.61174327 0 49
2.5741818 2.745954 0.64669728 0 50
2.5841644 2.7566025 0.68504161 0 51
2.5744939 2.7462866 0.71829957 0 52
2.5839453 2.7563686 0.75701606 0 53
2.5761411 2.748044 0.79083318 0 54
2.5818081 2.7540891 0.82889563 0 55
2.5803182 2.7524998 0.86486614 0 56
2.5837905 2.7562039 0.90268207 0 57
2.5739892 2.7457483 0.93593168 0 58
2.5842307 2.7566731 0.97664416 0 59
2.5746689 2.7464736 1.010058 0 60
2.5793586 2.7514763 1.0491762 0 61
2.5844436 2.7569003 1.088788 0 62
2.5755455 2.7474086 1.1226525 0 63
1.6514646 1.8056568 -0.7294786 0 0
1.7150364 1.875164 -0.73217815 0 1
1.7899557 1.9570785 -0.7378127 0 2
1.8440219 2.0161927 -0.73309141 0 3
1.9229231 2.1024606 -0.73643458 0 4
1.9982587 2.1848302 -0.73630255 0 5
2.0792048 2.2733338 -0.7361086 0 6
2.1530921 2.3541198 -0.73131651 0 7
2.2464414 2.4561849 -0.73086667 0 8
2.3520811 2.5716877 -0.73170269 0 9
2.4703355 2.7009833 -0.73340678 0 10
2.5743845 2.8147469 -0.72787082 0 11
2.5722165 2.8123767 -0.69098955 0 12
2.5753281 2.8157785 -0.65563411 0 13
2.5859861 2.8274317 -0.62212104 0 14
2.5709965 2.8110425 -0.5826059 0 15
2.573895 2.8142118 -0.5474143 0 16
2.579659 2.820514 -0.51280612 0 17
2.5730031 2.8132365 -0.47582954 0 18
2.5782042 2.8189232 -0.44114777 0 19
2.5704529 2.8104482 -0.40436044 0 20
2.5778134 2.818496 -0.37002513 0 21
2.576159 2.8166871 -0.33438039 0 22
2.5785367 2.8192871 -0.29930615 0 23
2.590168 2.8320041 -0.26516497 0 24
2.5862389 2.827708 -0.22937028 0 25
2.5775833 2.8182445 -0.19336747 0 26
2.5823438 2.8234494 -0.1584572 0 27
2.5895104 2.8312852 -0.12355863 0 28
2.5738881 2.8142042 -0.087708876 0 29
2.5776801 2.8183503 -0.05269691 0 30
2.5719821 2.8121204 -0.01752582 0 31
2.588335 2.8299999 0.017637249 0 32
2.5702639 2.8102417 0.052545298 0 33
2.5840316 2.8252947 0.08805453 0 34
2.5760634 2.8165827 0.12291701 0 35
2.5759423 2.8164501 0.1580644 0 36
2.5762589 2.8167963 0.19326811 0 37
2.5759957 2.8165088 0.22846185 0 38
2.5796769 2.8205333 0.26409096 0 39
2.5816288 2.8226676 0.29966506 0 40
2.5793605 2.8201876 0.33479595 0 41
2.581512 2.8225398 0.37055603 0 42
2.5902693 2.8321149 0.4074778 0 43
2.5727015 2.812907 0.44020623 0 44
2.5745261 2.8149018 0.47611117 0 45
2.5733979 2.813668 0.51156145 0 46
2.5663526 2.8059652 0.54581016 0 47
2.5803068 2.8212223 0.58471572 0 48
2.5848539 2.8261938 0.6218487 0 49
2.585685 2.8271027 0.65827084 0 50
2.5823641 2.8234715 0.69371557 0 51
2.5830848 2.8242598 0.73033077 0 52
2.5889435 2.8306651 0.76861972 0 53
2.5811729 2.8221693 0.80297029 0 54
2.5838814 2.8251305 0.84065074 0 55
2.5772233 2.8178508 0.8753764 0 56
2.5780151 2.8187168 0.91270435 0 57
2.5770087 2.8176162 0.94955575 0 58
2.5866704 2.8281798 0.99063426 0 59
2.5783308 2.8190618 1.0250162 0 60
2.5743198 2.8146763 1.0611246 0 61
2.5721438 2.8122971 1.098092 0 62
2.5815442 2.8225751 1.1403097 0 63
1.6426647 1.8409855 -0.73553532 0 0
1.7018616 1.9073293 -0.73651063 0 1
1.7676859 1.9811007 -0.73861867 0 2
1.8288022 2.0495956 -0.73700452 0 3
1.8799384 2.1069055 -0.72983927 0 4
1.9625087 2.1994445 -0.73303968 0 5
2.0543103 2.3023295 -0.73726231 0 6
2.1333301 2.3908896 -0.73453444 0 7
2.2290325 2.4981463 -0.73514122 0 8
2.3271997 2.6081653 -0.73388386 0 9
2.4363198 2.7304597 -0.73322058 0 10
2.5735564 2.8842647 -0.73760855 0 11
2.5837085 2.8956428 -0.7035886 0 12
2.5722888 2.8828442 -0.66383487 0 13
2.5786412 2.8899636 -0.62885565 0 14
2.5739198 2.8846722 -0.59126174 0 15
2.5806797 2.8922482 -0.55637896 0 16
2.5782101 2.8894804 -0.51954186 0 17
2.5800235 2.8915126 -0.48366657 0 18
2.5888114 2.9013617 -0.44903329 0 19
2.5869277 2.8992503 -0.41252914 0 20
2.5771296 2.8882694 -0.3749966 0 21
2.5795021 2.8909285 -0.33940277 0 22
2.5761685 2.8871925 -0.30312932 0 23
2.5856025 2.8977654 -0.26832512 0 24
2.583173 2.8950427 -0.23223805 0 25
2.5832303 2.8951068 -0.19644688 0 26
2.5723248 2.8828845 -0.16000555 0 27
2.5664737 2.876327 -0.12413766 0 28
2.5787206 2.8900526 -0.089077808 0 29
2.5795448 2.8909764 -0.053457737 0 30
2.5872355 2.8995953 -0.017871363 0 31
2.5846267 2.8966718 0.017853342 0 32
2.5714641 2.8819199 0.05329027 0 33
2.5778146 2.8890371 0.089046508 0 34
2.582757 2.8945761 0.12492527 0 35
2.5827956 2.8946197 0.16065687 0 36
2.5848546 2.8969274 0.19657043 0 37
2.5855961 2.897758 0.23245588 0 38
2.5750339 2.8859208 0.26722834 0 39
2.5881474 2.9006176 0.30453885 0 40
2.5751522 2.8860533 0.33883041 0 41
2.5799694 2.8914523 0.37540984 0 42
2.5788591 2.8902078 0.41124246 0 43
2.572614 2.8832085 0.4462238 0 44
2.5838404 2.8957903 0.48438212 0 45
2.5777357 2.8889487 0.51944625 0 46
2.5772245 2.8883758 0.55563408 0 47
2.5846083 2.896651 0.59371698 0 48
2.5739884 2.8847492 0.62772101 0 49
2.5738609 2.8846061 0.66424054 0 50
2.5691504 2.8793271 0.69962424 0 51
2.5731642 2.8838253 0.73749614 0 52
2.5799134 2.8913894 0.77643561 0 53
2.5786939 2.8900225 0.81319273 0 54
2.5829527 2.8947957 0.85186517 0 55
2.5705245 2.8808668 0.88506633 0 56
2.5844576 2.8964822 0.92752451 0 57
2.5734854 2.8841853 0.96125281 0 58
2.5760853 2.887099 1.0001009 0 59
2.5915716 2.9044549 1.0443994 0 60
2.5850229 2.8971157 1.0801388 0 61
2.582648 2.894454 1.1176865 0 62
2.5763183 2.8873601 1.153597 0 63
1.6294885 1.8720543 -0.739887 0 0
1.6757728 1.9252286 -0.7354098 0 1
1.7391114 1.9979959 -0.736889 0 2
1.7928189 2.0596981 -0.73265469 0 3
1.861064 2.1381023 -0.73266321 0 4
1.9363625 2.2246096 -0.73343575 0 5
2.0170155 2.3172686 -0.73404837 0 6
2.1123893 2.4268398 -0.73754334 0 7
2.1945453 2.5212255 -0.73393631 0 8
2.3029299 2.6457441 -0.7364341 0 9
2.4098771 2.7686117 -0.73545259 0 10
2.5213494 2.8966777 -0.73279887 0 11
2.578166 2.961952 -0.71194369 0 12
2.5792599 2.9632089 -0.67498624 0 13
2.5785925 2.9624422 -0.63767922 0 14
2.5807705 2.9649444 -0.60116494 0 15
2.5707781 2.9534645 -0.56203157 0 16
2.5708647 2.9535639 -0.52534056 0 17
2.5853958 2.9702582 -0.49148351 0 18
2.5834432 2.968015 -0.45439813 0 19
2.5721571 2.9550488 -0.41593677 0 20
2.5865636 2.9715998 -0.38165742 0 21
2.5798318 2.963866 -0.34421545 0 22
2.5799932 2.9640515 -0.30784473 0 23
2.5739427 2.9571002 -0.27086812 0 24
2.5822835 2.9666824 -0.23541994 0 25
2.5806065 2.964756 -0.19900468 0 26
2.5801442 2.9642246 -0.16274689 0 27
2.5803437 2.9644539 -0.12656213 0 28
2.5777068 2.9614246 -0.090293862 0 29
2.5777006 2.9614174 -0.054170072 0 30
2.5807161 2.9648819 -0.018076794 0 31
2.5771248 2.9607561 0.018051641 0 32
2.5788994 2.9627948 0.054195266 0 33
2.5736535 2.9567678 0.090151876 0 34
2.5786514 2.9625099 0.12647913 0 35
2.5803642 2.9644775 0.16276078 0 36
2.5829527 2.9674513 0.19918561 0 37
2.5750153 2.9583325 0.23475733 0 38
2.585434 2.9703021 0.27207741 0 39
2.5785916 2.962441 0.30767748 0 40
2.5786602 2.9625199 0.34405911 0 41
2.5854762 2.9703505 0.381497 0 42
2.5784576 2.9622872 0.41695562 0 43
2.5766058 2.9601598 0.45319551 0 44
2.584697 2.9694555 0.49135068 0 45
2.5782366 2.9620333 0.52684695 0 46
2.5694621 2.9519525 0.56174386 0 47
2.5787525 2.962626 0.60069484 0 48
2.5782747 2.9620769 0.6376006 0 49
2.5831413 2.9676681 0.67600197 0 50
2.5846572 2.9694095 0.71373618 0 51
2.5818141 2.9661434 0.75037217 0 52
2.5793028 2.963258 0.78715837 0 53
2.5738022 2.9569387 0.82305408 0 54
2.5794399 2.9634156 0.86265922 0 55
2.5810459 2.9652605 0.90117532 0 56
2.5785115 2.9623492 0.93839252 0 57
2.586947 2.9720402 0.9798575 0 58
2.5913758 2.9771285 1.0201722 0 59
2.5786104 2.9624627 1.0537767 0 60
2.5838001 2.9684248 1.0947969 0 61
2.5808492 2.9650347 1.1326009 0 62
2.5827787 2.9672513 1.1727388 0 63
1.5919349 1.8749733 -0.73324859 0 0
1.6522375 1.9459975 -0.73552692 0 1
1.7134639 2.0181096 -0.73648089 0 2
1.7724106 2.0875368 -0.73474914 0 3
1.8495016 2.1783342 -0.73860055 0 4
1.9035839 2.2420321 -0.73140723 0 5
1.9866018 2.3398101 -0.73339528 0 6
2.0759506 2.4450448 -0.73526251 0 7
2.1612813 2.545547 -0.73322457 0 8
2.2641642 2.6667218 -0.7344681 0 9
2.3792086 2.8022203 -0.73655319 0 10
2.5000875 2.944591 -0.73708701 0 11
2.5727651 3.0301902 -0.72068703 0 12
2.5817766 3.0408041 -0.68537819 0 13
2.5766139 3.0347235 -0.64636928 0 14
2.5873237 3.0473375 -0.61137378 0 15
2.5856068 3.0453153 -0.57341677 0 16
2.5834303 3.0427518 -0.53551334 0 17
2.575839 3.0338109 -0.49672091 0 18
2.5760863 3.0341022 -0.45963153 0 19
2.578537 3.0369885 -0.4229753 0 20
2.5823674 3.0415001 -0.38652754 0 21
2.5760729 3.0340865 -0.34866548 0 22
2.5849257 3.0445132 -0.31287655 0 23
2.5765913 3.0346968 -0.27505299 0 24
2.5843229 3.0438032 -0.23900002 0 25
2.5722585 3.0295937 -0.20121852 0 26
2.5788891 3.0374033 -0.16501114 0 27
2.591939 3.0527735 -0.12896232 0 28
2.5769649 3.0351367 -0.091568269 0 29
2.5813401 3.0402899 -0.055028033 0 30
2.5832069 3.0424888 -0.018354909 0 31
2.581604 3.040601 0.018343519 0 32
2.5771925 3.0354049 0.054939616 0 33
2.578995 3.037528 0.091640413 0 34
2.5618804 3.0173705 0.12746675 0 35
2.5911856 3.0518861 0.16579792 0 36
2.5808544 3.0397182 0.20189095 0 37
2.5845437 3.0440631 0.23902044 0 38
2.5910246 3.0516963 0.27659377 0 39
2.5838714 3.0432713 0.31274894 0 40
2.5608122 3.0161123 0.34659997 0 41
2.5874331 3.0474665 0.38728577 0 42
2.572397 3.029757 0.42196813 0 43
2.5817642 3.0407896 0.46064463 0 44
2.5777466 3.0360577 0.49708879 0 45
2.575382 3.0332725 0.53384501 0 46
2.5736258 3.0312042 0.57075971 0 47
2.5834563 3.0427825 0.61045998 0 48
2.5711541 3.0282931 0.64499962 0 49
2.5827994 3.0420089 0.68564975 0 50
2.5777791 3.0360959 0.72209162 0 51
2.5719588 3.0292406 0.7582764 0 52
2.577486 3.0357506 0.79793572 0 53
2.583843 3.0432382 0.83816814 0 54
2.5754108 3.0333066 0.87371987 0 55
2.5764654 3.0345485 0.91253537 0 56
2.5916867 3.0524764 0.95677495 0 57
2.5811734 3.0400937 0.99175501 0 58
2.5728502 3.0302908 1.0274706 0 59
2.5812125 3.0401397 1.0700362 0 60
2.5715246 3.0287294 1.1052924 0 61
2.5746474 3.0324075 1.1461563 0 62
2.5809362 3.0398142 1.1887847 0 63
1.5762652 1.9034675 -0.73675621 0 0
1.6297867 1.9680991 -0.73625028 0 1
1.6761355 2.0240688 -0.7310788 0 2
1.7407211 2.1020613 -0.73227215 0 3
1.8077086 2.1829543 -0.73257476 0 4
1.8918886 2.2846084 -0.73765177 0 5
1.9592323 2.3659313 -0.73397589 0 6
2.0503449 2.4759572 -0.73692101 0 7
2.1239243 2.5648103 -0.73119521 0 8
2.2293355 2.6921027 -0.73385292 0 9
2.336627 2.8216658 -0.73405671 0 10
2.460067 2.9707296 -0.73600221 0 11
2.5717249 3.1055653 -0.73103756 0 12
2.584507 3.121001 -0.69623834 0 13
2.5658379 3.0984566 -0.65317446 0 14
2.5736055 3.1078365 -0.61711574 0 15
2.5745449 3.1089709 -0.57939804 0 16
2.5804088 3.1160522 -0.54278851 0 17
2.5675428 3.1005151 -0.50243515 0 18
2.5851221 3.1217437 -0.46805736 0 19
2.5787587 3.1140594 -0.42926055 0 20
2.5802236 3.1158283 -0.39191177 0 21
2.5764301 3.1112473 -0.35386509 0 22
2.5805531 3.1162262 -0.31696138 0 23
2.5708435 3.104501 -0.27849352 0 24
2.5920117 3.1300633 -0.24325216 0 25
2.5754454 3.1100585 -0.20444396 0 26
2.5876527 3.1247995 -0.16801775 0 27
2.5764449 3.1112652 -0.13008508 0 28
2.5892465 3.1267242 -0.093363799 0 29
2.5800571 3.1156273 -0.055813171 0 30
2.5733941 3.1075811 -0.018555298 0 31
2.575475 3.1100938 0.0185703 0 32
2.5797067 3.1152043 0.05580559 0 33
2.5759311 3.1106446 0.092883661 0 34
2.5759037 3.1106117 0.13005775 0 35
2.5761161 3.1108682 0.16726866 0 36
2.5770702 3.1120205 0.20457295 0 37
2.5698793 3.1033368 0.24117512 0 38
2.5771153 3.1120749 0.27917293 0 39
2.5897927 3.1273837 0.31809625 0 40
2.5784771 3.1137192 0.35414627 0 41
2.570823 3.1044765 0.39048392 0 42
2.5799782 3.1155319 0.42946351 0 43
2.5876133 3.124752 0.46850842 0 44
2.5904922 3.1282287 0.50692606 0 45
2.5778532 3.1129658 0.54225093 0 46
2.5760217 3.1107543 0.57973033 0 47
2.5850255 3.1216271 0.61985409 0 48
2.5836377 3.1199512 0.65770566 0 49
2.5845189 3.1210153 0.69624156 0 50
2.5811117 3.1169007 0.73370582 0 51
2.5812926 3.1171191 0.77227038 0 52
2.5806172 3.1163037 0.81070679 0 53
2.5785735 3.1138356 0.84881508 0 54
2.5719206 3.1058018 0.88542515 0 55
2.5747557 3.1092253 0.92540109 0 56
2.584625 3.1211433 0.96826315 0 57
2.5833652 3.119622 1.0072601 0 58
2.5852573 3.121907 1.0476767 0 59
2.5854347 3.1221211 1.0876192 0 60
2.5881867 3.1254444 1.1288875 0 61
2.5769985 3.1119337 1.1641498 0 62
2.5807788 3.1164989 1.2062722 0 63
1.5502075 1.9195665 -0.73555368 0 0
1.6061194 1.9888 -0.73655051 0 1
1.6591461 2.0544612 -0.73463184 0 2
1.7351716 2.1486008 -0.74099582 0 3
1.7941475 2.2216287 -0.73809397 0 4
1.8602724 2.3035088 -0.73631287 0 5
1.9358395 2.3970807 -0.73619902 0 6
2.0108664 2.4899838 -0.7336809 0 7
2.1035948 2.6048062 -0.73516768 0 8
2.1937201 2.7164052 -0.733069 0 9
2.29757 2.8449986 -0.73272163 0 10
2.4157462 2.9913321 -0.73369151 0 11
2.5475874 3.1545861 -0.73514718 0 12
2.5813472 3.1963897 -0.70592189 0 13
2.5838616 3.1995032 -0.66772741 0 14
2.584913 3.2008052 -0.62921727 0 15
2.5842319 3.1999617 -0.59038866 0 16
2.5790799 3.1935821 -0.55072773 0 17
2.5904703 3.2076867 -0.51460141 0 18
2.5726941 3.1856751 -0.47286394 0 19
2.5935757 3.2115319 -0.43826744 0 20
2.5784023 3.1927431 -0.39756823 0 21
2.5941343 3.2122235 -0.36169446 0 22
2.5800843 3.1948261 -0.32170478 0 23
2.5816867 3.1968102 -0.28390497 0 24
2.5875847 3.2041135 -0.24651557 0 25
2.5803709 3.1951807 -0.20793809 0 26
2.5881164 3.204772 -0.17059371 0 27
2.5764911 3.1903768 -0.13205819 0 28
2.5908005 3.2080953 -0.094835095 0 29
2.5829091 3.198324 -0.056721345 0 30
2.5801158 3.194865 -0.018885601 0 31
2.5808969 3.195832 0.01889132 0 32
2.5861211 3.202301 0.056791879 0 33
2.5799775 3.1946938 0.094438925 0 34
2.5758452 3.1895769 0.13202508 0 35
2.5833361 3.1988525 0.17027861 0 36
2.581881 3.1970508 0.20805979 0 37
2.5831175 3.1985819 0.24608999 0 38
2.5804601 3.1952913 0.28377008 0 39
2.5826085 3.1979516 0.32201949 0 40
2.5792356 3.1937749 0.35961714 0 41
2.5902207 3.2073774 0.39939052 0 42
2.5776963 3.191869 0.4355841 0 43
2.5788863 3.1933424 0.47400203 0 44
2.5735044 3.1866784 0.51123106 0 45
2.5785804 3.1929638 0.55062109 0 46
2.5842192 3.1999462 0.59038579 0 47
2.580816 3.1957321 0.62821996 0 48
2.5814998 3.1965787 0.66711706 0 49
2.5797417 3.1944017 0.70548284 0 50
2.5797751 3.1944432 0.74443549 0 51
2.575263 3.1888559 0.78213865 0 52
2.5838776 3.199523 0.82402837 0 53
2.5842845 3.200027 0.86358273 0 54
2.5827327 3.1981053 0.90261751 0 55
2.5782266 3.1925256 0.94068694 0 56
2.5801766 3.1949401 0.98124015 0 57
2.5816758 3.1967967 1.0218509 0 58
2.5816793 3.1968012 1.0620766 0 59
2.5785868 3.1929717 1.1011719 0 60
2.5858881 3.2020125 1.1449718 0 61
2.5815353 3.1966228 1.1838666 0 62
2.581089 3.1960702 1.2246938 0 63
1.5238413 1.9351206 -0.7342782 0 0
1.5804076 2.006954 -0.73602098 0 1
1.6247863 2.0633104 -0.73059672 0 2
1.6939194 2.1511023 -0.7346195 0 3
1.7507057 2.2232151 -0.7314136 0 4
1.8247914 2.3172963 -0.73349208 0 5
1.8975683 2.4097152 -0.73285776 0 6
1.9872766 2.5236354 -0.73634052 0 7
2.0654414 2.6228967 -0.73304993 0 8
2.1610279 2.7442818 -0.73336536 0 9
2.2743678 2.8882117 -0.73659253 0 10
2.3808813 3.0234728 -0.73433852 0 11
2.5101173 3.1875892 -0.73558968 0 12
2.5826535 3.2797027 -0.71725368 0 13
2.5826547 3.2797039 -0.67778611 0 14
2.5802717 3.2766778 -0.63784695 0 15
2.5804892 3.2769539 -0.59869403 0 16
2.5931499 3.2930319 -0.56233639 0 17
2.5852299 3.2829742 -0.52154028 0 18
2.5766292 3.2720523 -0.48094603 0 19
2.5829558 3.2800865 -0.44325501 0 20
2.5676997 3.2607129 -0.40206996 0 21
2.5788233 3.2748387 -0.3651467 0 22
2.5848167 3.2824495 -0.32730278 0 23
2.5852518 3.2830021 -0.28871456 0 24
2.575206 3.2702451 -0.24914843 0 25
2.5793662 3.275528 -0.21108691 0 26
2.5886884 3.2873662 -0.17328274 0 27
2.5785935 3.2745466 -0.1342196 0 28
2.5746732 3.2695684 -0.09570919 0 29
2.5796492 3.2758875 -0.057530008 0 30
2.5790508 3.2751274 -0.019171139 0 31
2.5677967 3.2608361 0.019087484 0 32
2.5750942 3.270103 0.057428423 0 33
2.580622 3.2771227 0.095930323 0 34
2.5770011 3.2725246 0.13413671 0 35
2.5788333 3.2748513 0.17262307 0 36
2.5757711 3.2709625 0.21079271 0 37
2.5762336 3.2715499 0.24924785 0 38
2.5744452 3.269279 0.28750771 0 39
2.5776286 3.2733216 0.32639262 0 40
2.5816541 3.2784333 0.36554751 0 41
2.5841722 3.2816312 0.40464935 0 42
2.5770218 3.2725511 0.44223669 0 43
2.5799561 3.2762771 0.48156703 0 44
2.5814326 3.2781522 0.52077425 0 45
2.5768507 3.2723334 0.55880177 0 46
2.5670962 3.2599463 0.59558684 0 47
2.5755568 3.2706904 0.63668144 0 48
2.5773203 3.2729299 0.67638618 0 49
2.5687602 3.2620595 0.71339518 0 50
2.5859849 3.2839329 0.75782263 0 51
2.5706868 3.2645061 0.79288048 0 52
2.5774021 3.2730339 0.83473533 0 53
2.5724711 3.266772 0.87299252 0 54
2.5882573 3.286819 0.9186036 0 55
2.5798936 3.2761977 0.95592135 0 56
2.5781965 3.2740426 0.99572241 0 57
2.578022 3.2738209 1.0362602 0 58
2.5774541 3.2730999 1.0768143 0 59
2.58042 3.2768662 1.1190773 0 60
2.5740688 3.2688007 1.1574483 0 61
2.574815 3.2697484 1.1991323 0 62
2.5805304 3.2770064 1.2434545 0 63
1.50467 1.9598813 -0.7365973 0 0
1.556545 2.0274501 -0.73646265 0 1
1.6132704 2.1013367 -0.73698151 0 2
1.6701664 2.1754456 -0.73586375 0 3
1.7301817 2.2536175 -0.73436093 0 4
1.795185 2.3382864 -0.7330935 0 5
1.864219 2.4282055 -0.73145419 0 6
1.9516218 2.5420504 -0.73465598 0 7
2.0376539 2.65411 -0.73471528 0 8
2.1387479 2.7857883 -0.73737353 0 9
2.2391903 2.9166176 -0.73675919 0 10
2.3538632 3.0659828 -0.73757762 0 11
2.4707446 3.2182245 -0.73559266 0 12
2.576339 3.3557649 -0.72690487 0 13
2.576781 3.3563404 -0.68702382 0 14
2.5779579 3.3578732 -0.64743298 0 15
2.5883465 3.3714049 -0.61008912 0 16
2.5724652 3.350719 -0.56674278 0 17
2.581018 3.3618591 -0.52899027 0 18
2.5798817 3.3603792 -0.48922896 0 19
2.5795016 3.3598843 -0.44971815 0 20
2.5838468 3.3655438 -0.41104758 0 21
2.5791118 3.3593764 -0.37100855 0 22
2.5784574 3.3585241 -0.33170184 0 23
2.5849888 3.3670313 -0.29328677 0 24
2.5795498 3.3599467 -0.25354674 0 25
2.5819147 3.3630271 -0.21466346 0 26
2.5835197 3.3651178 -0.17569333 0 27
2.5814173 3.3623796 -0.13650836 0 28
2.5752308 3.3543215 -0.097255826 0 29
2.5856612 3.367907 -0.058583234 0 30
2.5803494 3.3609884 -0.01948653 0 31
2.5904775 3.3741806 0.019563016 0 32
2.5882611 3.3712935 0.058642138 0 33
2.5749903 3.3540082 0.097246744 0 34
2.5843406 3.3661871 0.13666295 0 35
2.5840094 3.3657556 0.17572664 0 36
2.5720468 3.350174 0.21384305 0 37
2.5859179 3.3682415 0.25417265 0 38
2.5823324 3.3635712 0.29298538 0 39
2.5793633 3.359704 0.33181837 0 40
2.5836632 3.3653047 0.37166327 0 41
2.5718935 3.3499742 0.40914598 0 42
2.5816317 3.3626587 0.45008948 0 43
2.5765491 3.3560386 0.48859701 0 44
2.5806265 3.3613491 0.52891004 0 45
2.5769067 3.3565042 0.56772131 0 46
2.5799694 3.3604937 0.6081146 0 47
2.5802889 3.3609095 0.64801836 0 48
2.5776129 3.357424 0.68724561 0 49
2.5853534 3.3675063 0.72944826 0 50
2.5787375 3.3588886 0.76774442 0 51
2.5914433 3.3754387 0.81202281 0 52
2.578069 3.3580182 0.84826022 0 53
2.5819607 3.3630872 0.89017946 0 54
2.5820069 3.3631475 0.93099219 0 55
2.5748196 3.3537855 0.96924847 0 56
2.5817335 3.3627911 1.0129818 0 57
2.5808327 3.3616178 1.0539258 0 58
2.5743883 3.3532238 1.0926772 0 59
2.5839853 3.3657243 1.138486 0 60
2.581187 3.3620796 1.1791496 0 61
2.5829592 3.3643878 1.2220995 0 62
2.5792031 3.3594952 1.2626251 0 63
1.4663984 1.9594463 -0.7296018 0 0
1.5255475 2.0384831 -0.7336008 0 1
1.5837857 2.1163027 -0.73534453 0 2
1.628473 2.1760156 -0.7292279 0 3
1.7095207 2.2843137 -0.73745787 0 4
1.7772654 2.3748364 -0.73764515 0 5
1.8369826 2.4546323 -0.73255515 0 6
1.9180738 2.5629888 -0.73383546 0 7
2.0003877 2.6729791 -0.73307407 0 8
2.098743 2.8044043 -0.73541456 0 9
2.1933286 2.9307926 -0.73347157 0 10
2.3034289 3.0779121 -0.73357809 0 11
2.4283094 3.2447815 -0.73478216 0 12
2.5510087 3.4087358 -0.731529 0 13
2.5672538 3.430443 -0.69567782 0 14
2.5870688 3.4569204 -0.66034675 0 15
2.5700219 3.4341419 -0.6156767 0 16
2.5775535 3.4442058 -0.5771507 0 17
2.5784502 3.4454041 -0.53710657 0 18
2.5734913 3.4387777 -0.4959982 0 19
2.5747466 3.440455 -0.45623028 0 20
2.5792084 3.4464171 -0.41701993 0 21
2.585068 3.4542468 -0.37794685 0 22
2.5808539 3.448616 -0.33743986 0 23
2.5794234 3.4467044 -0.29744142 0 24
2.5768807 3.4433067 -0.25742662 0 25
2.5816288 3.4496512 -0.21814995 0 26
2.5803604 3.4479563 -0.17834827 0 27
2.5845656 3.4535756 -0.13891004 0 28
2.5751173 3.4409506 -0.098842002 0 29
2.5823328 3.450592 -0.059464663 0 30
2.5775497 3.4442005 -0.019783724 0 31
2.5802495 3.4478083 0.019804448 0 32
2.5834222 3.4520476 0.059489749 0 33
2.5786498 3.4456706 0.098977588 0 34
2.5735047 3.4387956 0.13831554 0 35
2.5759401 3.4420497 0.17804275 0 36
2.5799627 3.4474251 0.21800916 0 37
2.576318 3.442555 0.25737041 0 38
2.5781708 3.4450305 0.297297 0 39
2.58445 3.4534211 0.33791003 0 40
2.5764842 3.4427769 0.37669188 0 41
2.5857112 3.4551065 0.41807136 0 42
2.5761442 3.4423225 0.45647794 0 43
2.5674534 3.4307098 0.49483451 0 44
2.5689023 3.4326458 0.53511769 0 45
2.5714607 3.4360645 0.57578641 0 46
2.5744529 3.4400628 0.61673826 0 47
2.5783606 3.4452841 0.65812391 0 48
2.5772958 3.4438615 0.69839901 0 49
2.5844407 3.4534087 0.74111599 0 50
2.573571 3.438884 0.77873683 0 51
2.5850103 3.4541698 0.82325393 0 52
2.5797713 3.4471693 0.86270201 0 53
2.5822229 3.4504452 0.90482938 0 54
2.5810015 3.448813 0.94584924 0 55
2.5789878 3.4461224 0.98669446 0 56
2.5798411 3.4472628 1.0287936 0 57
2.5678816 3.4312818 1.0657865 0 58
2.5809739 3.448776 1.1133878 0 59
2.5806079 3.448287 1.1555924 0 60
2.580303 3.4478796 1.198023 0 61
2.5845342 3.4535334 1.2428432 0 62
2.5797625 3.4471574 1.2835524 0 63
1.4500924 1.9881562 -0.73359704 0 0
1.5036054 2.0615251 -0.73518372 0 1
1.5600567 2.1389232 -0.73648316 0 2
1.6149501 2.2141848 -0.73530877 0 3
1.6726 2.2932262 -0.7336399 0 4
1.742529 2.3891027 -0.73536539 0 5
1.8069667 2.4774501 -0.73267835 0 6
1.8836669 2.5826104 -0.73276621 0 7
1.9784511 2.7125647 -0.73720276 0 8
2.0573106 2.8206854 -0.73299462 0 9
2.1588769 2.9599383 -0.73406655 0 10
2.2736478 3.1172955 -0.73624557 0 11
2.3823752 3.266367 -0.73298097 0 12
2.5310116 3.4701552 -0.73797506 0 13
2.5770688 3.5333023 -0.71005714 0 14
2.584054 3.5428796 -0.67064643 0 15
2.5829365 3.5413473 -0.62915492 0 16
2.5844016 3.5433559 -0.58839566 0 17
2.5817907 3.5397763 -0.54682797 0 18
2.5773401 3.5336745 -0.50507641 0 19
2.5772045 3.5334883 -0.46432969 0 20
2.573416 3.5282941 -0.4230662 0 21
2.5715084 3.5256786 -0.38227391 0 22
2.5746379 3.5299695 -0.34227648 0 23
2.584723 3.5437968 -0.30305457 0 24
2.5855968 3.5449946 -0.26263216 0 25
2.5832338 3.5417547 -0.22194889 0 26
2.5769644 3.533159 -0.18110269 0 27
2.5760794 3.5319457 -0.1407775 0 28
2.5856688 3.5450935 -0.10091259 0 29
2.5782764 3.5349581 -0.06036764 0 30
2.5739913 3.529083 -0.02008797 0 31
2.5751214 3.5306323 0.020096788 0 32
2.5811889 3.5389514 0.060435835 0 33
2.5775154 3.5339146 0.10059439 0 34
2.5722039 3.5266323 0.14056571 0 35
2.5784354 3.535176 0.18120608 0 36
2.58476 3.5438473 0.22208002 0 37
2.5829728 3.5413971 0.26236564 0 38
2.581418 3.5392656 0.30266705 0 39
2.584389 3.5433388 0.34357283 0 40
2.5821588 3.5402808 0.38385719 0 41
2.587595 3.5477345 0.42539722 0 42
2.5766876 3.5327797 0.46423659 0 43
2.5749359 3.5303779 0.50460523 0 44
2.5753028 3.5308812 0.54545379 0 45
2.573441 3.5283284 0.58590031 0 46
2.5732825 3.5281112 0.6268034 0 47
2.5890391 3.5497143 0.67194021 0 48
2.5792964 3.5363567 0.71067095 0 49
2.5791044 3.5360932 0.75199765 0 50
2.5834424 3.5420408 0.79484296 0 51
2.5796814 3.5368845 0.83534443 0 52
2.5846381 3.5436802 0.8788349 0 53
2.5842018 3.543082 0.92071956 0 54
2.5760932 3.5319648 0.95989382 0 55
2.5677192 3.5204835 0.99886978 0 56
2.579931 3.5372267 1.0460955 0 57
2.5775499 3.533962 1.0877528 0 58
2.580884 3.5385332 1.1320337 0 59
2.5714495 3.525598 1.1708161 0 60
2.5806258 3.5381792 1.218281 0 61
2.5851896 3.5444362 1.2640214 0 62
2.5781772 3.534822 1.3042914 0 63
1.4284894 2.0099893 -0.73511618 0 0
1.4692928 2.0674024 -0.73078132 0 1
1.5290053 2.1514225 -0.7342577 0 2
1.5795507 2.2225435 -0.73157918 0 3
1.6402241 2.3079154 -0.73183149 0 4
1.7167031 2.4155269 -0.73694557 0 5
1.7863624 2.5135427 -0.73680043 0 6
1.8521712 2.6061404 -0.732925 0 7
1.9443063 2.7357814 -0.7369591 0 8
2.0329208 2.8604686 -0.73678118 0 9
2.1252162 2.990335 -0.73506844 0 10
2.2281563 3.1351793 -0.73394287 0 11
2.3398526 3.2923439 -0.73229843 0 12
2.4772723 3.4857035 -0.73474795 0 13
2.5839763 3.6358438 -0.72422397 0 14
2.5756185 3.6240838 -0.67997134 0 15
2.5767741 3.62571 -0.63846534 0 16
2.5870185 3.6401243 -0.59913695 0 17
2.5661302 3.610733 -0.55287308 0 18
2.5747716 3.6228921 -0.51326442 0 19
2.5803616 3.6307578 -0.47290647 0 20
2.5783236 3.6278899 -0.43117425 0 21
2.581182 3.631912 -0.39032146 0 22
2.5768967 3.6258821 -0.34847769 0 23
2.5768404 3.625803 -0.30733457 0 24
2.5805545 3.6310291 -0.26663503 0 25
2.5796916 3.6298149 -0.22546241 0 26
2.582732 3.6340928 -0.18463452 0 27
2.5799079 3.6301193 -0.14341523 0 28
2.5768504 3.6258173 -0.10230073 0 29
2.582207 3.6333542 -0.061501097 0 30
2.5822072 3.6333547 -0.020499211 0 31
2.5772579 3.6263905 0.02045992 0 32
2.5725372 3.6197481 0.061270788 0 33
2.5752687 3.6235919 0.10223795 0 34
2.5866821 3.6396513 0.14379181 0 35
2.5777137 3.6270318 0.18427578 0 36
2.5722976 3.6194112 0.22481619 0 37
2.5823693 3.6335826 0.26682255 0 38
2.5804555 3.6308899 0.30776572 0 39
2.586432 3.6392992 0.34976718 0 40
2.5824189 3.6336524 0.3905085 0 41
2.5766821 3.6255805 0.43089977 0 42
2.5893168 3.6433585 0.47454771 0 43
2.5736938 3.6213756 0.51304954 0 44
2.5819278 3.6329615 0.55627668 0 45
2.5864143 3.6392744 0.598997 0 46
2.5817182 3.6326666 0.63969034 0 47
2.5798652 3.6300592 0.6810925 0 48
2.581877 3.63289 0.72363561 0 49
2.5789642 3.6287913 0.76490933 0 50
2.5808878 3.6314981 0.80773467 0 51
2.5799863 3.6302299 0.84983385 0 52
2.5797665 3.6299202 0.89228797 0 53
2.5762959 3.625037 0.93371373 0 54
2.5678027 3.6130865 0.97328573 0 55
2.5749767 3.6231809 1.0189474 0 56
2.5745621 3.6225975 1.0619001 0 57
2.5781074 3.6275856 1.1067289 0 58
2.583503 3.6351779 1.1527016 0 59
2.5799975 3.6302457 1.1949426 0 60
2.579216 3.6291459 1.238589 0 61
2.5778005 3.6271541 1.2821193 0 62
2.5740843 3.6219251 1.3246517 0 63
1.3986502 2.0201545 -0.73248851 0 0
1.4556655 2.1025052 -0.73680657 0 1
1.4980621 2.1637411 -0.73211974 0 2
1.5581214 2.2504885 -0.73441553 0 3
1.6163268 2.334558 -0.73392195 0 4
1.6875622 2.4374475 -0.73724663 0 5
1.7528026 2.531678 -0.73574293 0 6
1.8310503 2.644696 -0.73738021 0 7
1.9066163 2.7538404 -0.73545277 0 8
1.9923077 2.8776097 -0.73483056 0 9
2.0890975 3.0174091 -0.73535347 0 10
2.190285 3.1635602 -0.73422641 0 11
2.3057787 3.3303747 -0.7343955 0 12
2.4425991 3.5279925 -0.73727512 0 13
2.5742271 3.718111 -0.73425013 0 14
2.5770712 3.7222188 -0.69238603 0 15
2.5786059 3.7244353 -0.65021759 0 16
2.583864 3.7320299 -0.60898834 0 17
2.5751247 3.7194073 -0.56462198 0 18
2.5783045 3.7240002 -0.52305752 0 19
2.5810573 3.7279761 -0.48139891 0 20
2.5721807 3.7151551 -0.43775353 0 21
2.5714421 3.7140884 -0.39572489 0 22
2.5827353 3.7303996 -0.35544357 0 23
2.5767777 3.7217951 -0.31276175 0 24
2.5797107 3.7260311 -0.27126139 0 25
2.5738528 3.7175703 -0.22893007 0 26
2.5744662 3.7184563 -0.18729818 0 27
2.5866706 3.7360837 -0.14633392 0 28
2.5753284 3.7197013 -0.10404828 0 29
2.5761766 3.7209268 -0.062442493 0 30
2.5722973 3.7153237 -0.020781649 0 31
2.5772529 3.7224813 0.020821685 0 32
2.5732992 3.7167706 0.062372748 0 33
2.579015 3.7250264 0.10419723 0 34
2.5826254 3.7302408 0.14610507 0 35
2.5823202 3.7298 0.18786958 0 36
2.5749154 3.7191052 0.22902459 0 37
2.5764182 3.7212756 0.27091518 0 38
2.5729496 3.7162659 0.31229711 0 39
2.5813377 3.7283809 0.35525122 0 40
2.584219 3.7325428 0.39769113 0 41
2.5757766 3.7203488 0.43836552 0 42
2.5818441 3.7291124 0.48154563 0 43
2.5741606 3.7180147 0.5222168 0 44
2.5737059 3.7173581 0.56431091 0 45
2.5781493 3.7237761 0.60764152 0 46
2.5786426 3.7244885 0.65022683 0 47
2.5825441 3.7301235 0.69385642 0 48
2.5731976 3.716624 0.73395646 0 49
2.5823565 3.7298524 0.7794596 0 50
2.5757291 3.7202804 0.82037532 0 51
2.582679 3.7303185 0.86576456 0 52
2.5874684 3.7372363 0.91077793 0 53
2.5717998 3.7146049 0.94856691 0 54
2.582988 3.7307646 0.99635446 0 55
2.5795968 3.7258666 1.0388265 0 56
2.5783617 3.7240827 1.0822732 0 57
2.5785098 3.7242966 1.1264756 0 58
2.5851943 3.7339513 1.1738535 0 59
2.5777929 3.7232611 1.2150344 0 60
2.5797615 3.7261045 1.2607583 0 61
2.5814626 3.7285616 1.3066454 0 62
2.5781138 3.7237248 1.3501867 0 63
1.3832017 2.0512817 -0.73755211 0 0
1.4243859 2.1123576 -0.73406583 0 1
1.4770776 2.1904991 -0.73497248 0 2
1.5264577 2.2637296 -0.73255581 0 3
1.5839548 2.3489976 -0.732283 0 4
1.6471416 2.4427032 -0.73265481 0 5
1.7270511 2.561209 -0.73809755 0 6
1.7933403 2.6595151 -0.73530811 0 7
1.8696536 2.7726874 -0.73429078 0 8
1.9595326 2.9059777 -0.73586607 0 9
2.0425265 3.0290573 -0.73201603 0 10
2.1431959 3.1783495 -0.73148715 0 11
2.2530272 3.341229 -0.73062462 0 12
2.3830559 3.534061 -0.73236424 0 13
2.5223296 3.7406027 -0.73251146 0 14
2.580591 3.8270042 -0.70592159 0 15
2.5815628 3.8284454 -0.66278374 0 16
2.5783985 3.8237529 -0.61873519 0 17
2.5773389 3.8221817 -0.57536906 0 18
2.5740056 3.8172383 -0.53166759 0 19
2.5817146 3.8286707 -0.49026528 0 20
2.5801234 3.8263111 -0.44707885 0 21
2.5788212 3.8243799 -0.40406692 0 22
2.5810499 3.8276851 -0.36166179 0 23
2.5777798 3.8228354 -0.31856492 0 24
2.5917461 3.8435476 -0.27747566 0 25
2.5846479 3.8330207 -0.23406473 0 26
2.5825071 3.8298459 -0.19129488 0 27
2.5829849 3.8305545 -0.14877884 0 28
2.5751538 3.8189411 -0.10593048 0 29
2.5746362 3.8181736 -0.06353835 0 30
2.5770268 3.8217189 -0.021197919 0 31
2.5766077 3.8210971 0.021194471 0 32
2.5660994 3.8055134 0.06332767 0 33
2.5760303 3.8202407 0.10596654 0 34
2.5774822 3.8223941 0.14846189 0 35
2.5835156 3.8313415 0.19136958 0 36
2.5767729 3.8213425 0.23335159 0 37
2.5849543 3.8334754 0.27674851 0 38
2.5881391 3.8381982 0.31984511 0 39
2.5823183 3.8295658 0.3618395 0 40
2.5787239 3.8242357 0.40405166 0 41
2.5751345 3.8189125 0.44621438 0 42
2.5822089 3.8294039 0.49035916 0 43
2.5753028 3.8191621 0.53193551 0 44
2.5846257 3.832988 0.57699579 0 45
2.5809879 3.8275931 0.61935663 0 46
2.5796978 3.82568 0.662305 0 47
2.5787625 3.8242927 0.70542145 0 48
2.5803351 3.8266251 0.74935693 0 49
2.5772662 3.8220737 0.79204917 0 50
2.5865247 3.8358042 0.83877313 0 51
2.5743983 3.8178208 0.87865943 0 52
2.5799124 3.8259983 0.92460841 0 53
2.5749354 3.8186171 0.96696907 0 54
2.5820396 3.8291526 1.0140744 0 55
2.579931 3.8260257 1.0578272 0 56
2.5812657 3.8280048 1.1031669 0 57
2.5726659 3.8152516 1.1443316 0 58
2.5763218 3.8206732 1.1910672 0 59
2.5799708 3.8260846 1.2381428 0 60
2.5743437 3.8177397 1.2809561 0 61
2.573889 3.8170655 1.3264692 0 62
2.5782144 3.8234801 1.3747579 0 63
1.3517581 2.0588167 -0.73422933 0 0
1.392536 2.120924 -0.73103696 0 1
1.4448799 2.2006471 -0.73236072 0 2
1.5045381 2.2915106 -0.73550344 0 3
1.5624721 2.3797479 -0.73582405 0 4
1.6204628 2.4680715 -0.73423165 0 5
1.6850804 2.5664883 -0.73359221 0 6
1.7544353 2.6721206 -0.73277318 0 7
1.8381069 2.7995577 -0.73536551 0 8
1.9218836 2.9271553 -0.73518884 0 9
2.0098226 3.0610921 -0.73372978 0 10
2.11239 3.217309 -0.73441994 0 11
2.2312934 3.3984067 -0.73707229 0 12
2.3446054 3.5709884 -0.73398674 0 13
2.4799376 3.7771082 -0.7336331 0 14
2.5790837 3.9281142 -0.71866798 0 15
2.5803621 3.9300613 -0.67483157 0 16
2.5795555 3.928833 -0.63055825 0 17
2.5779734 3.9264231 -0.58624476 0 18
2.5829527 3.9340069 -0.54346639 0 19
2.5754421 3.9225678 -0.49819604 0 20
2.5750144 3.9219162 -0.45451564 0 21
2.5794713 3.9287047 -0.41170704 0 22
2.586086 3.9387794 -0.36912608 0 23
2.5779934 3.9264538 -0.32453346 0 24
2.5814626 3.9317374 -0.28152943 0 25
2.5807965 3.9307232 -0.23807506 0 26
2.5766096 3.924346 -0.19441777 0 27
2.5764959 3.9241729 -0.15117303 0 28
2.5894499 3.9439025 -0.10850526 0 29
2.583358 3.9346244 -0.06494268 0 30
2.5789287 3.9278781 -0.021609224 0 31
2.5887969 3.942908 0.021691911 0 32
2.5791819 3.9282639 0.064837694 0 33
2.5843673 3.9361613 0.10829229 0 34
2.5844975 3.9363596 0.15164252 0 35
2.5839732 3.9355612 0.19497339 0 36
2.5762143 3.923744 0.23765236 0 37
2.5814252 3.9316804 0.28152534 0 38
2.5783703 3.9270279 0.32458091 0 39
2.5845945 3.9365077 0.3689132 0 40
2.5703804 3.9148586 0.41025606 0 41
2.5855443 3.9379544 0.45637432 0 42
2.5793076 3.9284554 0.49894378 0 43
2.5873327 3.9406781 0.54438794 0 44
2.585258 3.9375179 0.58790129 0 45
2.5897431 3.9443491 0.63304853 0 46
2.5839202 3.9354806 0.67576212 0 47
2.577451 3.9256275 0.71821302 0 48
2.5756826 3.9229343 0.76195711 0 49
2.5839701 3.9355567 0.80892062 0 50
2.5797639 3.9291501 0.852184 0 51
2.5802784 3.929934 0.89709193 0 52
2.5797431 3.9291189 0.94179183 0 53
2.5773036 3.9254031 0.9859103 0 54
2.5726645 3.9183376 1.0292376 0 55
2.5825057 3.9333262 1.0786325 0 56
2.5784817 3.9271975 1.1225305 0 57
2.5866148 3.9395845 1.171995 0 58
2.5798697 3.9293115 1.2149531 0 59
2.5796297 3.9289458 1.2610692 0 60
2.5886495 3.9426835 1.3120989 0 61
2.5774136 3.9255705 1.3530599 0 62
2.5798593 3.9292955 1.4012923 0 63
1.3232491 2.0704427 -0.7325173 0 0
1.3798853 2.1590595 -0.73827726 0 1
1.4258525 2.2309828 -0.73656571 0 2
1.4672222 2.2957125 -0.73100609 0 3
1.5329659 2.3985796 -0.73576272 0 4
1.5868325 2.4828627 -0.73277169 0 5
1.6606579 2.5983748 -0.73681396 0 6
1.7345167 2.7139392 -0.73833638 0 7
1.808059 2.8290081 -0.73720562 0 8
1.887512 2.9533257 -0.7358768 0 9
1.9747925 3.0898905 -0.73475653 0 10
2.0756514 3.2477007 -0.73547572 0 11
2.1832349 3.416033 -0.73501706 0 12
2.301168 3.600559 -0.73419315 0 13
2.4353592 3.8105235 -0.73425138 0 14
2.5747569 4.0286341 -0.73121095 0 15
2.5799003 4.0366821 -0.68764019 0 16
2.5773034 4.032619 -0.64208049 0 17
2.5778706 4.0335059 -0.59745502 0 18
2.5826242 4.0409436 -0.55381024 0 19
2.5833657 4.0421042 -0.50930494 0 20
2.581501 4.0391865 -0.46439236 0 21
2.585305 4.0451384 -0.42054546 0 22
2.575696 4.0301037 -0.37468815 0 23
2.5840871 4.0432329 -0.33153424 0 24
2.5772741 4.0325727 -0.28645879 0 25
2.5808299 4.0381365 -0.24264038 0 26
2.5798879 4.0366626 -0.19839548 0 27
2.5790601 4.0353675 -0.15422328 0 28
2.5813107 4.0388889 -0.11023696 0 29
2.5865688 4.0471158 -0.06626942 0 30
2.5817997 4.0396538 -0.022047834 0 31
2.5789742 4.035233 0.022023708 0 32
2.5853124 4.0451498 0.066237234 0 33
2.5805056 4.0376291 0.11020257 0 34
2.5766799 4.0316434 0.15408094 0 35
2.5884295 4.0500274 0.19905235 0 36
2.5811348 4.0386133 0.24266905 0 37
2.5825579 4.0408401 0.28704607 0 38
2.57622 4.0309234 0.33052489 0 39
2.5778122 4.0334148 0.37499601 0 40
2.5816922 4.0394859 0.41995779 0 41
2.5851557 4.0449052 0.46504983 0 42
2.5774138 4.0327916 0.50813156 0 43
2.5772226 4.0324922 0.552652 0 44
2.583652 4.042552 0.59879494 0 45
2.5777524 4.0333209 0.6421923 0 46
2.5745714 4.0283442 0.68621981 0 47
2.5777311 4.033288 0.73205554 0 48
2.5785735 4.034606 0.77742994 0 49
2.5787623 4.0349011 0.82276028 0 50
2.5860631 4.0463247 0.87063497 0 51
2.5808084 4.0381031 0.91447055 0 52
2.5796897 4.0363526 0.95981932 0 53
2.5844188 4.0437517 1.0075771 0 54
2.5775981 4.0330801 1.0509723 0 55
2.5795584 4.0361466 1.0980475 0 56
2.5795028 4.0360599 1.1444944 0 57
2.583101 4.0416903 1.1928313 0 58
2.5732245 4.026237 1.2350456 0 59
2.5799756 4.0367999 1.2854071 0 60
2.5762653 4.0309944 1.330845 0 61
2.5751224 4.0292058 1.3777624 0 62
2.5813434 4.03894 1.4289666 0 63
1.3017712 2.0931153 -0.73482001 0 0
1.3476957 2.1669574 -0.7352556 0 1
1.3992901 2.2499158 -0.73708004 0 2
1.4493062 2.3303368 -0.73630083 0 3
1.5061592 2.4217505 -0.73713356 0 4
1.5565873 2.5028338 -0.73296148 0 5
1.6331755 2.6259797 -0.73889124 0 6
1.6911863 2.7192552 -0.73406965 0 7
1.7636204 2.8357217 -0.73324853 0 8
1.8475289 2.9706383 -0.73447442 0 9
1.9428374 3.1238844 -0.73710352 0 10
2.0309443 3.2655518 -0.73380727 0 11
2.1384652 3.4384341 -0.73412359 0 12
2.2657137 3.6430368 -0.73711812 0 13
2.385638 3.8358629 -0.73342597 0 14
2.5377083 4.0803766 -0.73488295 0 15
2.5816963 4.1511049 -0.70167094 0 16
2.5844998 4.1556125 -0.65655404 0 17
2.5720487 4.1355925 -0.60784566 0 18
2.5847228 4.1559706 -0.56517607 0 19
2.5755579 4.1412344 -0.51776582 0 20
2.5767827 4.1432037 -0.47267276 0 21
2.5768316 4.1432824 -0.42742234 0 22
2.5776269 4.1445618 -0.38235384 0 23
2.5839984 4.1548066 -0.338052 0 24
2.5745199 4.1395655 -0.29178825 0 25
2.581012 4.1500044 -0.24743649 0 26
2.5792398 4.1471548 -0.20225194 0 27
2.5738139 4.1384306 -0.15694071 0 28
2.5830166 4.1532278 -0.11248229 0 29
2.5781698 4.1454344 -0.067355134 0 30
2.5810812 4.1501155 -0.022475798 0 31
2.5812938 4.1504574 0.022477649 0 32
2.5722101 4.1358514 0.067199431 0 33
2.5803628 4.1489606 0.11236672 0 34
2.581445 4.1507006 0.15740602 0 35
2.5767589 4.1431656 0.20205739 0 36
2.5802572 4.1487904 0.24736413 0 37
2.573267 4.1375508 0.29164624 0 38
2.5821452 4.1518264 0.33780956 0 39
2.5771704 4.1438274 0.3822861 0 40
2.5770385 4.1436152 0.42745668 0 41
2.5787086 4.1463008 0.47302607 0 42
2.5843561 4.1553812 0.51953453 0 43
2.5810308 4.1500344 0.56436884 0 44
2.5867045 4.1591573 0.61130923 0 45
2.5877197 4.1607895 0.65737194 0 46
2.5744233 4.13941 0.69969422 0 47
2.5748835 4.1401501 0.74564832 0 48
2.5777941 4.1448302 0.79250133 0 49
2.58356 4.1541009 0.84052485 0 50
2.5801029 4.1485429 0.88573545 0 51
2.5758586 4.1417184 0.93069202 0 52
2.5766284 4.1429558 0.97756088 0 53
2.5854948 4.1572123 1.0278485 0 54
2.5813477 4.1505437 1.0732294 0 55
2.5792065 4.1471009 1.1195201 0 56
2.5723591 4.1360912 1.1638025 0 57
2.578856 4.1465378 1.2143244 0 58
2.5804408 4.149086 1.2629007 0 59
2.5837953 4.1544795 1.312663 0 60
2.5778868 4.1449795 1.3579093 0 61
2.5774765 4.1443195 1.406181 0 62
2.5812695 4.1504183 1.4570675 0 63
1.2799821 2.1156495 -0.73714972 0 0
1.3192022 2.1804755 -0.73428279 0 1
1.3570366 2.2430108 -0.72929615 0 2
1.4165716 2.3414147 -0.73424184 0 3
1.4800982 2.4464164 -0.7390458 0 4
1.5267091 2.5234582 -0.73344815 0 5
1.5918213 2.6310806 -0.73476338 0 6
1.6571056 2.7389872 -0.73384017 0 7
1.7260511 2.8529456 -0.73215872 0 8
1.8035842 2.9810982 -0.7315219 0 9
1.8980953 3.1373129 -0.73470926 0 10
1.9968114 3.3004782 -0.73608249 0 11
2.1015356 3.4735742 -0.73605323 0 12
2.2110581 3.6546013 -0.73390138 0 13
2.3489287 3.882484 -0.73676175 0 14
2.4886403 4.1134095 -0.73526531 0 15
2.586113 4.2745199 -0.71710265 0 16
2.574888 4.2559662 -0.66735631 0 17
2.5834296 4.2700844 -0.62289703 0 18
2.5790524 4.2628498 -0.57535452 0 19
2.5775015 4.2602859 -0.52864784 0 20
2.5827622 4.2689815 -0.48336223 0 21
2.5773923 4.2601056 -0.43617144 0 22
2.583416 4.270062 -0.39097157 0 23
