# .PCD v0.7 - Point Cloud Data file format
VERSION 0.7
FIELDS x y z intensity ring
SIZE 4 4 4 4 2
TYPE F F F F U
COUNT 1 1 1 1 1
WIDTH 1302
HEIGHT 1
VIEWPOINT 0 0 0 1 0 0 0
POINTS 1302
DATA ascii
6.2862973 -1.6189898 -0.20904216 0 28
6.2673941 -1.6141214 -0.14884163 0 29
6.2789025 -1.6170852 -0.089458868 0 30
6.2968588 -1.6217098 -0.029903216 0 31
6.2814956 -1.6177531 0.029830256 0 32
6.2937155 -1.6209003 0.089669921 0 33
6.2953496 -1.6213211 0.14950554 0 34
6.2952828 -1.6213039 0.20934096 0 35
6.2749848 -1.6160764 0.26834539 0 36
6.2765598 -1.6164819 0.32815266 0 37
6.28545 -1.6187716 0.38849771 0 38
6.2734714 -1.6156865 0.44758928 0 39
6.2698002 -1.6147411 0.50720036 0 40
6.2895479 -1.6198269 0.56894606 0 41
6.2807913 -1.6175718 0.62831533 0 42
6.2747626 -1.6160191 0.68792307 0 43
6.2870626 -1.6191869 0.74971831 0 44
6.267539 -1.6141587 0.8077774 0 45
6.2821369 -1.6179184 0.8703258 0 46
6.2887516 -1.6196219 0.93212312 0 47
6.2798009 -1.6173167 0.99175149 0 48
6.2949686 -1.621223 1.0554212 0 49
6.2845612 -1.6185427 1.1150324 0 50
6.2806206 -1.6175277 1.1758449 0 51
6.2856627 -1.6188263 1.2385557 0 52
6.276938 -1.6165794 1.2987345 0 53
6.2936764 -1.6208901 1.3644899 0 54
6.28303 -1.6181483 1.4246092 0 55
6.2859716 -1.6189059 1.4879855 0 56
6.2761807 -1.6163844 1.5485443 0 57
6.2863054 -1.618992 1.6142976 0 58
6.2693043 -1.6146134 1.6733052 0 59
6.278996 -1.6171094 1.7396659 0 60
0 0 0 0 61
0 0 0 0 62
0 0 0 0 63
2.3904996 -0.58441019 -0.73362678 0 0
2.4842827 -0.60733753 -0.73686457 0 1
2.5668776 -0.62752968 -0.73510981 0 2
2.6639369 -0.65125793 -0.73579901 0 3
2.7643981 -0.67581791 -0.73555654 0 4
2.8784585 -0.70370251 -0.73689866 0 5
2.9919491 -0.7314477 -0.73593932 0 6
3.1017435 -0.7582894 -0.73196757 0 7
3.2416728 -0.79249817 -0.73274928 0 8
3.4035769 -0.83207917 -0.73563284 0 9
3.5483544 -0.86747324 -0.73191249 0 10
3.7470586 -0.91605091 -0.73606241 0 11
3.9455125 -0.9645673 -0.73639458 0 12
4.1319318 -1.0101416 -0.73084509 0 13
4.3854508 -1.07212 -0.73300368 0 14
4.6550274 -1.1380239 -0.73289013 0 15
4.9914489 -1.2202694 -0.73755622 0 16
5.2929106 -1.2939684 -0.73101902 0 17
5.7067666 -1.3951446 -0.73323709 0 18
6.2084985 -1.5178039 -0.73806828 0 19
6.2679 -1.532326 -0.68505311 0 20
6.2819476 -1.5357602 -0.62649447 0 21
6.283083 -1.5360378 -0.56660986 0 22
6.2820668 -1.5357894 -0.50662673 0 23
6.2929516 -1.5384504 -0.4475956 0 24
6.2685628 -1.532488 -0.38625997 0 25
6.2858171 -1.5367062 -0.32762393 0 26
6.2758689 -1.5342742 -0.26755619 0 27
6.2723532 -1.5334146 -0.20793574 0 28
6.2770681 -1.5345672 -0.14861201 0 29
6.2830634 -1.5360329 -0.089242302 0 30
6.2673116 -1.5321821 -0.029671185 0 31
6.2874675 -1.5371097 0.029766608 0 32
6.2947555 -1.5388913 0.089408375 0 33
6.2847581 -1.5364473 0.14879408 0 34
6.2975783 -1.5395815 0.20877197 0 35
6.290741 -1.53791 0.26819023 0 36
6.2859926 -1.5367491 0.32763308 0 37
6.2783942 -1.5348915 0.38686576 0 38
6.2893 -1.5375577 0.4473359 0 39
6.2779303 -1.5347781 0.50629312 0 40
6.2871966 -1.5370435 0.56698084 0 41
6.2853451 -1.5365908 0.62683332 0 42
6.2902055 -1.537779 0.687491 0 43
6.2809577 -1.5355183 0.74668229 0 44
6.2824802 -1.5358905 0.80720794 0 45
6.2979116 -1.539663 0.86982256 0 46
6.273726 -1.5337502 0.9270305 0 47
6.2830791 -1.5360368 0.9892115 0 48
6.2764144 -1.5344075 1.0490677 0 49
6.2736659 -1.5337356 1.1096693 0 50
6.2863598 -1.5368389 1.1732928 0 51
6.2751317 -1.534094 1.2326704 0 52
6.267426 -1.5322101 1.2927704 0 53
6.2716599 -1.5332452 1.3555267 0 54
6.2893872 -1.5375791 1.4216563 0 55
6.2922544 -1.53828 1.4848831 0 56
6.2901545 -1.5377666 1.5472096 0 57
6.2633491 -1.5312134 1.6034461 0 58
6.2764082 -1.5344061 1.6700392 0 59
6.2735209 -1.5337001 1.7327927 0 60
0 0 0 0 61
0 0 0 0 62
0 0 0 0 63
2.4082859 -0.55746919 -0.73692578 0 0
2.4947119 -0.57747501 -0.73779595 0 1
2.5763619 -0.59637535 -0.73567021 0 2
2.6667695 -0.61730289 -0.7344293 0 3
2.7705753 -0.64133179 -0.73504621 0 4
2.8848157 -0.66777617 -0.7363683 0 5
2.9996624 -0.69436085 -0.73568088 0 6
3.1274536 -0.72394186 -0.73587841 0 7
3.2693489 -0.75678778 -0.73684609 0 8
3.4215398 -0.79201686 -0.73735464 0 9
3.5660083 -0.82545841 -0.73340487 0 10
3.7437546 -0.86660302 -0.73326463 0 11
3.938982 -0.91179425 -0.73302776 0 12
4.1928725 -0.97056466 -0.73945725 0 13
4.386395 -1.0153612 -0.73101938 0 14
4.6687427 -1.080719 -0.73290181 0 15
4.9891047 -1.1548762 -0.73505586 0 16
5.3621578 -1.2412305 -0.73841912 0 17
5.7173185 -1.3234429 -0.73244649 0 18
6.2103372 -1.4375668 -0.73612982 0 19
6.2864494 -1.4551852 -0.68507302 0 20
6.2798524 -1.453658 -0.62445569 0 21
6.2980247 -1.4578646 -0.56629789 0 22
6.2888389 -1.4557383 -0.50569099 0 23
6.2793155 -1.4535338 -0.44532079 0 24
6.275238 -1.4525899 -0.38554153 0 25
6.2620444 -1.4495358 -0.32543126 0 26
6.2722464 -1.4518974 -0.26662046 0 27
6.2791638 -1.4534987 -0.20755331 0 28
6.2883191 -1.4556179 -0.1484434 0 29
6.2911673 -1.4562773 -0.08909633 0 30
6.2658367 -1.4504138 -0.029577531 0 31
6.2714634 -1.4517162 0.02960409 0 32
6.2835083 -1.4545043 0.088987857 0 33
6.2856102 -1.4549909 0.14837945 0 34
6.2900968 -1.4560294 0.2079147 0 35
6.2787433 -1.4534013 0.26689664 0 36
6.2883635 -1.4556283 0.32679904 0 37
6.2633481 -1.4498377 0.38481101 0 38
6.3022232 -1.4588366 0.44694537 0 39
6.2839365 -1.4546036 0.50529683 0 40
6.2836819 -1.4545445 0.56500822 0 41
6.2841344 -1.4546493 0.62488151 0 42
6.2698212 -1.451336 0.68326098 0 43
6.2795844 -1.453596 0.74433786 0 44
6.2867975 -1.4552658 0.80540252 0 45
6.2726617 -1.4519936 0.86380398 0 46
6.2748332 -1.4524963 0.92448509 0 47
6.2971697 -1.4576666 0.98853314 0 48
6.2790642 -1.4534756 1.0464442 0 49
6.2792673 -1.4535227 1.107415 0 50
6.2833066 -1.4544576 1.1692965 0 51
6.2960706 -1.4574122 1.23317 0 52
6.2843819 -1.4547065 1.2924803 0 53
6.2806253 -1.453837 1.3534983 0 54
6.2721267 -1.4518697 1.4136124 0 55
6.274219 -1.4523541 1.4763008 0 56
6.2646184 -1.4501317 1.5364262 0 57
6.2752628 -1.4525957 1.6018023 0 58
6.2805018 -1.4538084 1.6662458 0 59
6.2805223 -1.4538132 1.7296582 0 60
0 0 0 0 61
0 0 0 0 62
0 0 0 0 63
2.4197373 -0.52886039 -0.73838419 0 0
2.4887543 -0.54394484 -0.73400044 0 1
2.5802374 -0.56393951 -0.73474121 0 2
2.6818154 -0.58614045 -0.73653233 0 3
2.785027 -0.60869855 -0.73683888 0 4
2.8978863 -0.63336515 -0.73766094 0 5
2.9974391 -0.65512353 -0.73310447 0 6
3.1357179 -0.68534589 -0.73578447 0 7
3.2633684 -0.71324527 -0.73346603 0 8
3.4219866 -0.74791312 -0.73541343 0 9
3.5733442 -0.780994 -0.7328831 0 10
3.7714784 -0.82429838 -0.73665375 0 11
3.943248 -0.86184055 -0.73179412 0 12
4.1669631 -0.91073596 -0.73285741 0 13
4.4343553 -0.96917748 -0.73697042 0 14
4.6667099 -1.0199612 -0.73055869 0 15
5.0003839 -1.0928893 -0.73468214 0 16
5.3535023 -1.1700672 -0.73519027 0 17
5.7166018 -1.2494266 -0.73033124 0 18
6.2147093 -1.3582935 -0.73461276 0 19
6.2879462 -1.3743004 -0.68334293 0 20
6.2772279 -1.3719577 -0.62247008 0 21
6.2769852 -1.3719046 -0.56284666 0 22
6.284225 -1.373487 -0.50392383 0 23
6.2844234 -1.3735304 -0.44445163 0 24
6.2825294 -1.3731164 -0.38492304 0 25
6.2717838 -1.3707678 -0.32503688 0 26
6.2828593 -1.3731885 -0.2663337 0 27
6.2743363 -1.3713257 -0.20682074 0 28
6.283823 -1.3733991 -0.14792742 0 29
6.2891674 -1.3745673 -0.088821918 0 30
6.2835512 -1.3733398 -0.0295792 0 31
6.3043599 -1.3778877 0.029677153 0 32
6.2741718 -1.3712897 0.088610135 0 33
6.2762766 -1.3717498 0.14774977 0 34
6.2796679 -1.372491 0.20699649 0 35
6.2854571 -1.3737563 0.26644382 0 36
6.2868462 -1.3740599 0.3258175 0 37
6.2813892 -1.3728672 0.38485318 0 38
6.2805724 -1.3726887 0.4441793 0 39
6.2895675 -1.3746547 0.50435227 0 40
6.2873931 -1.3741795 0.56377995 0 41
6.273263 -1.3710911 0.62207699 0 42
6.2704892 -1.3704849 0.68144578 0 43
6.2812915 -1.3728458 0.74248314 0 44
6.2780786 -1.3721436 0.80206341 0 45
6.2774215 -1.372 0.86207104 0 46
6.2831964 -1.3732622 0.9231596 0 47
6.279635 -1.3724837 0.9830569 0 48
6.2679729 -1.3699349 1.0417097 0 49
6.2776556 -1.3720511 1.1040719 0 50
6.2758818 -1.3716636 1.164688 0 51
6.2725186 -1.3709285 1.2251626 0 52
6.2859759 -1.3738698 1.2892364 0 53
6.2809348 -1.3727679 1.3498251 0 54
6.293879 -1.3755969 1.4145955 0 55
6.2791462 -1.372377 1.4733782 0 56
6.2755742 -1.3715962 1.5348607 0 57
6.2807598 -1.3727297 1.598776 0 58
6.2935638 -1.3755281 1.665098 0 59
6.2874293 -1.3741874 1.7267762 0 60
0 0 0 0 61
0 0 0 0 62
0 0 0 0 63
2.4078338 -0.49531972 -0.7328378 0 0
2.4918015 -0.51259285 -0.73298478 0 1
2.5819075 -0.5311287 -0.73330152 0 2
2.676055 -0.55049598 -0.7330358 0 3
2.7871749 -0.5733546 -0.73548621 0 4
2.8847632 -0.59342968 -0.73240757 0 5
3.0112162 -0.61944258 -0.7345556 0 6
3.1362114 -0.64515549 -0.73398328 0 7
3.2722421 -0.67313862 -0.73354465 0 8
3.4186547 -0.70325744 -0.7327835 0 9
3.5926118 -0.73904246 -0.73491544 0 10
3.7680709 -0.77513647 -0.73407102 0 11
3.9974225 -0.82231677 -0.73991543 0 12
4.1776319 -0.85938793 -0.73281986 0 13
4.4409399 -0.91355354 -0.73614216 0 14
4.7258964 -0.97217244 -0.73789692 0 15
4.9965911 -1.0278575 -0.73221254 0 16
5.3618011 -1.1029855 -0.73441184 0 17
5.8050022 -1.1941571 -0.73969305 0 18
6.2136965 -1.2782303 -0.73257971 0 19
6.2810874 -1.2920935 -0.68081939 0 20
6.2685313 -1.2895106 -0.6199885 0 21
6.2772632 -1.2913069 -0.56140536 0 22
6.2811966 -1.2921159 -0.50236893 0 23
6.2837901 -1.2926495 -0.4432492 0 24
6.2761335 -1.2910744 -0.38352951 0 25
6.2902641 -1.2939812 -0.32514542 0 26
6.2883887 -1.2935954 -0.2658737 0 27
6.2821083 -1.2923034 -0.2065375 0 28
6.2763538 -1.2911197 -0.1473667 0 29
6.2987247 -1.2957217 -0.088725172 0 30
6.2723541 -1.2902969 -0.029449575 0 31
6.2743139 -1.2907001 0.029458776 0 32
6.284667 -1.2928299 0.08852715 0 33
6.2721114 -1.290247 0.14726709 0 34
6.2783794 -1.2915365 0.20641491 0 35
6.2695808 -1.2897265 0.26507851 0 36
6.2759805 -1.2910429 0.3244071 0 37
6.282661 -1.2924172 0.38392839 0 38
6.2904868 -1.294027 0.44372156 0 39
6.2748156 -1.2908033 0.50185859 0 40
6.2778563 -1.2914288 0.56145841 0 41
6.2804055 -1.2919532 0.62116295 0 42
6.2757831 -1.2910024 0.68024445 0 43
6.2808561 -1.2920458 0.74049765 0 44
6.2807107 -1.2920159 0.80030942 0 45
6.2739921 -1.2906339 0.85935569 0 46
6.2696548 -1.2897416 0.91877037 0 47
6.2796006 -1.2917876 0.9804908 0 48
6.2713017 -1.2900804 1.0395479 0 49
6.2718525 -1.2901938 1.1001779 0 50
6.2786036 -1.2915825 1.1621578 0 51
6.2786169 -1.2915852 1.2231592 0 52
6.2941122 -1.2947729 1.2875423 0 53
6.2720599 -1.2902364 1.3444066 0 54
6.2814136 -1.2921606 1.4081162 0 55
6.262476 -1.2882649 1.4656386 0 56
6.275526 -1.2909495 1.5308508 0 57
6.2800841 -1.291887 1.5944397 0 58
6.2813573 -1.2921489 1.6575392 0 59
6.2827029 -1.2924258 1.7209833 0 60
0 0 0 0 61
0 0 0 0 62
0 0 0 0 63
2.4041939 -0.46383455 -0.72993892 0 0
2.5148749 -0.48518792 -0.73796123 0 1
2.5803139 -0.4978129 -0.73105514 0 2
2.6889722 -0.51877606 -0.73477125 0 3
2.7893696 -0.53814548 -0.73426372 0 4
2.8971231 -0.55893403 -0.73374516 0 5
3.0296485 -0.5845018 -0.73724294 0 6
3.143327 -0.60643351 -0.73384792 0 7
3.2998281 -0.63662684 -0.73791802 0 8
3.4508834 -0.66576952 -0.73788112 0 9
3.5920625 -0.69300675 -0.73300439 0 10
3.7776036 -0.72880274 -0.73412675 0 11
3.9925859 -0.77027869 -0.73721129 0 12
4.2241917 -0.81496167 -0.73917335 0 13
4.4192109 -0.85258627 -0.73074722 0 14
4.7105079 -0.9087854 -0.7336939 0 15
5.0528955 -0.97484136 -0.7386511 0 16
5.3733592 -1.0366675 -0.73419344 0 17
5.7958832 -1.1181839 -0.73672336 0 18
6.2079082 -1.1976748 -0.73010582 0 19
6.2826285 -1.2120904 -0.67931962 0 20
6.2848554 -1.21252 -0.62008148 0 21
6.2812271 -1.21182 -0.56038487 0 22
6.2720504 -1.2100495 -0.50040954 0 23
6.2739687 -1.2104197 -0.44147316 0 24
6.2925959 -1.2140133 -0.38359427 0 25
6.2758927 -1.2107909 -0.32360852 0 26
6.277431 -1.2110876 -0.26476076 0 27
6.2934856 -1.2141849 -0.20640509 0 28
6.274879 -1.2105953 -0.14697145 0 29
6.287662 -1.2130615 -0.088352546 0 30
6.2783637 -1.2112676 -0.029405637 0 31
6.2783937 -1.2112733 0.029405776 0 32
6.2794561 -1.2114782 0.088237233 0 33
6.2744322 -1.2105091 0.14696097 0 34
6.2776833 -1.2111363 0.20588683 0 35
6.2914343 -1.2137892 0.26535136 0 36
6.280364 -1.2116535 0.32383907 0 37
6.2795858 -1.2115034 0.38280118 0 38
6.2740726 -1.2104397 0.44148046 0 39
6.2883415 -1.2131925 0.50170934 0 40
6.278935 -1.2113777 0.56018037 0 41
6.2874074 -1.2130123 0.62033325 0 42
6.2704139 -1.2097337 0.67799884 0 43
6.2861495 -1.2127696 0.7393077 0 44
6.2802992 -1.211641 0.79829824 0 45
6.2823286 -1.2120326 0.85839128 0 46
6.2850676 -1.2125609 0.91877455 0 47
6.2893157 -1.2133805 0.97960401 0 48
6.2859187 -1.212725 1.0394202 0 49
6.2713332 -1.2099112 1.097394 0 50
6.2865119 -1.2128395 1.1607734 0 51
6.2840457 -1.2123637 1.2212203 0 52
6.2940793 -1.2142994 1.2843841 0 53
6.2818942 -1.2119486 1.3432187 0 54
6.2899175 -1.2134966 1.4065711 0 55
6.2856264 -1.2126687 1.4674559 0 56
6.2861829 -1.2127761 1.5296969 0 57
6.2833867 -1.2122366 1.5913734 0 58
6.2743239 -1.2104881 1.6516306 0 59
6.2699738 -1.2096488 1.7132926 0 60
0 0 0 0 61
0 0 0 0 62
0 0 0 0 63
2.4236491 -0.43674955 -0.73415965 0 0
2.5160499 -0.45340046 -0.73661435 0 1
2.6067939 -0.46975285 -0.73686522 0 2
2.7091873 -0.48820448 -0.73859882 0 3
2.8210723 -0.50836653 -0.74090749 0 4
2.9093378 -0.52427226 -0.73515046 0 5
3.0191712 -0.54406458 -0.73300999 0 6
3.1445787 -0.56666344 -0.732458 0 7
3.2918122 -0.59319538 -0.73443878 0 8
3.4519429 -0.62205148 -0.73641646 0 9
3.6168323 -0.65176511 -0.73636794 0 10
3.7725463 -0.67982531 -0.73146409 0 11
3.98315 -0.71777672 -0.73378378 0 12
4.2220597 -0.76082909 -0.73710757 0 13
4.436523 -0.79947603 -0.73192894 0 14
4.7130933 -0.84931499 -0.73241454 0 15
5.0585322 -0.91156423 -0.73778075 0 16
5.3650475 -0.9667992 -0.73137814 0 17
5.7894192 -1.0432724 -0.73421556 0 18
6.2794127 -1.1315708 -0.7368232 0 19
6.2766228 -1.1310681 -0.67711514 0 20
6.2763367 -1.1310165 -0.61782217 0 21
6.2762952 -1.131009 -0.55866182 0 22
6.2709551 -1.1300467 -0.49917579 0 23
6.2818789 -1.1320152 -0.44101694 0 24
6.2741332 -1.1306194 -0.38159242 0 25
6.2891216 -1.1333205 -0.3235476 0 26
6.2929502 -1.1340103 -0.26480716 0 27
6.2855706 -1.1326805 -0.20567317 0 28
6.2918921 -1.1338197 -0.14703226 0 29
6.2767482 -1.1310908 -0.087997094 0 30
6.2790771 -1.1315104 -0.029341593 0 31
6.2796597 -1.1316154 0.029344317 0 32
6.2671452 -1.1293602 0.087862469 0 33
6.2782621 -1.1313635 0.14671375 0 34
6.2774916 -1.1312246 0.20540881 0 35
6.271584 -1.1301601 0.26390806 0 36
6.2696829 -1.1298175 0.32254758 0 37
6.2799387 -1.1316656 0.38194552 0 38
6.293962 -1.1341927 0.44186524 0 39
6.2788048 -1.1314613 0.49980062 0 40
6.2685933 -1.1296211 0.55797631 0 41
6.2779226 -1.1313022 0.61797827 0 42
6.2841954 -1.1324327 0.67793208 0 43
6.2784657 -1.1314001 0.7367121 0 44
6.2807102 -1.1318047 0.79652119 0 45
6.2702127 -1.129913 0.85477275 0 46
6.2967248 -1.1346905 0.91836959 0 47
6.2837062 -1.1323445 0.9764877 0 48
6.2779975 -1.1313158 1.0357319 0 49
6.2740245 -1.1305999 1.0953494 0 50
6.2844033 -1.1324701 1.1577252 0 51
6.2840838 -1.1324126 1.2184294 0 52
6.2834496 -1.1322984 1.2792771 0 53
6.2733288 -1.1304744 1.3383137 0 54
6.278934 -1.1314845 1.4008979 0 55
6.2960048 -1.1345608 1.4665109 0 56
6.2758231 -1.130924 1.5236766 0 57
6.2783837 -1.1313854 1.586463 0 58
6.271956 -1.1302271 1.6472243 0 59
6.2701511 -1.1299019 1.7094153 0 60
0 0 0 0 61
0 0 0 0 62
0 0 0 0 63
2.4225695 -0.40586659 -0.73226547 0 0
2.5137126 -0.42113632 -0.73435849 0 1
2.6061971 -0.43663076 -0.73512328 0 2
2.6879399 -0.45032558 -0.73124123 0 3
2.7994297 -0.46900409 -0.73365331 0 4
2.9076552 -0.48713574 -0.73315626 0 5
3.038595 -0.50907278 -0.73615032 0 6
3.182394 -0.5331642 -0.73968321 0 7
3.2789931 -0.54934806 -0.73001641 0 8
3.4420984 -0.57667398 -0.73274809 0 9
3.6197808 -0.60644209 -0.73539436 0 10
3.8096671 -0.63825482 -0.73708403 0 11
3.989723 -0.66842055 -0.73342508 0 12
4.2181702 -0.70669359 -0.73485583 0 13
4.4691129 -0.74873549 -0.73573107 0 14
4.7281566 -0.79213446 -0.73318624 0 15
5.0553269 -0.84694713 -0.73573869 0 16
5.426538 -0.9091382 -0.73818088 0 17
5.8087273 -0.97316855 -0.73509103 0 18
6.2882905 -1.0535123 -0.7362892 0 19
6.2861514 -1.0531541 -0.67669493 0 20
6.2719789 -1.0507796 -0.61607474 0 21
6.2836981 -1.0527431 -0.55812633 0 22
6.2773476 -1.051679 -0.49861753 0 23
6.2872429 -1.0533369 -0.44045091 0 24
6.2760415 -1.0514603 -0.38089335 0 25
6.2813525 -1.0523502 -0.32245782 0 26
6.2893267 -1.053686 -0.26408949 0 27
6.2804651 -1.0522014 -0.20506725 0 28
6.2782645 -1.0518327 -0.1464005 0 29
6.2685957 -1.0502129 -0.087695122 0 30
6.2860675 -1.05314 -0.02931153 0 31
6.2779937 -1.0517874 0.029273883 0 32
6.2771497 -1.051646 0.087814793 0 33
6.2789226 -1.0519429 0.14641583 0 34
6.2891498 -1.0536563 0.2053508 0 35
6.2943559 -1.0545286 0.26430067 0 36
6.2845745 -1.0528899 0.32262322 0 37
6.2817817 -1.0524219 0.38124174 0 38
6.2885532 -1.0535564 0.4405427 0 39
6.2792974 -1.0520058 0.49877241 0 40
6.2739973 -1.0511178 0.55726469 0 41
6.2632256 -1.0493132 0.61521488 0 42
6.2899423 -1.0537891 0.67710298 0 43
6.2691436 -1.0503047 0.73404729 0 44
6.2708468 -1.05059 0.79357201 0 45
6.2766361 -1.0515599 0.85382116 0 46
6.2753749 -1.0513486 0.91330117 0 47
6.2789087 -1.0519406 0.97365844 0 48
6.2795129 -1.0520419 1.0337695 0 49
6.2778239 -1.0517589 1.0936722 0 50
6.2938209 -1.0544389 1.1569841 0 51
6.2690535 -1.0502895 1.2129194 0 52
6.2929478 -1.0542927 1.2784747 0 53
6.2797875 -1.0520879 1.3368306 0 54
6.2809591 -1.0522841 1.398357 0 55
6.2707992 -1.0505821 1.4575206 0 56
6.284317 -1.0528468 1.5224807 0 57
6.2830329 -1.0526316 1.5842472 0 58
6.2915382 -1.0540565 1.6488386 0 59
6.2727923 -1.050916 1.7064832 0 60
0 0 0 0 61
0 0 0 0 62
0 0 0 0 63
2.4488938 -0.37938255 -0.7387566 0 0
2.5365202 -0.39295763 -0.73955405 0 1
2.6042247 -0.40344641 -0.73311216 0 2
2.6864092 -0.41617841 -0.72937751 0 3
2.7938578 -0.43282437 -0.73074305 0 4
2.9096837 -0.45076811 -0.73221475 0 5
3.0241108 -0.46849516 -0.73119038 0 6
3.1751187 -0.49188927 -0.73653066 0 7
3.3145125 -0.51348418 -0.73646283 0 8
3.4505401 -0.53455752 -0.7330904 0 9
3.6111557 -0.55944014 -0.73218918 0 10
3.8138535 -0.59084207 -0.73643267 0 11
4.0197883 -0.62274539 -0.73748845 0 12
4.2261591 -0.65471643 -0.73478949 0 13
4.4695978 -0.69242996 -0.73435366 0 14
4.7835832 -0.74107254 -0.74031216 0 15
5.0394692 -0.78071433 -0.73197824 0 16
5.4162374 -0.83908325 -0.73532051 0 17
5.7918253 -0.89726931 -0.73150051 0 18
6.2983084 -0.97573376 -0.73600173 0 19
6.2779837 -0.97258496 -0.67447722 0 20
6.2754683 -0.97219533 -0.6151967 0 21
6.2895451 -0.97437608 -0.55753928 0 22
6.2796679 -0.97284591 -0.49781403 0 23
6.2879567 -0.97412997 -0.43962851 0 24
6.2919612 -0.97475046 -0.38110328 0 25
6.2874198 -0.97404689 -0.32213008 0 26
6.2754617 -0.97219425 -0.26298544 0 27
6.2751875 -0.97215188 -0.20448914 0 28
6.2719607 -0.97165191 -0.14596385 0 29
6.275938 -0.97226804 -0.087623961 0 30
6.2821174 -0.97322536 -0.029235097 0 31
6.2935877 -0.97500241 0.029288478 0 32
6.2925925 -0.97484821 0.087856494 0 33
6.2743964 -0.97202927 0.14602055 0 34
6.2797203 -0.97285402 0.20463684 0 35
6.2628484 -0.97024024 0.26245686 0 36
6.2748718 -0.97210294 0.32148719 0 37
6.2779479 -0.97257948 0.38025451 0 38
6.2845244 -0.9735983 0.43938857 0 39
6.2711606 -0.97152799 0.4971396 0 40
6.2848439 -0.97364783 0.55712259 0 41
6.2719021 -0.97164285 0.61484712 0 42
6.2897029 -0.97440058 0.67573631 0 43
6.2829337 -0.9733519 0.73420507 0 44
6.2728491 -0.97178954 0.79225326 0 45
6.275794 -0.97224575 0.85201585 0 46
6.2781796 -0.97261536 0.91189986 0 47
6.2687769 -0.97115868 0.97016221 0 48
6.2747221 -0.97207969 1.030935 0 49
6.278688 -0.9726941 1.0916564 0 50
6.292757 -0.97487372 1.1544976 0 51
6.2649012 -0.97055823 1.2097155 0 52
6.2673059 -0.97093076 1.2707437 0 53
6.2824502 -0.97327697 1.3347489 0 54
6.277781 -0.97255361 1.3948816 0 55
6.2874689 -0.97405446 1.458501 0 56
6.2938747 -0.97504687 1.5217764 0 57
6.2744694 -0.97204053 1.5789548 0 58
6.2639737 -0.97041458 1.6383636 0 59
6.2774072 -0.97249568 1.7043567 0 60
6.277967 -0.9725824 1.767303 0 61
0 0 0 0 62
0 0 0 0 63
2.4349163 -0.34661594 -0.73319876 0 0
2.5331297 -0.3605969 -0.73721695 0 1
2.6168401 -0.37251326 -0.73531848 0 2
2.7136722 -0.38629749 -0.73543429 0 3
2.8208642 -0.40155655 -0.73645949 0 4
2.916394 -0.41515544 -0.73256338 0 5
3.0293729 -0.43123823 -0.7311253 0 6
3.1624167 -0.45017734 -0.73224479 0 7
3.3123007 -0.47151369 -0.73462754 0 8
3.4822717 -0.49570942 -0.73848116 0 9
3.6098661 -0.5138728 -0.7305913 0 10
3.8158309 -0.54319239 -0.73546916 0 11
4.0264807 -0.57317889 -0.73736751 0 12
4.21701 -0.60030115 -0.73186004 0 13
4.4880309 -0.63888162 -0.73603588 0 14
4.7653513 -0.67835879 -0.73614401 0 15
5.0564108 -0.71979183 -0.73309803 0 16
5.4346814 -0.7736395 -0.73647738 0 17
5.7885709 -0.82401651 -0.72975463 0 18
6.2831302 -0.89441818 -0.73288745 0 19
6.2736855 -0.89307368 -0.67278481 0 20
6.2824826 -0.89432591 -0.6147598 0 21
6.2831168 -0.89441621 -0.55595249 0 22
6.2741818 -0.89314431 -0.49647093 0 23
6.2843065 -0.89458561 -0.4385711 0 24
6.2888789 -0.89523649 -0.38022107 0 25
6.2882309 -0.89514422 -0.32158336 0 26
6.277914 -0.89367563 -0.26260784 0 27
6.2830596 -0.89440805 -0.20437181 0 28
6.280911 -0.89410228 -0.14590526 0 29
6.2606068 -0.89121187 -0.087250307 0 30
6.2836494 -0.89449203 -0.029188834 0 31
6.2875204 -0.89504313 0.029206816 0 32
6.2630067 -0.89155352 0.08728376 0 33
6.2737017 -0.89307594 0.14573778 0 34
6.2801743 -0.89399737 0.20427798 0 35
6.2946911 -0.89606386 0.26330966 0 36
6.2976494 -0.89648497 0.32206503 0 37
6.2782745 -0.89372694 0.37957993 0 38
6.2698622 -0.89252943 0.43756306 0 39
6.289484 -0.89532262 0.4976818 0 40
6.2724214 -0.89289373 0.55500615 0 41
6.2807765 -0.89408308 0.61459285 0 42
6.2885094 -0.89518386 0.67437452 0 43
6.281436 -0.89417696 0.7326898 0 44
6.2908092 -0.89551121 0.79307085 0 45
6.2788992 -0.89381582 0.85088098 0 46
6.2813368 -0.89416283 0.91069251 0 47
6.2844653 -0.8946082 0.97081435 0 48
6.2738638 -0.89309907 1.0289119 0 49
6.2881789 -0.89513683 1.0913104 0 50
6.2806845 -0.89406997 1.1501788 0 51
6.2697763 -0.89251715 1.2084464 0 52
6.284903 -0.89467055 1.2719851 0 53
6.2743459 -0.89316761 1.330593 0 54
6.2823687 -0.89430976 1.3933522 0 55
6.2931175 -0.89583987 1.4571458 0 56
6.2845607 -0.89462179 1.51675 0 57
6.2926316 -0.89577067 1.580634 0 58
6.2792616 -0.89386743 1.6393635 0 59
6.2892551 -0.89529008 1.7044557 0 60
6.2899318 -0.8953864 1.7674381 0 61
0 0 0 0 62
0 0 0 0 63
2.4398518 -0.31676251 -0.73345661 0 0
2.5484052 -0.33085588 -0.74042261 0 1
2.6136599 -0.33932778 -0.73319691 0 2
2.718425 -0.35292929 -0.73549062 0 3
2.810117 -0.36483353 -0.73242706 0 4
2.9327583 -0.38075587 -0.73544222 0 5
3.0582328 -0.39704606 -0.73685646 0 6
3.1799026 -0.41284227 -0.73506254 0 7
3.3077719 -0.42944339 -0.7323966 0 8
3.4705584 -0.45057771 -0.73476666 0 9
3.6570494 -0.47478959 -0.73890316 0 10
3.8147399 -0.4952623 -0.73402959 0 11
4.0355902 -0.52393496 -0.73780012 0 12
4.2624664 -0.55338997 -0.73851216 0 13
4.489017 -0.58280271 -0.7349667 0 14
4.7706523 -0.61936706 -0.73573071 0 15
5.047791 -0.65534759 -0.73062474 0 16
5.4241109 -0.70420468 -0.73381597 0 17
5.8608327 -0.76090366 -0.73762923 0 18
6.2703462 -0.81407022 -0.73017341 0 19
6.2791452 -0.81521261 -0.67224449 0 20
6.2812557 -0.81548655 -0.61361212 0 21
6.2720618 -0.81429291 -0.55404645 0 22
6.2773323 -0.81497723 -0.49588978 0 23
6.2851377 -0.81599057 -0.43789575 0 24
6.2801638 -0.81534481 -0.37905934 0 25
6.2606473 -0.81281096 -0.31963742 0 26
6.2793922 -0.81524467 -0.26223055 0 27
6.2867799 -0.81620377 -0.20415094 0 28
6.2838097 -0.81581819 -0.14572854 0 29
6.2808704 -0.81543654 -0.087386362 0 30
6.2797794 -0.81529492 -0.029122086 0 31
6.285193 -0.81599772 0.029147191 0 32
6.2791224 -0.81520957 0.087362044 0 33
6.2834063 -0.81576574 0.14571919 0 34
6.2674584 -0.81369525 0.20352352 0 35
6.2876749 -0.81631994 0.2625764 0 36
6.2677312 -0.81373072 0.3199991 0 37
6.2863059 -0.8161422 0.37943006 0 38
6.2750311 -0.81467843 0.43719158 0 39
6.2845254 -0.81591105 0.49645802 0 40
6.2861128 -0.81611717 0.55528766 0 41
6.2734084 -0.81446773 0.61284554 0 42
6.2831407 -0.81573129 0.67267221 0 43
6.2714505 -0.81421357 0.73030198 0 44
6.2781825 -0.81508762 0.79015583 0 45
6.2696757 -0.81398314 0.84821057 0 46
6.2949576 -0.81726551 0.91114146 0 47
6.2716579 -0.81424052 0.96721607 0 48
6.2835703 -0.81578708 1.0287809 0 49
6.2903562 -0.81666809 1.0898631 0 50
6.2733192 -0.81445616 1.1469092 0 51
6.2908859 -0.81673682 1.2104878 0 52
6.2784314 -0.81511986 1.2685508 0 53
6.2793312 -0.81523675 1.3294239 0 54
6.2978635 -0.81764269 1.3944534 0 55
6.2703609 -0.81407213 1.4494492 0 56
6.2883835 -0.81641197 1.5151352 0 57
6.2619953 -0.81298602 1.5703087 0 58
6.2676077 -0.81371462 1.6335851 0 59
6.273416 -0.8144688 1.6973206 0 60
6.2767816 -0.81490564 1.760794 0 61
0 0 0 0 62
0 0 0 0 63
2.4541016 -0.28797603 -0.73662013 0 0
2.5308316 -0.29697987 -0.73420012 0 1
2.6206317 -0.30751747 -0.73403645 0 2
2.7036498 -0.31725919 -0.73038232 0 3
2.8265135 -0.33167663 -0.73558199 0 4
2.9472392 -0.34584314 -0.73795134 0 5
3.0604231 -0.35912469 -0.73626459 0 6
3.1988111 -0.3753638 -0.73831064 0 7
3.314975 -0.38899502 -0.73287696 0 8
3.4773049 -0.40804362 -0.73507714 0 9
3.6500599 -0.42831549 -0.7363711 0 10
3.8214664 -0.44842914 -0.73420733 0 11
4.0212655 -0.47187456 -0.73406494 0 12
4.2524915 -0.49900773 -0.7356652 0 13
4.4890108 -0.52676201 -0.73384976 0 14
4.7760196 -0.56044096 -0.73544002 0 15
5.1001439 -0.59847528 -0.73708147 0 16
5.4244504 -0.636531 -0.73274761 0 17
5.8766956 -0.68959957 -0.73850268 0 18
6.276978 -0.73657066 -0.72983581 0 19
6.2848516 -0.73749453 -0.67183375 0 20
6.2751861 -0.73636037 -0.61208838 0 21
6.2896056 -0.73805243 -0.55475259 0 22
6.2832904 -0.73731136 -0.49560675 0 23
6.2800245 -0.73692816 -0.43687516 0 24
6.2964067 -0.73885047 -0.37946269 0 25
6.2707672 -0.73584187 -0.31966799 0 26
6.3000884 -0.73928249 -0.26269531 0 27
6.2740808 -0.73623067 -0.20342921 0 28
6.2897849 -0.73807347 -0.14564563 0 29
6.2788601 -0.73679149 -0.08722575 0 30
6.2842665 -0.73742586 -0.029098643 0 31
6.273201 -0.73612744 0.029047407 0 32
6.2764349 -0.73650694 0.087192059 0 33
6.2722082 -0.73601091 0.14523862 0 34
6.2617259 -0.73478085 0.2030286 0 35
6.2833877 -0.73732281 0.26199895 0 36
6.2814403 -0.73709428 0.32021207 0 37
6.2762451 -0.73648465 0.37824762 0 38
6.289053 -0.73798758 0.43750322 0 39
6.2726741 -0.73606563 0.49476939 0 40
6.2901044 -0.73811096 0.55479658 0 41
6.2810888 -0.73705304 0.61266416 0 42
6.2764978 -0.73651427 0.67094076 0 43
6.2766776 -0.73653543 0.72980088 0 44
6.2750702 -0.73634672 0.78856486 0 45
6.2776608 -0.73665076 0.8480013 0 46
6.2712364 -0.73589689 0.90632975 0 47
6.2951269 -0.73870027 0.96936131 0 48
6.2780995 -0.73670226 1.0263245 0 49
6.2874913 -0.73780429 1.0877125 0 50
6.268517 -0.73557776 1.1442912 0 51
6.2811141 -0.73705596 1.2067724 0 52
6.2753544 -0.7363801 1.2660037 0 53
6.2868085 -0.73772418 1.3289859 0 54
6.2802672 -0.73695666 1.3884459 0 55
6.2838693 -0.73737925 1.4503661 0 56
6.2697577 -0.73572338 1.5083537 0 57
6.2612534 -0.73472548 1.5677385 0 58
6.2786388 -0.7367655 1.6339755 0 59
6.2929711 -0.73844737 1.7000262 0 60
6.2868133 -0.73772478 1.7609304 0 61
0 0 0 0 62
0 0 0 0 63
2.4541492 -0.25743276 -0.73562866 0 0
2.5507419 -0.26756504 -0.73896581 0 1
2.6265643 -0.2755186 -0.73469365 0 2
2.7229774 -0.28563204 -0.73459929 0 3
2.8268442 -0.29652733 -0.73466361 0 4
2.9261405 -0.30694324 -0.73166817 0 5
3.0749347 -0.32255131 -0.73874569 0 6
3.1923504 -0.33486784 -0.73581344 0 7
3.3215971 -0.34842542 -0.73333836 0 8
3.4823129 -0.36528403 -0.73513067 0 9
3.6437936 -0.38222286 -0.73410326 0 10
3.8505595 -0.40391198 -0.73878688 0 11
4.0193696 -0.42161962 -0.73271704 0 12
4.2612829 -0.44699562 -0.73617953 0 13
4.4909582 -0.47108784 -0.73316568 0 14
4.7556481 -0.498853 -0.73130327 0 15
5.10566 -0.53556818 -0.73687118 0 16
5.4258599 -0.56915617 -0.73193729 0 17
5.8735895 -0.61612165 -0.73710454 0 18
6.279212 -0.65867019 -0.72909868 0 19
6.2853789 -0.65931714 -0.67097276 0 20
6.2766542 -0.65840197 -0.61139566 0 21
6.27249 -0.65796512 -0.55248761 0 22
6.2815733 -0.6589179 -0.49479482 0 23
6.2791414 -0.6586628 -0.43621728 0 24
6.2782888 -0.65857339 -0.37785417 0 25
6.2764635 -0.65838188 -0.31952152 0 26
6.2675686 -0.65744889 -0.26098251 0 27
6.2746482 -0.6581915 -0.20316982 0 28
6.2806611 -0.65882224 -0.14523579 0 29
6.2732444 -0.65804422 -0.087028749 0 30
6.2823596 -0.6590004 -0.029050097 0 31
6.2606854 -0.65672684 0.028949874 0 32
6.2929616 -0.6601125 0.08730229 0 33
6.2842517 -0.65919888 0.14531881 0 34
6.2829914 -0.65906668 0.20343997 0 35
6.2715836 -0.65787005 0.2611497 0 36
6.2626514 -0.65693307 0.31881836 0 37
6.2917738 -0.65998793 0.37866578 0 38
6.2892728 -0.65972561 0.43692115 0 39
6.2747774 -0.65820509 0.49425954 0 40
6.2844896 -0.65922385 0.55354452 0 41
6.2744045 -0.65816593 0.61117649 0 42
6.2827082 -0.65903693 0.67068762 0 43
6.27914 -0.65866268 0.72909033 0 44
6.2994351 -0.66079158 0.79054588 0 45
6.2823443 -0.65899879 0.84747529 0 46
6.284431 -0.65921772 0.90699661 0 47
6.2896967 -0.65977007 0.96720278 0 48
6.2832208 -0.6590907 1.0257592 0 49
6.2661481 -0.65729988 1.0825403 0 50
6.2776151 -0.6585027 1.1443874 0 51
6.2952881 -0.66035652 1.2078441 0 52
6.2656946 -0.65725225 1.2623291 0 53
6.2655478 -0.65723687 1.3226831 0 54
6.2713184 -0.65784222 1.3845744 0 55
6.2779794 -0.6585409 1.4470284 0 56
6.2757626 -0.65830839 1.5077369 0 57
6.2801418 -0.65876776 1.570321 0 58
6.290719 -0.65987724 1.634884 0 59
6.2705445 -0.65776104 1.6916547 0 60
6.2780962 -0.65855312 1.7560877 0 61
0 0 0 0 62
0 0 0 0 63
2.4503479 -0.22661109 -0.73359847 0 0
2.5652411 -0.23723656 -0.74226511 0 1
2.6338675 -0.24358322 -0.735843 0 2
2.7373989 -0.25315791 -0.73759431 0 3
2.8380926 -0.26247019 -0.73669249 0 4
2.9445198 -0.2723127 -0.73537093 0 5
3.0677981 -0.28371364 -0.73613733 0 6
3.195394 -0.29551387 -0.73562181 0 7
3.349184 -0.30973655 -0.73853225 0 8
3.4747567 -0.32134965 -0.73264599 0 9
3.6443014 -0.33702934 -0.73331517 0 10
3.8481083 -0.35587767 -0.73742121 0 11
4.0209813 -0.37186518 -0.73212194 0 12
4.2577114 -0.39375824 -0.73467052 0 13
4.5320587 -0.41913021 -0.73897821 0 14
4.7617946 -0.44037646 -0.7313605 0 15
5.1164207 -0.47317272 -0.73752874 0 16
5.424509 -0.50166512 -0.73086768 0 17
5.8833451 -0.54409879 -0.73743343 0 18
6.2899318 -0.58170044 -0.72945774 0 19
6.2840505 -0.58115649 -0.67001742 0 20
6.2807207 -0.58084857 -0.61104983 0 21
6.2754669 -0.58036268 -0.55207944 0 22
6.2716498 -0.5800097 -0.49341407 0 23
6.2792954 -0.58071673 -0.43569899 0 24
6.2832222 -0.5810799 -0.37769249 0 25
6.2822986 -0.58099449 -0.31943071 0 26
6.2729869 -0.58013332 -0.26089138 0 27
6.2887244 -0.58158875 -0.20337868 0 28
6.2863684 -0.58137089 -0.14519148 0 29
6.2811379 -0.58088714 -0.087032579 0 30
6.2754292 -0.58035922 -0.028982861 0 31
6.2998261 -0.58261549 0.029095536 0 32
6.2858553 -0.58132344 0.08709795 0 33
6.2969961 -0.58235377 0.14543694 0 34
6.290246 -0.58172947 0.20342788 0 35
6.2960396 -0.58226532 0.26185012 0 36
6.2800646 -0.5807879 0.31931713 0 37
6.2731023 -0.58014399 0.37708417 0 38
6.2909598 -0.58179551 0.43650836 0 39
6.2732563 -0.58015823 0.49354047 0 40
6.2809067 -0.58086574 0.55255806 0 41
6.2702808 -0.57988304 0.61003411 0 42
6.2782073 -0.58061612 0.66939437 0 43
6.2744765 -0.58027107 0.72766531 0 44
6.2760015 -0.58041215 0.78665 0 45
6.2880034 -0.58152211 0.84720999 0 46
6.281827 -0.58095086 0.90552127 0 47
6.2710514 -0.57995433 0.96316612 0 48
6.2908726 -0.58178741 1.0257629 0 49
6.2744021 -0.58026421 1.0826516 0 50
6.2767968 -0.58048564 1.1428505 0 51
6.287662 -0.58149052 1.2049181 0 52
6.2861638 -0.58135194 1.2649171 0 53
6.2832804 -0.58108526 1.324818 0 54
6.2826948 -0.58103114 1.385404 0 55
6.2661676 -0.57950264 1.4425544 0 56
6.265295 -0.57942194 1.5033966 0 57
6.2805614 -0.58083385 1.5685214 0 58
6.2711887 -0.57996702 1.6278318 0 59
6.2918448 -0.58187735 1.6953427 0 60
6.2777114 -0.58057022 1.7538506 0 61
0 0 0 0 62
0 0 0 0 63
2.4541302 -0.19656023 -0.73395181 0 0
2.5522568 -0.20441955 -0.73772496 0 1
2.6491015 -0.21217619 -0.73931426 0 2
2.7249262 -0.21824928 -0.733455 0 3
2.8406181 -0.22751546 -0.73656613 0 4
2.9559078 -0.23674943 -0.73743218 0 5
3.0614333 -0.24520135 -0.73383111 0 6
3.2061782 -0.25679448 -0.73732179 0 7
3.3415713 -0.26763862 -0.73607224 0 8
3.4701338 -0.27793565 -0.7308954 0 9
3.6413381 -0.29164803 -0.73194194 0 10
3.84589 -0.30803135 -0.73621458 0 11
4.0176439 -0.32178771 -0.73073858 0 12
4.251977 -0.34055632 -0.732903 0 13
4.525979 -0.36250216 -0.73720437 0 14
4.7697415 -0.38202599 -0.73180425 0 15
5.116713 -0.40981618 -0.73678875 0 16
5.4277172 -0.43472564 -0.73052442 0 17
5.8685117 -0.47003049 -0.7347942 0 18
6.2920895 -0.50395638 -0.72893417 0 19
6.2704968 -0.50222695 -0.66786331 0 20
6.2664895 -0.50190598 -0.6090188 0 21
6.2790875 -0.50291497 -0.55181223 0 22
6.2739315 -0.50250202 -0.49307019 0 23
6.2885113 -0.5036698 -0.43587574 0 24
6.2788625 -0.50289696 -0.37703022 0 25
6.2855968 -0.50343633 -0.31925952 0 26
6.2760191 -0.50266922 -0.2607407 0 27
6.2879968 -0.50362855 -0.2031395 0 28
6.2781496 -0.50283986 -0.1448479 0 29
6.2785907 -0.50287521 -0.08690504 0 30
6.2660875 -0.50187379 -0.028909028 0 31
6.2867622 -0.50352967 0.029004412 0 32
6.2637138 -0.50168365 0.086699121 0 33
6.2794123 -0.50294101 0.14487703 0 34
6.2818613 -0.50313717 0.20294128 0 35
6.2745967 -0.50255531 0.26068163 0 36
6.2689171 -0.50210041 0.31841233 0 37
6.2786269 -0.50287807 0.37701604 0 38
6.2759271 -0.50266188 0.43500352 0 39
6.2784238 -0.50286186 0.49342322 0 40
6.2757239 -0.50264555 0.55151665 0 41
6.2723374 -0.50237435 0.60958719 0 42
6.2795014 -0.50294816 0.66882241 0 43
6.2825608 -0.5031932 0.72783029 0 44
6.2774811 -0.50278634 0.78600109 0 45
6.2895489 -0.50375289 0.84651965 0 46
6.2840624 -0.50331348 0.90488303 0 47
6.2827697 -0.50320995 0.96394271 0 48
6.2815022 -0.50310844 1.023149 0 49
6.2929749 -0.50402731 1.084705 0 50
6.2817025 -0.50312442 1.1425309 0 51
6.2829251 -0.50322235 1.2027336 0 52
6.2674575 -0.50198352 1.2598157 0 53
6.285059 -0.50339329 1.3237878 0 54
6.2763433 -0.5026952 1.3825358 0 55
6.2799506 -0.50298417 1.4441943 0 56
6.2678084 -0.50201166 1.5024049 0 57
6.291059 -0.50387383 1.5694771 0 58
6.2775474 -0.50279164 1.6277544 0 59
6.2737617 -0.50248843 1.6886777 0 60
6.2776198 -0.50279742 1.7519653 0 61
0 0 0 0 62
0 0 0 0 63
2.4612355 -0.16670063 -0.73540813 0 0
2.5446932 -0.17235325 -0.73487055 0 1
2.619055 -0.17738982 -0.7302649 0 2
2.7340217 -0.18517657 -0.73523468 0 3
2.8450606 -0.19269729 -0.73704797 0 4
2.9457183 -0.19951488 -0.73422265 0 5
3.0605011 -0.20728917 -0.73294121 0 6
3.1896327 -0.21603532 -0.73285055 0 7
3.3402133 -0.22623421 -0.73510474 0 8
3.5103428 -0.23775716 -0.73869282 0 9
3.6502845 -0.24723548 -0.73307371 0 10
3.8479562 -0.26062387 -0.73594099 0 11
4.0722637 -0.27581632 -0.74000019 0 12
4.2550883 -0.28819913 -0.73277313 0 13
4.5227232 -0.30632618 -0.73600489 0 14
4.7578926 -0.32225427 -0.72932315 0 15
5.1078844 -0.3459594 -0.73484933 0 16
5.4374366 -0.36828011 -0.73116779 0 17
5.8837876 -0.39851171 -0.73603767 0 18
6.2871299 -0.42583025 -0.72769803 0 19
6.2822938 -0.42550269 -0.66851205 0 20
6.2868214 -0.42580935 -0.61043978 0 21
6.2875581 -0.42585924 -0.5520547 0 22
6.2864838 -0.42578647 -0.49360788 0 23
6.2758932 -0.42506915 -0.43460599 0 24
6.2672372 -0.42448288 -0.37599027 0 25
6.2856421 -0.42572948 -0.31897181 0 26
6.2753153 -0.42503005 -0.26047465 0 27
6.2857776 -0.42573866 -0.20288335 0 28
6.2865143 -0.42578855 -0.14490913 0 29
6.2711844 -0.42475027 -0.086723678 0 30
6.2835193 -0.42558569 -0.028963117 0 31
6.2646389 -0.42430693 0.02887609 0 32
6.2666798 -0.42444515 0.086661384 0 33
6.2759585 -0.42507359 0.14466581 0 34
6.2686157 -0.42457625 0.20232941 0 35
6.2878938 -0.42588198 0.26099673 0 36
6.28022 -0.42536223 0.31869665 0 37
6.2848458 -0.42567554 0.37704667 0 38
6.2847147 -0.42566669 0.4352169 0 39
6.2845631 -0.42565641 0.49345708 0 40
6.2829041 -0.42554405 0.55164611 0 41
6.290585 -0.42606428 0.61080527 0 42
6.2777686 -0.4251962 0.6680305 0 43
6.2804737 -0.42537943 0.72692758 0 44
6.2844486 -0.42564863 0.78615868 0 45
6.2736683 -0.42491847 0.84361523 0 46
6.281877 -0.42547446 0.9037466 0 47
6.261528 -0.42409623 0.95981097 0 48
6.2663603 -0.42442352 1.0197555 0 49
6.2641287 -0.42427236 1.078752 0 50
6.2775631 -0.42518228 1.1407409 0 51
6.2703767 -0.42469552 1.199241 0 52
6.2799306 -0.42534262 1.2611762 0 53
6.2756438 -0.42505229 1.3206041 0 54
6.2721739 -0.42481726 1.3803623 0 55
6.2733698 -0.42489827 1.4413705 0 56
6.2767577 -0.42512774 1.5031835 0 57
6.2714806 -0.4247703 1.5631714 0 58
6.2801309 -0.42535621 1.6269453 0 59
6.2822075 -0.42549685 1.6894149 0 60
6.2765718 -0.42511514 1.7500817 0 61
0 0 0 0 62
0 0 0 0 63
2.4556558 -0.13601354 -0.73318577 0 0
2.5303335 -0.14014977 -0.73017085 0 1
2.6283715 -0.14557989 -0.73230815 0 2
2.7357945 -0.15152983 -0.73515481 0 3
2.8371897 -0.15714589 -0.73445278 0 4
2.9452949 -0.16313359 -0.73356164 0 5
3.079509 -0.17056744 -0.73693532 0 6
3.1911621 -0.17675166 -0.73264718 0 7
3.3319452 -0.18454935 -0.73273033 0 8
3.5150628 -0.19469182 -0.73912638 0 9
3.6553741 -0.20246337 -0.73354042 0 10
3.8278029 -0.21201384 -0.73153269 0 11
4.0471172 -0.22416118 -0.73487413 0 12
4.2640967 -0.23617923 -0.73376888 0 13
4.5325809 -0.25105 -0.73705095 0 14
4.7722363 -0.26432398 -0.73096842 0 15
5.1261172 -0.2839247 -0.73691446 0 16
5.5085182 -0.30510509 -0.74016571 0 17
5.8677645 -0.32500294 -0.73347783 0 18
6.2770925 -0.34767476 -0.72598654 0 19
6.2767787 -0.34765738 -0.66741979 0 20
6.2836599 -0.34803849 -0.60967118 0 21
6.2699118 -0.34727705 -0.55008882 0 22
6.2672868 -0.34713164 -0.49172822 0 23
6.2705083 -0.34731007 -0.43390456 0 24
6.2852588 -0.34812707 -0.37678614 0 25
6.2685223 -0.34720007 -0.31786236 0 26
6.2717414 -0.34737837 -0.26012933 0 27
6.293715 -0.34859547 -0.20298584 0 28
6.2712407 -0.34735066 -0.14444768 0 29
6.2797408 -0.34782144 -0.086776294 0 30
6.2908106 -0.3484346 -0.028974786 0 31
6.2731385 -0.34745574 0.028893391 0 32
6.2776427 -0.34770525 0.086747304 0 33
6.2873154 -0.34824097 0.14481793 0 34
6.2741804 -0.34751347 0.2023558 0 35
6.2722025 -0.34740391 0.26014844 0 36
6.2845216 -0.34808624 0.31867364 0 37
6.2747302 -0.34754393 0.37615499 0 38
6.2826672 -0.34798354 0.43474591 0 39
6.2871137 -0.34822983 0.49328384 0 40
6.2644782 -0.3469761 0.5496121 0 41
6.271059 -0.34734058 0.60844857 0 42
6.262063 -0.34684232 0.66585505 0 43
6.2712212 -0.34734955 0.72530746 0 44
6.275907 -0.3476091 0.78449619 0 45
6.28334 -0.34802079 0.84427649 0 46
6.2878757 -0.34827203 0.90392518 0 47
6.2700644 -0.34728548 0.9603923 0 48
6.2883859 -0.34830028 1.0225655 0 49
6.277246 -0.34768325 1.080193 0 50
6.2823601 -0.34796652 1.1407487 0 51
6.2836866 -0.34803998 1.2008774 0 52
6.3019843 -0.34905347 1.2646476 0 53
6.2731543 -0.34745663 1.3190813 0 54
6.274559 -0.34753445 1.3798425 0 55
6.2753019 -0.34757558 1.4407234 0 56
6.261497 -0.34681097 1.4983943 0 57
6.2842841 -0.3480731 1.5651777 0 58
6.2809129 -0.34788638 1.6259167 0 59
6.2831149 -0.34800833 1.6883805 0 60
6.2729425 -0.34744492 1.7477465 0 61
0 0 0 0 62
0 0 0 0 63
2.4734497 -0.10651186 -0.73805165 0 0
2.5346873 -0.10914887 -0.73098457 0 1
2.6403584 -0.11369929 -0.73520273 0 2
2.7345057 -0.11775346 -0.73436385 0 3
2.8347204 -0.12206893 -0.73336959 0 4
2.9422736 -0.12670039 -0.73236573 0 5
3.0777895 -0.13253598 -0.7360782 0 6
3.2028441 -0.13792109 -0.73488426 0 7
3.3412383 -0.14388064 -0.73432934 0 8
3.4962745 -0.1505568 -0.73473084 0 9
3.6437442 -0.15690716 -0.73076421 0 10
3.8507318 -0.16582046 -0.73546934 0 11
4.0575089 -0.17472471 -0.73631525 0 12
4.2534976 -0.1831644 -0.73150206 0 13
4.5318384 -0.19515035 -0.73648441 0 14
4.775157 -0.20562814 -0.73097324 0 15
5.1258941 -0.22073159 -0.73643649 0 16
5.4899302 -0.23640773 -0.73722166 0 17
5.8739686 -0.25294524 -0.73380911 0 18
6.2771888 -0.2703087 -0.72555834 0 19
6.2873697 -0.27074715 -0.66814142 0 20
6.2667508 -0.26985925 -0.60766268 0 21
6.273025 -0.27012941 -0.55002898 0 22
6.2767763 -0.27029097 -0.4921748 0 23
6.2731695 -0.27013564 -0.43382606 0 24
6.2844062 -0.27061954 -0.3765071 0 25
6.2608366 -0.26960456 -0.31728053 0 26
6.2627325 -0.26968622 -0.25959849 0 27
6.2776847 -0.27033007 -0.20234631 0 28
6.2798181 -0.27042195 -0.14455773 0 29
6.2755337 -0.27023745 -0.08666569 0 30
6.2892895 -0.27082983 -0.028950254 0 31
6.2873201 -0.27074501 0.028941188 0 32
6.2700448 -0.27000111 0.086589888 0 33
6.2858911 -0.27068347 0.14469753 0 34
6.2827988 -0.27055031 0.20251116 0 35
6.2695999 -0.26998192 0.25988317 0 36
6.2732754 -0.2701402 0.31791091 0 37
6.284512 -0.27062407 0.37651345 0 38
6.2783647 -0.27035937 0.43418533 0 39
6.2820587 -0.27051842 0.492589 0 40
6.2703581 -0.27001458 0.54979509 0 41
6.2667098 -0.2698575 0.60765874 0 42
6.2960877 -0.27112255 0.66906786 0 43
6.2937698 -0.27102274 0.72747493 0 44
6.2922435 -0.27095702 0.78606236 0 45
6.2805457 -0.27045327 0.84339046 0 46
6.2801638 -0.27043682 0.90227026 0 47
6.2758718 -0.27025202 0.96070021 0 48
6.2862616 -0.27069941 1.0216016 0 49
6.2852874 -0.27065748 1.0809224 0 50
6.2810082 -0.27047321 1.1398133 0 51
6.2895985 -0.27084309 1.2012799 0 52
6.2903934 -0.27087736 1.2615579 0 53
6.2669177 -0.26986644 1.3169726 0 54
6.2786288 -0.27037075 1.379902 0 55
6.2827401 -0.27054778 1.4415584 0 56
6.2668581 -0.26986384 1.4987696 0 57
6.2687063 -0.26994345 1.560353 0 58
6.2716541 -0.2700704 1.6225375 0 59
6.2862825 -0.27070031 1.6882095 0 60
6.2901063 -0.27086499 1.7514681 0 61
0 0 0 0 62
0 0 0 0 63
2.4711864 -0.075987287 -0.73704177 0 0
2.5451627 -0.078262009 -0.73367262 0 1
2.6352608 -0.081032462 -0.73345041 0 2
2.7435205 -0.084361374 -0.73645055 0 3
2.8424494 -0.087403364 -0.73503548 0 4
2.9339921 -0.090218246 -0.72997308 0 5
3.0698225 -0.094394937 -0.73383975 0 6
3.1826866 -0.097865425 -0.72992784 0 7
3.3282342 -0.10234092 -0.73113954 0 8
3.5006254 -0.10764183 -0.73531145 0 9
3.649307 -0.11221369 -0.73154777 0 10
3.8417299 -0.11813056 -0.73341715 0 11
4.0517354 -0.12458808 -0.73493397 0 12
4.2695441 -0.13128555 -0.73392856 0 13
4.522706 -0.13907011 -0.73466676 0 14
4.8238564 -0.14833027 -0.73809302 0 15
5.1158018 -0.15730739 -0.73465306 0 16
5.486999 -0.16872147 -0.73649383 0 17
5.8537884 -0.17999998 -0.73095632 0 18
6.2733879 -0.19290237 -0.7247901 0 19
6.2690096 -0.19276775 -0.66588813 0 20
6.276125 -0.19298653 -0.60829556 0 21
6.2827559 -0.19319043 -0.55063224 0 22
6.2992435 -0.19369742 -0.4937124 0 23
6.2866616 -0.19331054 -0.43456188 0 24
6.2748899 -0.19294856 -0.3757664 0 25
6.27215 -0.1928643 -0.31770965 0 26
6.2877584 -0.19334427 -0.26051763 0 27
6.2739673 -0.19292018 -0.20213474 0 28
6.2751904 -0.19295779 -0.14438567 0 29
6.2822614 -0.19317523 -0.086719237 0 30
6.2816272 -0.19315574 -0.028901866 0 31
6.2626448 -0.19257203 0.028814526 0 32
6.2898288 -0.19340792 0.086823702 0 33
6.2702203 -0.19280498 0.14427131 0 34
6.270164 -0.19280323 0.20201221 0 35
6.2692523 -0.1927752 0.25975084 0 36
6.2968864 -0.19362494 0.31896269 0 37
6.2857208 -0.19328161 0.37641498 0 38
6.2874689 -0.19333535 0.4346177 0 39
6.2635818 -0.19260085 0.49091738 0 40
6.276269 -0.19299097 0.55006373 0 41
6.2820315 -0.19316816 0.60886806 0 42
6.2769065 -0.19301057 0.66672695 0 43
6.2820406 -0.19316843 0.72578973 0 44
6.2686925 -0.19275799 0.78276497 0 45
6.2702851 -0.19280696 0.84163058 0 46
6.2684708 -0.19275117 0.90018177 0 47
6.2632413 -0.19259037 0.95833176 0 48
6.2796464 -0.19309482 1.0200635 0 49
6.2904491 -0.19342698 1.0813192 0 50
6.277204 -0.19301972 1.1386062 0 51
6.2861314 -0.19329423 1.200073 0 52
6.2926488 -0.19349463 1.2614377 0 53
6.2792463 -0.19308251 1.3189647 0 54
6.291019 -0.19344451 1.3819978 0 55
6.2841682 -0.19323386 1.441232 0 56
6.2825565 -0.19318432 1.5018425 0 57
6.2814484 -0.19315024 1.5628154 0 58
6.2749882 -0.19295157 1.6226636 0 59
6.285995 -0.19329002 1.6873665 0 60
6.2814536 -0.19315039 1.7482653 0 61
0 0 0 0 62
0 0 0 0 63
2.4725287 -0.045607939 -0.7372191 0 0
2.5602608 -0.047226235 -0.73780167 0 1
2.6307378 -0.048526242 -0.73197013 0 2
2.7211161 -0.050193351 -0.73021561 0 3
2.8313501 -0.052226711 -0.73194391 0 4
2.9479942 -0.054378312 -0.733235 0 5
3.08003 -0.056813825 -0.73605716 0 6
3.2012434 -0.059049714 -0.73396176 0 7
3.3425572 -0.061656371 -0.73406392 0 8
3.5000601 -0.06456165 -0.73497039 0 9
3.6794009 -0.067869745 -0.73735744 0 10
3.8366656 -0.070770629 -0.73222888 0 11
4.0756097 -0.075178161 -0.73904097 0 12
4.2495146 -0.078385986 -0.73026466 0 13
4.5250416 -0.083468325 -0.73482388 0 14
4.8466635 -0.089400917 -0.74135846 0 15
5.1133909 -0.094320938 -0.73408484 0 16
5.4982958 -0.10142083 -0.73778689 0 17
5.866993 -0.10822178 -0.73238361 0 18
6.2796903 -0.11583434 -0.72529882 0 19
6.2817397 -0.11587214 -0.6670385 0 20
6.2908106 -0.11603946 -0.6095345 0 21
6.275835 -0.11576322 -0.5498594 0 22
6.2785149 -0.11581266 -0.49193898 0 23
6.2761526 -0.11576908 -0.43370423 0 24
6.2792253 -0.11582576 -0.37591234 0 25
6.285439 -0.11594038 -0.31828657 0 26
6.2810292 -0.11585903 -0.26016009 0 27
6.2767382 -0.11577988 -0.20216288 0 28
6.2874703 -0.11597785 -0.14462449 0 29
6.2675066 -0.1156096 -0.086489402 0 30
6.2886629 -0.11599985 -0.028925486 0 31
6.2876759 -0.11598164 0.028920947 0 32
6.2721109 -0.11569453 0.08655294 0 33
6.2879515 -0.11598673 0.14463554 0 34
6.2717433 -0.11568775 0.202002 0 35
6.2733302 -0.11571702 0.2598412 0 36
6.276495 -0.11577541 0.31783363 0 37
6.2948771 -0.11611447 0.37684932 0 38
6.2878218 -0.11598433 0.43451062 0 39
6.2700472 -0.11565647 0.49127552 0 40
6.2785759 -0.11581378 0.55009949 0 41
6.2785592 -0.11581348 0.60834748 0 42
6.2675261 -0.11560996 0.66552919 0 43
6.2722559 -0.11569721 0.72444016 0 44
6.2846513 -0.11592585 0.78452039 0 45
6.2772346 -0.11578904 0.84230858 0 46
6.2855377 -0.1159422 0.90235966 0 47
6.2778869 -0.11580107 0.96028215 0 48
6.2784586 -0.11581162 1.0195622 0 49
6.2945895 -0.11610918 1.0817039 0 50
6.2859883 -0.11595051 1.1398547 0 51
6.2874379 -0.11597725 1.1999595 0 52
6.2674713 -0.11560895 1.2560105 0 53
6.2799678 -0.11583946 1.3187174 0 54
6.2740283 -0.11572991 1.3778486 0 55
6.292738 -0.11607502 1.4427609 0 56
6.2792549 -0.11582631 1.5005993 0 57
6.2833114 -0.11590113 1.5628061 0 58
6.2924972 -0.11607057 1.6266992 0 59
6.2742114 -0.11573328 1.6836941 0 60
6.2812066 -0.11586231 1.7476678 0 61
0 0 0 0 62
0 0 0 0 63
2.4734392 -0.015206711 -0.73737913 0 0
2.5628996 -0.015756715 -0.73845041 0 1
2.6516356 -0.016302265 -0.73767322 0 2
2.7299931 -0.016784007 -0.73248702 0 3
2.8417802 -0.017471274 -0.7345292 0 4
2.9567761 -0.018178269 -0.73530805 0 5
3.0764692 -0.018914143 -0.73509508 0 6
3.204756 -0.01970285 -0.73465598 0 7
3.3494198 -0.020592242 -0.7354598 0 8
3.5039434 -0.021542255 -0.73567462 0 9
3.6871448 -0.022668578 -0.73879761 0 10
3.8513539 -0.023678135 -0.73492098 0 11
4.0534029 -0.024920335 -0.73490304 0 12
4.2740593 -0.026276929 -0.73437148 0 13
4.5208855 -0.027794419 -0.734038 0 14
4.8120804 -0.029584685 -0.73595726 0 15
5.1010942 -0.031361543 -0.73220879 0 16
5.4985776 -0.03380527 -0.73771322 0 17
5.8690448 -0.036082905 -0.73252898 0 18
6.2729783 -0.038566291 -0.72441405 0 19
6.2682052 -0.038536947 -0.6655007 0 20
6.2852044 -0.038641457 -0.6088993 0 21
6.2764869 -0.038587861 -0.54983336 0 22
6.272963 -0.038566198 -0.49142966 0 23
6.2851772 -0.038641289 -0.43426225 0 24
6.2726164 -0.038564064 -0.37545991 0 25
6.2905054 -0.038674045 -0.31849492 0 26
6.2831998 -0.038629133 -0.26021066 0 27
6.2714853 -0.038557112 -0.20196316 0 28
6.2754426 -0.038581438 -0.14432599 0 29
6.2807903 -0.038614318 -0.08665961 0 30
6.2785358 -0.038600456 -0.028874539 0 31
6.2719893 -0.038560212 0.028844433 0 32
6.2817512 -0.038620226 0.086672865 0 33
6.2826691 -0.03862587 0.14449218 0 34
6.284637 -0.038637966 0.20238668 0 35
6.2783217 -0.038599141 0.26000866 0 36
6.2857156 -0.038644597 0.31825241 0 37
6.2786894 -0.038601402 0.37582341 0 38
6.2736683 -0.038570534 0.43346706 0 39
6.2872281 -0.038653899 0.49254721 0 40
6.2718711 -0.038559482 0.549429 0 41
6.2656422 -0.038521189 0.60700417 0 42
6.2733278 -0.038568437 0.66604459 0 43
6.2783022 -0.038599022 0.72502887 0 44
6.2986069 -0.038723856 0.78614366 0 45
6.2919707 -0.038683057 0.84415835 0 46
6.2860537 -0.038646676 0.90229732 0 47
6.285809 -0.038645174 0.96134865 0 48
6.2935457 -0.038692739 1.0218577 0 49
