# .PCD v0.7 - Point Cloud Data file format
VERSION 0.7
FIELDS x y z intensity ring
SIZE 4 4 4 4 2
TYPE F F F F U
COUNT 1 1 1 1 1
WIDTH 1226
HEIGHT 1
VIEWPOINT 0 0 0 1 0 0 0
POINTS 1226
DATA ascii
-1.066011 -2.0654192 -0.26840812 0 19
-1.0578288 -2.049566 -0.24487339 0 20
-1.0660591 -2.0655124 -0.22517917 0 21
-1.0594974 -2.0527987 -0.20236492 0 22
-1.0609393 -2.0555928 -0.18121748 0 23
-1.0659757 -2.0653505 -0.16058415 0 24
-1.0619302 -2.0575125 -0.13858993 0 25
-1.0650572 -2.0635712 -0.11757387 0 26
-1.062157 -2.0579522 -0.095907785 0 27
-1.0631499 -2.059876 -0.074647821 0 28
-1.0600946 -2.053956 -0.053157642 0 29
-1.0686542 -2.0705402 -0.032148484 0 30
-1.0605674 -2.054872 -0.010634471 0 31
-1.0683239 -2.0699005 0.010712245 0 32
-1.0699179 -2.072989 0.032186504 0 33
-1.066514 -2.0663939 0.053479541 0 34
-1.0700212 -2.0731888 0.075130276 0 35
-1.0661993 -2.065784 0.096272781 0 36
-1.0662978 -2.0659747 0.11771081 0 37
-1.0640248 -2.0615709 0.1388633 0 38
-1.059207 -2.0522363 0.1595645 0 39
-1.0629843 -2.0595548 0.18156677 0 40
-1.0542943 -2.0427179 0.20137113 0 41
-1.0572467 -2.0484381 0.22331776 0 42
-1.0561985 -2.046407 0.24449599 0 43
-1.0661118 -2.0656145 0.26843351 0 44
-1.0639983 -2.0615196 0.28954709 0 45
-1.0647398 -2.0629561 0.31145951 0 46
-1.0625287 -2.0586722 0.33253181 0 47
-1.0635256 -2.0606036 0.35464069 0 48
-1.0621591 -2.057956 0.37601525 0 49
-1.0600072 -2.0537868 0.39710468 0 50
-1.0673349 -2.0679843 0.4219217 0 51
-1.063931 -2.0613892 0.44265112 0 52
-1.0660721 -2.0655375 0.46573913 0 53
-1.0554194 -2.0448978 0.48314184 0 54
-1.0629994 -2.0595839 0.50891262 0 55
-1.0636536 -2.0608516 0.53163087 0 56
-1.0712014 -2.0754757 0.55806267 0 57
-1.0655692 -2.064563 0.57776791 0 58
-1.0655068 -2.0644422 0.60047603 0 59
-1.0622782 -2.0581865 0.62143755 0 60
-1.0628998 -2.0593913 0.64470851 0 61
-1.0614873 -2.0566545 0.66684586 0 62
-1.0621547 -2.0579474 0.69039595 0 63
-1.0463927 -2.0900705 -0.69680333 0 0
-1.0382941 -2.0738943 -0.66824549 0 1
-1.0416183 -2.080534 -0.64726877 0 2
-1.0483952 -2.0940702 -0.6283322 0 3
-1.0445333 -2.0863564 -0.60306865 0 4
-1.0509671 -2.0992074 -0.58380246 0 5
-1.0459901 -2.0892663 -0.55827016 0 6
-1.0477941 -2.0928695 -0.53652614 0 7
-1.0436029 -2.0844982 -0.51185924 0 8
-1.0400225 -2.0773466 -0.48775002 0 9
-1.04531 -2.087908 -0.46784964 0 10
-1.0468861 -2.0910559 -0.44622362 0 11
-1.0459665 -2.0892191 -0.42359802 0 12
-1.0432557 -2.0838046 -0.40039805 0 13
-1.0486608 -2.0946007 -0.38032591 0 14
-1.04348 -2.0842526 -0.35647556 0 15
-1.0421335 -2.081563 -0.3341341 0 16
-1.0456437 -2.0885744 -0.31336236 0 17
-1.0405407 -2.0783815 -0.2900964 0 18
-1.0498128 -2.0969017 -0.27080137 0 19
-1.0476484 -2.0925786 -0.24845445 0 20
-1.0387293 -2.0747635 -0.22477828 0 21
-1.0449173 -2.0871236 -0.20446657 0 22
-1.0422255 -2.0817468 -0.18237957 0 23
-1.0441538 -2.0855985 -0.161148 0 24
-1.0460839 -2.0894539 -0.13986443 0 25
-1.0422405 -2.0817769 -0.11787205 0 26
-1.0415721 -2.0804417 -0.096351713 0 27
-1.048525 -2.0943294 -0.075423449 0 28
-1.0483483 -2.0939765 -0.053855699 0 29
-1.0445679 -2.0864258 -0.032193266 0 30
-1.049427 -2.0961313 -0.010780399 0 31
-1.0390749 -2.0754538 0.010674055 0 32
-1.0402259 -2.0777528 0.032059446 0 33
-1.0352402 -2.0677943 0.053182308 0 34
-1.0488272 -2.094933 0.07544519 0 35
-1.0429685 -2.083231 0.096480891 0 36
-1.0419108 -2.0811181 0.11783475 0 37
-1.0525669 -2.1024029 0.14073122 0 38
-1.0356795 -2.0686719 0.15984012 0 39
-1.0489402 -2.0951588 0.1835546 0 40
-1.0497017 -2.0966799 0.20540275 0 41
-1.0473593 -2.0920012 0.2266458 0 42
-1.044791 -2.0868711 0.24777679 0 43
-1.0462224 -2.0897305 0.26987523 0 44
-1.0428836 -2.0830615 0.29074961 0 45
-1.0466158 -2.0905161 0.31365371 0 46
-1.0474223 -2.0921271 0.33582985 0 47
-1.045945 -2.0891764 0.35731769 0 48
-1.0459131 -2.0891125 0.37932944 0 49
-1.0497081 -2.0966928 0.4028745 0 50
-1.0460957 -2.0894773 0.42365038 0 51
-1.0444036 -2.0860975 0.44516549 0 52
-1.0417792 -2.0808554 0.46626931 0 53
-1.0419655 -2.0812275 0.48866123 0 54
-1.0465904 -2.0904655 0.51332456 0 55
-1.0411174 -2.0795338 0.5331074 0 56
-1.0451896 -2.0876675 0.55784297 0 57
-1.0400033 -2.0773082 0.57771218 0 58
-1.0492525 -2.0957825 0.6057933 0 59
-1.048123 -2.0935266 0.628169 0 60
-1.0427468 -2.0827882 0.64797002 0 61
-1.0511539 -2.0995805 0.67652208 0 62
-1.0517952 -2.1008615 0.70040089 0 63
-1.0240681 -2.1098928 -0.69916075 0 0
-1.0281683 -2.1183403 -0.67844176 0 1
-1.0239114 -2.1095698 -0.6523357 0 2
-1.0262532 -2.1143947 -0.63059646 0 3
-1.0273311 -2.1166155 -0.60811764 0 4
-1.0268291 -2.1155813 -0.58480042 0 5
-1.025183 -2.1121898 -0.56098461 0 6
-1.0263662 -2.1146276 -0.53882784 0 7
-1.027307 -2.1165659 -0.51659268 0 8
-1.0304972 -2.1231387 -0.49548909 0 9
-1.0293053 -2.1206832 -0.47232199 0 10
-1.0252955 -2.1124215 -0.44805869 0 11
-1.0201743 -2.1018703 -0.42358765 0 12
-1.025269 -2.1123669 -0.40343329 0 13
-1.0315013 -2.1252074 -0.38355127 0 14
-1.0310186 -2.124213 -0.36111444 0 15
-1.0274974 -2.1169584 -0.33776215 0 16
-1.0264529 -2.1148062 -0.31538051 0 17
-1.0250425 -2.1119003 -0.29299346 0 18
-1.0288848 -2.1198168 -0.27210623 0 19
-1.0274628 -2.1168871 -0.24982166 0 20
-1.0342454 -2.130861 -0.22946069 0 21
-1.0260141 -2.1139021 -0.2058384 0 22
-1.0280901 -2.1181796 -0.18444991 0 23
-1.0273767 -2.1167095 -0.16256343 0 24
-1.0276566 -2.117286 -0.14087094 0 25
-1.0275694 -2.1171067 -0.11914802 0 26
-1.0281949 -2.1183953 -0.097516544 0 27
-1.0235156 -2.1087544 -0.075483978 0 28
-1.022589 -2.1068451 -0.0538592 0 29
-1.0313309 -2.1248565 -0.032588106 0 30
-1.0260736 -2.1140246 -0.010806718 0 31
-1.0197213 -2.1009371 0.010739815 0 32
-1.0308675 -2.1239016 0.032573462 0 33
-1.0339115 -2.1301732 0.054455552 0 34
-1.0255649 -2.1129766 0.07563512 0 35
-1.0292691 -2.1206086 0.097618431 0 36
-1.0276675 -2.1173086 0.11915939 0 37
-1.0215697 -2.1047454 0.14003658 0 38
-1.0249263 -2.111661 0.16217571 0 39
-1.0230855 -2.1078682 0.18355201 0 40
-1.0267366 -2.1153908 0.20598336 0 41
-1.0233333 -2.1083789 0.22703969 0 42
-1.0254406 -2.1127205 0.24932994 0 43
-1.0234145 -2.1085463 0.27065951 0 44
-1.0278491 -2.1176829 0.29379568 0 45
-1.0219922 -2.1056159 0.31400996 0 46
-1.0236583 -2.1090486 0.33650014 0 47
-1.0272907 -2.1165323 0.35980877 0 48
-1.0302538 -2.1226373 0.3830874 0 49
-1.020044 -2.1016018 0.40137729 0 50
-1.0272744 -2.1164987 0.42653567 0 51
-1.0245309 -2.110846 0.44772452 0 52
-1.0234386 -2.1085958 0.46962988 0 53
-1.026166 -2.1142149 0.49340653 0 54
-1.023764 -2.109266 0.51481098 0 55
-1.0288765 -2.1197996 0.54014575 0 56
-1.0330726 -2.1284447 0.56530184 0 57
-1.0309465 -2.1240644 0.58714539 0 58
-1.0300207 -2.1221571 0.6097098 0 59
-1.0226768 -2.1070263 0.6283989 0 60
-1.0335555 -2.1294398 0.65848005 0 61
-1.0264781 -2.1148582 0.6773265 0 62
-1.0295749 -2.1212385 0.70292044 0 63
-1.0085601 -2.1446776 -0.70652449 0 0
-1.0087861 -2.1451583 -0.68300635 0 1
-1.0023891 -2.1315548 -0.65527308 0 2
-1.0066552 -2.1406269 -0.63468021 0 3
-1.0054387 -2.1380401 -0.6106748 0 4
-1.0021833 -2.1311173 -0.58564425 0 5
-1.0039394 -2.1348519 -0.5636822 0 6
-1.0054213 -2.1380031 -0.54159296 0 7
-1.0103132 -2.1484053 -0.52129221 0 8
-1.0108033 -2.1494479 -0.49869063 0 9
-1.0074015 -2.1422138 -0.4743225 0 10
-0.99589473 -2.1177449 -0.4465566 0 11
-1.0109764 -2.1498158 -0.43071216 0 12
-1.0028549 -2.1325457 -0.40490139 0 13
-1.0077033 -2.1428554 -0.38447097 0 14
-1.0040385 -2.1350625 -0.36083272 0 15
-1.0084102 -2.1443589 -0.34012979 0 16
-1.0090054 -2.1456244 -0.31810212 0 17
-1.0045192 -2.1360846 -0.29461271 0 18
-1.0053726 -2.1378996 -0.27281988 0 19
-1.008019 -2.1435268 -0.25148371 0 20
-0.9997052 -2.1258478 -0.22757988 0 21
-1.0092604 -2.1461668 -0.207756 0 22
-1.0066355 -2.1405852 -0.1853091 0 23
-1.0061074 -2.139462 -0.16334835 0 24
-1.0105413 -2.1488905 -0.14213622 0 25
-1.0077851 -2.1430295 -0.11990044 0 26
-1.0101714 -2.1481042 -0.098304905 0 27
-1.006238 -2.1397398 -0.076144464 0 28
-1.0123378 -2.1527107 -0.054709341 0 29
-1.0035536 -2.1340315 -0.032537103 0 30
-1.0059608 -2.1391501 -0.010871103 0 31
-1.0061162 -2.1394806 0.010872781 0 32
-1.0038275 -2.1346138 0.032545984 0 33
-1.0055163 -2.1382048 0.054340687 0 34
-1.0052233 -2.1375818 0.076067671 0 35
-1.0102136 -2.1481938 0.09830901 0 36
-1.007298 -2.1419938 0.11984248 0 37
-1.0060846 -2.1394134 0.14150935 0 38
-1.0048394 -2.1367657 0.16314247 0 39
-1.0042613 -2.1355362 0.18487203 0 40
-1.0042726 -2.1355603 0.20672925 0 41
-1.0076859 -2.1428187 0.22939666 0 42
-1.009177 -2.1459894 0.25177264 0 43
-1.0035939 -2.1341171 0.2723372 0 44
-1.0113076 -2.1505201 0.29660368 0 45
-1.0124016 -2.1528466 0.31917283 0 46
-1.0085722 -2.1447034 0.34018448 0 47
-1.0115105 -2.1509514 0.36351803 0 48
-1.0111834 -2.1502559 0.38579872 0 49
-1.012455 -2.1529601 0.40877739 0 50
-1.0063524 -2.1399832 0.4287422 0 51
-1.007185 -2.1417534 0.45161912 0 52
-1.0071362 -2.1416497 0.47419763 0 53
-1.0055628 -2.138304 0.49610513 0 54
-1.0101739 -2.1481092 0.52122033 0 55
-1.0130486 -2.1542225 0.54570162 0 56
-1.0118157 -2.1516006 0.56810451 0 57
-1.0049585 -2.1370189 0.58726603 0 58
-1.0027256 -2.1322706 0.60902697 0 59
-0.99674082 -2.1195443 0.62842941 0 60
-1.0100511 -2.1478481 0.66028184 0 61
-1.0113322 -2.1505723 0.68473017 0 62
-1.0056341 -2.1384554 0.70447475 0 63
-0.98968697 -2.1735482 -0.71197253 0 0
-0.9922328 -2.1791394 -0.68988883 0 1
-0.98767895 -2.1691382 -0.66304308 0 2
-0.98960298 -2.1733639 -0.6407302 0 3
-0.98789173 -2.1696055 -0.61617446 0 4
-0.98883718 -2.1716819 -0.59340537 0 5
-0.98512107 -2.1635206 -0.56801045 0 6
-0.98745251 -2.1686411 -0.54623693 0 7
-0.9930681 -2.1809738 -0.52619189 0 8
-0.99232107 -2.1793332 -0.50275534 0 9
-0.98534095 -2.1640036 -0.47642836 0 10
-0.98398727 -2.1610305 -0.45309836 0 11
-0.99493772 -2.1850798 -0.43529326 0 12
-0.98467791 -2.1625473 -0.40826795 0 13
-0.986516 -2.1665843 -0.38652265 0 14
-0.98802447 -2.1698971 -0.36463907 0 15
-0.98524725 -2.1637976 -0.34126568 0 16
-0.98794866 -2.1697307 -0.31985074 0 17
-0.98152816 -2.1556299 -0.29562145 0 18
-0.98968601 -2.1735461 -0.27579495 0 19
-0.98850298 -2.170948 -0.25325564 0 20
-0.9874711 -2.1686819 -0.23084807 0 21
-0.98257011 -2.1579182 -0.20770828 0 22
-0.98606139 -2.1655858 -0.18640965 0 23
-0.99144137 -2.1774013 -0.16530171 0 24
-0.99224871 -2.1791744 -0.14332144 0 25
-0.99061853 -2.1755941 -0.12103172 0 26
-0.98718023 -2.1680429 -0.098654404 0 27
-0.98965532 -2.1734788 -0.076906219 0 28
-0.98873198 -2.1714509 -0.054872476 0 29
-0.98992556 -2.1740723 -0.032959513 0 30
-0.99078131 -2.1759517 -0.010995381 0 31
-0.98856664 -2.1710877 0.010970803 0 32
-0.98753679 -2.1688259 0.032879978 0 33
-0.98782974 -2.1694694 0.054822404 0 34
-0.99001306 -2.1742644 0.076934025 0 35
-0.98657441 -2.1667125 0.098593861 0 36
-0.98320234 -2.1593068 0.12012563 0 37
-0.99090493 -2.176223 0.14312734 0 38
-0.98891205 -2.1718464 0.16487999 0 39
-0.98665601 -2.1668918 0.18652205 0 40
-0.98696035 -2.1675601 0.20863634 0 41
-0.98309493 -2.159071 0.22982502 0 42
-0.99285197 -2.1804991 0.25436983 0 43
-0.98696083 -2.1675611 0.27503553 0 44
-0.98945534 -2.1730397 0.29800901 0 45
-0.98527354 -2.1638556 0.31898469 0 46
-0.99375099 -2.1824737 0.34421116 0 47
-0.99103111 -2.1765003 0.3657487 0 48
-0.98680902 -2.1672277 0.38663745 0 49
-0.98594755 -2.1653359 0.40879437 0 50
-0.98614228 -2.1657634 0.43144518 0 51
-0.98222923 -2.1571696 0.45228884 0 52
-0.98652267 -2.1665988 0.47699976 0 53
-0.99074674 -2.1758757 0.50195771 0 54
-0.99119717 -2.1768649 0.52520061 0 55
-0.9859001 -2.1652317 0.54537821 0 56
-0.98456776 -2.1623056 0.56769145 0 57
-0.98697436 -2.1675909 0.59228748 0 58
-0.98777574 -2.1693509 0.61610216 0 59
-0.98710811 -2.1678846 0.6391148 0 60
-0.98374194 -2.1604917 0.66040009 0 61
-0.98634148 -2.1662009 0.68579268 0 62
-0.98420501 -2.1615088 0.70802885 0 63
-0.96895343 -2.1993217 -0.71645802 0 0
-0.96570402 -2.1919463 -0.69013178 0 1
-0.97037685 -2.2025526 -0.66955894 0 2
-0.96991473 -2.2015038 -0.64546126 0 3
-0.9657836 -2.192127 -0.61915106 0 4
-0.96884352 -2.1990721 -0.59758919 0 5
-0.96836025 -2.1979754 -0.57388663 0 6
-0.96731853 -2.195611 -0.54999256 0 7
-0.96146894 -2.1823335 -0.523628 0 8
-0.97092658 -2.2038004 -0.50560725 0 9
-0.96817309 -2.1975505 -0.48115668 0 10
-0.97372931 -2.2101619 -0.46085435 0 11
-0.96280617 -2.1853688 -0.43295959 0 12
-0.9709335 -2.2038162 -0.4137738 0 13
-0.97718352 -2.2180023 -0.39352232 0 14
-0.96585977 -2.1922998 -0.36638021 0 15
-0.96480459 -2.1899047 -0.34348613 0 16
-0.97201109 -2.2062621 -0.32344964 0 17
-0.9706409 -2.2031519 -0.30047905 0 18
-0.96902275 -2.1994791 -0.27755257 0 19
-0.97048378 -2.2027953 -0.25555938 0 20
-0.97120464 -2.2044315 -0.23336463 0 21
-0.96643478 -2.1936049 -0.20998353 0 22
-0.97077674 -2.2034605 -0.18862803 0 23
-0.96851474 -2.1983261 -0.16597359 0 24
-0.96991825 -2.2015119 -0.14399526 0 25
-0.97073895 -2.2033744 -0.12190392 0 26
-0.97144967 -2.2049878 -0.099784426 0 27
-0.96503633 -2.1904306 -0.077080339 0 28
-0.96703446 -2.1949661 -0.055162042 0 29
-0.96471268 -2.1896961 -0.033014037 0 30
-0.96854323 -2.1983907 -0.011047753 0 31
-0.9693144 -2.200141 0.011056549 0 32
-0.96961194 -2.2008164 0.033181701 0 33
-0.96755904 -2.1961567 0.055191971 0 34
-0.96727359 -2.1955087 0.077259034 0 35
-0.9645586 -2.1893463 0.099076599 0 36
-0.96497774 -2.1902976 0.12118044 0 37
-0.97227132 -2.2068527 0.1443446 0 38
-0.97240251 -2.2071505 0.16663983 0 39
-0.96816885 -2.197541 0.1881213 0 40
-0.96197498 -2.1834822 0.20901452 0 41
-0.96943277 -2.2004097 0.23293887 0 42
-0.96384066 -2.1877167 0.25381002 0 43
-0.96677625 -2.19438 0.27690914 0 44
-0.96612436 -2.1929002 0.29908088 0 45
-0.96934658 -2.2002141 0.32256296 0 46
-0.96530646 -2.1910439 0.3436648 0 47
-0.97258902 -2.2075739 0.36893284 0 48
-0.96994728 -2.2015774 0.39060822 0 49
-0.97018057 -2.2021072 0.41345295 0 50
-0.96617055 -2.1930053 0.4344725 0 51
-0.97187084 -2.2059438 0.45997477 0 52
-0.96027172 -2.1796162 0.47722992 0 53
-0.96205688 -2.1836679 0.50098836 0 54
-0.97115368 -2.2043159 0.52890241 0 55
-0.96522599 -2.1908612 0.54880279 0 56
-0.96678406 -2.1943977 0.57295257 0 57
-0.96945345 -2.2004569 0.59796542 0 58
-0.96531475 -2.1910627 0.61885047 0 59
-0.97185761 -2.2059138 0.64675421 0 60
-0.9645136 -2.1892443 0.66551334 0 61
-0.96678644 -2.1944032 0.69090533 0 62
-0.9757964 -2.214854 0.7215178 0 63
-0.95071214 -2.2319014 -0.72320831 0 0
-0.94665593 -2.2223792 -0.69599593 0 1
-0.94535375 -2.2193222 -0.67107224 0 2
-0.95408624 -2.2398226 -0.65320694 0 3
-0.95064056 -2.2317336 -0.62698865 0 4
-0.94423819 -2.2167032 -0.59917986 0 5
-0.95051819 -2.2314463 -0.5795303 0 6
-0.94996065 -2.2301373 -0.55567318 0 7
-0.94812185 -2.2258205 -0.53122473 0 8
-0.94550472 -2.2196765 -0.50654399 0 9
-0.95183474 -2.2345369 -0.48665544 0 10
-0.94986612 -2.2299154 -0.46250281 0 11
-0.94725531 -2.2237864 -0.43822998 0 12
-0.95144355 -2.2336185 -0.4171412 0 13
-0.94899583 -2.2278724 -0.39317337 0 14
-0.94894361 -2.2277496 -0.37032658 0 15
-0.94469535 -2.2177765 -0.34600961 0 16
-0.94509107 -2.2187054 -0.32354572 0 17
-0.94396865 -2.2160704 -0.30063513 0 18
-0.94511348 -2.2187581 -0.27849784 0 19
-0.94686413 -2.222868 -0.25651795 0 20
-0.94887829 -2.2275965 -0.23456399 0 21
-0.94308126 -2.2139874 -0.2108086 0 22
-0.95382208 -2.2392025 -0.1906693 0 23
-0.95011926 -2.2305098 -0.16750872 0 24
-0.95131785 -2.2333236 -0.14529988 0 25
-0.94652241 -2.2220657 -0.12228485 0 26
-0.94901282 -2.2279122 -0.10028618 0 27
-0.94862288 -2.2269967 -0.077950716 0 28
-0.94550157 -2.2196691 -0.055486482 0 29
-0.9411577 -2.2094715 -0.033135202 0 30
-0.95014828 -2.2305779 -0.011149948 0 31
-0.94697291 -2.2231233 0.011112685 0 32
-0.94623983 -2.2214024 0.033314127 0 33
-0.94041818 -2.2077353 0.055188168 0 34
-0.9454518 -2.2195523 0.077690139 0 35
-0.94705284 -2.2233109 0.10007906 0 36
-0.94978523 -2.2297256 0.12270639 0 37
-0.94431382 -2.2168808 0.14423011 0 38
-0.9502275 -2.2307637 0.16752779 0 39
-0.94498867 -2.2184651 0.1889035 0 40
-0.94544607 -2.2195389 0.21133722 0 41
-0.94360083 -2.2152071 0.23325939 0 42
-0.94971263 -2.2295551 0.25728962 0 43
-0.94944203 -2.2289197 0.27977332 0 44
-0.94659513 -2.2222364 0.30147162 0 45
-0.9480077 -2.2255526 0.32454419 0 46
-0.94909602 -2.2281075 0.34762141 0 47
-0.94676006 -2.2226236 0.36947444 0 48
-0.95243961 -2.2359569 0.39460015 0 49
-0.9525668 -2.2362556 0.41763368 0 50
-0.95066005 -2.2317793 0.43980512 0 51
-0.94930089 -2.2285883 0.46222761 0 52
-0.95393652 -2.2394712 0.48773009 0 53
-0.94793761 -2.2253881 0.50784737 0 54
-0.94622189 -2.2213602 0.53016019 0 55
-0.94605088 -2.2209587 0.55338621 0 56
-0.94888079 -2.2276022 0.57853198 0 57
-0.94677216 -2.222652 0.60078782 0 58
-0.94891292 -2.2276776 0.62584919 0 59
-0.95142841 -2.2335832 0.65138727 0 60
-0.9504683 -2.2313292 0.67470288 0 61
-0.94560999 -2.2199237 0.69522691 0 62
-0.95290327 -2.2370455 0.72487509 0 63
-0.92732406 -2.2534492 -0.72644067 0 0
-0.93254769 -2.2661431 -0.70605713 0 1
-0.92692024 -2.2524681 -0.67759711 0 2
-0.93032789 -2.2607489 -0.6559239 0 3
-0.92892063 -2.257329 -0.63092279 0 4
-0.92222583 -2.2410603 -0.60265285 0 5
-0.93181348 -2.2643588 -0.58505809 0 6
-0.92838663 -2.2560315 -0.55923837 0 7
-0.92846847 -2.2562304 -0.53571713 0 8
-0.9276455 -2.2542305 -0.51178759 0 9
-0.92161143 -2.2395673 -0.48524621 0 10
-0.92442632 -2.2464077 -0.46353078 0 11
-0.93168718 -2.2640519 -0.4438737 0 12
-0.92461509 -2.2468665 -0.41746041 0 13
-0.92436564 -2.2462602 -0.39438269 0 14
-0.92722988 -2.2532203 -0.37263718 0 15
-0.92847341 -2.2562423 -0.35020319 0 16
-0.92595452 -2.2501211 -0.32644188 0 17
-0.92509669 -2.2480366 -0.30340555 0 18
-0.92497778 -2.2477477 -0.28068772 0 19
-0.92569351 -2.2494869 -0.25825667 0 20
-0.92828572 -2.2557862 -0.23631254 0 21
-0.92968553 -2.2591879 -0.21400778 0 22
-0.93354344 -2.2685628 -0.19217734 0 23
-0.92802215 -2.2551455 -0.16848913 0 24
-0.92735475 -2.2535238 -0.14586119 0 25
-0.92506152 -2.2479513 -0.12307409 0 26
-0.93309689 -2.2674775 -0.101543 0 27
-0.92829496 -2.2558086 -0.078553721 0 28
-0.92865241 -2.2566774 -0.056121904 0 29
-0.92688841 -2.2523906 -0.033605389 0 30
-0.92489552 -2.2475479 -0.011177082 0 31
-0.92215478 -2.2408876 0.01114396 0 32
-0.92692214 -2.2524726 0.033606611 0 33
-0.92894101 -2.2573786 0.056139346 0 34
-0.92426819 -2.2460234 0.078212969 0 35
-0.92965049 -2.2591026 0.10116795 0 36
-0.92344552 -2.2440243 0.12285909 0 37
-0.92797935 -2.2550416 0.14595944 0 38
-0.92448872 -2.2465594 0.16784762 0 39
-0.9244985 -2.246583 0.19031538 0 40
-0.93175393 -2.2642143 0.21448392 0 41
-0.92583209 -2.2498238 0.23568791 0 42
-0.92599523 -2.2502201 0.25834087 0 43
-0.92588085 -2.2499423 0.28096175 0 44
-0.92382795 -2.2449536 0.30298945 0 45
-0.9280135 -2.2551248 0.32716778 0 46
-0.92831999 -2.2558694 0.35014531 0 47
-0.92506891 -2.2479692 0.37176871 0 48
-0.92604053 -2.2503302 0.39509729 0 49
-0.92955321 -2.2588663 0.41968995 0 50
-0.92534131 -2.2486312 0.44085041 0 51
-0.92847782 -2.256253 0.46556228 0 52
-0.92871612 -2.2568321 0.48898697 0 53
-0.92239851 -2.2414799 0.50889277 0 54
-0.92448252 -2.2465441 0.53341728 0 55
-0.92758363 -2.2540801 0.55875468 0 56
-0.92636722 -2.2511241 0.58163851 0 57
-0.92851275 -2.2563379 0.60676122 0 58
-0.92661339 -2.2517223 0.62935573 0 59
-0.9311133 -2.2626574 0.65647763 0 60
-0.92219782 -2.2409923 0.67414498 0 61
-0.93177092 -2.2642553 0.70546901 0 62
-0.92865551 -2.2566848 0.72748369 0 63
-0.90491754 -2.2782028 -0.73077804 0 0
-0.90186214 -2.2705104 -0.70390946 0 1
-0.91083765 -2.293107 -0.68640119 0 2
-0.90646088 -2.2820883 -0.65883148 0 3
-0.90721452 -2.2839856 -0.6352073 0 4
-0.91229057 -2.2967651 -0.61456949 0 5
-0.90242696 -2.2719324 -0.58410364 0 6
-0.90850389 -2.2872317 -0.56416059 0 7
-0.90456837 -2.2773237 -0.53804386 0 8
-0.90434283 -2.2767558 -0.51433808 0 9
-0.90560853 -2.2799423 -0.49154434 0 10
-0.89795589 -2.2606761 -0.46416152 0 11
-0.90776372 -2.2853682 -0.4458307 0 12
-0.91483414 -2.3031685 -0.42579889 0 13
-0.90203118 -2.2709363 -0.39673769 0 14
-0.90847397 -2.2871563 -0.37637356 0 15
-0.90769774 -2.285202 -0.35293907 0 16
-0.90765214 -2.2850873 -0.32987055 0 17
-0.90599686 -2.28092 -0.30631691 0 18
-0.90844053 -2.2870722 -0.28418195 0 19
-0.9015559 -2.2697394 -0.25928947 0 20
-0.90511233 -2.2786932 -0.23752835 0 21
-0.90053666 -2.2671735 -0.21369913 0 22
-0.90402329 -2.2759514 -0.19184706 0 23
-0.90518343 -2.278872 -0.1694174 0 24
-0.90753776 -2.2847993 -0.1471521 0 25
-0.91220808 -2.2965572 -0.12511167 0 26
-0.90900493 -2.2884932 -0.10197586 0 27
-0.90020394 -2.266336 -0.078528903 0 28
-0.9056648 -2.2800839 -0.056422792 0 29
-0.90185308 -2.2704878 -0.033707391 0 30
-0.91107434 -2.2937031 -0.01135004 0 31
-0.90518802 -2.2788837 0.01127671 0 32
-0.90155953 -2.2697487 0.03369642 0 33
-0.90287215 -2.2730532 0.05624881 0 34
-0.90704572 -2.2835608 0.079125747 0 35
-0.90644974 -2.2820601 0.1016892 0 36
-0.90511698 -2.2787049 0.12413911 0 37
-0.90538096 -2.2793694 0.14680238 0 38
-0.90514159 -2.2787669 0.16940957 0 39
-0.90593505 -2.2807643 0.19225276 0 40
-0.90837014 -2.286895 0.21555804 0 41
-0.90847445 -2.2871575 0.23841065 0 42
-0.90626806 -2.2816029 0.2606447 0 43
-0.90431213 -2.2766786 0.2828905 0 44
-0.90753168 -2.2847841 0.30683583 0 45
-0.90312248 -2.2736835 0.32822433 0 46
-0.90718293 -2.283906 0.35273892 0 47
-0.91360998 -2.3000865 0.37850139 0 48
-0.91054183 -2.2923622 0.40048093 0 49
-0.90574932 -2.2802968 0.42157051 0 50
-0.91075301 -2.2928941 0.44729885 0 51
-0.90748757 -2.284673 0.46908852 0 52
-0.90608674 -2.2811463 0.49180388 0 53
-0.91013622 -2.2913411 0.51763302 0 54
-0.90964007 -2.290092 0.54106051 0 55
-0.90855479 -2.28736 0.56419224 0 56
-0.90591675 -2.2807183 0.58636248 0 57
-0.90501463 -2.2784472 0.60966796 0 58
-0.9067049 -2.2827027 0.63485044 0 59
-0.9068138 -2.2829766 0.65908802 0 60
-0.90324229 -2.2739851 0.68067735 0 61
-0.90495872 -2.2783065 0.70632643 0 62
-0.90365767 -2.2750309 0.72976065 0 63
-0.88141036 -2.3010955 -0.73458928 0 0
-0.88774788 -2.317641 -0.71508265 0 1
-0.89025331 -2.3241818 -0.69237375 0 2
-0.8849743 -2.3104 -0.66381323 0 3
-0.88160753 -2.3016105 -0.63704586 0 4
-0.88000441 -2.297425 -0.61180437 0 5
-0.88321525 -2.3058076 -0.58997601 0 6
-0.88741624 -2.3167751 -0.56871319 0 7
-0.8820585 -2.3027878 -0.54145652 0 8
-0.88342619 -2.3063583 -0.51853228 0 9
-0.88646799 -2.3142996 -0.49656397 0 10
-0.88115579 -2.300431 -0.47006375 0 11
-0.88610578 -2.313354 -0.44913062 0 12
-0.88539052 -2.3114867 -0.42529181 0 13
-0.88497388 -2.3103988 -0.40170047 0 14
-0.88148963 -2.3013024 -0.37688929 0 15
-0.88710082 -2.3159516 -0.35597658 0 16
-0.88599527 -2.3130653 -0.33231157 0 17
-0.88506067 -2.3106253 -0.30882132 0 18
-0.88890648 -2.3206656 -0.28697628 0 19
-0.88494635 -2.3103271 -0.26266313 0 20
-0.88397545 -2.3077922 -0.23941045 0 21
-0.88619882 -2.3135967 -0.21703134 0 22
-0.88567311 -2.3122241 -0.19397195 0 23
-0.88984096 -2.3231053 -0.17187938 0 24
-0.88428646 -2.3086042 -0.14797375 0 25
-0.88729966 -2.3164706 -0.12559263 0 26
-0.88716459 -2.316118 -0.10271297 0 27
-0.88674259 -2.3150165 -0.079831846 0 28
-0.88561118 -2.3120627 -0.056940347 0 29
-0.88379538 -2.307322 -0.034090314 0 30
-0.89124525 -2.3267715 -0.011458579 0 31
-0.885625 -2.3120987 0.01138632 0 32
-0.88134444 -2.3009236 0.033995777 0 33
-0.88617593 -2.3135371 0.056976657 0 34
-0.88631296 -2.3138947 0.079793163 0 35
-0.88698149 -2.3156402 0.10269177 0 36
-0.88689166 -2.3154056 0.12553488 0 37
-0.88880491 -2.3204005 0.14872985 0 38
-0.88699365 -2.3156719 0.17132939 0 39
-0.88830042 -2.3190835 0.19454736 0 40
-0.89108968 -2.3263652 0.21822912 0 41
-0.89211774 -2.3290493 0.24161567 0 42
-0.88610744 -2.3133583 0.26300776 0 43
-0.88474053 -2.3097897 0.28563133 0 44
-0.88852924 -2.3196809 0.31003162 0 45
-0.88275933 -2.3046174 0.33109787 0 46
-0.88545322 -2.3116503 0.35531542 0 47
-0.88922304 -2.3214922 0.38019577 0 48
-0.88482231 -2.310003 0.40163165 0 49
-0.88573438 -2.3123844 0.42545697 0 50
-0.88669997 -2.3149052 0.44943181 0 51
-0.88264865 -2.3043282 0.47086012 0 52
-0.88968801 -2.322706 0.4983677 0 53
-0.88721275 -2.3162439 0.52075481 0 54
-0.88578117 -2.3125064 0.5437417 0 55
-0.88625675 -2.3137481 0.5679701 0 56
-0.88764036 -2.3173602 0.59293193 0 57
-0.88335711 -2.3061779 0.61413527 0 58
-0.88718921 -2.3161824 0.64107913 0 59
-0.88278264 -2.3046782 0.66216928 0 60
-0.88776892 -2.3176959 0.69044161 0 61
-0.87886852 -2.2944596 0.70793033 0 62
-0.88430947 -2.3086643 0.73700547 0 63
-0.85461843 -2.3160081 -0.73593944 0 0
-0.85916167 -2.3283203 -0.71506399 0 1
-0.86601323 -2.3468881 -0.69591302 0 2
-0.86394572 -2.341285 -0.66958404 0 3
-0.86680913 -2.3490448 -0.64717585 0 4
-0.86655521 -2.3483567 -0.62248284 0 5
-0.86440909 -2.3425405 -0.59660995 0 6
-0.86513692 -2.3445132 -0.57286745 0 7
-0.86192745 -2.3358154 -0.54668897 0 8
-0.86379313 -2.3408713 -0.52386415 0 9
-0.86515272 -2.3445561 -0.5007354 0 10
-0.86006916 -2.3307796 -0.47406822 0 11
-0.86933589 -2.3558924 -0.45527953 0 12
-0.86631566 -2.3477075 -0.42996359 0 13
-0.8629691 -2.3386383 -0.40473476 0 14
-0.8638882 -2.3411291 -0.38164321 0 15
-0.86172843 -2.3352761 -0.35729113 0 16
-0.86531454 -2.3449945 -0.3353447 0 17
-0.8619709 -2.3359332 -0.31076366 0 18
-0.86340714 -2.3398254 -0.28801093 0 19
-0.86360043 -2.3403492 -0.26484904 0 20
-0.86060125 -2.3322215 -0.24082872 0 21
-0.86382413 -2.3409555 -0.21858484 0 22
-0.86587417 -2.3465111 -0.19594026 0 23
-0.86401689 -2.3414779 -0.1724396 0 24
-0.86283422 -2.3382728 -0.14918406 0 25
-0.86163938 -2.3350348 -0.12601516 0 26
-0.86501592 -2.3441851 -0.10347813 0 27
-0.86462927 -2.3431373 -0.080428861 0 28
-0.86597335 -2.3467798 -0.057528753 0 29
-0.86596298 -2.3467517 -0.034512945 0 30
-0.86671978 -2.3488026 -0.011513719 0 31
-0.8635664 -2.3402569 0.011471828 0 32
-0.86423379 -2.3420656 0.034444027 0 33
-0.86296183 -2.3386188 0.05732869 0 34
-0.86121702 -2.3338902 0.080111444 0 35
-0.86922777 -2.3555992 0.10398198 0 36
-0.86549932 -2.3454952 0.12657967 0 37
-0.86556721 -2.3456793 0.14965661 0 38
-0.86620831 -2.3474166 0.17287695 0 39
-0.86294961 -2.3385854 0.19527844 0 40
-0.86101717 -2.3333485 0.21787456 0 41
-0.86508918 -2.3443837 0.24208461 0 42
-0.86640763 -2.3479569 0.26570997 0 43
-0.86756039 -2.3510807 0.28939635 0 44
-0.86905521 -2.3551316 0.31331775 0 45
-0.86313891 -2.3390985 0.33450156 0 46
-0.86290085 -2.3384533 0.35777727 0 47
-0.8647939 -2.3435836 0.3820433 0 48
-0.86368459 -2.3405774 0.40507033 0 49
-0.86848122 -2.3535762 0.43103841 0 50
-0.86294007 -2.3385596 0.45192999 0 51
-0.86455655 -2.3429403 0.47654167 0 52
-0.86560822 -2.3457904 0.50099903 0 53
-0.85954106 -2.3293483 0.52128536 0 54
-0.86317819 -2.339205 0.54748231 0 55
-0.86768824 -2.3514271 0.57455683 0 56
-0.85985774 -2.3302066 0.59346867 0 57
-0.86997652 -2.3576283 0.62494051 0 58
-0.8612923 -2.334094 0.64305687 0 59
-0.86445242 -2.342658 0.66997671 0 60
-0.86676562 -2.3489268 0.69651759 0 61
-0.86289895 -2.3384483 0.71817446 0 62
-0.8631199 -2.339047 0.74326038 0 63
-0.82929927 -2.3354146 -0.73880988 0 0
-0.83886319 -2.3623478 -0.72229189 0 1
-0.84319019 -2.3745334 -0.70098311 0 2
-0.84496224 -2.3795238 -0.67749721 0 3
-0.84692609 -2.3850541 -0.65417796 0 4
-0.83812279 -2.3602626 -0.6228599 0 5
-0.83954829 -2.3642774 -0.59947139 0 6
-0.83879471 -2.362155 -0.57461452 0 7
-0.84017241 -2.3660347 -0.55130208 0 8
-0.83823043 -2.3605659 -0.5259251 0 9
-0.84249216 -2.3725677 -0.50446725 0 10
-0.84244549 -2.372436 -0.48039764 0 11
-0.84016943 -2.3660264 -0.45520705 0 12
-0.84603912 -2.3825562 -0.43440774 0 13
-0.84082639 -2.3678765 -0.40797466 0 14
-0.84610206 -2.3827333 -0.38670012 0 15
-0.84411752 -2.3771446 -0.3620815 0 16
-0.84060818 -2.3672619 -0.3370254 0 17
-0.84476775 -2.3789759 -0.31508416 0 18
-0.83869153 -2.3618646 -0.28943244 0 19
-0.84151906 -2.3698273 -0.26699376 0 20
-0.84298521 -2.373956 -0.24404946 0 21
-0.84392267 -2.3765962 -0.22092709 0 22
-0.84319359 -2.3745427 -0.19740027 0 23
-0.84592557 -2.3822365 -0.17466204 0 24
-0.8442148 -2.3774188 -0.15100789 0 25
-0.84103245 -2.3684568 -0.12725112 0 26
-0.84458244 -2.378454 -0.1045245 0 27
-0.83616686 -2.3547547 -0.080468617 0 28
-0.8425706 -2.3727884 -0.057907965 0 29
-0.84289455 -2.3737006 -0.034754217 0 30
-0.84161031 -2.3700843 -0.011566437 0 31
-0.84411711 -2.3771436 0.011600887 0 32
-0.84352624 -2.3754795 0.034780264 0 33
-0.84502983 -2.3797138 0.058076985 0 34
-0.83963102 -2.3645103 0.080801986 0 35
-0.84056932 -2.3671525 0.10402784 0 36
-0.84445274 -2.3780887 0.12776862 0 37
-0.84048718 -2.3669212 0.15034111 0 38
-0.84661013 -2.3841643 0.17480338 0 39
-0.8467347 -2.384515 0.19822928 0 40
-0.8445735 -2.3784287 0.22109745 0 41
-0.8453815 -2.3807044 0.2447432 0 42
-0.84021413 -2.3661523 0.26657975 0 43
-0.84173751 -2.3704424 0.29048359 0 44
-0.84043121 -2.3667638 0.3134667 0 45
-0.8458575 -2.3820448 0.33913001 0 46
-0.84504402 -2.3797538 0.36247891 0 47
-0.84183443 -2.3707151 0.38474965 0 48
-0.8411299 -2.3687313 0.40812191 0 49
-0.8458522 -2.3820298 0.43431178 0 50
-0.8414802 -2.3697178 0.45591724 0 51
-0.83985651 -2.3651452 0.47892129 0 52
-0.84473652 -2.3788879 0.50581115 0 53
-0.84424919 -2.3775156 0.52970141 0 54
-0.84348273 -2.3753572 0.55347419 0 55
-0.84177226 -2.3705401 0.57665426 0 56
-0.84244901 -2.3724461 0.60154265 0 57
-0.84116119 -2.3688192 0.6251179 0 58
-0.84493703 -2.3794525 0.65264159 0 59
-0.84310097 -2.3742819 0.67600483 0 60
-0.84253615 -2.3726914 0.70043933 0 61
-0.84329528 -2.3748293 0.72610807 0 62
-0.83899969 -2.3627322 0.74745184 0 63
-0.79735661 -2.3361623 -0.73588908 0 0
-0.82321525 -2.4119251 -0.73429966 0 1
-0.82419264 -2.4147887 -0.7098214 0 2
-0.81747937 -2.3951197 -0.67902434 0 3
-0.82349908 -2.4127567 -0.65894908 0 4
-0.8217417 -2.4076078 -0.63263965 0 5
-0.81577671 -2.390131 -0.60343766 0 6
-0.82000762 -2.4025273 -0.58193856 0 7
-0.81524044 -2.3885598 -0.55417287 0 8
-0.82059556 -2.4042497 -0.5333693 0 9
-0.81964016 -2.4014506 -0.50842714 0 10
-0.81612867 -2.3911624 -0.48212099 0 11
-0.81525069 -2.3885899 -0.45758483 0 12
-0.8212437 -2.4061489 -0.43683511 0 13
-0.82134795 -2.4064541 -0.41285008 0 14
-0.81953591 -2.401145 -0.38802338 0 15
-0.81544542 -2.3891604 -0.36235702 0 16
-0.81850278 -2.398118 -0.33995977 0 17
-0.81686103 -2.3933082 -0.31562817 0 18
-0.82040691 -2.403697 -0.29330033 0 19
-0.8177284 -2.3958495 -0.26877233 0 20
-0.81999594 -2.402493 -0.24592797 0 21
-0.82021248 -2.4031272 -0.22243904 0 22
-0.82069683 -2.4045465 -0.19904055 0 23
-0.82207692 -2.4085901 -0.1758398 0 24
-0.81985617 -2.4020834 -0.1519227 0 25
-0.82330847 -2.4121981 -0.12904754 0 26
-0.81653959 -2.3923662 -0.10468673 0 27
-0.81950468 -2.4010537 -0.081700243 0 28
-0.82215685 -2.4088242 -0.058536272 0 29
-0.82314384 -2.411716 -0.03515996 0 30
-0.8176412 -2.3955939 -0.011640983 0 31
-0.81714445 -2.3941383 0.01163391 0 32
-0.82109088 -2.4057009 0.035072267 0 33
-0.82277203 -2.4106266 0.058580071 0 34
-0.81829393 -2.3975062 0.081579536 0 35
-0.81662297 -2.3926105 0.10469742 0 36
-0.82326889 -2.4120822 0.12904134 0 37
-0.81972027 -2.4016852 0.15189752 0 38
-0.81632668 -2.3917425 0.17460983 0 39
-0.82433218 -2.4151976 0.19992222 0 40
-0.81731665 -2.3946428 0.22165368 0 41
-0.81972343 -2.4016945 0.24584626 0 42
-0.81738681 -2.3948486 0.26866007 0 43
-0.81962597 -2.4014089 0.29302114 0 44
-0.81759822 -2.3954678 0.31591299 0 45
-0.82316089 -2.4117658 0.34189451 0 46
-0.8263014 -2.4209671 0.36718103 0 47
-0.82299489 -2.4112794 0.38966107 0 48
-0.81858975 -2.3983729 0.41146368 0 49
-0.81836379 -2.397711 0.43530321 0 50
-0.82552594 -2.4186952 0.46335214 0 51
-0.81498909 -2.3878233 0.48144779 0 52
-0.82512337 -2.4175158 0.51182836 0 53
-0.82077402 -2.4047725 0.53348529 0 54
-0.82293862 -2.4111147 0.5594058 0 55
-0.82289898 -2.4109986 0.58399045 0 56
-0.82181537 -2.4078236 0.60790455 0 57
-0.81976879 -2.4018273 0.63112068 0 58
-0.81724596 -2.3944359 0.65394545 0 59
-0.82440549 -2.4154124 0.68477738 0 60
-0.81998122 -2.4024498 0.70619434 0 61
-0.82143801 -2.406718 0.73271441 0 62
-0.81866771 -2.3986015 0.75555736 0 63
-0.76676154 -2.3402641 -0.73415565 0 0
-0.79338771 -2.421531 -0.73419851 0 1
-0.7991901 -2.4392405 -0.71406627 0 2
-0.80044168 -2.4430606 -0.6897732 0 3
-0.79673088 -2.4317348 -0.66140652 0 4
-0.79881132 -2.4380844 -0.63801861 0 5
-0.79700387 -2.4325678 -0.61163121 0 6
-0.8013469 -2.4458234 -0.58999437 0 7
-0.79818916 -2.4361856 -0.56290281 0 8
-0.79983526 -2.4412098 -0.53934604 0 9
-0.79786474 -2.4351952 -0.51345545 0 10
-0.79727381 -2.4333916 -0.48862192 0 11
-0.79813409 -2.4360175 -0.4647553 0 12
-0.79545349 -2.4278359 -0.43896341 0 13
-0.80249333 -2.4493225 -0.41848001 0 14
-0.79859549 -2.4374256 -0.39226976 0 15
-0.7998451 -2.4412398 -0.36873615 0 16
-0.79707772 -2.4327931 -0.34345996 0 17
-0.79785693 -2.4351714 -0.31983107 0 18
-0.7987982 -2.4380443 -0.29627049 0 19
-0.79843575 -2.436938 -0.2722598 0 20
-0.80024636 -2.4424644 -0.2489935 0 21
-0.79554576 -2.4281175 -0.22382978 0 22
-0.79840851 -2.4368551 -0.20088708 0 23
-0.79833841 -2.4366412 -0.17715761 0 24
-0.79757977 -2.4343257 -0.15333003 0 25
-0.79860067 -2.4374416 -0.12986284 0 26
-0.7967968 -2.4319358 -0.1059815 0 27
-0.80022508 -2.4423995 -0.082766026 0 28
-0.79420584 -2.4240279 -0.058663975 0 29
-0.79807627 -2.4358411 -0.035365932 0 30
-0.79739922 -2.4337747 -0.011777978 0 31
-0.79962391 -2.4405646 0.011810838 0 32
-0.80013412 -2.442122 0.035457123 0 33
-0.80058497 -2.4434979 0.059135173 0 34
-0.79363465 -2.4222844 0.082084388 0 35
-0.79242128 -2.418581 0.10539951 0 36
-0.79603708 -2.4296172 0.12944597 0 37
-0.79807389 -2.4358337 0.15342502 0 38
-0.79868239 -2.437691 0.17723393 0 39
-0.79863364 -2.4375422 0.20094374 0 40
-0.79716468 -2.4330587 0.22428527 0 41
-0.79544246 -2.4278023 0.24749878 0 42
-0.79329878 -2.4212594 0.27050814 0 43
-0.79401964 -2.4234595 0.29449815 0 44
-0.79843956 -2.4369497 0.32006463 0 45
-0.79594803 -2.4293451 0.34297317 0 46
-0.79876888 -2.4379549 0.36824 0 47
-0.79994547 -2.441546 0.39293286 0 48
-0.79884541 -2.4381886 0.41657767 0 49
-0.79865712 -2.437614 0.44073132 0 50
-0.80044073 -2.4430575 0.46609849 0 51
-0.8008278 -2.4442391 0.49080008 0 52
-0.79764891 -2.4345367 0.51331657 0 53
-0.8014192 -2.446044 0.54041409 0 54
-0.79609072 -2.429781 0.56142294 0 55
-0.79481345 -2.4258826 0.5851841 0 56
-0.79351044 -2.4219053 0.60895026 0 57
-0.79803956 -2.435729 0.63740218 0 58
-0.80313945 -2.4512944 0.66672659 0 59
-0.79982835 -2.4411886 0.68924469 0 60
-0.79390067 -2.4230964 0.70934021 0 61
-0.79614651 -2.4299512 0.73675144 0 62
-0.79600513 -2.4295197 0.76215571 0 63
-0.73861796 -2.3517091 -0.73484135 0 0
-0.76261806 -2.428124 -0.73329878 0 1
-0.77624387 -2.4715075 -0.72066343 0 2
-0.77897125 -2.4801915 -0.69749957 0 3
-0.77531201 -2.4685404 -0.66877371 0 4
-0.77722299 -2.4746251 -0.64503109 0 5
-0.77448457 -2.4659061 -0.61757237 0 6
-0.77463633 -2.4663894 -0.59261286 0 7
-0.77730078 -2.4748726 -0.56959027 0 8
-0.77580929 -2.470124 -0.54358542 0 9
-0.77919501 -2.4809039 -0.52103341 0 10
-0.77486289 -2.4671104 -0.49344209 0 11
-0.78075111 -2.4858582 -0.47239685 0 12
-0.7715078 -2.4564283 -0.44238433 0 13
-0.77325702 -2.4619977 -0.41898939 0 14
-0.77452523 -2.4660356 -0.39531147 0 15
-0.77002966 -2.4517219 -0.36886138 0 16
-0.77476662 -2.466804 -0.34689036 0 17
-0.7765013 -2.4723272 -0.32343253 0 18
-0.77313161 -2.4615982 -0.29795498 0 19
-0.7757588 -2.4699631 -0.27486292 0 20
-0.77482754 -2.4669981 -0.25050431 0 21
-0.77260697 -2.4599278 -0.2258693 0 22
-0.77914387 -2.4807408 -0.20369971 0 23
-0.77667856 -2.4728916 -0.17908531 0 24
-0.77303922 -2.4613042 -0.15441892 0 25
-0.77438766 -2.4655974 -0.13084573 0 26
-0.77644247 -2.4721398 -0.10730937 0 27
-0.77299428 -2.4611611 -0.08307343 0 28
-0.77725595 -2.47473 -0.059655208 0 29
-0.77282757 -2.4606302 -0.03558518 0 30
-0.77553838 -2.4692614 -0.011902663 0 31
-0.77453345 -2.4660616 0.011887238 0 32
-0.7723785 -2.4592004 0.035564505 0 33
-0.77342027 -2.4625175 0.059360817 0 34
-0.77388161 -2.4639862 0.08316879 0 35
-0.77582252 -2.470166 0.10722368 0 36
-0.77663243 -2.4727447 0.13122502 0 37
-0.77091706 -2.4545472 0.15399499 0 38
-0.77439612 -2.4656243 0.17855904 0 39
-0.77544552 -2.4689658 0.20273282 0 40
-0.77703035 -2.4740117 0.22716245 0 41
-0.77294403 -2.4610012 0.24989538 0 42
-0.7745589 -2.4661427 0.27443779 0 43
-0.7728405 -2.4606714 0.29784277 0 44
-0.77108055 -2.4550679 0.32117468 0 45
-0.77555358 -2.4693098 0.34724271 0 46
-0.77461743 -2.4663291 0.37105903 0 47
-0.77598202 -2.4706738 0.39605501 0 48
-0.77321482 -2.4618633 0.4189665 0 49
-0.77346927 -2.4626734 0.44350904 0 50
-0.77519935 -2.4681818 0.46903774 0 51
-0.77904242 -2.480418 0.4961037 0 52
-0.77350372 -2.4627831 0.51722777 0 53
-0.77683485 -2.4733891 0.54430395 0 54
-0.77651429 -2.4723687 0.56901401 0 55
-0.77504122 -2.4676783 0.59292257 0 56
-0.77476174 -2.4667885 0.61779338 0 57
-0.77710462 -2.4742482 0.64493287 0 58
-0.77343118 -2.4625521 0.66715133 0 59
-0.77449572 -2.4659414 0.69349211 0 60
-0.77428174 -2.4652603 0.71884179 0 61
-0.77592927 -2.4705057 0.74609822 0 62
-0.77222526 -2.4587126 0.76827681 0 63
-0.70909792 -2.358788 -0.7342732 0 0
-0.73151726 -2.4333651 -0.73210979 0 1
-0.75231928 -2.5025623 -0.7269662 0 2
-0.75014937 -2.4953442 -0.69911402 0 3
-0.75288695 -2.5044508 -0.6759432 0 4
-0.75352657 -2.5065782 -0.65089554 0 5
-0.75150192 -2.4998434 -0.62371027 0 6
-0.75131482 -2.4992211 -0.5982365 0 7
-0.75425243 -2.5089929 -0.57526499 0 8
-0.7527014 -2.5038333 -0.54892534 0 9
-0.75119889 -2.4988353 -0.52281988 0 10
-0.74927056 -2.4924209 -0.49662405 0 11
-0.75564849 -2.5136368 -0.47587398 0 12
-0.75314456 -2.5053074 -0.4494853 0 13
-0.75046873 -2.4964063 -0.42324269 0 14
-0.75177878 -2.5007644 -0.39936653 0 15
-0.75192249 -2.5012424 -0.37489232 0 16
-0.74947536 -2.4931021 -0.34926611 0 17
-0.75262958 -2.5035944 -0.32628757 0 18
-0.74768674 -2.4871523 -0.29991254 0 19
-0.75104856 -2.4983354 -0.27697158 0 20
-0.75351989 -2.506556 -0.25356111 0 21
-0.75031066 -2.4958808 -0.22830607 0 22
-0.75363249 -2.5069306 -0.20507377 0 23
-0.74940479 -2.4928675 -0.17985101 0 24
-0.74638361 -2.4828174 -0.15518108 0 25
-0.75070041 -2.4971771 -0.13202175 0 26
-0.75224769 -2.5023241 -0.10820989 0 27
-0.74930418 -2.4925325 -0.083815001 0 28
-0.75082886 -2.4976044 -0.059979524 0 29
-0.74830574 -2.4892113 -0.035862733 0 30
-0.75124252 -2.4989805 -0.012000483 0 31
-0.7485407 -2.4899931 0.011957324 0 32
-0.7522366 -2.5022871 0.036051121 0 33
-0.75400251 -2.5081615 0.060233049 0 34
-0.74993628 -2.4946353 0.083885707 0 35
-0.7501173 -2.4952376 0.10790344 0 36
-0.7545225 -2.5098913 0.13269393 0 37
-0.75165105 -2.5003393 0.15627624 0 38
-0.74822974 -2.4889586 0.17956901 0 39
-0.75303108 -2.50493 0.20491011 0 40
-0.74790961 -2.4878938 0.22757547 0 41
-0.75305748 -2.505018 0.25340551 0 42
-0.75469935 -2.5104797 0.27831793 0 43
-0.75187141 -2.5010724 0.3015911 0 44
-0.753447 -2.5063136 0.32664198 0 45
-0.74944353 -2.4929962 0.34925127 0 46
-0.75466567 -2.5103674 0.37625998 0 47
-0.75290734 -2.5045185 0.39996606 0 48
-0.74754691 -2.4866872 0.42159489 0 49
-0.75353777 -2.5066156 0.44972 0 50
-0.75163442 -2.5002842 0.47334608 0 51
-0.75104386 -2.4983196 0.49779943 0 52
-0.75212896 -2.501929 0.52346718 0 53
-0.75510204 -2.5118189 0.55067605 0 54
-0.75202805 -2.5015934 0.57356846 0 55
-0.75619602 -2.5154581 0.60212314 0 56
-0.74881715 -2.4909127 0.62148207 0 57
-0.74821061 -2.4888949 0.64630365 0 58
-0.75344682 -2.5063131 0.67644584 0 59
-0.75119632 -2.4988267 0.70008969 0 60
-0.75123435 -2.4989533 0.72591782 0 61
-0.75077289 -2.4974182 0.75138098 0 62
-0.75397211 -2.5080602 0.78074056 0 63
-0.67861217 -2.3623519 -0.73272961 0 0
-0.70401531 -2.4507842 -0.73469043 0 1
-0.72592556 -2.5270569 -0.73143333 0 2
-0.72765964 -2.5330937 -0.7071299 0 3
-0.72594476 -2.5271239 -0.67960203 0 4
-0.72893018 -2.5375166 -0.65655231 0 5
-0.72776538 -2.5334618 -0.62981772 0 6
-0.72649318 -2.5290329 -0.60318863 0 7
-0.72964674 -2.5400109 -0.58027589 0 8
-0.73171812 -2.5472219 -0.55642289 0 9
-0.72833347 -2.5354393 -0.52856457 0 10
-0.72679192 -2.5300729 -0.50230765 0 11
-0.73066247 -2.5435469 -0.47979924 0 12
-0.72888267 -2.5373511 -0.45359206 0 13
-0.72468978 -2.5227551 -0.42616686 0 14
-0.72787046 -2.5338275 -0.40318683 0 15
-0.72503549 -2.5239584 -0.37693229 0 16
-0.72681177 -2.5301421 -0.35317641 0 17
-0.72827107 -2.5352221 -0.32921752 0 18
-0.72523636 -2.5246577 -0.30333683 0 19
-0.72725224 -2.5316753 -0.27965519 0 20
-0.73025876 -2.5421414 -0.25623316 0 21
-0.73153573 -2.5465868 -0.23210394 0 22
-0.72864777 -2.5365334 -0.2067468 0 23
-0.72926539 -2.5386834 -0.18249571 0 24
-0.72791886 -2.5339959 -0.15780847 0 25
-0.72593409 -2.5270867 -0.13312104 0 26
-0.72540122 -2.5252316 -0.10880654 0 27
-0.73053557 -2.5431051 -0.08520706 0 28
-0.72612464 -2.52775 -0.060484473 0 29
-0.72561133 -2.5259631 -0.036260936 0 30
-0.72529787 -2.5248718 -0.012081075 0 31
-0.72943646 -2.539279 0.012150011 0 32
-0.72439873 -2.5217419 0.036200337 0 33
-0.72549003 -2.5255408 0.060431607 0 34
-0.72834778 -2.5354891 0.084951885 0 35
-0.72765422 -2.5330746 0.10914448 0 36
-0.72848868 -2.5359797 0.13358949 0 37
-0.7259481 -2.5271354 0.15738122 0 38
-0.72687292 -2.530355 0.181897 0 39
-0.72517538 -2.5244455 0.20576154 0 40
-0.73108357 -2.5450127 0.23196046 0 41
-0.72355217 -2.518795 0.25387996 0 42
-0.7259779 -2.5272393 0.27916518 0 43
-0.72872728 -2.5368104 0.30479696 0 44
-0.73137867 -2.5460403 0.33062235 0 45
-0.72584277 -2.5267689 0.35270554 0 46
-0.72644484 -2.5288646 0.37766498 0 47
-0.73056954 -2.5432234 0.40468192 0 48
-0.72733158 -2.5319517 0.42772043 0 49
-0.72977674 -2.5404637 0.45414844 0 50
-0.72538179 -2.5251641 0.47633165 0 51
-0.72448254 -2.5220337 0.50071162 0 52
-0.72729421 -2.5318215 0.52781039 0 53
-0.72399473 -2.5203354 0.55054975 0 54
-0.72478443 -2.5230846 0.57640898 0 55
-0.72766471 -2.5331111 0.60416126 0 56
-0.73061752 -2.5433905 0.63228595 0 57
-0.73116875 -2.5453093 0.65856856 0 58
-0.72884876 -2.5372331 0.68232059 0 59
-0.7275219 -2.532614 0.70699596 0 60
-0.72847813 -2.535943 0.73400527 0 61
-0.72554958 -2.5257483 0.75716293 0 62
-0.72666085 -2.5296166 0.78461003 0 63
-0.65225017 -2.3805015 -0.73581582 0 0
-0.67570496 -2.466104 -0.73673654 0 1
-0.69797826 -2.5473943 -0.73478007 0 2
-0.70207655 -2.5623517 -0.71283364 0 3
-0.70173174 -2.5610933 -0.68636477 0 4
-0.70317101 -2.5663462 -0.66172439 0 5
-0.70184183 -2.5614951 -0.63459337 0 6
-0.70180357 -2.5613554 -0.60879344 0 7
-0.70515114 -2.5735731 -0.58591807 0 8
-0.702995 -2.5657039 -0.55852968 0 9
-0.70266891 -2.5645137 -0.53278416 0 10
-0.69879425 -2.5503724 -0.50459373 0 11
-0.70320612 -2.5664744 -0.48245656 0 12
-0.70328468 -2.566761 -0.45726901 0 13
-0.70317924 -2.5663762 -0.43204239 0 14
-0.703219 -2.5665214 -0.40698242 0 15
-0.70314676 -2.5662577 -0.38192922 0 16
-0.70534277 -2.5742724 -0.35809869 0 17
-0.70351881 -2.5676155 -0.3322756 0 18
-0.70475638 -2.5721321 -0.30797639 0 19
-0.7001816 -2.5554359 -0.28130752 0 20
-0.70536143 -2.5743406 -0.25858486 0 21
-0.70393783 -2.5691447 -0.23335336 0 22
-0.70443189 -2.5709479 -0.20883003 0 23
-0.7002964 -2.5558548 -0.18309721 0 24
-0.69928986 -2.5521812 -0.15839352 0 25
-0.70332313 -2.5669012 -0.13475262 0 26
-0.70066726 -2.5572083 -0.10980482 0 27
-0.70023149 -2.5556178 -0.085331365 0 28
-0.70359892 -2.567908 -0.061233725 0 29
-0.70392185 -2.5690866 -0.03675295 0 30
-0.69945073 -2.5527682 -0.012172482 0 31
-0.70295537 -2.5655591 0.012233472 0 32
-0.70544815 -2.5746572 0.036832642 0 33
-0.70522243 -2.5738332 0.061375018 0 34
-0.70693713 -2.5800912 0.086148523 0 35
-0.70030797 -2.555897 0.10974851 0 36
-0.7006551 -2.557164 0.13424145 0 37
-0.70276576 -2.564867 0.15918082 0 38
-0.70527846 -2.5740376 0.1843998 0 39
-0.70013773 -2.5552757 0.20755702 0 40
-0.70372236 -2.5683584 0.23328194 0 41
-0.70098311 -2.5583611 0.25697976 0 42
-0.70409018 -2.569701 0.28287783 0 43
-0.70105463 -2.5586221 0.30635875 0 44
-0.70117337 -2.5590556 0.33116782 0 45
-0.70199221 -2.5620439 0.35639763 0 46
-0.7036069 -2.5679371 0.38217917 0 47
-0.69952953 -2.553056 0.40484717 0 48
-0.69979501 -2.5540249 0.42996311 0 49
-0.70444888 -2.5710099 0.45802593 0 50
-0.70320004 -2.5664523 0.48245242 0 51
-0.70122677 -2.5592504 0.50635022 0 52
-0.70385331 -2.5688362 0.53368223 0 53
-0.70223969 -2.562947 0.55792952 0 54
-0.69904196 -2.5512764 0.5808419 0 55
-0.70107609 -2.5587003 0.60816234 0 56
-0.70316279 -2.5663161 0.63578773 0 57
-0.69995159 -2.5545962 0.65869474 0 58
-0.70354337 -2.5677052 0.68813676 0 59
-0.7029447 -2.5655203 0.71371508 0 60
-0.70407599 -2.569649 0.74119931 0 61
-0.70228225 -2.5631025 0.76571429 0 62
-0.69979036 -2.554008 0.78944683 0 63
-0.61929053 -2.3743827 -0.73151529 0 0
-0.63928854 -2.4510558 -0.72983724 0 1
-0.66471577 -2.5485446 -0.73269886 0 2
-0.68058062 -2.6093712 -0.72353131 0 3
-0.67815697 -2.6000786 -0.69452542 0 4
-0.67567223 -2.5905521 -0.66577321 0 5
-0.67647642 -2.5936353 -0.64044666 0 6
-0.67872518 -2.6022573 -0.61648482 0 7
-0.6788739 -2.6028273 -0.59063315 0 8
-0.6810208 -2.6110587 -0.56653714 0 9
-0.67710572 -2.5960481 -0.53756517 0 10
-0.67890161 -2.6029336 -0.51330256 0 11
-0.68181616 -2.6141083 -0.48979792 0 12
-0.67778277 -2.598644 -0.46142933 0 13
-0.67953068 -2.6053455 -0.43716305 0 14
-0.68018252 -2.6078448 -0.41217777 0 15
-0.67644978 -2.5935333 -0.38472155 0 16
-0.68162948 -2.6133924 -0.36234722 0 17
-0.67460364 -2.5864551 -0.33361492 0 18
-0.67520148 -2.5887473 -0.30894831 0 19
-0.67671609 -2.5945542 -0.28467622 0 20
-0.67839396 -2.6009872 -0.26040384 0 21
-0.67897564 -2.6032176 -0.23567201 0 22
-0.68045378 -2.6088846 -0.2112159 0 23
-0.68163794 -2.6134248 -0.18660687 0 24
-0.67901224 -2.6033578 -0.16103928 0 25
-0.68030763 -2.6083243 -0.13647769 0 26
-0.67669666 -2.5944798 -0.11103953 0 27
-0.67455935 -2.5862854 -0.086071879 0 28
-0.68101263 -2.6110275 -0.062057562 0 29
-0.67666125 -2.5943441 -0.036992453 0 30
-0.67958742 -2.6055632 -0.012383442 0 31
-0.67959511 -2.6055925 0.012383582 0 32
-0.68260962 -2.6171503 0.037317641 0 33
-0.67869562 -2.602144 0.061846428 0 34
-0.68041426 -2.6087332 0.086818941 0 35
-0.67781436 -2.5987651 0.11122294 0 36
-0.67729455 -2.5967722 0.13587324 0 37
-0.67966855 -2.6058741 0.16119494 0 38
-0.67802 -2.5995536 0.18561642 0 39
-0.67664546 -2.5942833 0.21003377 0 40
-0.68233854 -2.616111 0.23683928 0 41
-0.67855757 -2.6016145 0.26046664 0 42
-0.67865145 -2.6019745 0.28549036 0 43
-0.68035704 -2.6085138 0.31130731 0 44
-0.68016148 -2.607764 0.33636343 0 45
-0.67616278 -2.592433 0.35944119 0 46
-0.68158346 -2.6132162 0.38764128 0 47
-0.68000454 -2.6071622 0.41206989 0 48
-0.67921269 -2.6041262 0.43695846 0 49
-0.67571729 -2.5907249 0.46002313 0 50
-0.67899501 -2.6032917 0.48777127 0 51
-0.67816621 -2.6001141 0.51274651 0 52
-0.67970747 -2.6060233 0.53963077 0 53
-0.67501861 -2.5880461 0.561544 0 54
-0.67872244 -2.6022468 0.59050143 0 55
-0.67769969 -2.5983255 0.61555338 0 56
-0.67723334 -2.5965374 0.64116329 0 57
-0.67499232 -2.5879452 0.66510326 0 58
-0.67525458 -2.5889506 0.691553 0 59
-0.6812259 -2.611845 0.7242173 0 60
-0.67607838 -2.5921092 0.74522352 0 61
-0.67568475 -2.5906 0.77138859 0 62
-0.67744291 -2.5973408 0.80020571 0 63
-0.59454882 -2.3999803 -0.73709345 0 0
-0.61657709 -2.4889002 -0.7387926 0 1
-0.63438416 -2.560781 -0.73391861 0 2
-0.65703243 -2.652204 -0.73311251 0 3
-0.65494567 -2.6437805 -0.70399451 0 4
-0.65096122 -2.627697 -0.6732114 0 5
-0.65285939 -2.635359 -0.64871818 0 6
-0.65403962 -2.6401234 -0.62350303 0 7
-0.65327191 -2.6370242 -0.59652519 0 8
-0.65401 -2.6400037 -0.57102942 0 9
-0.6547606 -2.6430335 -0.54558605 0 10
-0.65601194 -2.6480846 -0.5205763 0 11
-0.65272045 -2.634798 -0.49213347 0 12
-0.65471745 -2.6428595 -0.46781555 0 13
-0.65417868 -2.6406844 -0.44170958 0 14
-0.6527167 -2.634783 -0.4151355 0 15
-0.65504414 -2.6441782 -0.39100975 0 16
-0.65306008 -2.636169 -0.36436424 0 17
-0.65384096 -2.6393211 -0.33937114 0 18
-0.65544111 -2.6457803 -0.31476915 0 19
-0.65264106 -2.6344776 -0.2881543 0 20
-0.65451914 -2.6420588 -0.26369011 0 21
-0.65331566 -2.6372008 -0.2380033 0 22
-0.65321088 -2.6367776 -0.21280776 0 23
-0.65530157 -2.6452172 -0.18828735 0 24
-0.65558684 -2.6463687 -0.16318886 0 25
-0.65259075 -2.6342745 -0.13740525 0 26
-0.65219527 -2.632678 -0.11232264 0 27
-0.64877671 -2.6188786 -0.086884521 0 28
