# .PCD v0.7 - Point Cloud Data file format
VERSION 0.7
FIELDS x y z intensity ring
SIZE 4 4 4 4 2
TYPE F F F F U
COUNT 1 1 1 1 1
WIDTH 1330
HEIGHT 1
VIEWPOINT 0 0 0 1 0 0 0
POINTS 1330
DATA ascii
2.9444664 4.4846158 -0.32111794 0 25
2.9414873 4.4800792 -0.27134833 0 26
2.9435961 4.4832907 -0.22210872 0 27
2.9495225 4.4923172 -0.17305996 0 28
2.9328361 4.4669023 -0.12289412 0 29
2.9523497 4.496623 -0.074218705 0 30
2.9484048 4.4906144 -0.024705119 0 31
2.941174 4.4796019 0.024644531 0 32
2.9360745 4.4718347 0.073809572 0 33
2.9445348 4.4847207 0.12338433 0 34
2.9410634 4.4794335 0.17256363 0 35
2.9479811 4.4899693 0.22243959 0 36
2.9461119 4.4871225 0.27177492 0 37
2.9392717 4.4767041 0.32055143 0 38
2.9405348 4.4786282 0.37017235 0 39
2.944186 4.484189 0.42023963 0 40
2.9454124 4.4860568 0.47011456 0 41
2.9451799 4.485703 0.51985359 0 42
2.9449668 4.4853783 0.56967723 0 43
2.9454491 4.4861126 0.61973745 0 44
2.9475327 4.4892864 0.67028451 0 45
2.9417746 4.4805164 0.71910077 0 46
2.9422357 4.4812188 0.76947093 0 47
2.9433107 4.4828558 0.82016075 0 48
2.9485757 4.4908748 0.87226903 0 49
2.9504542 4.4937358 0.92364973 0 50
2.9421115 4.4810295 0.97187972 0 51
2.9448709 4.4852324 1.0238508 0 52
2.9399109 4.4776778 1.0732789 0 53
2.9453857 4.4860163 1.1267148 0 54
2.9384575 4.4754643 1.1755793 0 55
2.947504 4.4892426 1.2310809 0 56
2.946681 4.4879894 1.2828244 0 57
2.939862 4.4776034 1.3320513 0 58
2.9296911 4.4621124 1.3796964 0 59
2.9384463 4.4754472 1.436479 0 60
2.9394312 4.4769473 1.4898982 0 61
2.9442587 4.4843001 1.5456419 0 62
2.951683 4.4956074 1.6032544 0 63
1.327992 2.0778637 -0.73514289 0 0
1.3735559 2.1491561 -0.73489082 0 1
1.417685 2.2182033 -0.73234653 0 2
1.4775918 2.3119373 -0.73617244 0 3
1.5307224 2.3950691 -0.7346859 0 4
1.5963156 2.4977007 -0.73715085 0 5
1.6568671 2.5924435 -0.73513204 0 6
1.7234453 2.6966159 -0.73362356 0 7
1.7992364 2.8152037 -0.73360837 0 8
1.8922888 2.9607997 -0.73773909 0 9
1.9744229 3.0893121 -0.73461902 0 10
2.076031 3.2482948 -0.73561025 0 11
2.1851289 3.4189966 -0.73565471 0 12
2.3007121 3.5998459 -0.73404771 0 13
2.4453533 3.8261607 -0.73726451 0 14
2.5857966 4.045908 -0.73434615 0 15
2.7544 4.3097157 -0.73415083 0 16
2.8577862 4.4714804 -0.7119568 0 17
2.8593147 4.4738722 -0.66268331 0 18
2.8622358 4.4784427 -0.61376935 0 19
2.8721008 4.4938784 -0.56622851 0 20
2.8663847 4.4849343 -0.5156408 0 21
2.8589787 4.4733462 -0.46506333 0 22
2.8695116 4.4898267 -0.41742969 0 23
2.8621778 4.4783521 -0.36721283 0 24
2.8650985 4.4829216 -0.31844988 0 25
2.8635821 4.4805493 -0.26922375 0 26
2.8639588 4.4811387 -0.22024076 0 27
2.8726087 4.4946728 -0.17177697 0 28
2.8589354 4.4732785 -0.12209313 0 29
2.861181 4.4767923 -0.073305152 0 30
2.8712952 4.4926176 -0.024520043 0 31
2.8602607 4.4753523 0.024425812 0 32
2.8583748 4.4724016 0.073233254 0 33
2.8664746 4.4850755 0.12241511 0 34
2.8651733 4.4830394 0.17133234 0 35
2.8646846 4.4822745 0.22029659 0 36
2.8608587 4.4762878 0.26896769 0 37
2.8658078 4.4840317 0.31852871 0 38
2.8597417 4.4745402 0.3669003 0 39
2.863893 4.4810357 0.41661233 0 40
2.8671114 4.4860716 0.46638626 0 41
2.8605154 4.4757509 0.5145849 0 42
2.8649957 4.4827614 0.56482774 0 43
2.8657217 4.4838967 0.61451685 0 44
2.8624198 4.4787307 0.66340303 0 45
2.8594487 4.474082 0.71237099 0 46
2.8700795 4.4907155 0.76498383 0 47
2.862303 4.478548 0.81287181 0 48
2.8587439 4.4729791 0.86190021 0 49
2.8665183 4.4851432 0.9145695 0 50
2.8566995 4.46978 0.96174848 0 51
2.8643241 4.4817104 1.01493 0 52
2.8538182 4.4652719 1.0618136 0 53
2.8590808 4.4735065 1.1146585 0 54
2.8650157 4.4827924 1.1681621 0 55
2.868583 4.4883738 1.2210773 0 56
2.8640819 4.4813313 1.2707587 0 57
2.8580856 4.4719491 1.3198143 0 58
2.8641839 4.4814911 1.3746945 0 59
2.8635497 4.4804983 1.4266907 0 60
2.8565667 4.4695725 1.4756428 0 61
2.8602886 4.4753962 1.5303344 0 62
2.8573577 4.4708104 1.5817612 0 63
1.3085824 2.1040673 -0.73866481 0 0
1.3407764 2.1558318 -0.73148072 0 1
1.3957183 2.244173 -0.73519862 0 2
1.4472299 2.3269982 -0.73524594 0 3
1.5013374 2.4139977 -0.73477376 0 4
1.5594978 2.5075138 -0.73433191 0 5
1.6278969 2.6174924 -0.73650312 0 6
1.688242 2.7145212 -0.73279166 0 7
1.7646114 2.8373153 -0.73366058 0 8
1.8443671 2.9655545 -0.73321742 0 9
1.9323478 3.1070185 -0.73312384 0 10
2.0352275 3.2724385 -0.73535478 0 11
2.1365428 3.4353433 -0.7334637 0 12
2.2565188 3.6282523 -0.73412663 0 13
2.386481 3.8372185 -0.73368526 0 14
2.5407219 4.0852222 -0.73575568 0 15
2.7019546 4.3444676 -0.73435557 0 16
2.7826793 4.4742646 -0.70689857 0 17
2.7921751 4.4895329 -0.65986753 0 18
2.7844825 4.4771643 -0.60885561 0 19
2.7802696 4.4703903 -0.55891913 0 20
2.7873137 4.4817166 -0.51129156 0 21
2.7874713 4.4819698 -0.46236143 0 22
2.7828174 4.4744868 -0.41279086 0 23
2.7871101 4.481389 -0.36462411 0 24
2.789006 4.4844375 -0.31609747 0 25
2.7830706 4.4748936 -0.26680744 0 26
2.7833188 4.4752932 -0.21825486 0 27
2.7780516 4.4668241 -0.1693943 0 28
2.7880361 4.4828782 -0.12141024 0 29
2.7854152 4.4786639 -0.072769456 0 30
2.7912841 4.4881001 -0.024306223 0 31
2.7886693 4.4838963 0.024283454 0 32
2.7916722 4.4887247 0.072932921 0 33
2.7837865 4.4760451 0.12122518 0 34
2.7877135 4.4823594 0.16998343 0 35
2.7864244 4.4802861 0.21849838 0 36
2.780817 4.4712706 0.2665914 0 37
2.7911301 4.4878531 0.31633821 0 38
2.7812457 4.4719596 0.36385691 0 39
2.7866032 4.4805741 0.41335246 0 40
2.7821801 4.4734621 0.46148375 0 41
2.7844923 4.47718 0.51077408 0 42
2.7875359 4.4820738 0.56037986 0 43
2.7818263 4.4728932 0.60827482 0 44
2.780529 4.4708076 0.65711528 0 45
2.7819014 4.4730139 0.70670098 0 46
2.789706 4.4855628 0.75820518 0 47
2.779978 4.4699216 0.80504072 0 48
2.7892115 4.4847679 0.85749817 0 49
2.7947459 4.4936666 0.90923125 0 50
2.7921572 4.4895043 0.95853257 0 51
2.7822454 4.473567 1.0052624 0 52
2.7812328 4.4719391 1.0551869 0 53
2.7818515 4.4729338 1.1059089 0 54
2.7848206 4.4777074 1.1578261 0 55
2.7831085 4.4749551 1.2080251 0 56
2.7794654 4.4690971 1.2575028 0 57
2.7902894 4.4865012 1.3138835 0 58
2.7866099 4.4805851 1.3638026 0 59
2.7867014 4.480732 1.4157467 0 60
2.7856245 4.4790006 1.4673357 0 61
2.7899697 4.4859872 1.5221097 0 62
2.7806833 4.471055 1.5696321 0 63
1.2742642 2.1061985 -0.7338568 0 0
1.3170401 2.1769018 -0.73307937 0 1
1.3701515 2.2646883 -0.73634446 0 2
1.4223974 2.3510439 -0.73726147 0 3
1.4763625 2.4402416 -0.73718041 0 4
1.5302076 2.5292408 -0.73512888 0 5
1.5883002 2.6252606 -0.73313808 0 6
1.6602074 2.7441142 -0.73521382 0 7
1.7331616 2.8646982 -0.73517483 0 8
1.8120784 2.9951379 -0.73496705 0 9
1.8959082 3.1336982 -0.73386276 0 10
1.9997439 3.3053253 -0.73716354 0 11
2.0927956 3.4591284 -0.73299217 0 12
2.2149014 3.6609535 -0.73517698 0 13
2.3502188 3.8846164 -0.7371664 0 14
2.4848721 4.1071811 -0.73415202 0 15
2.6443734 4.3708172 -0.73325765 0 16
2.7137122 4.485425 -0.7033366 0 17
2.7131391 4.484478 -0.65417159 0 18
2.7101853 4.4795957 -0.6046086 0 19
2.7070637 4.4744363 -0.5552212 0 20
2.7091682 4.4779148 -0.50701904 0 21
2.7097898 4.4789419 -0.45857704 0 22
2.702564 4.4669986 -0.40900335 0 23
2.7149081 4.487402 -0.36236972 0 24
2.7045271 4.4702435 -0.31272918 0 25
2.7053046 4.4715285 -0.26460338 0 26
2.7064872 4.4734831 -0.21652718 0 27
2.709348 4.4782119 -0.16855 0 28
2.7057202 4.4722157 -0.1202113 0 29
2.7078779 4.4757819 -0.072176158 0 30
2.7031245 4.4679251 -0.02401513 0 31
2.7079825 4.4759545 0.024058292 0 32
2.7052257 4.4713984 0.072105467 0 33
2.7047832 4.4706669 0.12016968 0 34
2.7046292 4.4704123 0.16825643 0 35
2.7092879 4.4781122 0.21675125 0 36
2.7049062 4.47087 0.26456442 0 37
2.7095215 4.4784985 0.31330669 0 38
2.7029617 4.4676561 0.36077517 0 39
2.7082744 4.4764371 0.40986753 0 40
2.7088256 4.4773483 0.45841384 0 41
2.7083004 4.4764805 0.50685662 0 42
2.7055764 4.4719782 0.55491614 0 43
2.7079148 4.475843 0.60410202 0 44
2.7171497 4.491107 0.65513861 0 45
2.7078505 4.4757366 0.70181739 0 46
2.7090611 4.4777374 0.75119489 0 47
2.7091362 4.4778619 0.80041057 0 48
2.700449 4.4635029 0.84701914 0 49
2.7026765 4.4671845 0.89708084 0 50
2.7104688 4.4800639 0.94932932 0 51
2.7033994 4.4683795 0.99655133 0 52
2.7059164 4.4725394 1.0473983 0 53
2.7042665 4.4698129 1.0968328 0 54
2.7052383 4.4714189 1.1475117 0 55
2.7069747 4.4742894 1.1987691 0 56
2.7056429 4.4720879 1.2488885 0 57
2.7049689 4.470974 1.2994974 0 58
2.7089171 4.4774995 1.3526222 0 59
2.7113454 4.4815135 1.4053532 0 60
2.7007017 4.4639206 1.4514062 0 61
2.7040641 4.4694781 1.5051125 0 62
2.7044406 4.4701004 1.5575043 0 63
1.2425785 2.1120315 -0.73051018 0 0
1.2908328 2.1940501 -0.73345351 0 1
1.3404095 2.2783165 -0.73536086 0 2
1.3840798 2.3525438 -0.73233932 0 3
1.4478524 2.4609389 -0.73799884 0 4
1.4995508 2.5488114 -0.73540211 0 5
1.5527959 2.6393132 -0.73167491 0 6
1.6260169 2.7637682 -0.73506707 0 7
1.7075104 2.9022839 -0.73937631 0 8
1.7707903 3.0098419 -0.73317671 0 9
1.8578674 3.1578484 -0.73411286 0 10
1.9590503 3.3298306 -0.73720056 0 11
2.0577559 3.4976025 -0.73572749 0 12
2.1701951 3.6887169 -0.73533779 0 13
2.3036156 3.915494 -0.73759484 0 14
2.437959 4.1438398 -0.73529047 0 15
2.5939872 4.4090438 -0.73426408 0 16
2.6333139 4.4758878 -0.696711 0 17
2.6378584 4.4836121 -0.64926451 0 18
2.6311533 4.4722157 -0.59920037 0 19
2.6281087 4.4670405 -0.55025178 0 20
2.6288784 4.4683485 -0.5022378 0 21
2.6352048 4.4791017 -0.45524132 0 22
2.6336417 4.4764447 -0.40687233 0 23
2.6319494 4.4735684 -0.35861206 0 24
2.6292903 4.469049 -0.31036034 0 25
2.6317363 4.4732065 -0.26276782 0 26
2.63515 4.4790087 -0.21520998 0 27
2.6384673 4.4846468 -0.16755842 0 28
2.6291575 4.468823 -0.1192421 0 29
2.6343904 4.4777174 -0.07167957 0 30
2.6339257 4.4769278 -0.023887629 0 31
2.6309006 4.471786 0.023860194 0 32
2.6383982 4.4845295 0.071788616 0 33
2.6358826 4.4802537 0.11954711 0 34
2.6352625 4.4791999 0.16735491 0 35
2.6379242 4.4837241 0.21543655 0 36
2.6349373 4.4786472 0.26308745 0 37
2.6352589 4.4791937 0.31106484 0 38
2.6342113 4.4774132 0.35892025 0 39
2.6375535 4.4830937 0.40747663 0 40
2.6389158 4.4854093 0.4558824 0 41
2.631479 4.4727688 0.5027346 0 42
2.6373293 4.4827127 0.55218232 0 43
2.6306586 4.4713745 0.59908772 0 44
2.6319385 4.4735498 0.64780748 0 45
2.6311202 4.4721589 0.69613057 0 46
2.6320238 4.4736948 0.74503076 0 47
2.6286902 4.468029 0.79281521 0 48
2.6392636 4.4860005 0.84506601 0 49
2.6381249 4.4840651 0.89388877 0 50
2.6363354 4.4810233 0.94259202 0 51
2.6419358 4.4905424 0.99417382 0 52
2.6408358 4.4886727 1.0434929 0 53
2.6377678 4.483458 1.0921394 0 54
2.6333721 4.4759865 1.1402876 0 55
2.6397548 4.4868355 1.1933435 0 56
2.6379669 4.4837961 1.2430056 0 57
2.6316085 4.4729886 1.2905802 0 58
2.6343641 4.4776726 1.3427871 0 59
2.6397769 4.4868731 1.3967493 0 60
2.6354775 4.4795651 1.4458469 0 61
2.6340075 4.4770665 1.4966477 0 62
2.6344001 4.4777341 1.5487602 0 63
1.2217972 2.1363845 -0.7336815 0 0
1.2651252 2.212146 -0.73424685 0 1
1.3065143 2.2845173 -0.73212147 0 2
1.3586928 2.3757544 -0.73430836 0 3
1.4147644 2.4737992 -0.73658276 0 4
1.4673606 2.5657666 -0.73503256 0 5
1.5234932 2.6639178 -0.73324704 0 6
1.5936166 2.7865326 -0.73585415 0 7
1.6646514 2.9107411 -0.73626047 0 8
1.7402241 3.0428846 -0.73595744 0 9
1.8203591 3.1830053 -0.73470199 0 10
1.9197761 3.3568418 -0.73789853 0 11
2.0167899 3.5264761 -0.73652887 0 12
2.1211524 3.7089603 -0.73411822 0 13
2.2415907 3.9195535 -0.73311174 0 14
2.3830488 4.1669016 -0.73412752 0 15
2.5282774 4.4208422 -0.73099625 0 16
2.5575011 4.4719415 -0.69114929 0 17
2.5603211 4.4768724 -0.64368093 0 18
2.5538313 4.4655247 -0.59405154 0 19
2.5601285 4.4765358 -0.54750228 0 20
2.5651515 4.4853187 -0.50056201 0 21
2.5590527 4.4746547 -0.45155692 0 22
2.5643482 4.4839139 -0.40465456 0 23
2.5578682 4.4725838 -0.35598487 0 24
2.5569201 4.4709258 -0.3082839 0 25
2.5618544 4.4795532 -0.26127043 0 26
2.5628369 4.4812717 -0.21378835 0 27
2.5580022 4.4728174 -0.16592868 0 28
2.5589108 4.4744067 -0.11854253 0 29
2.5571659 4.4713554 -0.071068995 0 30
2.5621924 4.4801445 -0.023734894 0 31
2.5596893 4.4757676 0.023711704 0 32
2.5584931 4.4736762 0.071105883 0 33
2.5647068 4.4845414 0.11881103 0 34
2.5557446 4.4688702 0.16578224 0 35
2.5497334 4.4583592 0.21269529 0 36
2.5526979 4.4635429 0.26033661 0 37
2.5533929 4.4647579 0.30785862 0 38
2.5641658 4.4835954 0.35686132 0 39
2.5602982 4.4768329 0.40401551 0 40
2.5555918 4.4686031 0.45094624 0 41
2.5577917 4.4724498 0.49912587 0 42
2.5633543 4.4821763 0.54819214 0 43
2.5573523 4.4716816 0.59487063 0 44
2.5591407 4.4748087 0.64338422 0 45
2.5576239 4.472156 0.69118243 0 46
2.5598977 4.4761319 0.74013853 0 47
2.5589755 4.4745197 0.78832394 0 48
2.5636945 4.4827709 0.83845568 0 49
2.557533 4.4719973 0.88514692 0 50
2.5575247 4.4719825 0.93400443 0 51
2.5532808 4.4645624 0.98139685 0 52
2.5575206 4.4719753 1.0322224 0 53
2.5601938 4.4766502 1.0827305 0 54
2.5586596 4.4739671 1.1316724 0 55
2.5637357 4.4828429 1.1838076 0 56
2.5524766 4.4631562 1.2284899 0 57
2.5571973 4.4714103 1.2809553 0 58
2.5602732 4.476789 1.3329803 0 59
2.5520954 4.4624896 1.3792853 0 60
2.5606508 4.4774489 1.4348924 0 61
2.5572019 4.4714184 1.4841356 0 62
2.5565257 4.4702363 1.5351775 0 63
1.1960262 2.1523063 -0.73404324 0 0
1.2432141 2.2372231 -0.73744059 0 1
1.2913407 2.3238292 -0.73957515 0 2
1.3308115 2.3948588 -0.73509973 0 3
1.3824124 2.4877172 -0.73560983 0 4
1.4310064 2.5751643 -0.73262846 0 5
1.4968646 2.6936793 -0.73631692 0 6
1.5599803 2.8072588 -0.73620623 0 7
1.6280982 2.9298406 -0.73597205 0 8
1.7010887 3.0611901 -0.73527014 0 9
1.7918413 3.224504 -0.73913908 0 10
1.8744054 3.3730819 -0.73634624 0 11
1.9688146 3.5429759 -0.73486304 0 12
2.0706551 3.7262425 -0.73244393 0 13
2.2043681 3.9668658 -0.73683542 0 14
2.3340325 4.2002029 -0.73488265 0 15
2.4814286 4.4654493 -0.7332713 0 16
2.4854751 4.4727311 -0.6864959 0 17
2.4810255 4.4647241 -0.63749963 0 18
2.487237 4.4759016 -0.59131867 0 19
2.4888225 4.478755 -0.5439896 0 20
2.4902103 4.4812522 -0.49665338 0 21
2.4760983 4.4558573 -0.44655368 0 22
2.4983442 4.4958897 -0.40293244 0 23
2.4754977 4.4547763 -0.35211813 0 24
2.4888847 4.4788671 -0.30669799 0 25
2.4878907 4.477078 -0.25932217 0 26
2.4905345 4.4818358 -0.21233821 0 27
2.4824953 4.4673686 -0.16458169 0 28
2.4836807 4.469502 -0.11759458 0 29
2.4883575 4.4779181 -0.070681632 0 30
2.4916568 4.4838557 -0.023590451 0 31
2.4874492 4.4762836 0.023550615 0 32
2.486769 4.4750595 0.070636503 0 33
2.4895978 4.4801502 0.11787473 0 34
2.4864075 4.4744091 0.16484106 0 35
2.4924545 4.485291 0.2125019 0 36
2.4890566 4.479176 0.25944367 0 37
2.483372 4.4689465 0.30601868 0 38
2.4782279 4.4596891 0.35250646 0 39
2.4830093 4.4682937 0.40045923 0 40
2.4856491 4.4730444 0.4482761 0 41
2.4910901 4.4828353 0.49682885 0 42
2.4793386 4.461688 0.54191661 0 43
2.4829967 4.4682713 0.59031057 0 44
2.4839294 4.4699492 0.63824582 0 45
2.4896646 4.4802704 0.68765306 0 46
2.4899187 4.4807277 0.73578018 0 47
2.4920552 4.4845724 0.78463691 0 48
2.4872649 4.4759521 0.83139688 0 49
2.4789102 4.4609175 0.87685424 0 50
2.4883235 4.4778571 0.92877054 0 51
2.4808414 4.4643922 0.97458011 0 52
2.4870355 4.4755392 1.0259085 0 53
2.4825788 4.4675188 1.0730575 0 54
2.4796231 4.4622002 1.1208987 0 55
2.4865241 4.4746184 1.1734729 0 56
2.4851527 4.4721508 1.2224619 0 57
2.4953134 4.4904356 1.2775189 0 58
2.4857965 4.4733095 1.3227429 0 59
2.4854248 4.4726405 1.3728729 0 60
2.491555 4.4836721 1.4269606 0 61
2.4858358 4.4733801 1.4745297 0 62
2.4870627 4.4755878 1.5263976 0 63
1.1705005 2.1687551 -0.73468876 0 0
1.2113849 2.2445073 -0.7348761 0 1
1.26352 2.3411057 -0.74007285 0 2
1.2941005 2.3977664 -0.73105252 0 3
1.3470091 2.4957976 -0.73304605 0 4
1.4097009 2.6119559 -0.73810822 0 5
1.4605966 2.7062578 -0.73479027 0 6
1.5274631 2.8301511 -0.73722827 0 7
1.5890396 2.9442427 -0.73462594 0 8
1.6531113 3.0629575 -0.730757 0 9
1.7454653 3.2340751 -0.73635745 0 10
1.8285955 3.3881023 -0.7346611 0 11
1.9253792 3.5674274 -0.73496848 0 12
2.0245869 3.7512438 -0.73240936 0 13
2.144315 3.9730814 -0.73303682 0 14
2.2897182 4.2424908 -0.7372995 0 15
2.408108 4.4618487 -0.72776258 0 16
2.4120433 4.4691405 -0.68134099 0 17
2.4179304 4.4800482 -0.63539439 0 18
2.4143603 4.4734335 -0.58702606 0 19
2.416115 4.4766846 -0.54008877 0 20
2.4128172 4.4705739 -0.49214453 0 21
2.4105773 4.466424 -0.44460845 0 22
2.4154656 4.475481 -0.3984113 0 23
2.412302 4.4696198 -0.35092023 0 24
2.4126284 4.4702244 -0.3040517 0 25
2.4177694 4.4797497 -0.2577354 0 26
2.4097719 4.4649315 -0.21011756 0 27
2.4113498 4.4678555 -0.16349487 0 28
2.4141276 4.4730024 -0.11689679 0 29
2.4074149 4.4605646 -0.069935158 0 30
2.4119806 4.4690242 -0.023354614 0 31
2.4177308 4.4796782 0.02341029 0 32
2.4059401 4.4578319 0.069892317 0 33
2.4156864 4.4758902 0.11697228 0 34
2.4133177 4.4715014 0.1636283 0 35
2.407546 4.4608078 0.20992349 0 36
2.4160039 4.4764786 0.2575472 0 37
2.4137948 4.4723854 0.30419871 0 38
2.4214706 4.4866076 0.35225397 0 39
2.4147882 4.474226 0.3982996 0 40
2.4154797 4.4755073 0.44551265 0 41
2.4136131 4.4720488 0.49230689 0 42
2.4091363 4.4637537 0.53852868 0 43
2.415062 4.4747334 0.58719665 0 44
2.416996 4.4783168 0.63514882 0 45
2.41733 4.4789357 0.68283427 0 46
2.4114788 4.4680943 0.72878128 0 47
2.4144635 4.4736247 0.77746809 0 48
2.412143 4.4693251 0.8245942 0 49
2.41221 4.469449 0.87263495 0 50
2.4141536 4.4730501 0.92154664 0 51
2.4046531 4.4554472 0.9660995 0 52
2.4151914 4.4749732 1.018894 0 53
2.4184475 4.4810061 1.0690734 0 54
2.4127548 4.4704585 1.1154362 0 55
2.4147332 4.474124 1.1654681 0 56
2.4091599 4.463798 1.2119893 0 57
2.4091361 4.4637537 1.2614046 0 58
2.4127252 4.4704037 1.3130118 0 59
2.4167023 4.4777727 1.3652234 0 60
2.4160659 4.4765935 1.4151456 0 61
2.4137917 4.4723797 1.4643056 0 62
2.4161656 4.476778 1.5165561 0 63
1.152341 2.1993876 -0.74020976 0 0
1.1876944 2.2668641 -0.73735845 0 1
1.2257403 2.3394794 -0.73473853 0 2
1.2631036 2.4107919 -0.73023313 0 3
1.3224844 2.5241277 -0.73653489 0 4
1.3682464 2.6114702 -0.73316109 0 5
1.4255718 2.7208829 -0.73394626 0 6
1.4852401 2.8347673 -0.73361796 0 7
1.5521288 2.9624326 -0.73434699 0 8
1.628528 3.1082504 -0.73672956 0 9
1.7091415 3.2621112 -0.73789996 0 10
1.7904583 3.4173148 -0.73616582 0 11
1.8901893 3.6076636 -0.73841369 0 12
1.9838775 3.7864795 -0.73447049 0 13
2.1109755 4.0290623 -0.73852032 0 14
2.2292423 4.2547889 -0.73461741 0 15
2.3440118 4.4738407 -0.72496253 0 16
2.3360388 4.4586239 -0.67530733 0 17
2.3425624 4.4710746 -0.62998873 0 18
2.3479149 4.4812908 -0.58422434 0 19
2.3397298 4.4656687 -0.53524822 0 20
2.3462653 4.4781423 -0.4897646 0 21
2.3457713 4.4771991 -0.44277626 0 22
2.3457665 4.47719 -0.39596573 0 23
2.3425114 4.4709773 -0.34873894 0 24
2.347142 4.4798155 -0.3027181 0 25
2.340369 4.4668884 -0.2553204 0 26
2.3492677 4.4838724 -0.20963362 0 27
2.3405952 4.4673204 -0.16240981 0 28
2.3389821 4.464241 -0.11590743 0 29
2.3360648 4.4586735 -0.069449887 0 30
2.3432498 4.4723868 -0.023219854 0 31
2.3448424 4.4754262 0.023235634 0 32
2.3462555 4.4781232 0.06975285 0 33
2.3376348 4.4616694 0.11584067 0 34
2.340035 4.4662504 0.16237092 0 35
2.3378747 4.4621272 0.20861697 0 36
2.3381495 4.4626522 0.25507829 0 37
2.3468533 4.4792643 0.30268088 0 38
2.3453417 4.4763789 0.34916028 0 39
2.3422837 4.4705429 0.39537784 0 40
2.3412325 4.4685364 0.44191954 0 41
2.3439109 4.4736481 0.4892731 0 42
2.3442993 4.47439 0.53629357 0 43
2.3459897 4.4776163 0.5837453 0 44
2.3412366 4.468544 0.62963217 0 45
2.3367083 4.4599013 0.67550081 0 46
2.3418939 4.4697986 0.72430754 0 47
2.3406215 4.46737 0.77132094 0 48
2.3447311 4.475214 0.82029915 0 49
2.3406904 4.4675016 0.86656964 0 50
2.3432937 4.4724703 0.91542166 0 51
2.3430171 4.4719424 0.96335614 0 52
2.3427219 4.4713793 1.0114403 0 53
2.3375688 4.461544 1.0574925 0 54
2.349061 4.4834781 1.1113936 0 55
2.3453774 4.4764476 1.1584733 0 56
2.3395925 4.4654059 1.2045237 0 57
2.337014 4.4604845 1.2522655 0 58
2.3453598 4.4764142 1.3062078 0 59
2.3462362 4.4780865 1.3564204 0 60
2.3427691 4.4714689 1.4043127 0 61
2.3386848 4.4636736 1.4519299 0 62
2.3450489 4.4758205 1.5063493 0 63
1.117373 2.1979713 -0.73505342 0 0
1.1510746 2.2642655 -0.7318539 0 1
1.1946006 2.349885 -0.73333776 0 2
1.2410918 2.4413373 -0.73480731 0 3
1.2865404 2.5307386 -0.7337923 0 4
1.3370705 2.6301358 -0.73373014 0 5
1.3945768 2.7432559 -0.73529994 0 6
1.4554515 2.8630018 -0.73623753 0 7
1.5180091 2.986058 -0.73552066 0 8
1.5809884 3.1099439 -0.73246777 0 9
1.668323 3.2817388 -0.7376436 0 10
1.7432201 3.4290681 -0.73402458 0 11
1.8336836 3.6070178 -0.73361099 0 12
1.9382037 3.812618 -0.73486209 0 13
2.0549698 4.0423069 -0.73626065 0 14
2.176913 4.2821803 -0.73466945 0 15
2.2669497 4.4592905 -0.71803337 0 16
2.2733164 4.4718142 -0.67302042 0 17
2.2660363 4.4574938 -0.62410176 0 18
2.2728534 4.4709034 -0.5791828 0 19
2.2787566 4.4825158 -0.53386867 0 20
2.2722828 4.4697814 -0.48575762 0 21
2.2802305 4.485415 -0.44078252 0 22
2.2665913 4.4585857 -0.3918258 0 23
2.2696817 4.4646645 -0.34604344 0 24
2.2816384 4.4881845 -0.30136499 0 25
2.2677436 4.4608521 -0.25336236 0 26
2.2694199 4.46415 -0.20739117 0 27
2.2698419 4.4649796 -0.16129783 0 28
2.2738457 4.4728556 -0.11539642 0 29
2.2722764 4.4697685 -0.069182262 0 30
2.2689438 4.463213 -0.023025634 0 31
2.2739363 4.4730334 0.023076298 0 32
2.2735183 4.4722118 0.069220074 0 33
2.2715793 4.4683971 0.1152814 0 34
2.2664211 4.4582505 0.16105473 0 35
2.2738037 4.4727726 0.20779178 0 36
2.2713766 4.4679985 0.25376827 0 37
2.269068 4.4634576 0.29970467 0 38
2.2776628 4.4803638 0.34726027 0 39
2.2762041 4.4774947 0.39348754 0 40
2.2722676 4.4697509 0.43924323 0 41
2.2721519 4.4695239 0.4857296 0 42
2.2721574 4.4695344 0.53232259 0 43
2.2779081 4.4808469 0.58047092 0 44
2.2660828 4.4575853 0.62411457 0 45
2.2663281 4.4580679 0.67095155 0 46
2.2761319 4.4773526 0.72094172 0 47
2.2757192 4.476541 0.76801473 0 48
2.2773762 4.4798007 0.81594515 0 49
2.2694077 4.4641256 0.8604368 0 50
2.2691231 4.4635658 0.90781939 0 51
2.2703605 4.4660001 0.95598972 0 52
2.2667084 4.4588156 1.0022178 0 53
2.271832 4.4688945 1.0525339 0 54
2.270246 4.465775 1.1000019 0 55
2.266222 4.457859 1.1463643 0 56
2.2780244 4.4810758 1.2011037 0 57
2.2660897 4.4575987 1.2435381 0 58
2.2674944 4.460362 1.2932901 0 59
2.2679889 4.4613347 1.3427974 0 60
2.273432 4.4720416 1.3956075 0 61
2.2801461 4.485249 1.4497181 0 62
2.2632093 4.4519329 1.4888312 0 63
1.090324 2.2116673 -0.73509443 0 0
1.1254737 2.2829669 -0.73336989 0 1
1.1669202 2.3670385 -0.7341575 0 2
1.2161142 2.4668262 -0.73792237 0 3
1.2563443 2.5484309 -0.73438734 0 4
1.3025736 2.6422045 -0.73257327 0 5
1.3593658 2.757405 -0.73455656 0 6
1.4175768 2.875483 -0.73490906 0 7
1.4794945 3.0010798 -0.73468411 0 8
1.5521971 3.1485534 -0.73701018 0 9
1.6266192 3.2995148 -0.73708761 0 10
1.706521 3.4615917 -0.73643905 0 11
1.7912055 3.6333702 -0.73443544 0 12
1.888525 3.8307776 -0.73383087 0 13
2.0038233 4.0646544 -0.73578745 0 14
2.1206932 4.3017192 -0.73349226 0 15
2.2013347 4.4652963 -0.71458781 0 16
2.2030411 4.4687576 -0.66843277 0 17
2.210263 4.483407 -0.62387747 0 18
2.1966197 4.4557323 -0.57367498 0 19
2.2062216 4.4752092 -0.52972734 0 20
2.2070932 4.4769773 -0.48355368 0 21
2.2070043 4.4767966 -0.43723565 0 22
2.2048688 4.472465 -0.39063337 0 23
2.1958332 4.4541368 -0.34310877 0 24
2.1999147 4.4624162 -0.29779583 0 25
2.1985331 4.4596133 -0.25173751 0 26
2.2044613 4.4716382 -0.20646416 0 27
2.2032483 4.4691777 -0.16045864 0 28
2.20578 4.4743137 -0.1147256 0 29
2.2007539 4.464118 -0.068670765 0 30
2.2070408 4.476871 -0.02295435 0 31
2.2050335 4.4727993 0.022933474 0 32
2.1962626 4.4550076 0.068530619 0 33
2.2051191 4.4729729 0.11469123 0 34
2.201808 4.4662561 0.16035374 0 35
2.2049606 4.472651 0.2065109 0 36
2.201417 4.4654632 0.25206771 0 37
2.2014174 4.4654641 0.29799926 0 38
2.196718 4.4559317 0.34324703 0 39
2.2011876 4.4649978 0.38998115 0 40
2.1987963 4.4601474 0.43560955 0 41
2.2048349 4.4723964 0.4830589 0 42
2.1975725 4.4576645 0.52765059 0 43
2.2039237 4.4705477 0.5755825 0 44
2.1987863 4.4601269 0.62063795 0 45
2.1983774 4.4592972 0.66701776 0 46
2.2041199 4.4709463 0.71549201 0 47
2.2032261 4.4691329 0.76203823 0 48
2.2079484 4.4787121 0.81074053 0 49
2.202369 4.4673944 0.85578233 0 50
2.2056723 4.4740949 0.90437633 0 51
2.2052712 4.4732814 0.95167172 0 52
2.201396 4.4654207 0.99754244 0 53
2.1982644 4.4590683 1.0437741 0 54
2.2036154 4.469923 1.0942665 0 55
2.2011812 4.4649849 1.1411501 0 56
2.2002959 4.4631891 1.1889676 0 57
2.2062352 4.4752364 1.2407967 0 58
2.205353 4.4734473 1.2891238 0 59
2.1996086 4.4617949 1.334694 0 60
2.2016499 4.4659357 1.3851485 0 61
2.1920843 4.4465327 1.4283839 0 62
2.2003362 4.4632711 1.4834626 0 63
1.0601779 2.2188993 -0.73310977 0 0
1.0982763 2.2986372 -0.73401004 0 1
1.1372262 2.3801575 -0.73383379 0 2
1.1863908 2.4830565 -0.73835772 0 3
1.22381 2.561373 -0.73372477 0 4
1.2737454 2.6658854 -0.73474085 0 5
1.3293941 2.7823553 -0.73679274 0 6
1.3825296 2.8935654 -0.73513007 0 7
1.4409478 3.0158315 -0.73390228 0 8
1.5112679 3.163008 -0.73598808 0 9
1.5875874 3.3227408 -0.73785937 0 10
1.6631433 3.4808755 -0.73613513 0 11
1.7508711 3.6644855 -0.73631746 0 12
1.8355056 3.8416214 -0.73152918 0 13
1.9453228 4.0714631 -0.73263448 0 14
2.0646849 4.3212819 -0.73244351 0 15
2.135963 4.4704638 -0.7111578 0 16
2.1336017 4.4655213 -0.66397423 0 17
2.1296937 4.4573426 -0.61655986 0 18
2.1315851 4.4613013 -0.57097417 0 19
2.1246564 4.4467998 -0.52323252 0 20
2.1324763 4.4631662 -0.47919354 0 21
2.1332929 4.4648752 -0.43347657 0 22
2.1377559 4.474216 -0.38846096 0 23
2.1325831 4.4633899 -0.34177569 0 24
2.1326926 4.4636192 -0.29610366 0 25
2.1304479 4.4589205 -0.25020072 0 26
2.1331789 4.4646368 -0.20491427 0 27
2.137686 4.4740696 -0.15967844 0 28
2.1309333 4.4599371 -0.11367651 0 29
2.1330893 4.4644494 -0.068267211 0 30
2.137727 4.4741554 -0.022803925 0 31
2.131218 4.4605327 0.022734491 0 32
2.1355743 4.4696503 0.068346739 0 33
2.130723 4.4594965 0.11366528 0 34
2.1315846 4.4612999 0.15922269 0 35
2.140101 4.4791241 0.20557919 0 36
2.1326356 4.4634995 0.25045767 0 37
2.1281476 4.4541063 0.29547262 0 38
2.1373758 4.4734206 0.34254375 0 39
2.1334257 4.4651532 0.38767412 0 40
2.1389031 4.4766173 0.43461654 0 41
2.134537 4.4674792 0.47965658 0 42
2.1329889 4.4642391 0.52528447 0 43
2.1348522 4.4681387 0.57184929 0 44
2.1335497 4.4654126 0.61767614 0 45
2.131433 4.4609823 0.66329932 0 46
2.1323431 4.4628873 0.70995259 0 47
2.1335557 4.4654255 0.7568754 0 48
2.1338279 4.4659953 0.80362809 0 49
2.1363988 4.4713755 0.85144824 0 50
2.1331778 4.4646344 0.89709407 0 51
2.1340148 4.4663863 0.94455081 0 52
2.1379244 4.4745688 0.99363828 0 53
2.1376493 4.4739933 1.0410361 0 54
2.1410999 4.481215 1.0905032 0 55
2.1295278 4.456995 1.1323301 0 56
2.1428685 4.4849167 1.1876464 0 57
2.1354718 4.4694352 1.2318147 0 58
2.136235 4.4710331 1.2807615 0 59
2.1322112 4.4626112 1.326995 0 60
2.1353869 4.4692578 1.3779308 0 61
2.1306295 4.459301 1.423962 0 62
2.1330576 4.4643831 1.4750029 0 63
1.0354877 2.2375417 -0.73500669 0 0
1.0668244 2.3052564 -0.73187941 0 1
1.1064155 2.3908069 -0.73286712 0 2
1.1533889 2.4923098 -0.73683619 0 3
1.1899487 2.5713103 -0.73232454 0 4
1.2409295 2.6814723 -0.73477566 0 5
1.2975265 2.8037705 -0.7381829 0 6
1.3438977 2.9039721 -0.73352015 0 7
1.4036741 3.0331404 -0.7338587 0 8
1.4636688 3.1627805 -0.73169196 0 9
1.543381 3.3350272 -0.73631769 0 10
1.6194077 3.49931 -0.73576683 0 11
1.698871 3.6710191 -0.73337728 0 12
1.8014195 3.892612 -0.73696512 0 13
1.8999615 4.105547 -0.73450816 0 14
2.0232537 4.371964 -0.73676145 0 15
2.0655868 4.4634399 -0.70594656 0 16
2.0670438 4.466588 -0.66030359 0 17
2.0593569 4.4499779 -0.61199212 0 18
2.0650663 4.4623151 -0.56781113 0 19
2.0590844 4.4493895 -0.5205186 0 20
2.063657 4.45927 -0.4760147 0 21
2.0687914 4.4703646 -0.43150708 0 22
2.0658221 4.4639482 -0.38533491 0 23
2.0628128 4.4574456 -0.33935258 0 24
2.0680141 4.4686852 -0.29473054 0 25
2.0696738 4.4722714 -0.24950296 0 26
2.0659225 4.4641652 -0.20371127 0 27
2.0642686 4.4605918 -0.15827952 0 28
2.0637181 4.4594016 -0.11300752 0 29
2.0668242 4.466114 -0.067898907 0 30
2.0675092 4.4675937 -0.022639191 0 31
2.0691419 4.4711218 0.02265707 0 32
2.0630381 4.4579325 0.067774527 0 33
2.0687945 4.4703708 0.1132855 0 34
2.0644693 4.4610252 0.15829492 0 35
2.0637357 4.4594398 0.20349564 0 36
2.0669985 4.4664903 0.24918044 0 37
2.0683146 4.4693341 0.29477334 0 38
2.0642483 4.4605479 0.33958873 0 39
2.0691381 4.4711132 0.3859534 0 40
2.0722558 4.4778509 0.43222976 0 41
2.0680661 4.4687977 0.47703177 0 42
2.0654199 4.463079 0.52212018 0 43
2.0648122 4.4617658 0.56774122 0 44
2.0646729 4.4614654 0.61357194 0 45
2.0606544 4.4527817 0.65826261 0 46
2.062001 4.4556913 0.70472103 0 47
2.0689721 4.4707546 0.75340956 0 48
2.0657158 4.4637189 0.79858732 0 49
2.06656 4.4655433 0.84543484 0 50
2.0611503 4.4538536 0.88976794 0 51
2.0666549 4.4657478 0.93897057 0 52
2.0626588 4.4571133 0.98405528 0 53
2.0684245 4.4695716 1.0340109 0 54
2.0647347 4.4615984 1.0794696 0 55
2.0733564 4.4802289 1.13167 0 56
2.0683966 4.4695115 1.1767428 0 57
2.065805 4.4639115 1.2231988 0 58
2.0598326 4.4510059 1.2676731 0 59
2.0689559 4.4707198 1.3217412 0 60
2.0661914 4.4647465 1.368603 0 61
2.0672321 4.4669952 1.4181945 0 62
2.0663838 4.4651618 1.4667543 0 63
0.9993099 2.2309327 -0.72874415 0 0
1.0451059 2.3331711 -0.73660624 0 1
1.0785238 2.4077756 -0.73394781 0 2
1.1175898 2.4949896 -0.73351014 0 3
1.1616138 2.593272 -0.73445576 0 4
1.2089167 2.6988742 -0.7354151 0 5
1.2533935 2.7981677 -0.73259461 0 6
1.309857 2.924221 -0.73451096 0 7
1.3628702 3.0425715 -0.73203051 0 8
1.4244722 3.1800964 -0.73159039 0 9
1.4972763 3.3426294 -0.73387575 0 10
1.5703321 3.5057244 -0.7330001 0 11
1.6594388 3.704653 -0.73596442 0 12
1.7524781 3.9123607 -0.73656857 0 13
1.8458743 4.1208653 -0.73313248 0 14
1.9683859 4.3943691 -0.73640257 0 15
1.9990892 4.4629135 -0.70192236 0 16
1.9940302 4.4516196 -0.65441656 0 17
1.9991504 4.4630499 -0.61036295 0 18
2.0017586 4.4688725 -0.5654707 0 19
1.9984055 4.4613872 -0.51900822 0 20
1.9962522 4.4565797 -0.47307149 0 21
2.004894 4.475873 -0.42962664 0 22
1.9973339 4.4589949 -0.38275832 0 23
2.0043578 4.4746757 -0.33876234 0 24
2.0044954 4.4749823 -0.29349804 0 25
2.0019124 4.4692159 -0.24794044 0 26
2.0054336 4.477077 -0.20315981 0 27
2.0048907 4.4758654 -0.15793477 0 28
1.9990118 4.4627404 -0.11246072 0 29
1.9991448 4.4630375 -0.067473307 0 30
1.9992076 4.4631777 -0.022490541 0 31
1.9935343 4.4505124 0.022426717 0 32
2.0019488 4.4692974 0.067567945 0 33
1.9961928 4.4564471 0.11230212 0 34
1.998233 4.4610019 0.15741031 0 35
2.0006278 4.4663482 0.20267297 0 36
2.0008051 4.4667444 0.24780332 0 37
1.9982107 4.4609523 0.29257783 0 38
1.9994841 4.4637947 0.33793858 0 39
1.9974748 4.4593091 0.38278529 0 40
2.0051451 4.4764333 0.42968044 0 41
1.9985932 4.4618063 0.47362626 0 42
2.0040276 4.4739385 0.52046835 0 43
2.0033216 4.4723625 0.56591225 0 44
2.001595 4.4685078 0.61110938 0 45
1.9968089 4.4578228 0.65532845 0 46
2.002003 4.4694185 0.70294547 0 47
1.9978061 4.4600492 0.74740911 0 48
1.998274 4.4610934 0.79366159 0 49
2.0004096 4.4658613 0.84077448 0 50
2.0047925 4.475646 0.88912946 0 51
2.000911 4.4669805 0.93398583 0 52
1.9998498 4.4646115 0.98020744 0 53
1.9959719 4.4559541 1.0251051 0 54
2.00493 4.4759531 1.0768963 0 55
2.0007348 4.4665871 1.1219252 0 56
2.0037971 4.4734235 1.1711972 0 57
2.0000074 4.4649634 1.2166561 0 58
2.0009365 4.4670377 1.265136 0 59
2.0017712 4.4689007 1.3138268 0 60
2.0016327 4.4685917 1.3621341 0 61
1.9990073 4.4627309 1.4089302 0 62
1.9975752 4.4595332 1.4567266 0 63
0.97762239 2.2564812 -0.73310745 0 0
1.0081878 2.3270299 -0.73069823 0 1
1.0470742 2.416785 -0.732714 0 2
1.0873064 2.5096462 -0.73383296 0 3
1.1282852 2.6042306 -0.73357469 0 4
1.1781548 2.7193363 -0.73698753 0 5
1.2225527 2.8218126 -0.73479372 0 6
1.2835196 2.9625323 -0.74011379 0 7
1.3307031 3.0714378 -0.73498321 0 8
1.3948843 3.2195766 -0.73667133 0 9
1.4522268 3.3519306 -0.73194194 0 10
1.5320034 3.5360656 -0.7353496 0 11
1.6056272 3.7059989 -0.73225421 0 12
1.7041402 3.9333799 -0.736525 0 13
1.795807 4.144959 -0.73343492 0 14
1.906008 4.3993173 -0.73324877 0 15
1.9280258 4.4501376 -0.69613159 0 16
1.9336559 4.4631324 -0.65256429 0 17
1.9337999 4.4634647 -0.60712177 0 18
1.934276 4.4645638 -0.56187338 0 19
1.9308621 4.4566836 -0.51565999 0 20
1.9387618 4.4749174 -0.47245169 0 21
1.9345714 4.4652452 -0.42629096 0 22
1.933607 4.4630194 -0.38103402 0 23
1.9338108 4.46349 -0.33608988 0 24
1.9327451 4.4610305 -0.29100224 0 25
1.9344072 4.4648666 -0.24636091 0 26
1.9327396 4.4610176 -0.20133741 0 27
1.9358675 4.4682369 -0.15681379 0 28
1.9299426 4.4545617 -0.11164813 0 29
1.93267 4.4608569 -0.067075983 0 30
1.9371829 4.4712734 -0.022409607 0 31
1.9297605 4.4541411 0.022323743 0 32
1.9347308 4.4656134 0.067147501 0 33
1.9363981 4.4694619 0.11202159 0 34
1.9320976 4.4595356 0.1565084 0 35
1.9288976 4.4521499 0.20093718 0 36
1.9336765 4.4631801 0.24626786 0 37
1.9328288 4.4612231 0.29101482 0 38
1.9344022 4.4648552 0.33619267 0 39
1.9340124 4.4639554 0.38111389 0 40
1.9350393 4.4663253 0.42639405 0 41
1.9357567 4.4679813 0.47171938 0 42
1.9356157 4.4676557 0.51692951 0 43
1.9371054 4.4710946 0.56269526 0 44
1.9359511 4.46843 0.60779715 0 45
1.9342847 4.4645839 0.65277648 0 46
1.9332386 4.4621692 0.69801372 0 47
1.9341079 4.4641757 0.74405891 0 48
1.938957 4.475368 0.79189956 0 49
1.9314713 4.4580903 0.83477694 0 50
1.9349138 4.4660358 0.88242698 0 51
1.9305252 4.4559064 0.92663693 0 52
1.9326888 4.4609003 0.97410131 0 53
1.9304453 4.4557219 1.0195137 0 54
1.9370399 4.470943 1.0698793 0 55
1.9340889 4.4641318 1.1152505 0 56
1.9347929 4.4657564 1.162873 0 57
1.931655 4.4585142 1.208335 0 58
1.9402336 4.4783144 1.2614775 0 59
1.9298123 4.4542608 1.3024479 0 60
1.9325198 4.4605103 1.3523247 0 61
1.9363781 4.4694157 1.4034172 0 62
1.9362538 4.4691286 1.4519738 0 63
0.9497456 2.2681918 -0.73306251 0 0
0.98022336 2.3409791 -0.73123831 0 1
1.0200614 2.436121 -0.73471785 0 2
1.054304 2.5178995 -0.73240006 0 3
1.0964411 2.6185317 -0.73374987 0 4
1.1412853 2.7256291 -0.73483402 0 5
1.1956846 2.8555458 -0.73969328 0 6
1.2344371 2.9480951 -0.73265946 0 7
1.2922994 3.0862823 -0.73467726 0 8
1.3499033 3.2238526 -0.73379624 0 9
1.412533 3.3734255 -0.73278743 0 10
1.4868515 3.5509133 -0.73457968 0 11
1.5641074 3.7354171 -0.73421115 0 12
1.6488688 3.937845 -0.73350912 0 13
1.7530528 4.1866584 -0.73694342 0 14
1.8570952 4.4351335 -0.73535663 0 15
1.869743 4.4653387 -0.69486052 0 16
1.8611411 4.4447956 -0.64648825 0 17
1.8673164 4.4595437 -0.6034196 0 18
1.8621973 4.4473181 -0.55677909 0 19
1.8680362 4.4612627 -0.51349324 0 20
1.871248 4.4689331 -0.46935508 0 21
1.8690662 4.4637227 -0.42391938 0 22
1.8692034 4.4640503 -0.37913102 0 23
1.8680421 4.461277 -0.33416834 0 24
1.8658739 4.456099 -0.28916201 0 25
1.8672824 4.4594626 -0.24477729 0 26
1.8725586 4.4720631 -0.20078152 0 27
1.8677711 4.4606295 -0.155729 0 28
1.866913 4.45858 -0.11116508 0 29
1.8664674 4.4575157 -0.066675603 0 30
1.8723637 4.4715977 -0.022294156 0 31
1.868117 4.4614558 0.022243591 0 32
1.8673245 4.4595633 0.066706225 0 33
1.86682 4.4583583 0.11115955 0 34
1.8685975 4.4626031 0.15579791 0 35
1.8674148 4.4597788 0.20023 0 36
1.8673942 4.4597297 0.24479195 0 37
1.8667392 4.4581652 0.28929612 0 38
1.8668562 4.4584446 0.33395621 0 39
1.8695832 4.4649572 0.37920806 0 40
1.863391 4.4501691 0.42263222 0 41
1.8633287 4.4500203 0.46736872 0 42
1.8653547 4.4548588 0.51275611 0 43
1.8636181 4.4507113 0.55720389 0 44
1.8614502 4.4455338 0.60152394 0 45
1.8674883 4.4599543 0.64869297 0 46
1.8708522 4.467988 0.69527274 0 47
1.871226 4.4688807 0.74095201 0 48
1.8672384 4.4593577 0.78494447 0 49
1.8700875 4.4661617 0.83191955 0 50
1.8606521 4.4436283 0.87341285 0 51
1.8692435 4.4641461 0.92350072 0 52
1.8657529 4.4558096 0.96790677 0 53
1.8679415 4.4610367 1.0153974 0 54
1.8712252 4.4688787 1.0637989 0 55
1.8681825 4.4616122 1.1087981 0 56
1.8670422 4.458889 1.1550192 0 57
1.8718742 4.4704285 1.2052348 0 58
1.8672788 4.4594541 1.2496024 0 59
1.8668456 4.4584193 1.2968534 0 60
1.8669883 4.4587603 1.3447324 0 61
1.8677375 4.4605494 1.3933163 0 62
1.8651397 4.4543452 1.4396108 0 63
0.92432106 2.2859697 -0.73507923 0 0
0.9531185 2.3571897 -0.73258555 0 1
0.99055791 2.4497824 -0.73510897 0 2
1.0264821 2.5386276 -0.73470241 0 3
1.0687705 2.6432128 -0.73692745 0 4
1.109421 2.7437468 -0.73598498 0 5
1.1514776 2.8477583 -0.73395282 0 6
1.2034167 2.9762106 -0.73591352 0 7
1.2540283 3.1013799 -0.73454499 0 8
1.3084537 3.235981 -0.73283923 0 9
1.3773134 3.4062803 -0.73618972 0 10
1.4529072 3.5932341 -0.73958278 0 11
1.5184743 3.7553904 -0.73441142 0 12
1.6019231 3.9617703 -0.73424107 0 13
1.6945767 4.1909151 -0.73396939 0 14
1.8023822 4.4575329 -0.73534024 0 15
1.8003771 4.4525738 -0.68937695 0 16
1.8062238 4.4670329 -0.64644331 0 17
1.7981783 4.4471359 -0.59870356 0 18
1.8069628 4.4688611 -0.55665231 0 19
1.8036399 4.4606428 -0.51083052 0 20
1.8014574 4.4552455 -0.46555579 0 21
1.8024811 4.457777 -0.42121795 0 22
1.8065658 4.4678788 -0.37754098 0 23
1.8025501 4.4579477 -0.33223361 0 24
1.7991374 4.4495072 -0.28727698 0 25
1.8028038 4.4585752 -0.24349338 0 26
1.7996528 4.4507823 -0.19881752 0 27
1.8058798 4.4661827 -0.15513588 0 28
1.8067619 4.4683642 -0.11084671 0 29
1.8051435 4.4643617 -0.066440955 0 30
1.8046765 4.4632068 -0.022140007 0 31
1.7992712 4.4498386 0.022073694 0 32
1.8018115 4.456121 0.066318318 0 33
1.8039155 4.4613247 0.11067208 0 34
1.8008069 4.4536366 0.15470009 0 35
1.8046031 4.4630251 0.19936441 0 36
1.8012447 4.4547195 0.24328281 0 37
1.8023458 4.4574423 0.28778931 0 38
1.8034829 4.4602547 0.33240554 0 39
1.8058065 4.466001 0.37738231 0 40
1.7990546 4.4493032 0.42041722 0 41
1.7966778 4.4434247 0.46432063 0 42
1.8029747 4.4589977 0.51064211 0 43
1.8069758 4.4688931 0.5566563 0 44
1.8019221 4.4563947 0.59995008 0 45
1.8018272 4.4561601 0.6448698 0 46
1.8050756 4.4641938 0.69117606 0 47
1.8009982 4.4541097 0.73477554 0 48
1.80273 4.4583926 0.78081369 0 49
1.8064864 4.4676828 0.82800251 0 50
1.803872 4.4612169 0.87244421 0 51
1.8002616 4.4522882 0.91639888 0 52
1.8041922 4.462009 0.96436137 0 53
1.799023 4.4492249 1.0075976 0 54
1.8009225 4.4539227 1.0548874 0 55
1.8064471 4.4675856 1.1046789 0 56
1.8021244 4.4568949 1.1486757 0 57
1.8065032 4.4677243 1.1984262 0 58
1.8044964 4.4627609 1.2442174 0 59
1.8026544 4.4582057 1.290246 0 60
1.8021455 4.4569473 1.3374013 0 61
1.8085339 4.4727464 1.3900746 0 62
1.80361 4.4605689 1.434346 0 63
0.8932004 2.2896166 -0.7326647 0 0
0.92767048 2.3779767 -0.73544508 0 1
0.96334231 2.4694173 -0.73739058 0 2
0.9943828 2.548986 -0.734106 0 3
1.0354091 2.6541522 -0.73637205 0 4
1.0772319 2.7613602 -0.73710078 0 5
1.1157457 2.8600857 -0.73353851 0 6
1.1667825 2.9909127 -0.73594564 0 7
1.2108101 3.1037724 -0.73153001 0 8
1.2691705 3.2533727 -0.73318809 0 9
1.3284801 3.405406 -0.73241478 0 10
1.4033487 3.5973229 -0.73681688 0 11
1.4810995 3.796628 -0.73885846 0 12
1.5492222 3.9712529 -0.73241252 0 13
1.6425734 4.2105479 -0.73381495 0 14
1.7395523 4.4591422 -0.73202175 0 15
1.7410511 4.4629841 -0.68762219 0 16
1.7400697 4.4604688 -0.64234835 0 17
1.7393723 4.4586806 -0.59733325 0 18
1.7368846 4.4523039 -0.55188781 0 19
1.7371955 4.4531007 -0.50748217 0 20
1.7400268 4.4603586 -0.46381927 0 21
1.7405334 4.461657 -0.41953054 0 22
1.7417148 4.4646854 -0.375433 0 23
1.7417237 4.4647083 -0.33111629 0 24
1.7383673 4.4561048 -0.2863012 0 25
1.7364997 4.4513173 -0.24191259 0 26
1.7401192 4.4605956 -0.19828506 0 27
1.7418802 4.4651098 -0.15434295 0 28
1.7351856 4.4479489 -0.10980267 0 29
1.7377135 4.4544287 -0.065970138 0 30
1.7434816 4.4692149 -0.022061795 0 31
1.7402779 4.4610023 0.022021255 0 32
1.7389551 4.4576116 0.066017278 0 33
1.7351756 4.4479232 0.10980203 0 34
1.7409128 4.4626298 0.15425722 0 35
1.7407137 4.4621196 0.1983528 0 36
1.7345539 4.4463296 0.24164154 0 37
1.7378752 4.454843 0.28622013 0 38
1.7395343 4.459096 0.33070007 0 39
1.7361211 4.4503469 0.37422726 0 40
1.7396761 4.4594598 0.41932392 0 41
1.7414159 4.4639196 0.46418953 0 42
1.7369139 4.4523792 0.50739992 0 43
1.7402495 4.4609294 0.552957 0 44
1.7317109 4.4390421 0.59470224 0 45
1.7384106 4.4562159 0.64173591 0 46
1.7375267 4.4539499 0.68623024 0 47
1.7383981 4.4561834 0.73153603 0 48
1.7417209 4.4647012 0.77810889 0 49
1.7396307 4.4593434 0.82243031 0 50
1.737556 4.4540248 0.86679387 0 51
1.7423332 4.4662709 0.91479802 0 52
1.7430757 4.468174 0.96098876 0 53
1.743632 4.4696002 1.0072801 0 54
1.7348207 4.4470134 1.0481193 0 55
1.740141 4.4606514 1.0975903 0 56
1.7384565 4.4563332 1.142935 0 57
1.7392852 4.4584579 1.1901138 0 58
1.7363207 4.4508586 1.234853 0 59
1.7406586 4.4619784 1.2850463 0 60
1.7439961 4.4705334 1.3349421 0 61
1.7361681 4.4504676 1.3764116 0 62
1.7426196 4.4670053 1.4294171 0 63
0.86853802 2.3098862 -0.73567778 0 0
0.89736372 2.3865485 -0.73462796 0 1
0.92823899 2.4686615 -0.73370111 0 2
0.95865238 2.5495462 -0.73081714 0 3
0.99680609 2.6510167 -0.73204619 0 4
1.0398457 2.765481 -0.73473209 0 5
1.081478 2.8762026 -0.7342059 0 6
1.1279724 2.9998548 -0.73467749 0 7
1.1748724 3.1245859 -0.73297518 0 8
1.2302924 3.271976 -0.73391581 0 9
1.2893765 3.429111 -0.73404765 0 10
1.3545464 3.6024308 -0.73439604 0 11
1.4235872 3.7860458 -0.73333693 0 12
1.5051663 4.003006 -0.73479974 0 13
1.5931607 4.2370281 -0.7349602 0 14
1.6766447 4.4590549 -0.72856784 0 15
1.6742111 4.4525828 -0.68279612 0 16
1.6787781 4.4647284 -0.63994068 0 17
1.6714382 4.4452081 -0.59273005 0 18
1.6790751 4.4655185 -0.55092496 0 19
1.6759061 4.4570904 -0.50555009 0 20
1.6735401 4.450798 -0.46065035 0 21
1.6769644 4.4599051 -0.41739526 0 22
1.6741056 4.4523025 -0.37263247 0 23
1.674019 4.4520717 -0.32862765 0 24
1.6750811 4.4548965 -0.28487864 0 25
1.674076 4.4522233 -0.24082488 0 26
1.6752156 4.4552541 -0.19711703 0 27
1.6804441 4.4691591 -0.15375704 0 28
1.6773542 4.4609418 -0.10960596 0 29
1.6755667 4.4561877 -0.065686084 0 30
1.6676822 4.4352188 -0.021791102 0 31
1.6742655 4.4527273 0.021877125 0 32
1.6754024 4.4557509 0.06567964 0 33
1.6757987 4.4568048 0.10950431 0 34
1.6796912 4.4671569 0.15368815 0 35
1.6776273 4.461668 0.19740082 0 36
1.6722914 4.4474773 0.24056818 0 37
1.6799506 4.4678469 0.28570679 0 38
1.6816982 4.4724946 0.33013517 0 39
1.6745979 4.4536114 0.37274206 0 40
1.6759244 4.457139 0.4171364 0 41
1.6685958 4.4376488 0.45928937 0 42
1.6785101 4.464016 0.50633562 0 43
1.677748 4.4619889 0.55048949 0 44
1.6706464 4.4431024 0.59244925 0 45
1.6766859 4.4591646 0.63914317 0 46
1.6797731 4.4673748 0.68506444 0 47
1.6729904 4.4493361 0.72697991 0 48
1.6715153 4.4454131 0.7711069 0 49
1.6718258 4.4462385 0.81616038 0 50
1.6779586 4.4625492 0.86437201 0 51
1.6759439 4.457191 0.90864849 0 52
1.6724448 4.447885 0.95213014 0 53
1.673159 4.4497848 0.99810243 0 54
1.6786196 4.4643068 1.0472511 0 55
1.6770736 4.4601955 1.0923213 0 56
1.6747359 4.4539781 1.1369634 0 57
1.6755477 4.4561372 1.1839051 0 58
1.6716244 4.4457035 1.2276272 0 59
1.6710427 4.4441562 1.2738994 0 60
1.6685718 4.4375849 1.318877 0 61
1.676309 4.4581618 1.3723125 0 62
1.6737624 4.4513893 1.417727 0 63
0.84005761 2.3203537 -0.73566604 0 0
0.87025237 2.4037557 -0.73657501 0 1
0.898534 2.4818733 -0.73428845 0 2
0.93735141 2.5890925 -0.73879313 0 3
0.97074395 2.6813271 -0.73706412 0 4
1.0078161 2.7837253 -0.73623115 0 5
1.0523394 2.9067049 -0.73863316 0 6
1.0922205 3.0168619 -0.73549789 0 7
1.1324171 3.1278903 -0.73042864 0 8
1.190799 3.2891493 -0.73442787 0 9
1.2473558 3.4453666 -0.73418862 0 10
1.3156312 3.6339526 -0.73746836 0 11
1.3819214 3.8170555 -0.73599631 0 12
1.4509652 4.0077634 -0.7323426 0 13
1.5438792 4.2644048 -0.73636025 0 14
1.6123495 4.4535289 -0.72437078 0 15
1.613674 4.4571877 -0.68040806 0 16
1.6104684 4.4483333 -0.63470429 0 17
1.6166281 4.4653473 -0.59271991 0 18
1.6104674 4.4483309 -0.54631996 0 19
1.6145725 4.4596696 -0.50355268 0 20
1.617951 4.4690013 -0.46044043 0 21
1.6138618 4.4577065 -0.41530085 0 22
1.6147995 4.4602962 -0.3716116 0 23
1.6108142 4.4492884 -0.32693544 0 24
1.6185045 4.4705305 -0.28458419 0 25
1.612285 4.453351 -0.23979539 0 26
1.6163145 4.4644809 -0.19663106 0 27
1.6128303 4.4548573 -0.15257116 0 28
1.6107321 4.4490614 -0.10881919 0 29
1.6101478 4.4474478 -0.06526047 0 30
1.6068397 4.4383101 -0.021707572 0 31
1.6099122 4.4467969 0.021749079 0 32
1.6114298 4.4509888 0.06531243 0 33
1.6136162 4.4570284 0.10901405 0 34
1.6133472 4.4562845 0.15262005 0 35
1.6186991 4.4710674 0.19692115 0 36
1.6173574 4.4673615 0.2405498 0 37
1.6140801 4.4583092 0.28380623 0 38
1.6120465 4.452692 0.32718554 0 39
1.6142461 4.4587679 0.37148425 0 40
1.6097236 4.4462762 0.41423595 0 41
1.6111952 4.4503407 0.45851782 0 42
1.6114999 4.4511824 0.50259435 0 43
1.6140162 4.4581327 0.5475238 0 44
1.6111014 4.4500818 0.59069359 0 45
1.6101922 4.4475703 0.63459539 0 46
1.6112254 4.4504242 0.67937553 0 47
1.6124725 4.4538689 0.72442609 0 48
1.6072121 4.4393387 0.76656717 0 49
1.6147754 4.4602299 0.81502217 0 50
1.6147397 4.4601312 0.8599928 0 51
1.6199019 4.47439 0.90802532 0 52
1.6141413 4.4584785 0.95007712 0 53
1.6139941 4.4580717 0.9954344 0 54
1.6089545 4.4441519 1.0378035 0 55
1.608331 4.4424295 1.083045 0 56
1.6159662 4.4635191 1.1342407 0 57
1.6122487 4.4532504 1.1777821 0 58
1.6140689 4.4582782 1.2255263 0 59
1.6149942 4.460834 1.2728914 0 60
1.6128594 4.4549375 1.3180403 0 61
1.6163989 4.4647145 1.3681079 0 62
1.6140685 4.4582772 1.4134927 0 63
0.80679828 2.3171072 -0.73143601 0 0
0.83659858 2.4026928 -0.73304164 0 1
0.8644498 2.4826808 -0.73132718 0 2
0.8952142 2.5710356 -0.73044437 0 3
0.93643743 2.6894279 -0.73606998 0 4
0.96969187 2.784934 -0.73334175 0 5
1.0080019 2.8949594 -0.73244339 0 6
1.0552987 3.0307946 -0.73567539 0 7
1.1025345 3.1664553 -0.73621273 0 8
1.152894 3.3110864 -0.73610508 0 9
1.2065548 3.465199 -0.7351976 0 10
1.2636933 3.6292996 -0.73331523 0 11
1.33447 3.8325686 -0.7357679 0 12
1.4101355 4.0498781 -0.73681408 0 13
1.4884689 4.2748504 -0.73494792 0 14
1.5411606 4.4261794 -0.71678579 0 15
1.5499547 4.451436 -0.6765694 0 16
1.5519022 4.4570293 -0.63317436 0 17
1.5555012 4.4673653 -0.59040427 0 18
1.5474159 4.4441447 -0.54342788 0 19
1.5545442 4.4646173 -0.50191504 0 20
1.5499763 4.4514985 -0.4566389 0 21
1.5501336 4.4519501 -0.41295752 0 22
1.5502292 4.4522247 -0.36932299 0 23
1.5507687 4.453774 -0.32583919 0 24
1.5493056 4.4495716 -0.28201595 0 25
1.5527596 4.4594917 -0.23907986 0 26
1.5532014 4.4607606 -0.19561124 0 27
1.5502912 4.4524026 -0.15182273 0 28
1.5522057 4.457901 -0.10856035 0 29
1.5514859 4.4558339 -0.065098666 0 30
1.5494899 4.4501014 -0.021670414 0 31
1.5482188 4.4464507 0.021652639 0 32
1.5483156 4.4467287 0.064965643 0 33
1.5528936 4.459877 0.10860847 0 34
1.5473995 4.4440975 0.15153953 0 35
1.5523357 4.4582744 0.19550221 0 36
1.5502459 4.4522724 0.23869282 0 37
1.548601 4.4475484 0.28188774 0 38
1.5441321 4.4347138 0.32444474 0 39
1.5541313 4.4634314 0.37025258 0 40
1.5506972 4.4535685 0.41310763 0 41
1.5489657 4.448596 0.45634115 0 42
1.551038 4.4545474 0.50078297 0 43
1.5456089 4.4389548 0.54279327 0 44
1.5499612 4.4514546 0.58830154 0 45
1.5481205 4.4461684 0.63163143 0 46
1.5506983 4.4535718 0.67689401 0 47
1.5491973 4.4492612 0.72052366 0 48
1.5509919 4.4544148 0.76581931 0 49
1.5514096 4.4556146 0.81063157 0 50
1.5519061 4.4570408 0.85565263 0 51
1.5515157 4.4559193 0.90033716 0 52
1.5466957 4.4420762 0.94245785 0 53
1.5478691 4.4454465 0.98829061 0 54
1.5497727 4.4509134 1.0348542 0 55
1.5542202 4.4636865 1.0834862 0 56
1.552464 4.458643 1.1280653 0 57
1.5488825 4.4483566 1.171362 0 58
1.5497118 4.4507384 1.2181234 0 59
1.5506924 4.4535546 1.2652776 0 60
1.5466938 4.442071 1.3085077 0 61
1.5511131 4.4547634 1.3591113 0 62
1.5533942 4.4613142 1.408293 0 63
0.78422534 2.3447258 -0.73705459 0 0
0.81211519 2.4281127 -0.73769456 0 1
0.84006381 2.5116751 -0.73676944 0 2
0.86921287 2.5988266 -0.73524773 0 3
0.90081406 2.69331 -0.73404539 0 4
0.93806928 2.804698 -0.73545307 0 5
0.9781763 2.9246123 -0.73684686 0 6
1.0154711 3.0361185 -0.73388124 0 7
1.0560324 3.1573915 -0.73103094 0 8
1.1084437 3.3140941 -0.73368812 0 9
1.1635776 3.4789367 -0.73502105 0 10
