# .PCD v0.7 - Point Cloud Data file format
VERSION 0.7
FIELDS x y z intensity ring
SIZE 4 4 4 4 2
TYPE F F F F U
COUNT 1 1 1 1 1
WIDTH 1303
HEIGHT 1
VIEWPOINT 0 0 0 1 0 0 0
POINTS 1303
DATA ascii
5.115726 0.09436401 0.87912017 0 50
5.122694 0.09449254 0.92891151 0 51
5.1165218 0.094378687 0.97648984 0 52
5.1250424 0.094535857 1.0270661 0 53
5.1150379 0.094351314 1.0740962 0 54
5.1254416 0.094543219 1.1256058 0 55
5.1288438 0.094605975 1.1759104 0 56
5.1288557 0.094606191 1.2256799 0 57
5.1156349 0.094362333 1.2723778 0 58
5.1028113 0.094125785 1.3191485 0 59
5.1176572 0.094399631 1.373331 0 60
5.1196022 0.094435506 1.4244658 0 61
5.1210713 0.094462611 1.4757618 0 62
5.1094661 0.094248541 1.523459 0 63
2.4799831 0.07625778 -0.73966545 0 0
2.5663192 0.078912556 -0.73977131 0 1
2.6375017 0.081101373 -0.73407418 0 2
2.7336295 0.084057227 -0.73379546 0 3
2.8429909 0.087420024 -0.73517555 0 4
2.9557402 0.090886988 -0.73538399 0 5
3.0760291 0.094585784 -0.73532343 0 6
3.2078402 0.098638892 -0.73569673 0 7
3.3348253 0.10254359 -0.7325874 0 8
3.499939 0.10762072 -0.73516726 0 9
3.6519721 0.11229564 -0.73208201 0 10
3.843823 0.11819492 -0.73381674 0 11
4.0459013 0.12440869 -0.73387575 0 12
4.2658668 0.13117248 -0.73329645 0 13
4.5306888 0.13931558 -0.73596346 0 14
4.8334861 0.14862639 -0.7395665 0 15
5.1130834 0.15722381 -0.73426276 0 16
5.1194973 0.15742104 -0.6871658 0 17
5.1411848 0.15808789 -0.64197427 0 18
5.1081719 0.15707278 -0.59016794 0 19
5.1271987 0.15765783 -0.54460603 0 20
5.1184888 0.15739001 -0.49609497 0 21
5.1249118 0.15758753 -0.4491567 0 22
5.1145697 0.15726951 -0.40086186 0 23
5.1090727 0.15710048 -0.35316172 0 24
5.116087 0.15731616 -0.30637249 0 25
5.1093388 0.15710866 -0.25880861 0 26
5.1037111 0.15693562 -0.21145955 0 27
5.1025066 0.15689857 -0.16439262 0 28
5.1172357 0.15735148 -0.11774233 0 29
5.1192107 0.15741222 -0.070664689 0 30
5.1160274 0.15731433 -0.023538921 0 31
5.1050825 0.15697779 0.023488564 0 32
5.1254568 0.15760428 0.070750915 0 33
5.1278114 0.15767668 0.11798567 0 34
5.1177087 0.15736602 0.16488239 0 35
5.1034355 0.15692714 0.21144813 0 36
5.129745 0.15773614 0.25984228 0 37
5.1296287 0.15773256 0.30718341 0 38
5.1225553 0.15751505 0.35409367 0 39
5.1284704 0.15769695 0.40195134 0 40
5.1322174 0.15781216 0.44979697 0 41
5.1214457 0.15748094 0.49638158 0 42
5.1141901 0.15725784 0.54322428 0 43
5.1229601 0.15752751 0.59187651 0 44
5.1194649 0.15742004 0.63926214 0 45
5.1289678 0.15771224 0.68843699 0 46
5.1122074 0.15719686 0.73413694 0 47
5.1225209 0.15751401 0.78379142 0 48
5.1270866 0.1576544 0.83284217 0 49
5.1125941 0.15720877 0.87884772 0 50
5.121398 0.15747948 0.92895746 0 51
5.1237431 0.15755159 0.97816384 0 52
5.1263676 0.15763228 1.0276424 0 53
5.1068282 0.15703146 1.0726967 0 54
5.1202254 0.15744343 1.1248004 0 55
5.1280975 0.15768547 1.1760949 0 56
5.125875 0.15761715 1.2253382 0 57
5.1300154 0.15774445 1.2763406 0 58
5.1246676 0.15758002 1.3251996 0 59
5.1331301 0.15784022 1.3778999 0 60
5.1145215 0.15726803 1.4234828 0 61
5.1207066 0.15745822 1.4761031 0 62
5.1048899 0.15697186 1.5225549 0 63
2.4735432 0.10651588 -0.73807955 0 0
2.5386641 0.10932012 -0.73213148 0 1
2.6328673 0.11337671 -0.73311687 0 2
2.7405336 0.11801304 -0.73598266 0 3
2.8322237 0.1219614 -0.73272359 0 4
2.9423423 0.12670334 -0.73238283 0 5
3.0951085 0.13328178 -0.74022019 0 6
3.1839883 0.13710912 -0.73055786 0 7
3.3553712 0.14448923 -0.73743546 0 8
3.4957976 0.15053627 -0.73463064 0 9
3.6374073 0.15663427 -0.72949326 0 10
3.8427513 0.16547681 -0.73394513 0 11
4.0692787 0.17523156 -0.73845118 0 12
4.2566671 0.18330088 -0.7320472 0 13
4.5429721 0.19562976 -0.73829371 0 14
4.7754092 0.205639 -0.73101187 0 15
5.1078167 0.21995313 -0.73383933 0 16
5.1283813 0.2208387 -0.68867069 0 17
5.1273994 0.22079641 -0.64054346 0 18
5.1209793 0.22051996 -0.59191614 0 19
5.1262817 0.22074829 -0.54475582 0 20
5.1173921 0.22036546 -0.49621376 0 21
5.1344061 0.22109814 -0.45019302 0 22
5.1089196 0.22000064 -0.40060076 0 23
5.1212749 0.22053267 -0.35416585 0 24
5.1226006 0.22058977 -0.30690178 0 25
5.1094522 0.22002357 -0.25893182 0 26
5.1175065 0.22037041 -0.21212737 0 27
5.1197624 0.22046755 -0.16502343 0 28
5.1113648 0.22010593 -0.11766062 0 29
5.131546 0.22097497 -0.070867114 0 30
5.1197891 0.2204687 -0.02356692 0 31
5.1137347 0.22020797 0.023539051 0 32
5.1305318 0.22093131 0.070853114 0 33
5.1163034 0.22031859 0.1177743 0 34
5.1355147 0.22114588 0.16553117 0 35
5.1235938 0.22063254 0.21237971 0 36
5.1144152 0.22023728 0.25918332 0 37
5.1243219 0.22066391 0.30700493 0 38
5.126534 0.22075915 0.35452956 0 39
5.124557 0.22067402 0.40182695 0 40
5.1240525 0.2206523 0.44928521 0 41
5.1245241 0.22067259 0.49690536 0 42
5.1223416 0.22057863 0.54433709 0 43
5.1295023 0.22088698 0.59290129 0 44
5.1205425 0.22050115 0.63968688 0 45
5.1188521 0.22042835 0.68739104 0 46
5.1042242 0.21979845 0.73332316 0 47
5.1105113 0.22006917 0.7823087 0 48
5.1121225 0.22013856 0.83078831 0 49
5.1144991 0.22024091 0.87957418 0 50
5.1302557 0.22091942 0.93098646 0 51
5.1306291 0.22093549 0.97992295 0 52
5.1224318 0.2205825 1.0273196 0 53
5.1183372 0.22040619 1.0756022 0 54
5.1223068 0.22057712 1.1257683 0 55
5.1247411 0.22068195 1.1758585 0 56
5.1214085 0.22053844 1.2248262 0 57
5.1194911 0.22045587 1.2743002 0 58
5.110527 0.22006986 1.3221427 0 59
5.123507 0.2206288 1.3759409 0 60
5.1079359 0.21995828 1.422295 0 61
5.1224365 0.22058269 1.4772718 0 62
5.1213002 0.22053377 1.5281427 0 63
2.4474642 0.13555983 -0.73074001 0 0
2.5458314 0.14100818 -0.73464304 0 1
2.6255322 0.14542262 -0.73151702 0 2
2.7207875 0.15069862 -0.73112214 0 3
2.8437912 0.15751153 -0.73616171 0 4
2.9509759 0.16344826 -0.73497653 0 5
3.0745692 0.17029384 -0.73575324 0 6
3.1989131 0.17718098 -0.73442668 0 7
3.3389466 0.18493713 -0.73426998 0 8
3.4915223 0.19338799 -0.73417646 0 9
3.6500111 0.20216632 -0.73246419 0 10
3.8408024 0.21273385 -0.73401701 0 11
4.0631661 0.22505009 -0.73778832 0 12
4.2598228 0.23594251 -0.73303342 0 13
4.5349393 0.25118062 -0.73743445 0 14
4.7756071 0.26451069 -0.73148477 0 15
5.1193423 0.28354946 -0.73594052 0 16
5.1172862 0.28343555 -0.6875968 0 17
5.1223226 0.28371453 -0.6402967 0 18
5.1170106 0.28342029 -0.59181553 0 19
5.1037407 0.28268531 -0.54268879 0 20
5.108263 0.2829358 -0.49562848 0 21
5.1063933 0.28283224 -0.44800788 0 22
5.11731 0.28343689 -0.40150163 0 23
5.1228132 0.28374168 -0.35448673 0 24
5.1250815 0.28386733 -0.30723631 0 25
5.1246438 0.28384307 -0.25985891 0 26
5.1170259 0.28342116 -0.21223588 0 27
5.1029501 0.28264153 -0.16458112 0 28
5.1147666 0.28329599 -0.11781021 0 29
5.1238017 0.28379646 -0.070803009 0 30
5.1273241 0.28399155 -0.023615895 0 31
5.1322122 0.2842623 0.023638409 0 32
5.1257129 0.28390232 0.070829414 0 33
5.1126604 0.28317934 0.11776169 0 34
5.1130867 0.28320298 0.16490804 0 35
5.1063318 0.28282881 0.21179231 0 36
5.1185532 0.28350574 0.25955006 0 37
5.124651 0.28384349 0.30721051 0 38
5.1315069 0.28422323 0.35508832 0 39
5.1195674 0.28356192 0.40167871 0 40
5.1207871 0.28362948 0.44927073 0 41
5.1311169 0.28420162 0.49784586 0 42
5.1134357 0.28322232 0.54371971 0 43
5.1267376 0.28395906 0.59294051 0 44
5.1191893 0.28354096 0.63990504 0 45
5.1277919 0.28401744 0.68900841 0 46
5.1174808 0.28344634 0.73567289 0 47
5.1223407 0.28371552 0.78459424 0 48
5.1240716 0.28381139 0.83323431 0 49
5.1157222 0.28334895 0.88031715 0 50
5.1277809 0.28401685 0.93110073 0 51
5.1021152 0.28259528 0.9750669 0 52
5.1284285 0.28405273 1.0291449 0 53
5.108592 0.28295401 1.0742042 0 54
5.1197701 0.28357315 1.125892 0 55
5.1174154 0.28344274 1.1748886 0 56
5.1357307 0.28445715 1.228995 0 57
5.1130266 0.28319964 1.2734617 0 58
5.1153359 0.28332752 1.324188 0 59
5.1245818 0.28383964 1.3770628 0 60
5.1128821 0.28319162 1.4245341 0 61
5.1436496 0.28489578 1.4842876 0 62
5.1253753 0.2838836 1.5302846 0 63
2.4683902 0.16718522 -0.73754591 0 0
2.5563338 0.17314169 -0.7382322 0 1
2.6298473 0.17812078 -0.7332741 0 2
2.7231381 0.18443941 -0.73230785 0 3
2.8257227 0.1913875 -0.7320382 0 4
2.9495192 0.19977231 -0.73517001 0 5
3.0594213 0.20721604 -0.73268265 0 6
3.1980741 0.21660705 -0.73479003 0 7
3.3464046 0.22665355 -0.7364673 0 8
3.5043786 0.23735319 -0.73743773 0 9
3.6399355 0.24653454 -0.73099542 0 10
3.8450432 0.26042658 -0.73538387 0 11
4.0670328 0.27546203 -0.73904961 0 12
4.2507815 0.28790742 -0.73203146 0 13
4.5384574 0.30739182 -0.73856533 0 14
4.7734418 0.32330745 -0.73170668 0 15
5.1047702 0.34574848 -0.73440135 0 16
5.1214314 0.34687695 -0.68867487 0 17
5.1175742 0.34661567 -0.6401875 0 18
5.1110101 0.34617111 -0.59156913 0 19
5.1216841 0.34689403 -0.54500908 0 20
5.1273675 0.34727901 -0.49785876 0 21
5.1223683 0.3469404 -0.44974974 0 22
5.1159449 0.34650534 -0.40169844 0 23
5.1173239 0.34659874 -0.354375 0 24
5.1290355 0.34739196 -0.30770615 0 25
5.1333051 0.34768116 -0.26049522 0 26
5.1198921 0.3467727 -0.21251555 0 27
5.1224985 0.34694922 -0.16533668 0 28
5.1317458 0.34757552 -0.1182908 0 29
5.1320319 0.34759492 -0.070970431 0 30
5.1104684 0.34613439 -0.023556082 0 31
5.1124163 0.34626636 0.023565061 0 32
5.1357679 0.34784797 0.071022101 0 33
5.1158848 0.34650126 0.1179252 0 34
5.113018 0.3463071 0.16503069 0 35
5.1181273 0.34665316 0.21244229 0 36
5.1202712 0.34679836 0.25983378 0 37
5.1261206 0.34719452 0.3075313 0 38
5.1105003 0.34613657 0.35390246 0 39
5.1148014 0.34642789 0.40160868 0 40
5.1285706 0.34736049 0.45029432 0 41
5.1199999 0.34677997 0.49714336 0 42
5.1148467 0.34643096 0.54428154 0 43
5.1309361 0.34752071 0.59387541 0 44
5.1119232 0.34623295 0.63948059 0 45
5.1185808 0.34668386 0.68829155 0 46
5.1199398 0.34677592 0.73658371 0 47
5.1300731 0.34746224 0.78637362 0 48
5.1294322 0.34741884 0.8347376 0 49
5.1266937 0.34723336 0.88287318 0 50
5.1113887 0.34619674 0.92882699 0 51
5.1264887 0.34721947 0.98046678 0 52
5.1150556 0.34644508 1.0272385 0 53
5.1087217 0.34601608 1.0750448 0 54
5.1253815 0.34714448 1.1279795 0 55
5.1231995 0.34699669 1.1771071 0 56
5.1171832 0.34658924 1.2254839 0 57
5.1100292 0.34610465 1.2736788 0 58
5.1185265 0.34668019 1.3260173 0 59
5.1275749 0.34729305 1.3789104 0 60
5.1172042 0.34659061 1.4268179 0 61
5.1183658 0.34666932 1.47811 0 62
5.1256642 0.34716362 1.5315297 0 63
2.4520657 0.19639488 -0.73333436 0 0
2.5417399 0.20357722 -0.73468506 0 1
2.621407 0.20995805 -0.73158532 0 2
2.7381351 0.21930723 -0.73701036 0 3
2.847913 0.22809973 -0.73845768 0 4
2.9456782 0.23593011 -0.73488021 0 5
3.0706825 0.24594215 -0.7360481 0 6
3.1942828 0.25584173 -0.73458618 0 7
3.3398569 0.26750132 -0.73569459 0 8
3.468394 0.2777963 -0.73052895 0 9
3.6456368 0.29199234 -0.73280603 0 10
3.8573482 0.30894908 -0.73840803 0 11
4.013751 0.32147595 -0.7300306 0 12
4.2572351 0.34097749 -0.73380941 0 13
4.5270095 0.36258468 -0.73737222 0 14
4.769711 0.38202354 -0.7317996 0 15
5.117228 0.40985742 -0.7368629 0 16
5.1232233 0.41033763 -0.68954217 0 17
5.1229663 0.41031703 -0.64144468 0 18
5.1230421 0.41032308 -0.59350085 0 19
5.1225715 0.41028541 -0.54559916 0 20
5.1132431 0.40953827 -0.49693871 0 21
5.1245556 0.41044435 -0.45035088 0 22
5.114471 0.40963662 -0.40194783 0 23
5.1142359 0.40961778 -0.35448319 0 24
5.1230855 0.41032657 -0.30762863 0 25
5.125874 0.41054994 -0.26035461 0 26
5.1213474 0.41018736 -0.21276923 0 27
5.1122627 0.40945974 -0.16515633 0 28
5.1124225 0.40947255 -0.11795253 0 29
5.1190677 0.41000479 -0.070855513 0 30
5.1225228 0.41028154 -0.023633115 0 31
5.1215281 0.41020185 0.023628524 0 32
5.1187344 0.40997809 0.070850901 0 33
5.125699 0.4105359 0.11825884 0 34
5.1121917 0.40945405 0.16515404 0 35
5.1138206 0.40958452 0.21245651 0 36
5.1088285 0.40918469 0.25948885 0 37
5.1197414 0.41005874 0.30742785 0 38
5.1261139 0.41056913 0.35530648 0 39
5.1070523 0.40904242 0.40136477 0 40
5.127645 0.41069177 0.45062238 0 41
5.1181893 0.40993443 0.49741942 0 42
5.1187811 0.40998185 0.54519546 0 43
5.1154852 0.40971786 0.59262538 0 44
5.1137376 0.40957788 0.64028919 0 45
5.1115341 0.40940142 0.68796891 0 46
5.1233249 0.41034576 0.73774087 0 47
5.1204214 0.41011322 0.78560776 0 48
5.1271038 0.41064841 0.83511728 0 49
5.1214657 0.41019684 0.88277477 0 50
5.1150389 0.4096821 0.9303354 0 51
5.1110935 0.4093661 0.97841114 0 52
5.1222148 0.41025686 1.0296116 0 53
5.1177382 0.40989828 1.0779214 0 54
5.1190124 0.41000032 1.1276021 0 55
5.130363 0.41090944 1.1798247 0 56
5.1351714 0.41129461 1.2309098 0 57
5.1204824 0.41011807 1.2774446 0 58
5.122623 0.41028953 1.328285 0 59
5.124649 0.41045183 1.3793766 0 60
5.1244898 0.41043907 1.4301485 0 61
5.1093874 0.40922946 1.4768587 0 62
5.1312723 0.41098231 1.5345993 0 63
2.4629912 0.22778039 -0.73738378 0 0
2.5430121 0.23518081 -0.73583311 0 1
2.6203554 0.24233361 -0.73206806 0 2
2.7260079 0.25210449 -0.73452508 0 3
2.8351977 0.26220247 -0.73594105 0 4
2.9390008 0.27180231 -0.73399264 0 5
3.0517004 0.28222489 -0.73227459 0 6
3.1851375 0.29456532 -0.73326063 0 7
3.3386931 0.30876634 -0.73621887 0 8
3.4824069 0.32205713 -0.73425901 0 9
3.6517587 0.33771899 -0.73481572 0 10
3.8415296 0.35526925 -0.73616052 0 11
4.027297 0.37244922 -0.73327184 0 12
4.2627916 0.39422807 -0.73554713 0 13
4.531157 0.41904685 -0.73883122 0 14
4.7967892 0.44361281 -0.73673528 0 15
5.1120458 0.4727681 -0.73689806 0 16
5.1250653 0.47397217 -0.69052231 0 17
5.1138496 0.47293493 -0.64098293 0 18
5.1233945 0.47381765 -0.5941717 0 19
5.1164484 0.47317526 -0.54552543 0 20
5.1318827 0.47460267 -0.49927968 0 21
5.1330137 0.47470725 -0.45157301 0 22
5.1209407 0.47359073 -0.40288353 0 23
5.1274023 0.4741883 -0.35577303 0 24
5.115993 0.47313315 -0.30752885 0 25
5.1213837 0.47363171 -0.26040265 0 26
5.1131048 0.47286606 -0.21265228 0 27
5.1326776 0.47467619 -0.16599187 0 28
5.124835 0.47395086 -0.11836442 0 29
5.1226807 0.47375166 -0.070980795 0 30
5.1245036 0.47392023 -0.023667349 0 31
5.115684 0.4731046 0.023626616 0 32
5.1361036 0.47499299 0.071166784 0 33
5.1201677 0.47351921 0.11825662 0 34
5.1245012 0.47392002 0.16572745 0 35
5.1053209 0.47214618 0.21232854 0 36
5.1224961 0.47373456 0.26045921 0 37
5.1127138 0.47282991 0.30733177 0 38
5.1214433 0.47363719 0.35535955 0 39
5.1230097 0.47378206 0.40304628 0 40
5.1130233 0.47285852 0.44981438 0 41
5.1184344 0.47335893 0.4979713 0 42
5.1205597 0.47355548 0.54596382 0 43
5.1223722 0.47372308 0.59405315 0 44
5.1049008 0.47210732 0.63986123 0 45
5.1287837 0.47431603 0.69102329 0 46
5.1213841 0.47363171 0.73824418 0 47
5.1150265 0.47304377 0.78561312 0 48
5.1087451 0.47246286 0.83301026 0 49
5.1202388 0.47352582 0.8835001 0 50
5.1104355 0.47261918 0.93048477 0 51
5.1201329 0.47351605 0.98118204 0 52
5.126442 0.47409946 1.0315551 0 53
5.1149487 0.47303659 1.0784774 0 54
5.1241388 0.47388649 1.1299295 0 55
5.1275053 0.47419783 1.1804192 0 56
5.1113458 0.4727034 1.2264993 0 57
5.1147213 0.47301555 1.277362 0 58
5.1257706 0.47403738 1.330512 0 59
5.1235933 0.47383606 1.3805563 0 60
5.118165 0.47333401 1.4298996 0 61
5.1229873 0.47378001 1.4823616 0 62
5.1173248 0.47325632 1.5320526 0 63
2.4590166 0.25794336 -0.73708767 0 0
2.5489252 0.26737452 -0.73843956 0 1
2.6210854 0.27494386 -0.73316109 0 2
2.7381721 0.2872259 -0.73869848 0 3
2.8164375 0.29543573 -0.73195904 0 4
2.9351218 0.30788535 -0.7339139 0 5
3.0661893 0.32163391 -0.73664457 0 6
3.1830864 0.33389607 -0.73367816 0 7
3.3160229 0.3478407 -0.7321077 0 8
3.4714189 0.36414129 -0.73283094 0 9
3.6334209 0.38113481 -0.73201352 0 10
3.8439116 0.40321463 -0.73751134 0 11
4.0305686 0.42279437 -0.73475862 0 12
4.2604461 0.44690785 -0.73603499 0 13
4.4901004 0.47099784 -0.73302561 0 14
4.7823901 0.5016582 -0.73541558 0 15
5.1103582 0.53606105 -0.7375493 0 16
5.1143165 0.53647619 -0.68991071 0 17
5.1341038 0.53855187 -0.64430296 0 18
5.1285768 0.53797209 -0.59549487 0 19
5.1147137 0.53651786 -0.54600263 0 20
5.1115971 0.53619099 -0.4979099 0 21
5.1048021 0.53547823 -0.4496364 0 22
5.1254902 0.53764832 -0.40373102 0 23
5.1145353 0.5364992 -0.35531113 0 24
5.1165633 0.53671193 -0.30793658 0 25
5.1323395 0.53836679 -0.26127657 0 26
5.112381 0.53627324 -0.21288034 0 27
5.1078181 0.53579456 -0.16538848 0 28
5.1121941 0.53625363 -0.11821583 0 29
5.1275687 0.53786635 -0.071134783 0 30
5.1121497 0.53624892 -0.023638958 0 31
5.1217284 0.53725374 0.023683252 0 32
5.1241789 0.53751075 0.071087755 0 33
5.1249189 0.53758842 0.11851008 0 34
5.1264944 0.5377537 0.16599321 0 35
5.1294613 0.53806484 0.21359156 0 36
5.1114287 0.53617334 0.26021203 0 37
5.1234884 0.53743833 0.30835336 0 38
5.1181102 0.53687418 0.3555595 0 39
5.1220608 0.53728855 0.40346089 0 40
5.1400952 0.53918034 0.45274505 0 41
5.1111908 0.53614837 0.49787036 0 42
5.111743 0.53620625 0.54568553 0 43
5.1323166 0.53836441 0.59592915 0 44
5.1079769 0.53581125 0.64102417 0 45
5.1112542 0.53615499 0.68949765 0 46
5.1364074 0.5387935 0.74130875 0 47
5.1292806 0.53804588 0.78875887 0 48
5.1245503 0.53754973 0.83660191 0 49
5.1034651 0.53533792 0.88167495 0 50
5.1051297 0.53551257 0.93064731 0 51
5.1108356 0.53611112 0.98058951 0 52
5.1366615 0.53882015 1.0348665 0 53
5.1208429 0.53716081 1.0810311 0 54
5.11586 0.53663814 1.1294737 0 55
5.1192155 0.53699011 1.1799417 0 56
5.1206279 0.53713822 1.2302184 0 57
5.1242342 0.53751653 1.2812915 0 58
5.1157632 0.53662801 1.3295268 0 59
5.1254506 0.53764415 1.3827336 0 60
5.1042557 0.53542089 1.4277451 0 61
5.1212244 0.53720081 1.4836506 0 62
5.126071 0.53770924 1.5365344 0 63
2.4437771 0.2867645 -0.73352116 0 0
2.5268185 0.29650897 -0.73303592 0 1
2.6191533 0.30734399 -0.73362231 0 2
2.7088053 0.31786418 -0.7317751 0 3
2.8226161 0.33121929 -0.7345677 0 4
2.9288015 0.34367958 -0.73333478 0 5
3.065104 0.35967398 -0.73739064 0 6
3.1917145 0.37453106 -0.7366727 0 7
3.3132927 0.38879761 -0.73250502 0 8
3.479161 0.40826142 -0.73546952 0 9
3.6455362 0.42778465 -0.73545849 0 10
3.8156526 0.44774693 -0.7330904 0 11
4.0216899 0.47192436 -0.73414242 0 12
4.2610679 0.50001413 -0.73714888 0 13
4.4794497 0.52564007 -0.73228669 0 14
4.7793026 0.56082624 -0.73594564 0 15
5.1060939 0.59917349 -0.73794138 0 16
5.1076837 0.59936005 -0.68995798 0 17
5.1249971 0.60139167 -0.64403945 0 18
5.1193852 0.60073316 -0.59524035 0 19
5.1142616 0.60013193 -0.54670084 0 20
5.1195912 0.60075736 -0.49937043 0 21
5.1205888 0.60087442 -0.45164359 0 22
5.11584 0.60031712 -0.40352184 0 23
5.1092668 0.59954584 -0.35543039 0 24
5.12148 0.60097897 -0.30865392 0 25
5.1204481 0.60085791 -0.2610276 0 26
5.1142035 0.60012513 -0.21324737 0 27
5.123466 0.60121202 -0.16612197 0 28
5.1301851 0.60200047 -0.11879405 0 29
5.1266327 0.60158366 -0.071219042 0 30
5.1214023 0.60096985 -0.023714123 0 31
5.1212597 0.6009531 0.023713462 0 32
5.1170611 0.60046041 0.071086071 0 33
5.1112852 0.59978271 0.11835641 0 34
5.1256895 0.60147291 0.16619405 0 35
5.1148443 0.6002003 0.21327411 0 36
5.1114964 0.59980744 0.26057127 0 37
5.1325049 0.60227269 0.30931833 0 38
5.1170998 0.60046494 0.3559753 0 39
5.1187196 0.60065502 0.40374896 0 40
5.1166477 0.60041189 0.45129594 0 41
5.1187196 0.60065508 0.4992854 0 42
5.1172719 0.60048515 0.54702258 0 43
5.1308522 0.60207874 0.59657365 0 44
5.1092076 0.59953886 0.64205521 0 45
5.1236281 0.60123104 0.69211185 0 46
5.1183543 0.60061222 0.73971331 0 47
5.1249604 0.60138738 0.78917205 0 48
5.1128988 0.59997201 0.83584106 0 49
5.1164169 0.60038489 0.88512111 0 50
5.1294732 0.60191691 0.93636352 0 51
5.1185422 0.60063422 0.98341084 0 52
5.1300435 0.60198385 1.0349462 0 53
5.127039 0.60163128 1.083819 0 54
5.125957 0.60150433 1.1332501 0 55
5.1123934 0.5999127 1.1799805 0 56
5.1209178 0.60091305 1.2319703 0 57
5.1192865 0.60072154 1.2818044 0 58
5.1186657 0.6006487 1.3320999 0 59
5.1171246 0.60046786 1.3823749 0 60
5.124804 0.60136902 1.4354527 0 61
5.115818 0.60031456 1.4841107 0 62
5.1248846 0.60137844 1.5382791 0 63
2.4468975 0.31767726 -0.73557472 0 0
2.519803 0.32714248 -0.73211241 0 1
2.6284573 0.3412489 -0.73734796 0 2
2.724772 0.3537533 -0.73720783 0 3
2.815074 0.36547709 -0.73371905 0 4
2.9351587 0.38106751 -0.73604417 0 5
3.0579238 0.39700592 -0.73678201 0 6
3.1833613 0.41329131 -0.73586208 0 7
3.3174844 0.4307043 -0.73454708 0 8
3.4731016 0.45090786 -0.73530507 0 9
3.6652725 0.47585717 -0.74056458 0 10
3.8088667 0.4944998 -0.73289949 0 11
4.0085282 0.52042156 -0.73285252 0 12
4.2507029 0.55186272 -0.73647398 0 13
4.4732385 0.58075422 -0.73238337 0 14
4.7825189 0.62090772 -0.73756081 0 15
5.0591483 0.65682209 -0.73226857 0 16
5.1081948 0.66318971 -0.6910764 0 17
5.1152067 0.66410005 -0.64378667 0 18
5.1162987 0.66424185 -0.59578609 0 19
5.1114116 0.66360736 -0.54722708 0 20
5.1291389 0.66590887 -0.50106251 0 21
5.1197243 0.66468656 -0.45225403 0 22
5.0933456 0.66126192 -0.4023585 0 23
5.1230841 0.66512275 -0.35693359 0 24
5.1151447 0.66409206 -0.30874091 0 25
5.1157274 0.66416764 -0.26118353 0 26
5.1236138 0.66519159 -0.21396466 0 27
5.12286 0.66509366 -0.16635491 0 28
5.1135592 0.66388619 -0.11858913 0 29
5.126298 0.66554004 -0.071322687 0 30
5.127871 0.66574425 -0.023780184 0 31
5.1222181 0.66501033 0.023753967 0 32
5.1153226 0.66411513 0.07116998 0 33
5.1251793 0.66539478 0.11885861 0 34
5.1201792 0.66474569 0.16626786 0 35
5.1061654 0.66292626 0.21323599 0 36
5.1176577 0.66441828 0.26128209 0 37
5.1212873 0.66488951 0.30911165 0 38
5.1193366 0.66463625 0.3566725 0 39
5.1123381 0.66372764 0.40385887 0 40
5.1156464 0.66415715 0.45189381 0 41
5.1209364 0.66484398 0.50026125 0 42
5.118083 0.66447347 0.54794127 0 43
5.1244464 0.66529965 0.59673488 0 44
5.1306911 0.6661104 0.6457355 0 45
5.1234784 0.66517401 0.69314408 0 46
5.1265531 0.66557318 0.7420249 0 47
5.1147914 0.66404617 0.78880394 0 48
5.11379 0.66391611 0.83725798 0 49
5.1086602 0.66325015 0.88512313 0 50
5.1068101 0.66300994 0.93364418 0 51
5.122962 0.66510695 0.98575675 0 52
5.1214175 0.66490638 1.0347773 0 53
5.1163683 0.66425091 1.0832081 0 54
5.1194482 0.66465074 1.1335323 0 55
5.1238308 0.66521972 1.1844187 0 56
5.1232524 0.66514468 1.2344062 0 57
5.1228194 0.66508842 1.2846397 0 58
5.1195121 0.66465902 1.3343462 0 59
5.1202431 0.66475397 1.3853209 0 60
5.1144552 0.66400254 1.4347326 0 61
5.1247349 0.66533709 1.4889584 0 62
5.1322613 0.66631424 1.5428361 0 63
2.4420791 0.3476356 -0.73535562 0 0
2.5222206 0.35904396 -0.73404211 0 1
2.6039186 0.37067384 -0.73168755 0 2
2.7226753 0.38757914 -0.73787427 0 3
2.8249881 0.4021436 -0.73753613 0 4
2.9239879 0.41623646 -0.73447084 0 5
3.0408223 0.43286806 -0.73388851 0 6
3.1799541 0.45267382 -0.73630548 0 7
3.327101 0.4736205 -0.73791009 0 8
3.4766877 0.49491453 -0.737297 0 9
3.6240757 0.51589555 -0.73346716 0 10
3.8033419 0.5414145 -0.73306197 0 11
4.0201249 0.57227409 -0.73620355 0 12
4.2150078 0.60001618 -0.73151261 0 13
4.4841375 0.63832736 -0.73539734 0 14
4.7666726 0.67854691 -0.73634809 0 15
5.0536251 0.71939528 -0.73269415 0 16
5.126204 0.72972703 -0.69467425 0 17
5.1135449 0.72792494 -0.64465535 0 18
5.1303082 0.73031121 -0.598418 0 19
5.1135454 0.727925 -0.54837233 0 20
5.1043968 0.7266227 -0.49948055 0 21
5.1145978 0.72807485 -0.4525578 0 22
5.1269231 0.72982937 -0.4056893 0 23
5.1199565 0.72883767 -0.35731307 0 24
5.1208925 0.72897089 -0.30960545 0 25
5.1169152 0.7284047 -0.26168168 0 26
5.1196494 0.72879398 -0.21415715 0 27
5.1140165 0.72799206 -0.16634585 0 28
5.1214733 0.72905362 -0.11897158 0 29
5.1158781 0.72825712 -0.071296915 0 30
5.1178489 0.72853762 -0.023773452 0 31
5.1175661 0.72849739 0.023772139 0 32
5.1208782 0.72896886 0.071366601 0 33
5.1205859 0.72892731 0.11895096 0 34
5.1210818 0.72899789 0.16657567 0 35
5.1201105 0.7288596 0.21417643 0 36
5.1150589 0.72814047 0.26158676 0 37
5.1296368 0.73021567 0.31013411 0 38
5.11658 0.72835702 0.35707745 0 39
5.1184015 0.7286163 0.40501499 0 40
5.1207161 0.72894579 0.45309919 0 41
5.1028433 0.72640157 0.49932855 0 42
5.1234221 0.72933102 0.54943156 0 43
5.1322508 0.73058778 0.59864461 0 44
5.1247659 0.72952229 0.64606994 0 45
5.1199827 0.72884136 0.69383115 0 46
5.1128497 0.727826 0.74128073 0 47
5.1002884 0.72603786 0.78788453 0 48
5.117444 0.72848004 0.83925945 0 49
5.1273947 0.72989649 0.88985687 0 50
5.1175179 0.72849053 0.93716866 0 51
5.1154556 0.72819692 0.98596078 0 52
5.134521 0.73091096 1.0391622 0 53
5.1256533 0.72964865 1.0869912 0 54
5.1140723 0.72800004 1.1342384 0 55
5.1129403 0.72783887 1.1838806 0 56
5.1164551 0.72833925 1.234833 0 57
5.1210718 0.72899646 1.2863522 0 58
5.1282616 0.73001993 1.3388652 0 59
5.1319914 0.73055083 1.3908248 0 60
5.1166544 0.72836757 1.4377532 0 61
5.1149812 0.72812939 1.4886134 0 62
5.1251631 0.72957885 1.5432824 0 63
2.4369335 0.37752965 -0.73514849 0 0
2.5184677 0.39016092 -0.73429054 0 1
2.6073654 0.40393296 -0.73399627 0 2
2.7017038 0.41854787 -0.7335301 0 3
2.788799 0.43204066 -0.72941989 0 4
2.9159396 0.45173728 -0.73378909 0 5
3.0390427 0.47080839 -0.7348007 0 6
3.1803713 0.49270299 -0.7377491 0 7
3.3147943 0.51352781 -0.73652542 0 8
3.4484255 0.53422993 -0.73264122 0 9
3.6338181 0.56295097 -0.73678416 0 10
3.799211 0.58857363 -0.73360527 0 11
4.0255995 0.62364578 -0.73855472 0 12
4.2185678 0.65354037 -0.73346967 0 13
4.4844556 0.69473171 -0.73679483 0 14
4.7661514 0.73837203 -0.73761439 0 15
5.056735 0.78338921 -0.7344861 0 16
5.1338415 0.79533452 -0.69698185 0 17
5.1150684 0.79242623 -0.64602697 0 18
5.1093965 0.79154754 -0.59706897 0 19
5.1165543 0.79265642 -0.54969871 0 20
5.1302996 0.7947858 -0.5029335 0 21
5.1182051 0.79291213 -0.4537054 0 22
5.1189165 0.79302239 -0.40579668 0 23
5.1114101 0.79185945 -0.35736915 0 24
5.1148324 0.79238963 -0.30980474 0 25
5.126255 0.79415929 -0.2626389 0 26
5.1172013 0.79275668 -0.21444629 0 27
5.1346741 0.7954635 -0.16732331 0 28
5.122191 0.79352969 -0.11920591 0 29
5.124126 0.79382944 -0.071542494 0 30
5.112781 0.79207188 -0.023793356 0 31
5.1088052 0.79145592 0.023774853 0 32
5.127223 0.7943092 0.07158573 0 33
5.1209745 0.79334116 0.11917759 0 34
5.1141906 0.79229021 0.16665581 0 35
5.1342912 0.7954042 0.21516247 0 36
5.118804 0.79300493 0.26225713 0 37
5.1165519 0.792656 0.30990887 0 38
5.1239305 0.79379916 0.35824454 0 39
5.1205149 0.79326999 0.4059234 0 40
5.1239181 0.79379719 0.45421183 0 41
5.1302118 0.79477221 0.50292492 0 42
5.1180081 0.79288161 0.54985487 0 43
5.1209202 0.79333276 0.59841561 0 44
5.1362619 0.79570955 0.64870369 0 45
5.1094627 0.79155779 0.69367218 0 46
5.1200347 0.79319561 0.74368036 0 47
5.1188159 0.79300678 0.79219311 0 48
5.1247921 0.79393262 0.84200191 0 49
5.1191807 0.79306328 0.89005649 0 50
5.1187873 0.79300237 0.93911582 0 51
5.1230807 0.7936675 0.98923677 0 52
5.1263919 0.79418045 1.0394148 0 53
5.1225381 0.79358339 1.0883176 0 54
5.1330695 0.79521495 1.1405342 0 55
5.1241884 0.7938391 1.1886555 0 56
5.1017504 0.79036295 1.2335364 0 57
5.1165681 0.79265851 1.2875718 0 58
5.117775 0.79284549 1.3385714 0 59
5.1252933 0.79401028 1.3915503 0 60
5.1193438 0.79308856 1.4411403 0 61
5.1118178 0.79192263 1.490414 0 62
5.1182051 0.79291213 1.5440063 0 63
2.4248188 0.40624344 -0.73294544 0 0
2.5149312 0.42134047 -0.73471451 0 1
2.6028099 0.43606329 -0.73416787 0 2
2.7100432 0.4540287 -0.73725438 0 3
2.7849483 0.46657795 -0.7298581 0 4
2.9330401 0.49138859 -0.73955697 0 5
3.0433731 0.50987327 -0.73730791 0 6
3.1815195 0.53301775 -0.73947996 0 7
3.295392 0.55209541 -0.73366737 0 8
3.44275 0.57678312 -0.73288679 0 9
3.6153965 0.60570759 -0.73450369 0 10
3.7973945 0.6361987 -0.73470956 0 11
3.9918039 0.66876924 -0.73380762 0 12
4.2232108 0.70753807 -0.73573393 0 13
4.4816446 0.750835 -0.73779416 0 14
4.7324786 0.79285854 -0.7338565 0 15
5.0481601 0.84574646 -0.73469561 0 16
5.1148033 0.85691154 -0.69577509 0 17
5.122777 0.85824746 -0.64828444 0 18
5.1121354 0.85646462 -0.59857446 0 19
5.1113439 0.856332 -0.5502286 0 20
5.128201 0.85915613 -0.50372541 0 21
5.1137295 0.85673165 -0.4542082 0 22
5.1080852 0.85578603 -0.40574157 0 23
5.1292787 0.85933673 -0.35933009 0 24
5.1214743 0.85802919 -0.31082258 0 25
5.1190596 0.85762465 -0.26279065 0 26
5.122582 0.85821474 -0.21509776 0 27
5.1080942 0.85578758 -0.16678746 0 28
5.1090078 0.85594058 -0.11913504 0 29
5.1110725 0.85628653 -0.071501844 0 30
5.128139 0.85914576 -0.023912182 0 31
5.1323395 0.85984945 0.02393177 0 32
5.1223755 0.85818011 0.07165996 0 33
5.1230664 0.85829592 0.11946286 0 34
5.1230631 0.85829538 0.16727622 0 35
5.1196175 0.85771811 0.21497329 0 36
5.1313357 0.85968131 0.26342085 0 37
5.1096334 0.85604542 0.31010395 0 38
5.1192107 0.85764998 0.35862476 0 39
5.1166997 0.85722923 0.4064258 0 40
5.1212044 0.85798401 0.45487213 0 41
5.1209264 0.8579374 0.50301081 0 42
5.1294689 0.85936856 0.55217975 0 43
5.1118312 0.8564136 0.59853882 0 44
5.1212883 0.85799801 0.64809602 0 45
5.1268845 0.85893559 0.69741851 0 46
5.1132178 0.85664588 0.74416393 0 47
5.1239681 0.85844696 0.79456401 0 48
5.1198258 0.85775298 0.84285516 0 49
5.1146407 0.85688436 0.89103174 0 50
5.1222644 0.85816157 0.94161856 0 51
5.1164556 0.8571884 0.98991793 0 52
5.1073585 0.85566425 1.0376105 0 53
5.1218739 0.85809612 1.0903358 0 54
5.107307 0.85565561 1.1370617 0 55
5.1250453 0.85862744 1.1912133 0 56
5.1153741 0.85700721 1.2392848 0 57
5.1217556 0.85807627 1.2914348 0 58
5.1179843 0.85744452 1.3412826 0 59
5.1262374 0.85882717 1.3945684 0 60
5.1390557 0.86097473 1.4495602 0 61
5.1190953 0.85763061 1.4954976 0 62
5.1191201 0.85763478 1.5473468 0 63
2.4223447 0.43651447 -0.73376453 0 0
2.5075312 0.45186535 -0.73412037 0 1
2.5887523 0.46650168 -0.73176539 0 2
2.6890028 0.48456714 -0.73309594 0 3
2.7998345 0.50453937 -0.73532969 0 4
2.9125946 0.52485913 -0.73597336 0 5
3.0246758 0.54505652 -0.73434639 0 6
3.1624174 0.56987804 -0.73661315 0 7
3.3008306 0.59482056 -0.73645091 0 8
3.4517405 0.622015 -0.73637325 0 9
3.6298101 0.6541037 -0.7390101 0 10
3.7834678 0.68179333 -0.73358166 0 11
3.9809806 0.71738583 -0.73338413 0 12
4.2146144 0.75948739 -0.73580772 0 13
4.4325247 0.79875553 -0.73126936 0 14
4.7247009 0.85140663 -0.73421836 0 15
5.052495 0.91047621 -0.73690021 0 16
5.133831 0.92513323 -0.69985801 0 17
5.108212 0.92051667 -0.6478247 0 18
5.1280284 0.92408758 -0.60172033 0 19
5.107512 0.92039049 -0.55099279 0 20
5.119019 0.92246413 -0.50389957 0 21
5.119534 0.92255682 -0.45569688 0 22
5.1228704 0.92315817 -0.40778685 0 23
5.1277118 0.92403054 -0.35998908 0 24
5.1120124 0.92120147 -0.31091231 0 25
5.1156831 0.9218629 -0.26317936 0 26
5.1180058 0.9222815 -0.21536553 0 27
5.1052132 0.91997617 -0.16705012 0 28
5.1193976 0.92253232 -0.11963279 0 29
5.1197305 0.92259234 -0.071776249 0 30
5.1017661 0.91935509 -0.02384012 0 31
5.1247492 0.92349666 0.023947518 0 32
5.1237254 0.92331219 0.071832255 0 33
5.1217442 0.92295516 0.11968762 0 34
5.1248059 0.92350692 0.16769123 0 35
5.1139903 0.9215579 0.21519656 0 36
5.1205745 0.92274439 0.26343101 0 37
5.1086578 0.92059696 0.31070828 0 38
5.1234574 0.92326391 0.3596904 0 39
5.1297131 0.92439121 0.40833151 0 40
5.1183581 0.92234498 0.45559224 0 41
5.1281996 0.92411846 0.50480324 0 42
5.119431 0.92253834 0.55227858 0 43
5.1125889 0.92130536 0.59990871 0 44
5.1242557 0.92340773 0.64985937 0 45
5.1336722 0.92510462 0.69983637 0 46
5.1168814 0.92207885 0.74629086 0 47
5.1200643 0.92265242 0.79565781 0 48
5.1216278 0.92293423 0.84495628 0 49
5.1141763 0.9215914 0.89285755 0 50
5.1243553 0.92342567 0.94401884 0 51
5.1151247 0.92176235 0.99177843 0 52
5.1285419 0.92418009 1.0441439 0 53
5.1157627 0.92187726 1.0913656 0 54
5.1208582 0.92279553 1.1425186 0 55
5.1257772 0.92368191 1.1939331 0 56
5.1296263 0.92437553 1.2453971 0 57
5.1050906 0.91995412 1.2899876 0 58
5.1129508 0.92137057 1.342831 0 59
5.1157436 0.92187387 1.3946921 0 60
5.1269307 0.92388976 1.449235 0 61
5.1212344 0.9228633 1.4993244 0 62
5.1140742 0.92157304 1.5491298 0 63
2.4165151 0.46621162 -0.73367971 0 0
2.523561 0.4868637 -0.74051011 0 1
2.5938494 0.50042427 -0.73488998 0 2
2.6755846 0.51619321 -0.73111296 0 3
2.7761314 0.53559142 -0.73077893 0 4
2.901732 0.55982322 -0.73491246 0 5
3.0210953 0.58285165 -0.73516154 0 6
3.1460414 0.6069572 -0.73448163 0 7
3.3080995 0.63822258 -0.73976767 0 8
3.4486113 0.66533113 -0.73739529 0 9
3.5993803 0.69441855 -0.73449767 0 10
3.7760935 0.72851139 -0.73383325 0 11
3.9752111 0.76692659 -0.73400307 0 12
4.2163305 0.81344509 -0.7377978 0 13
4.4402313 0.85664165 -0.73422307 0 14
4.7301097 0.91256714 -0.73674703 0 15
5.04456 0.97323316 -0.7374326 0 16
5.1204782 0.98787981 -0.69964081 0 17
5.1276469 0.98926288 -0.65178287 0 18
5.1070929 0.9852975 -0.60064006 0 19
5.1195817 0.9877069 -0.55356324 0 20
5.1163993 0.98709291 -0.50479829 0 21
5.1233125 0.98842669 -0.45708054 0 22
5.121645 0.98810494 -0.40862557 0 23
5.1358728 0.99084985 -0.36139005 0 24
5.1128488 0.98640788 -0.31167731 0 25
5.1196318 0.98771656 -0.26398736 0 26
5.1204162 0.98786789 -0.2159618 0 27
5.121737 0.98812276 -0.16797569 0 28
5.1205993 0.98790318 -0.11993568 0 29
5.1291542 0.98955369 -0.072073504 0 30
5.1144695 0.98672062 -0.023954367 0 31
5.1173506 0.98727643 0.02396786 0 32
5.1184478 0.98748815 0.071923062 0 33
5.1222668 0.98822492 0.11997473 0 34
5.1104369 0.9859426 0.16760507 0 35
5.1266942 0.98907912 0.21622658 0 36
5.1172872 0.98726422 0.26386648 0 37
5.109621 0.98578519 0.31148055 0 38
5.1167846 0.98716724 0.36004689 0 39
5.1161079 0.98703676 0.40818381 0 40
5.1103854 0.98593265 0.45592722 0 41
5.1278415 0.98930043 0.50592726 0 42
5.1159935 0.98701459 0.55317521 0 43
5.1124902 0.98633873 0.60127479 0 44
5.1153169 0.98688412 0.65021557 0 45
5.1168246 0.98717499 0.69914162 0 46
5.1200781 0.98780268 0.74847209 0 47
5.1381774 0.99129456 0.80030638 0 48
5.1223645 0.98824376 0.84701854 0 49
5.1138158 0.9865945 0.89484501 0 50
5.1144028 0.98670775 0.94434917 0 51
5.1257114 0.98888946 0.99611342 0 52
5.1274095 0.9892171 1.0463108 0 53
5.123621 0.98848617 1.0955522 0 54
5.1278315 0.98929846 1.1467018 0 55
5.1115193 0.98615146 1.1933464 0 56
5.1280546 0.98934156 1.2478749 0 57
5.1272254 0.98918152 1.2985561 0 58
5.1243167 0.9886204 1.3489069 0 59
5.1213965 0.98805702 1.3994398 0 60
5.109715 0.98580337 1.4476856 0 61
5.124609 0.98867673 1.5037578 0 62
5.1207714 0.98793644 1.5547209 0 63
2.4151943 0.49683386 -0.73507804 0 0
2.4938545 0.51301515 -0.7335887 0 1
2.6022089 0.5353049 -0.73906744 0 2
2.6798007 0.55126649 -0.73406184 0 3
2.7826138 0.57241637 -0.73428261 0 4
2.8999913 0.59656227 -0.73627377 0 5
3.016799 0.62059098 -0.73591739 0 6
3.1495955 0.64790881 -0.73711562 0 7
3.254698 0.66952962 -0.72961175 0 8
3.4247036 0.70450175 -0.73408002 0 9
3.581826 0.73682368 -0.73270905 0 10
3.773596 0.77627307 -0.73514736 0 11
3.9880135 0.82038122 -0.73817384 0 12
4.1736922 0.85857755 -0.7321288 0 13
4.4313445 0.91157967 -0.73455161 0 14
4.7346387 0.97397077 -0.73926193 0 15
4.9937906 1.0272814 -0.73180217 0 16
5.109426 1.051069 -0.69984376 0 17
5.1151814 1.0522529 -0.65179378 0 18
5.1355796 1.0564491 -0.60547233 0 19
5.1127467 1.0517521 -0.55418062 0 20
5.124774 1.0542263 -0.50686526 0 21
5.1135416 1.0519155 -0.45732823 0 22
5.0966821 1.0484474 -0.4076317 0 23
5.1357288 1.0564797 -0.36226666 0 24
5.1140289 1.0520158 -0.31251422 0 25
5.124074 1.0540822 -0.26486474 0 26
5.1197252 1.0531876 -0.21646249 0 27
5.1239028 1.054047 -0.16845906 0 28
5.1157856 1.0523772 -0.12011695 0 29
5.1227412 1.053808 -0.072160013 0 30
5.1248832 1.0542487 -0.024062039 0 31
5.1248031 1.0542321 0.024061663 0 32
5.1158752 1.0523956 0.072063297 0 33
5.1110897 1.0514113 0.1200067 0 34
5.1254692 1.0543692 0.16851057 0 35
5.122529 1.0537645 0.21658105 0 36
5.1273699 1.0547602 0.26503512 0 37
5.1184993 1.0529355 0.31278741 0 38
5.1192527 1.0530903 0.36110446 0 39
5.1272745 1.0547407 0.41007847 0 40
5.1264486 1.0545707 0.45848256 0 41
5.1136913 1.0519464 0.50576913 0 42
5.1097164 1.0511287 0.5538522 0 43
5.1270781 1.0547001 0.60447001 0 44
5.1213131 1.0535142 0.65257508 0 45
5.1200819 1.053261 0.7013033 0 46
5.1222076 1.0536983 0.75062072 0 47
5.1224127 1.0537405 0.79980856 0 48
5.1116457 1.0515256 0.8473202 0 49
5.1195321 1.0531479 0.89804339 0 50
5.1115589 1.0515077 0.94614005 0 51
5.1243916 1.0541475 0.99830049 0 52
5.1173463 1.0526983 1.0468197 0 53
5.1191845 1.0530764 1.0972894 0 54
5.1017027 1.0494802 1.1436582 0 55
5.1041217 1.0499779 1.1945432 0 56
5.1238203 1.0540301 1.2499039 0 57
5.1155939 1.0523378 1.2987894 0 58
5.1290765 1.0551113 1.3534727 0 59
5.1238837 1.0540431 1.4035549 0 60
5.1234598 1.0539559 1.4551417 0 61
5.1178021 1.0527921 1.5054455 0 62
5.1284046 1.0549731 1.560859 0 63
2.4107156 0.52688855 -0.73563111 0 0
2.4992502 0.54623878 -0.73709595 0 1
2.5935733 0.56685418 -0.73853868 0 2
2.6860511 0.58706623 -0.73769563 0 3
2.7812765 0.60787874 -0.73584658 0 4
2.9049084 0.63489991 -0.73944843 0 5
2.9892621 0.65333635 -0.73110461 0 6
3.124984 0.68299991 -0.73326582 0 7
3.2665086 0.71393162 -0.73417181 0 8
3.42293 0.74811929 -0.73561615 0 9
3.5885637 0.78432035 -0.73600453 0 10
3.7744401 0.82494569 -0.73723221 0 11
3.9512091 0.86358047 -0.73327148 0 12
4.183373 0.9143225 -0.73574346 0 13
4.4302354 0.96827704 -0.73628569 0 14
4.6778655 1.0223993 -0.73230505 0 15
5.0041285 1.0937077 -0.73523229 0 16
5.12672 1.1205014 -0.70404655 0 17
5.1241822 1.1199468 -0.65464604 0 18
5.1198077 1.1189908 -0.60518938 0 19
5.111999 1.1172839 -0.55554676 0 20
5.127512 1.1206745 -0.50846058 0 21
5.1249142 1.1201067 -0.45954239 0 22
5.1208725 1.1192234 -0.4106361 0 23
5.1217518 1.1194155 -0.36222431 0 24
5.1288104 1.1209583 -0.31423607 0 25
5.1181183 1.1186215 -0.26524785 0 26
5.1261516 1.1203772 -0.21730025 0 27
5.1297045 1.1211537 -0.16909027 0 28
5.1187873 1.1187677 -0.12050132 0 29
5.1156368 1.1180791 -0.072248146 0 30
5.1215253 1.119366 -0.024109077 0 31
5.1299534 1.1212082 0.024148751 0 32
5.1055222 1.1158684 0.072105296 0 33
5.1223774 1.1195523 0.12058584 0 34
5.1163936 1.1182445 0.16865151 0 35
5.1189904 1.1188121 0.21699668 0 36
5.1230636 1.1197023 0.26550415 0 37
5.1245332 1.1200235 0.31397402 0 38
5.1194143 1.1189047 0.362059 0 39
5.1040444 1.1155454 0.40928668 0 40
5.1283431 1.1208562 0.45984989 0 41
5.1329455 1.1218622 0.50899941 0 42
5.1186585 1.1187395 0.55627048 0 43
5.1137667 1.1176704 0.60447532 0 44
5.1384702 1.1230695 0.65647131 0 45
5.1239171 1.1198888 0.70366156 0 46
5.1114902 1.1171727 0.75100642 0 47
5.117743 1.1185395 0.80116647 0 48
5.1228867 1.1196636 0.85140133 0 49
5.1292534 1.1210552 0.9020986 0 50
5.1207232 1.1191908 0.95031184 0 51
5.1191115 1.1188385 0.9998765 0 52
5.1185775 1.1187218 1.0498062 0 53
5.1346536 1.1222354 1.1034797 0 54
5.1205463 1.1191522 1.1508805 0 55
5.1203871 1.1191174 1.2014797 0 56
5.1095543 1.1167498 1.2496792 0 57
5.1203403 1.1191071 1.3033897 0 58
5.1220455 1.1194798 1.3551474 0 59
5.1228075 1.1196463 1.4069251 0 60
5.1325822 1.1217827 1.4615397 0 61
5.1132464 1.1175567 1.5080336 0 62
5.1121845 1.1173246 1.5599859 0 63
2.3972733 0.55491996 -0.73355597 0 0
2.4811985 0.57434696 -0.73379952 0 1
2.5684013 0.59453267 -0.73339707 0 2
2.6434889 0.61191386 -0.72801781 0 3
2.7746258 0.64226943 -0.73612088 0 4
2.8745089 0.66539031 -0.73373741 0 5
2.9943907 0.69314057 -0.73438799 0 6
3.12325 0.72296882 -0.73488933 0 7
3.2625148 0.75520581 -0.73530579 0 8
3.42167 0.79204702 -0.73738271 0 9
3.5644503 0.82509774 -0.73308444 0 10
3.7339556 0.86433476 -0.73134536 0 11
3.9454296 0.91328669 -0.7342276 0 12
4.167511 0.96469402 -0.73498452 0 13
4.3919091 1.0166377 -0.73193836 0 14
4.6709318 1.0812258 -0.73324549 0 15
4.9981751 1.1569759 -0.7363922 0 16
5.1101851 1.1829039 -0.70372015 0 17
5.1295638 1.1873897 -0.6571492 0 18
5.1233273 1.1859461 -0.60728329 0 19
5.1407204 1.1899722 -0.56021589 0 20
5.1255627 1.1864635 -0.50967544 0 21
5.115581 1.1841528 -0.45997638 0 22
5.1109762 1.1830871 -0.41097805 0 23
5.1183276 1.1847887 -0.36298507 0 24
5.1081896 1.1824419 -0.31383976 0 25
5.1054597 1.18181 -0.26532489 0 26
5.1228061 1.1858255 -0.2177601 0 27
5.12147 1.1855161 -0.16928656 0 28
5.1120868 1.1833441 -0.12067701 0 29
5.1283216 1.1871021 -0.072627954 0 30
5.12006 1.1851897 -0.024168955 0 31
5.10746 1.182273 0.024109477 0 32
5.1118379 1.1832865 0.072394513 0 33
5.1283703 1.1871134 0.1210614 0 34
5.1125159 1.1834434 0.1689906 0 35
5.1180043 1.1847138 0.21755597 0 36
5.1151543 1.1840541 0.2658287 0 37
5.1283531 1.1871095 0.31507859 0 38
5.1251588 1.18637 0.36346951 0 39
5.1323328 1.1880306 0.41269535 0 40
5.1136684 1.1837102 0.45980445 0 41
5.1142092 1.1838354 0.50854653 0 42
5.1143694 1.1838725 0.55734426 0 43
5.1107335 1.1830308 0.6057905 0 44
5.1190243 1.18495 0.65579897 0 45
5.1139336 1.1837716 0.70423633 0 46
5.1275716 1.1869285 0.75545645 0 47
5.1148806 1.1839907 0.80293679 0 48
5.1179681 1.1847055 0.8529405 0 49
5.117682 1.1846392 0.90255713 0 50
5.1140637 1.1838018 0.9517054 0 51
5.1202989 1.185245 1.0028794 0 52
5.1200953 1.1851978 1.0530269 0 53
5.1014948 1.1808922 1.0993912 0 54
5.118432 1.1848129 1.1535926 0 55
5.1149569 1.1840085 1.2035308 0 56
5.1248055 1.1862882 1.256882 0 57
5.1237984 1.1860551 1.3078835 0 58
5.1205339 1.1852994 1.358501 0 59
5.111949 1.1833123 1.4078327 0 60
5.1222634 1.1856997 1.4626426 0 61
5.1149621 1.1840097 1.5127192 0 62
5.1176124 1.1846232 1.5659689 0 63
2.3975561 0.58613527 -0.73579228 0 0
2.4779711 0.60579455 -0.7349925 0 1
2.5673831 0.62765324 -0.73525459 0 2
2.6619694 0.65077698 -0.7352556 0 3
2.7661619 0.67624915 -0.73602587 0 4
2.8886552 0.70619524 -0.73950905 0 5
3.0069268 0.73510933 -0.73962349 0 6
3.1110487 0.76056427 -0.73416346 0 7
3.2483048 0.79411954 -0.7342484 0 8
3.3955655 0.83012062 -0.73390132 0 9
3.5558295 0.86930072 -0.73345441 0 10
3.7540462 0.91775912 -0.73743498 0 11
3.9477334 0.96511024 -0.73680907 0 12
4.1224527 1.0078242 -0.72916847 0 13
4.3936749 1.0741304 -0.73437834 0 14
4.661294 1.1395558 -0.73387671 0 15
4.9996738 1.2222801 -0.73877156 0 16
5.104331 1.2478659 -0.70497376 0 17
5.1272202 1.2534617 -0.65877372 0 18
5.1178112 1.2511615 -0.60840702 0 19
5.1213493 1.2520266 -0.55974036 0 20
5.1292915 1.2539681 -0.51154089 0 21
5.1152887 1.2505448 -0.46129793 0 22
5.1186075 1.2513561 -0.41279778 0 23
5.1251469 1.2529548 -0.36453375 0 24
5.1193676 1.251542 -0.31544819 0 25
5.1298099 1.2540948 -0.26737154 0 26
5.1309333 1.2543695 -0.21874468 0 27
5.1094542 1.2491184 -0.1693843 0 28
5.1272836 1.2534772 -0.12139042 0 29
5.1155353 1.250605 -0.072659165 0 30
5.1211929 1.2519882 -0.024245141 0 31
5.1240468 1.2526859 0.024258653 0 32
5.1200032 1.2516973 0.072722629 0 33
5.1180334 1.2512158 0.12117142 0 34
5.117218 1.2510165 0.16964167 0 35
5.1207004 1.2518679 0.21830843 0 36
5.1233277 1.2525102 0.26703367 0 37
5.1168771 1.2509331 0.31529471 0 38
5.1156607 1.2506357 0.36385903 0 39
5.1133575 1.2500727 0.41237441 0 40
5.117599 1.2511096 0.46150625 0 41
5.1254435 1.2530273 0.5111571 0 42
5.124476 1.2527908 0.56008208 0 43
5.1182885 1.2512782 0.60846382 0 44
5.1297483 1.2540798 0.65909857 0 45
5.1229391 1.2524152 0.70754379 0 46
5.1091695 1.2490488 0.75495106 0 47
5.1250176 1.2529233 0.8068856 0 48
5.1180139 1.251211 0.85544753 0 49
5.1145825 1.2503722 0.90465373 0 50
5.109796 1.249202 0.95369762 0 51
5.1247964 1.2528691 1.0067016 0 52
5.1177688 1.2511511 1.0556327 0 53
5.1144629 1.2503428 1.1054156 0 54
5.1329098 1.2548527 1.1602454 0 55
5.1284637 1.2537657 1.2102448 0 56
5.1241422 1.2527092 1.2604017 0 57
5.1160698 1.2507358 1.3097374 0 58
5.1035137 1.2476661 1.357953 0 59
5.117341 1.2510465 1.4134474 0 60
5.1181774 1.2512511 1.4657584 0 61
5.1300812 1.2541612 1.5216365 0 62
5.1300788 1.2541605 1.5743834 0 63
2.3887386 0.61520213 -0.73535234 0 0
2.4652467 0.63490617 -0.73347849 0 1
2.5617018 0.65974754 -0.73589522 0 2
2.637197 0.67919075 -0.73066479 0 3
2.7650504 0.71211851 -0.73800427 0 4
2.8608286 0.73678541 -0.73464912 0 5
2.9744964 0.7660597 -0.733908 0 6
3.1045763 0.7995609 -0.73490071 0 7
3.234545 0.83303332 -0.73339808 0 8
3.3991799 0.87543386 -0.73695344 0 9
3.5702271 0.91948581 -0.73870045 0 10
3.7534273 0.96666771 -0.73959249 0 11
3.9261148 1.0111421 -0.73503923 0 12
4.1316667 1.0640804 -0.73305708 0 13
4.4102979 1.1358398 -0.73943532 0 14
4.6800337 1.2053083 -0.73910463 0 15
4.9409986 1.2725179 -0.73235822 0 16
5.1217847 1.3190781 -0.70957088 0 17
5.1286888 1.3208562 -0.6609993 0 18
5.1096778 1.31596 -0.60931778 0 19
5.1178255 1.3180584 -0.56108421 0 20
5.1072383 1.3153317 -0.51091588 0 21
5.1268435 1.3203809 -0.46376905 0 22
5.1220403 1.3191439 -0.41435143 0 23
5.1264501 1.3202797 -0.36575353 0 24
5.125102 1.3199325 -0.31677771 0 25
5.1191354 1.3183957 -0.26763991 0 26
5.1237612 1.3195872 -0.21911412 0 27
5.1118155 1.3165107 -0.16998638 0 28
5.1127634 1.3167547 -0.12142081 0 29
5.1284471 1.320794 -0.073067725 0 30
5.1166377 1.3177526 -0.024298452 0 31
5.1339617 1.3222142 0.024380723 0 32
5.1108875 1.3162717 0.072817542 0 33
5.1192183 1.3184172 0.12157411 0 34
5.1206098 1.3187754 0.17027882 0 35
5.1350355 1.3224908 0.21959625 0 36
5.1164308 1.3176992 0.26749849 0 37
5.1070962 1.3152952 0.31566477 0 38
5.1280346 1.3206878 0.36586657 0 39
5.1189489 1.3183478 0.41410136 0 40
5.1172471 1.3179095 0.462901 0 41
5.1181521 1.3181425 0.51200771 0 42
5.1307521 1.3213875 0.56250137 0 43
5.1320415 1.3217196 0.61198461 0 44
5.1279578 1.320668 0.66090506 0 45
5.1213827 1.3189745 0.70951515 0 46
5.125464 1.3200257 0.75969982 0 47
5.1247382 1.3198388 0.80933565 0 48
5.1185451 1.3182437 0.85818076 0 49
5.1152182 1.317387 0.90756279 0 50
5.1235876 1.3195424 0.95922762 0 51
5.115829 1.3175442 1.0080463 0 52
5.1247773 1.3198488 1.0603458 0 53
5.1363773 1.3228363 1.1135836 0 54
5.1148295 1.3172868 1.1597323 0 55
5.1086316 1.3156906 1.2092912 0 56
5.1224418 1.3192474 1.2638782 0 57
5.1151681 1.317374 1.3135543 0 58
5.1165009 1.3177173 1.3656168 0 59
5.1222997 1.3192106 1.4191902 0 60
5.1236963 1.3195704 1.4718745 0 61
5.1405096 1.3239005 1.5294425 0 62
5.1264887 1.3202896 1.5781448 0 63
2.39256 0.64765739 -0.7389245 0 0
2.4700029 0.66862088 -0.737284 0 1
2.5630507 0.69380862 -0.73867768 0 2
2.6485507 0.71695316 -0.73619741 0 3
2.7554729 0.74589658 -0.73784018 0 4
2.8591018 0.77394855 -0.7365939 0 5
2.9851875 0.80807954 -0.73894173 0 6
3.0999725 0.83915138 -0.73619783 0 7
3.2440774 0.87816006 -0.73795211 0 8
3.3594635 0.90939462 -0.73071194 0 9
3.5407112 0.95845777 -0.73497635 0 10
3.7181749 1.0064965 -0.73502934 0 11
3.9054296 1.0571856 -0.73354483 0 12
4.1435122 1.1216339 -0.73755008 0 13
4.3836751 1.1866452 -0.73736244 0 14
4.6176038 1.2499688 -0.73161739 0 15
4.929265 1.3343343 -0.73299557 0 16
5.1296105 1.3885671 -0.71296662 0 17
5.12714 1.3878984 -0.66294914 0 18
5.1176229 1.385322 -0.61225021 0 19
5.1150703 1.3846312 -0.56260628 0 20
5.1263094 1.3876735 -0.5144918 0 21
5.1112843 1.3836063 -0.46386555 0 22
5.1122103 1.3838569 -0.41490144 0 23
5.1150403 1.3846229 -0.36612651 0 24
5.1311426 1.3889818 -0.31818268 0 25
5.1145539 1.3844913 -0.26827016 0 26
5.1210213 1.386242 -0.21970929 0 27
5.1391387 1.3911463 -0.17145085 0 28
5.1203017 1.3860472 -0.12199537 0 29
5.132854 1.3894451 -0.073368385 0 30
5.1160192 1.3848879 -0.024374541 0 31
5.1266918 1.387777 0.024425391 0 32
5.1202388 1.3860302 0.073188066 0 33
5.1221561 1.3865492 0.12203956 0 34
5.1271229 1.3878937 0.17105 0 35
5.1097236 1.3831838 0.21922459 0 36
5.1164122 1.3849943 0.26836762 0 37
5.1218209 1.3864585 0.31760463 0 38
5.1168742 1.3851194 0.36625779 0 39
5.1304288 1.3887886 0.41638002 0 40
5.1279216 1.3881099 0.46537542 0 41
5.1133456 1.3841643 0.51319075 0 42
5.1154413 1.3847317 0.56264704 0 43
5.1206231 1.3861341 0.61260915 0 44
5.1283741 1.3882325 0.66310871 0 45
5.1157732 1.3848214 0.71104342 0 46
5.1138401 1.3842981 0.76044244 0 47
5.1272764 1.3879353 0.81237042 0 48
5.1142049 1.3843969 0.86024225 0 49
5.1207962 1.386181 0.91150779 0 50
5.1256418 1.3874928 0.96273363 0 51
5.1243024 1.3871303 1.0130004 0 52
5.1254067 1.3874291 1.0639255 0 53
5.1186681 1.385605 1.113354 0 54
5.1273479 1.3879546 1.1663523 0 55
5.1298232 1.3886247 1.2182574 0 56
5.1267557 1.3877944 1.2690572 0 57
5.1258664 1.3875536 1.3205832 0 58
5.121912 1.3864832 1.3715079 0 59
5.1133471 1.3841646 1.4213179 0 60
5.1055207 1.3820461 1.471424 0 61
5.1042647 1.3817061 1.5235986 0 62
5.1171613 1.385197 1.5803974 0 63
2.3673453 0.67217928 -0.73363435 0 0
2.4533112 0.69658828 -0.7348029 0 1
2.5339136 0.71947438 -0.73277462 0 2
2.6287677 0.74640703 -0.73319423 0 3
2.7262862 0.77409619 -0.73251826 0 4
2.8486698 0.80884558 -0.736413 0 5
2.9550698 0.83905661 -0.73398495 0 6
3.0937355 0.878429 -0.73722607 0 7
3.2150688 0.91288018 -0.73385131 0 8
