# .PCD v0.7 - Point Cloud Data file format
VERSION 0.7
FIELDS x y z intensity ring
SIZE 4 4 4 4 2
TYPE F F F F U
COUNT 1 1 1 1 1
WIDTH 1227
HEIGHT 1
VIEWPOINT 0 0 0 1 0 0 0
POINTS 1227
DATA ascii
-1.1399965 -1.4661409 -0.38992155 0 9
-1.1473833 -1.475641 -0.37453189 0 10
-1.1490805 -1.4778236 -0.35720924 0 11
-1.1404326 -1.4667017 -0.33684096 0 12
-1.1329854 -1.4571239 -0.3171353 0 13
-1.1464899 -1.474492 -0.3032566 0 14
-1.1327554 -1.4568281 -0.2822285 0 15
-1.1441538 -1.4714876 -0.26754758 0 16
-1.1356469 -1.4605469 -0.24821357 0 17
-1.1438669 -1.4711186 -0.23258297 0 18
-1.1409506 -1.4673679 -0.21464705 0 19
-1.1410854 -1.4675412 -0.19736424 0 20
-1.135305 -1.4601071 -0.17917755 0 21
-1.1436052 -1.470782 -0.1632058 0 22
-1.1413665 -1.4679027 -0.14566618 0 23
-1.140435 -1.4667048 -0.12836602 0 24
-1.1541566 -1.484352 -0.11254457 0 25
-1.1419742 -1.4686843 -0.094192922 0 26
-1.1373208 -1.4626995 -0.076731235 0 27
-1.134547 -1.4591323 -0.059520863 0 28
-1.1292174 -1.4522779 -0.042308025 0 29
-1.1319724 -1.4558212 -0.025443878 0 30
-1.1305268 -1.4539618 -0.008469983 0 31
-1.1360675 -1.4610878 0.0085114948 0 32
-1.1381552 -1.4637728 0.02558285 0 33
-1.1336797 -1.4580169 0.042475212 0 34
-1.1312679 -1.454915 0.059348837 0 35
-1.1449193 -1.472472 0.077243887 0 36
-1.14034 -1.4665825 0.094058126 0 37
-1.1401142 -1.4662923 0.11117528 0 38
-1.1382027 -1.4638337 0.12811475 0 39
-1.1392181 -1.4651397 0.145392 0 40
-1.1379893 -1.4635594 0.16240434 0 41
-1.1367069 -1.4619101 0.1793988 0 42
-1.1437069 -1.4709128 0.19781767 0 43
-1.1369035 -1.462163 0.21388568 0 44
-1.1395903 -1.4656183 0.23171338 0 45
-1.1391052 -1.4649945 0.24896944 0 46
-1.1369195 -1.4621835 0.26585591 0 47
-1.1415317 -1.4681153 0.28441516 0 48
-1.1418209 -1.4684871 0.30202159 0 49
-1.145223 -1.4728626 0.32056075 0 50
-1.1384901 -1.4642035 0.33626723 0 51
-1.1379606 -1.4635223 0.35375243 0 52
-1.1423199 -1.469129 0.37287909 0 53
-1.1340623 -1.458509 0.3878918 0 54
-1.1348153 -1.4594773 0.40593785 0 55
-1.1383232 -1.4639889 0.42510837 0 56
-1.1436034 -1.4707797 0.44515514 0 57
-1.136656 -1.4618447 0.46049502 0 58
-1.1369431 -1.4622139 0.47874284 0 59
-1.1502382 -1.4793127 0.50277209 0 60
-1.140735 -1.4670907 0.51698738 0 61
-1.1394335 -1.4654168 0.53483987 0 62
-1.1412804 -1.4677922 0.55427718 0 63
-1.1115358 -1.4663959 -0.54854703 0 0
-1.1204617 -1.4781713 -0.53442603 0 1
-1.1055504 -1.4584997 -0.50913101 0 2
-1.1103787 -1.4648694 -0.49318555 0 3
-1.1008573 -1.4523082 -0.47103199 0 4
-1.1063541 -1.45956 -0.45545542 0 5
-1.1112396 -1.466005 -0.43954107 0 6
-1.1140265 -1.4696817 -0.42275175 0 7
-1.0999383 -1.4510959 -0.39981449 0 8
-1.1156964 -1.4718848 -0.38777122 0 9
-1.1043366 -1.4568983 -0.36630055 0 10
-1.1120627 -1.4670911 -0.35128316 0 11
-1.1061506 -1.4592915 -0.33199027 0 12
-1.1061397 -1.459277 -0.31461984 0 13
-1.1071448 -1.4606031 -0.29757765 0 14
-1.1144395 -1.4702265 -0.28214803 0 15
-1.1099586 -1.4643152 -0.26374194 0 16
-1.1117389 -1.4666637 -0.24691121 0 17
-1.103644 -1.4559846 -0.22802749 0 18
-1.1079005 -1.4615999 -0.2117945 0 19
-1.1104603 -1.4649769 -0.19516824 0 20
-1.1249878 -1.4841425 -0.18041587 0 21
-1.1110843 -1.4658002 -0.16112477 0 22
-1.1006482 -1.4520323 -0.14273746 0 23
-1.1077758 -1.4614356 -0.1267031 0 24
-1.1173317 -1.4740422 -0.11071279 0 25
-1.1217364 -1.479853 -0.094017491 0 26
-1.1062881 -1.4594728 -0.075842611 0 27
-1.1058851 -1.4589413 -0.058953907 0 28
-1.1102215 -1.464662 -0.0422679 0 29
-1.1006134 -1.4519864 -0.025138425 0 30
-1.1156946 -1.4718825 -0.0084938165 0 31
-1.1029631 -1.4550862 0.00839689 0 32
-1.1019756 -1.4537835 0.025169538 0 33
-1.1027855 -1.454852 0.041984797 0 34
-1.1137748 -1.4693496 0.059374496 0 35
-1.1149904 -1.4709533 0.076439209 0 36
-1.111043 -1.4657457 0.093121223 0 37
-1.1216049 -1.4796796 0.11113621 0 38
-1.1163291 -1.4727194 0.12768139 0 39
-1.1067929 -1.4601388 0.14353435 0 40
-1.1078058 -1.4614751 0.16064934 0 41
-1.1159189 -1.4721783 0.17896147 0 42
-1.1195394 -1.4769547 0.19676395 0 43
-1.1134465 -1.4689165 0.2128547 0 44
-1.1076458 -1.461264 0.22885433 0 45
-1.1080744 -1.4618295 0.24609737 0 46
-1.1171629 -1.4738195 0.26545379 0 47
-1.1087613 -1.4627355 0.28071046 0 48
-1.1145046 -1.4703125 0.29955578 0 49
-1.1078968 -1.4615951 0.31511959 0 50
-1.1085598 -1.4624698 0.33271334 0 51
-1.1111974 -1.4659494 0.35100982 0 52
-1.1111381 -1.4658713 0.36855659 0 53
-1.1080886 -1.4618481 0.38512701 0 54
-1.1138197 -1.469409 0.4048602 0 55
-1.118252 -1.4752562 0.42435524 0 56
-1.1123028 -1.4674077 0.43996164 0 57
-1.112494 -1.4676601 0.45798305 0 58
-1.1104639 -1.4649817 0.47514242 0 59
-1.1043903 -1.456969 0.49052569 0 60
-1.1126481 -1.4678633 0.51239961 0 61
-1.1172155 -1.4738889 0.53287774 0 62
-1.1134442 -1.4689136 0.54948884 0 63
-1.0814962 -1.4638109 -0.54256433 0 0
-1.0852301 -1.4688647 -0.52619678 0 1
-1.0780138 -1.4590974 -0.5046742 0 2
-1.0816137 -1.4639697 -0.48836794 0 3
-1.0887878 -1.47368 -0.47358552 0 4
-1.0829015 -1.4657128 -0.45318595 0 5
-1.0861046 -1.4700483 -0.43671611 0 6
-1.0844142 -1.4677603 -0.4183318 0 7
-1.0962818 -1.4838232 -0.40508685 0 8
-1.0857813 -1.4696107 -0.38362566 0 9
-1.0797119 -1.4613957 -0.36406571 0 10
-1.0905466 -1.4760605 -0.35019347 0 11
-1.0903581 -1.4758055 -0.33267185 0 12
-1.0836048 -1.4666648 -0.31331617 0 13
-1.0730371 -1.4523613 -0.29318812 0 14
-1.0893209 -1.4744016 -0.28035751 0 15
-1.0823373 -1.4649491 -0.26143926 0 16
-1.0801049 -1.4619278 -0.24385956 0 17
-1.0752805 -1.4553978 -0.22584775 0 18
-1.0788269 -1.4601979 -0.20965318 0 19
-1.0857817 -1.4696112 -0.19399227 0 20
-1.084951 -1.4684869 -0.17687759 0 21
-1.0891978 -1.4742349 -0.16056757 0 22
-1.0824324 -1.4650779 -0.14270067 0 23
-1.0715843 -1.450395 -0.1245941 0 24
-1.0915705 -1.4774464 -0.10995203 0 25
-1.0816867 -1.4640688 -0.092162684 0 26
-1.0831138 -1.4660002 -0.075484008 0 27
-1.081679 -1.4640582 -0.058618777 0 28
-1.0788921 -1.4602861 -0.041755605 0 29
-1.0790266 -1.4604682 -0.025053661 0 30
-1.0859413 -1.4698273 -0.0084042633 0 31
-1.0911642 -1.4768965 0.0084446846 0 32
-1.0773754 -1.4582332 0.025015322 0 33
-1.0822043 -1.4647694 0.0418838 0 34
-1.0892742 -1.4743384 0.059030376 0 35
-1.0841346 -1.4673818 0.075555146 0 36
-1.0890751 -1.4740689 0.092792191 0 37
-1.0945722 -1.4815092 0.11025438 0 38
-1.0876051 -1.4720792 0.12645686 0 39
-1.0772936 -1.4581225 0.14202321 0 40
-1.072431 -1.4515409 0.15809584 0 41
-1.0853729 -1.469058 0.17694637 0 42
-1.0861036 -1.470047 0.19404979 0 43
-1.085166 -1.4687779 0.21088509 0 44
-1.0872802 -1.4716394 0.22836812 0 45
-1.0744333 -1.4542512 0.24257906 0 46
-1.0769103 -1.4576037 0.26012835 0 47
-1.0859239 -1.4698037 0.2794832 0 48
-1.0835376 -1.4665737 0.29605716 0 49
-1.0861669 -1.4701325 0.31405696 0 50
-1.0746946 -1.4546049 0.32789287 0 51
-1.0800722 -1.4618833 0.34682995 0 52
-1.0857249 -1.4695344 0.36609325 0 53
-1.0870874 -1.4713786 0.38408715 0 54
-1.0924717 -1.4786663 0.40367901 0 55
-1.0866153 -1.4707395 0.4191809 0 56
-1.0838368 -1.4669789 0.43580425 0 57
-1.0768389 -1.457507 0.45064878 0 58
-1.0901053 -1.4754633 0.47415861 0 59
-1.0750595 -1.4550986 0.48540863 0 60
-1.0723542 -1.451437 0.50202459 0 61
-1.0812039 -1.4634151 0.52424461 0 62
-1.0802587 -1.4621358 0.54194343 0 63
-1.0553701 -1.4658226 -0.53845918 0 0
-1.0576504 -1.4689896 -0.5215432 0 1
-1.0582613 -1.469838 -0.50385016 0 2
-1.0506656 -1.4592884 -0.48245996 0 3
-1.0603656 -1.4727607 -0.46906447 0 4
-1.059835 -1.4720238 -0.45107371 0 5
-1.0432395 -1.448974 -0.42661229 0 6
-1.0453404 -1.4518921 -0.41011456 0 7
-1.0544107 -1.4644899 -0.39623931 0 8
-1.0571263 -1.4682617 -0.37985158 0 9
-1.0563135 -1.4671329 -0.36223176 0 10
-1.0521716 -1.46138 -0.34361503 0 11
-1.0583326 -1.4699371 -0.32839066 0 12
-1.0549194 -1.4651964 -0.31020793 0 13
-1.0618305 -1.4747955 -0.29505882 0 14
-1.0520874 -1.4612632 -0.27537847 0 15
-1.0506185 -1.459223 -0.25809231 0 16
-1.0492314 -1.4572965 -0.2409167 0 17
-1.0542053 -1.4642047 -0.22518578 0 18
-1.0655166 -1.479915 -0.21058705 0 19
-1.0520277 -1.4611802 -0.1911573 0 20
-1.0558792 -1.4665296 -0.17506473 0 21
-1.0636364 -1.4773037 -0.15946524 0 22
-1.0580553 -1.4695519 -0.1418585 0 23
-1.0571119 -1.4682416 -0.1250011 0 24
-1.0556524 -1.4662145 -0.10814193 0 25
-1.0509329 -1.4596596 -0.091064766 0 26
-1.0613259 -1.4740946 -0.075223126 0 27
-1.0602872 -1.472652 -0.058436424 0 28
-1.0467143 -1.4538003 -0.041199002 0 29
-1.0645579 -1.4785836 -0.025137965 0 30
-1.0539289 -1.4638207 -0.0082951905 0 31
-1.0593483 -1.4713479 0.008337846 0 32
-1.0610234 -1.4736744 0.025054501 0 33
-1.0566963 -1.4676645 0.041591901 0 34
-1.0529617 -1.4624773 0.058032684 0 35
-1.0524721 -1.4617974 0.0745956 0 36
-1.0578015 -1.4691995 0.091659941 0 37
-1.0539441 -1.4638419 0.10796694 0 38
-1.0538443 -1.4637034 0.12461473 0 39
-1.0534612 -1.4631712 0.14124255 0 40
-1.059333 -1.4713266 0.15882005 0 41
-1.0553677 -1.4658192 0.17497994 0 42
-1.0651981 -1.4794726 0.19355039 0 43
-1.057737 -1.46911 0.20904952 0 44
-1.049587 -1.4577903 0.22419928 0 45
-1.0593654 -1.4713717 0.24324358 0 46
-1.0449986 -1.4514174 0.25671172 0 47
-1.0575776 -1.4688886 0.27681547 0 48
-1.058145 -1.4696766 0.29403469 0 49
-1.0609702 -1.4736006 0.31198725 0 50
-1.0577776 -1.4691663 0.32821846 0 51
-1.0536115 -1.4633801 0.34408531 0 52
-1.0536295 -1.463405 0.36131135 0 53
-1.041878 -1.447083 0.37437245 0 54
-1.0507128 -1.4593539 0.39484966 0 55
-1.0533898 -1.4630719 0.41327253 0 56
-1.0515145 -1.4604673 0.42999616 0 57
-1.0558529 -1.4664931 0.44937894 0 58
-1.0543461 -1.4644002 0.4664017 0 59
-1.0599725 -1.4722149 0.48673368 0 60
-1.0582645 -1.4698426 0.50385171 0 61
-1.054777 -1.4649988 0.52012628 0 62
-1.0533166 -1.4629704 0.53741145 0 63
-1.029104 -1.4670508 -0.53422147 0 0
-1.0279802 -1.4654489 -0.51575923 0 1
-1.0276744 -1.465013 -0.49782676 0 2
-1.0243528 -1.4602777 -0.47858647 0 3
-1.0315405 -1.4705242 -0.46427721 0 4
-1.0278069 -1.4652017 -0.44507676 0 5
-1.024605 -1.4606373 -0.42630455 0 6
-1.0215738 -1.456316 -0.40778503 0 7
-1.034874 -1.4752762 -0.39568475 0 8
-1.0290768 -1.467012 -0.37622616 0 9
-1.0262247 -1.4629463 -0.35805544 0 10
-1.0291907 -1.4671744 -0.34197596 0 11
-1.0346063 -1.4748948 -0.32663137 0 12
-1.0295521 -1.4676896 -0.30803221 0 13
-1.0260814 -1.4627421 -0.29010111 0 14
-1.0305568 -1.4691218 -0.27445057 0 15
-1.0345403 -1.4748007 -0.25857797 0 16
-1.0313762 -1.4702902 -0.24094996 0 17
-1.0240554 -1.4598536 -0.22256318 0 18
-1.0290009 -1.4669038 -0.20691946 0 19
-1.0317616 -1.4708395 -0.19074677 0 20
-1.0339314 -1.4739325 -0.17441759 0 21
-1.0234729 -1.4590234 -0.15612172 0 22
-1.0275464 -1.4648304 -0.14017242 0 23
-1.0253394 -1.4616842 -0.12336009 0 24
-1.0273401 -1.4645362 -0.10707832 0 25
-1.025357 -1.4617093 -0.090399206 0 26
-1.0343956 -1.4745942 -0.074593909 0 27
-1.0334989 -1.473316 -0.05795411 0 28
-1.0190399 -1.4527038 -0.040809747 0 29
-1.0218937 -1.4567721 -0.024551649 0 30
-1.0228461 -1.4581298 -0.0081910482 0 31
-1.0278267 -1.4652299 0.008230933 0 32
-1.0258803 -1.4624553 0.02464743 0 33
-1.0269771 -1.4640188 0.041127607 0 34
-1.0342851 -1.4744366 0.057998195 0 35
-1.0297204 -1.4679295 0.07425677 0 36
-1.0383871 -1.4802843 0.091547981 0 37
-1.0220283 -1.456964 0.10652468 0 38
-1.0313673 -1.4702772 0.12408531 0 39
-1.0270371 -1.4641043 0.14010294 0 40
-1.0213523 -1.4560003 0.15579824 0 41
-1.019974 -1.4540355 0.17206307 0 42
-1.0224767 -1.4576032 0.18903022 0 43
-1.0221581 -1.4571491 0.20554349 0 44
-1.0279298 -1.465377 0.22340524 0 45
-1.0298431 -1.4681044 0.24059176 0 46
-1.0267568 -1.4637048 0.25663254 0 47
-1.029492 -1.4676039 0.274167 0 48
-1.0303042 -1.4687617 0.29129496 0 49
-1.0279659 -1.4654284 0.30755761 0 50
-1.0276351 -1.4649568 0.3244305 0 51
-1.0375787 -1.4791321 0.34476313 0 52
-1.0231063 -1.4585007 0.35696739 0 53
-1.027509 -1.464777 0.37565294 0 54
-1.0223265 -1.457389 0.3908872 0 55
-1.0276355 -1.4649574 0.41020474 0 56
-1.0409395 -1.483923 0.43310073 0 57
-1.0188006 -1.4523628 0.44117674 0 58
-1.0237185 -1.4593734 0.46075663 0 59
-1.0257808 -1.4623134 0.47925368 0 60
-1.029705 -1.4679077 0.49881041 0 61
-1.0237542 -1.4594244 0.51363897 0 62
-1.0381746 -1.4799815 0.53893018 0 63
-1.0038254 -1.4691108 -0.53043669 0 0
-1.0000147 -1.4635338 -0.51071888 0 1
-1.0072078 -1.4740608 -0.49665517 0 2
-0.99947566 -1.4627448 -0.47533125 0 3
-1.0002525 -1.4638817 -0.45826212 0 4
-0.99740517 -1.4597147 -0.43965122 0 5
-1.0014412 -1.4656215 -0.42413309 0 6
-1.01174 -1.4806937 -0.41109642 0 7
-1.0031098 -1.4680635 -0.39041239 0 8
-1.0018753 -1.4662566 -0.37284479 0 9
-0.99537945 -1.45675 -0.35351652 0 10
-0.99667889 -1.4586518 -0.33710736 0 11
-1.0001906 -1.4637911 -0.32142437 0 12
-0.9932999 -1.4537065 -0.30251119 0 13
-1.0040724 -1.4694723 -0.28896537 0 14
-1.0021473 -1.4666548 -0.27166709 0 15
-0.99193698 -1.4517119 -0.25237215 0 16
-0.99774468 -1.4602115 -0.23726974 0 17
-0.99706382 -1.4592152 -0.22058 0 18
-0.99787307 -1.4603994 -0.20425569 0 19
-0.99658269 -1.4585109 -0.18754452 0 20
-0.9999404 -1.463425 -0.17170618 0 21
-1.0055467 -1.4716299 -0.15613578 0 22
-0.99578333 -1.4573411 -0.1382736 0 23
-1.0011091 -1.4651355 -0.12260317 0 24
-0.9937194 -1.4543205 -0.10543004 0 25
-0.99791235 -1.460457 -0.089556098 0 26
-0.99952435 -1.4628161 -0.073370822 0 27
-1.0092652 -1.477072 -0.057609327 0 28
-1.0040512 -1.4694412 -0.040930007 0 29
-1.0048769 -1.4706496 -0.024575425 0 30
-1.0004418 -1.4641588 -0.0081551932 0 31
-0.99408662 -1.4548579 0.0081033893 0 32
-0.99882323 -1.4617901 0.024427377 0 33
-1.0008317 -1.4647295 0.040798765 0 34
-0.98985648 -1.448667 0.056501467 0 35
-1.0050797 -1.4709464 0.073778614 0 36
-1.0031823 -1.4681696 0.090029038 0 37
-1.0027066 -1.4674734 0.10638355 0 38
-1.0046277 -1.4702848 0.12303407 0 39
-1.0010127 -1.4649942 0.13899973 0 40
-1.004693 -1.4703805 0.15600324 0 41
-1.004486 -1.4700775 0.17248674 0 42
-0.99569678 -1.4572144 0.18737783 0 43
-1.004246 -1.4697263 0.20556016 0 44
-1.001017 -1.4650006 0.22145456 0 45
-0.9984296 -1.4612139 0.23743264 0 46
-1.0053859 -1.4713945 0.25579387 0 47
-1.0062596 -1.4726731 0.27278185 0 48
-1.0020005 -1.46644 0.28836909 0 49
-0.99730849 -1.4595731 0.30373201 0 50
-1.0047452 -1.470457 0.32288808 0 51
-0.99725693 -1.4594978 0.33730289 0 52
-0.99176478 -1.4514599 0.35223275 0 53
-0.99565029 -1.4571463 0.37052819 0 54
-0.99481124 -1.4559183 0.38718256 0 55
-0.99964303 -1.4629898 0.40618116 0 56
-1.0005606 -1.4643327 0.42376015 0 57
-1.0026565 -1.4674 0.44196591 0 58
-1.0075313 -1.4745343 0.46159688 0 59
-1.0038047 -1.4690804 0.47739005 0 60
-0.99491245 -1.4560665 0.49059236 0 61
-0.9998073 -1.4632301 0.51061291 0 62
-0.99879003 -1.4617414 0.52777588 0 63
-0.97711623 -1.4684632 -0.52582496 0 0
-0.97475761 -1.4649185 -0.50698107 0 1
-0.97067606 -1.4587845 -0.48744974 0 2
-0.97682154 -1.4680203 -0.47310656 0 3
-0.97345406 -1.4629594 -0.45419189 0 4
-0.97348619 -1.4630077 -0.43700463 0 5
-0.98638439 -1.4823918 -0.4254441 0 6
-0.97328895 -1.4627113 -0.40275061 0 7
-0.97483093 -1.4650286 -0.38638833 0 8
-0.97153622 -1.4600772 -0.36820784 0 9
-0.96964681 -1.4572377 -0.35071489 0 10
-0.97841388 -1.4704133 -0.33701962 0 11
-0.9783904 -1.470378 -0.32020476 0 12
-0.98046362 -1.4734938 -0.304097 0 13
-0.97145748 -1.4599588 -0.28472406 0 14
-0.97103113 -1.4593182 -0.26807618 0 15
-0.97013789 -1.4579756 -0.25136822 0 16
-0.97682601 -1.468027 -0.23657006 0 17
-0.98568714 -1.481344 -0.2220761 0 18
-0.98093724 -1.4742056 -0.20448415 0 19
-0.98040938 -1.4734123 -0.18789625 0 20
-0.96996188 -1.4577112 -0.16962352 0 21
-0.98050439 -1.4735551 -0.15504913 0 22
-0.97825217 -1.4701703 -0.13833906 0 23
-0.97824526 -1.4701599 -0.12200781 0 24
-0.97131866 -1.4597503 -0.10494988 0 25
-0.97015828 -1.4580064 -0.088667601 0 26
-0.96954048 -1.4570779 -0.072479554 0 27
-0.97669286 -1.4678268 -0.056776039 0 28
-0.9748832 -1.4651072 -0.040472321 0 29
-0.98066175 -1.4737915 -0.024424575 0 30
-0.98302424 -1.477342 -0.0081606787 0 31
-0.97820908 -1.4701055 0.0081207044 0 32
-0.96677321 -1.452919 0.024078663 0 33
-0.97217971 -1.4610443 0.040360089 0 34
-0.9763903 -1.4673722 0.056758452 0 35
-0.97675717 -1.4679235 0.07301905 0 36
-0.97486287 -1.4650767 0.089097574 0 37
-0.97430789 -1.4642427 0.10527286 0 38
-0.97342646 -1.4629179 0.12140681 0 39
-0.96636009 -1.4522982 0.13665734 0 40
-0.97351146 -1.4630456 0.15394333 0 41
-0.97294891 -1.4622002 0.17014587 0 42
-0.97721547 -1.4686123 0.18728414 0 43
-0.97287118 -1.4620835 0.20280272 0 44
-0.97181553 -1.460497 0.21895082 0 45
-0.98087484 -1.4741118 0.2375506 0 46
-0.97737443 -1.4688512 0.25324327 0 47
-0.97355378 -1.4631093 0.2687726 0 48
-0.97087443 -1.4590826 0.28455317 0 49
-0.98271257 -1.4768736 0.30479452 0 50
-0.97447413 -1.4644924 0.31892306 0 51
-0.97222239 -1.4611084 0.33488691 0 52
-0.9735055 -1.4630368 0.35211056 0 53
-0.97482312 -1.465017 0.36945355 0 54
-0.98153579 -1.475105 0.38904589 0 55
-0.97790748 -1.4696523 0.40466177 0 56
-0.96733922 -1.4537697 0.41722956 0 57
-0.98109025 -1.4744354 0.44041812 0 58
-0.97058469 -1.4586473 0.45285311 0 59
-0.97354096 -1.4630901 0.47151768 0 60
-0.97444725 -1.464452 0.48934352 0 61
-0.96757275 -1.4541208 0.50324416 0 62
-0.97999853 -1.4727948 0.527376 0 63
-0.95546734 -1.4749334 -0.52389514 0 0
-0.9472121 -1.4621899 -0.50196791 0 1
-0.94713014 -1.4620634 -0.48461711 0 2
-0.94241679 -1.4547875 -0.46507215 0 3
-0.94749284 -1.4626234 -0.45043635 0 4
-0.94383454 -1.4569761 -0.4317036 0 5
-0.94768542 -1.4629205 -0.41647995 0 6
-0.94407225 -1.457343 -0.39804599 0 7
-0.9447329 -1.4583628 -0.38153759 0 8
-0.93878764 -1.4491853 -0.36252251 0 9
-0.94626325 -1.4607253 -0.34872749 0 10
-0.9508251 -1.4677672 -0.33370814 0 11
-0.95132428 -1.4685379 -0.31723258 0 12
-0.95257759 -1.4704725 -0.30103332 0 13
-0.95056844 -1.467371 -0.28386858 0 14
-0.94259167 -1.4550575 -0.26514429 0 15
-0.94894314 -1.4648621 -0.25052479 0 16
-0.95027649 -1.4669204 -0.23449098 0 17
-0.95629573 -1.4762121 -0.2195273 0 18
-0.952748 -1.4707355 -0.20236252 0 19
-0.95277631 -1.4707793 -0.18605237 0 20
-0.94578642 -1.4599892 -0.16852257 0 21
-0.95424694 -1.4730495 -0.15374966 0 22
-0.94844937 -1.4640999 -0.1366601 0 23
-0.95248669 -1.4703323 -0.12104097 0 24
-0.93759674 -1.4473469 -0.10322142 0 25
-0.95363432 -1.4721037 -0.088805079 0 26
-0.94466317 -1.4582552 -0.071954861 0 27
-0.94948983 -1.4657061 -0.056238145 0 28
-0.94766116 -1.4628831 -0.040085953 0 29
-0.94537455 -1.4593533 -0.02399083 0 30
-0.9478516 -1.4631771 -0.008017445 0 31
-0.95435774 -1.4732205 0.0080724778 0 32
-0.94528931 -1.4592218 0.023988668 0 33
-0.95023143 -1.4668509 0.040194675 0 34
-0.94630527 -1.46079 0.056049522 0 35
-0.94045615 -1.4517609 0.071634412 0 36
-0.94714069 -1.4620796 0.088200375 0 37
-0.95415467 -1.4729071 0.10504431 0 38
-0.94852221 -1.4642123 0.12053716 0 39
-0.95308173 -1.4712508 0.13732757 0 40
-0.94756937 -1.4627414 0.15267377 0 41
-0.94850534 -1.4641863 0.16900703 0 42
-0.94374996 -1.4568455 0.18428975 0 43
-0.94610697 -1.460484 0.20095196 0 44
-0.9507516 -1.4676538 0.2182546 0 45
-0.95438564 -1.4732636 0.23550496 0 46
-0.94595021 -1.460242 0.24973466 0 47
-0.95184636 -1.4693438 0.26774755 0 48
-0.94865024 -1.4644099 0.28329575 0 49
-0.95538247 -1.4748024 0.30191973 0 50
-0.94833213 -1.4639189 0.3162348 0 51
-0.94457012 -1.4581115 0.33151284 0 52
-0.95159936 -1.4689624 0.35069403 0 53
-0.94613534 -1.4605278 0.3653599 0 54
-0.94089806 -1.4524431 0.37998885 0 55
-0.95574462 -1.4753615 0.40296736 0 56
-0.95692074 -1.4771769 0.4205386 0 57
-0.95066673 -1.4675227 0.43482861 0 58
-0.94827795 -1.4638352 0.4508096 0 59
-0.94711208 -1.4620355 0.46738926 0 60
-0.95218807 -1.4698712 0.48720512 0 61
-0.94912559 -1.4651438 0.5029819 0 62
-0.95077515 -1.4676901 0.52132237 0 63
-0.92937827 -1.4740688 -0.51948953 0 0
-0.92264837 -1.4633946 -0.49844894 0 1
-0.92466241 -1.4665891 -0.48231199 0 2
-0.92569989 -1.4682347 -0.46569684 0 3
-0.92047542 -1.4599482 -0.44609305 0 4
-0.92535484 -1.4676872 -0.43147326 0 5
-0.92663682 -1.4697206 -0.4151406 0 6
-0.92899591 -1.4734623 -0.3992984 0 7
-0.92345852 -1.4646796 -0.38019067 0 8
-0.92556047 -1.4680134 -0.36435789 0 9
-0.9220804 -1.4624938 -0.34641665 0 10
-0.92325771 -1.4643611 -0.3303276 0 11
-0.92274612 -1.4635497 -0.31368026 0 12
-0.92300916 -1.4639668 -0.2973555 0 13
-0.9216283 -1.4617767 -0.28057277 0 14
-0.92588693 -1.4685313 -0.26550481 0 15
-0.91999429 -1.459185 -0.24760045 0 16
-0.92347026 -1.4646982 -0.23230301 0 17
-0.9227559 -1.4635652 -0.2159429 0 18
-0.92432696 -1.4660571 -0.20013978 0 19
-0.91771585 -1.4555712 -0.18268725 0 20
-0.93011206 -1.4752326 -0.16894916 0 21
-0.92423922 -1.4659178 -0.15180761 0 22
-0.92192781 -1.4622517 -0.13541919 0 23
-0.92246366 -1.4631016 -0.11950291 0 24
-0.92647702 -1.4694672 -0.10397865 0 25
-0.91586238 -1.4526315 -0.086944461 0 26
-0.92666513 -1.4697655 -0.07195513 0 27
-0.91571283 -1.4523944 -0.055291165 0 28
-0.92740101 -1.4709327 -0.039991017 0 29
-0.93026507 -1.4754753 -0.024065997 0 30
-0.91514969 -1.4515011 -0.0078912089 0 31
-0.92778474 -1.4715414 0.0080001587 0 32
-0.92599809 -1.4687076 0.02395561 0 33
-0.92230463 -1.4628494 0.039771251 0 34
-0.91957402 -1.4585185 0.055524305 0 35
-0.92114115 -1.4610041 0.0715262 0 36
-0.92625636 -1.4691173 0.087931179 0 37
-0.91734934 -1.4549899 0.10295425 0 38
-0.9201414 -1.4594184 0.11920207 0 39
-0.92614681 -1.4689434 0.13603891 0 40
-0.92453092 -1.4663805 0.15185553 0 41
-0.9204393 -1.4598908 0.16719216 0 42
-0.92171007 -1.4619064 0.18348238 0 43
-0.92055601 -1.460076 0.19932327 0 44
-0.9230563 -1.4640417 0.21601321 0 45
-0.91988546 -1.4590124 0.23140122 0 46
-0.9252755 -1.4675615 0.24902178 0 47
-0.92520458 -1.4674489 0.26530913 0 48
-0.92707282 -1.4704121 0.28223026 0 49
-0.93163085 -1.4776416 0.30013308 0 50
-0.92559773 -1.4680725 0.31464964 0 51
-0.92839813 -1.4725142 0.33216676 0 52
-0.92353749 -1.4648049 0.34696409 0 53
-0.92051166 -1.4600056 0.36237034 0 54
-0.91805822 -1.4561143 0.37796736 0 55
-0.92338264 -1.4645592 0.39688572 0 56
-0.92232203 -1.462877 0.41320753 0 57
-0.92629206 -1.4691738 0.43191028 0 58
-0.91960979 -1.4585751 0.44567353 0 59
-0.92367911 -1.4650295 0.46468022 0 60
-0.92086518 -1.4605664 0.48033133 0 61
-0.91742826 -1.4551151 0.49562883 0 62
-0.92009556 -1.4593457 0.51430082 0 63
-0.90454215 -1.474558 -0.51570314 0 0
-0.89479077 -1.4586616 -0.49305186 0 1
-0.89993638 -1.4670497 -0.47878805 0 2
-0.89968556 -1.4666409 -0.46164751 0 3
-0.90102512 -1.4688246 -0.44538626 0 4
-0.90003514 -1.4672108 -0.42804724 0 5
-0.89809471 -1.4640476 -0.41038781 0 6
-0.89490211 -1.458843 -0.39232495 0 7
-0.89419466 -1.4576898 -0.37549379 0 8
-0.89215213 -1.4543601 -0.35821927 0 9
-0.89839935 -1.4645442 -0.34425959 0 10
-0.89773721 -1.4634647 -0.32761049 0 11
-0.89765954 -1.4633381 -0.31124562 0 12
-0.89904577 -1.4655979 -0.29541901 0 13
-0.90128052 -1.4692409 -0.2798571 0 14
-0.89624637 -1.4610344 -0.26213709 0 15
-0.89204264 -1.4541816 -0.24487168 0 16
-0.90011412 -1.4673395 -0.23094901 0 17
-0.90239215 -1.4710531 -0.21539421 0 18
-0.90153402 -1.4696542 -0.19910243 0 19
-0.90478444 -1.4749529 -0.18370958 0 20
-0.90198642 -1.4703918 -0.1671119 0 21
-0.90028489 -1.4676179 -0.15082584 0 22
-0.89955938 -1.4664352 -0.13477205 0 23
-0.89906991 -1.4656372 -0.11879805 0 24
-0.89990497 -1.4669986 -0.10301319 0 25
-0.90245014 -1.4711477 -0.087381914 0 26
-0.90242016 -1.4710988 -0.071471743 0 27
-0.89373052 -1.4569331 -0.055041425 0 28
-0.89212286 -1.4543124 -0.039237939 0 29
-0.90137053 -1.4693877 -0.023784121 0 30
-0.9085896 -1.481156 -0.0079910858 0 31
-0.90314913 -1.4722872 0.0079432372 0 32
-0.90744054 -1.4792829 0.02394429 0 33
-0.88820702 -1.4479289 0.039065711 0 34
-0.89789498 -1.463722 0.055297896 0 35
-0.89364558 -1.4567947 0.070776798 0 36
-0.89765608 -1.4633325 0.086917721 0 37
-0.90201348 -1.4704357 0.10325455 0 38
-0.89897913 -1.4654893 0.11878606 0 39
-0.89755404 -1.4631661 0.1344716 0 40
-0.90175194 -1.4700094 0.15107162 0 41
-0.90678424 -1.478213 0.1680008 0 42
-0.89619261 -1.4609468 0.18196507 0 43
-0.9024744 -1.4711871 0.19931011 0 44
-0.89203042 -1.4541618 0.21292095 0 45
-0.90223348 -1.4707944 0.2314928 0 46
-0.89351225 -1.4565774 0.2452751 0 47
-0.89019352 -1.4511672 0.26036674 0 48
-0.90120041 -1.4691104 0.27983224 0 49
-0.8966096 -1.4616266 0.29461852 0 50
-0.89492017 -1.4588724 0.31029579 0 51
-0.90237731 -1.4710289 0.3293038 0 52
-0.89810216 -1.4640597 0.34414572 0 53
-0.90014279 -1.4673862 0.36142769 0 54
-0.89807975 -1.4640231 0.37712523 0 55
-0.89536256 -1.4595937 0.39252684 0 56
-0.89402348 -1.4574107 0.40852743 0 57
-0.8954168 -1.4596821 0.42585081 0 58
-0.9072355 -1.4789486 0.44845611 0 59
-0.89958042 -1.4664695 0.46159354 0 60
-0.89352828 -1.4566034 0.47537878 0 61
-0.89980447 -1.4668348 0.49581453 0 62
-0.88903844 -1.4492843 0.50686401 0 63
-0.87164098 -1.4609263 -0.5071488 0 0
-0.87657899 -1.4692028 -0.49293426 0 1
-0.88001156 -1.474956 -0.47780067 0 2
-0.87482411 -1.4662614 -0.45810741 0 3
-0.87542516 -1.4672688 -0.44161698 0 4
-0.87425935 -1.4653149 -0.42432573 0 5
-0.87981546 -1.4746273 -0.41028979 0 6
-0.87276292 -1.4628068 -0.39047527 0 7
-0.88025975 -1.475372 -0.3772319 0 8
-0.87162244 -1.4608952 -0.35716203 0 9
-0.87045699 -1.4589419 -0.34040099 0 10
-0.87274545 -1.4627775 -0.32502967 0 11
-0.87686032 -1.4696742 -0.31027651 0 12
-0.88209665 -1.4784507 -0.29580101 0 13
-0.8745715 -1.4658381 -0.27713957 0 14
-0.87618136 -1.4685363 -0.26153025 0 15
-0.875287 -1.4670373 -0.24520554 0 16
-0.87930584 -1.4737731 -0.23024243 0 17
-0.87655556 -1.4691635 -0.21352318 0 18
-0.877792 -1.4712359 -0.19783945 0 19
-0.87393796 -1.4647763 -0.18108986 0 20
-0.87461048 -1.4659034 -0.16536702 0 21
-0.87059414 -1.4591718 -0.14884642 0 22
-0.87243229 -1.4622526 -0.13339162 0 23
-0.87762922 -1.470963 -0.11834606 0 24
-0.86724156 -1.4535526 -0.10131252 0 25
-0.87792808 -1.4714639 -0.086752929 0 26
-0.8801747 -1.4752294 -0.071141221 0 27
-0.86584508 -1.451212 -0.054418944 0 28
-0.8836844 -1.4811119 -0.039664827 0 29
-0.87041169 -1.458866 -0.0234388 0 30
-0.86617833 -1.4517707 -0.0077744955 0 31
-0.87101507 -1.4598773 0.0078179082 0 32
-0.87823147 -1.4719723 0.023649372 0 33
-0.88036871 -1.4755546 0.039516002 0 34
-0.87665945 -1.4693376 0.055098634 0 35
-0.88128304 -1.477087 0.071230799 0 36
-0.86936712 -1.4571152 0.085906975 0 37
-0.87140578 -1.4605322 0.10179899 0 38
-0.8730368 -1.4632658 0.11772678 0 39
-0.87831515 -1.4721127 0.1342911 0 40
-0.8816005 -1.4776192 0.1507282 0 41
-0.87344569 -1.4639511 0.1651468 0 42
-0.88327426 -1.4804244 0.18302444 0 43
-0.87566519 -1.4676712 0.1973601 0 44
-0.873523 -1.4640808 0.21278448 0 45
-0.8765201 -1.4691041 0.22951299 0 46
-0.87304628 -1.4632818 0.24457783 0 47
-0.87008733 -1.4583223 0.25971127 0 48
-0.87713408 -1.4701332 0.27795163 0 49
-0.86942726 -1.4572159 0.29155248 0 50
-0.8709892 -1.459834 0.30819902 0 51
-0.8697955 -1.4578332 0.32393104 0 52
-0.87956214 -1.4742026 0.34396163 0 53
-0.87687904 -1.4697057 0.35931602 0 54
-0.87349361 -1.4640315 0.37433231 0 55
-0.87152731 -1.4607358 0.38992247 0 56
-0.87903386 -1.4733173 0.40992534 0 57
-0.86901385 -1.4565231 0.42177981 0 58
-0.88217169 -1.4785765 0.44502038 0 59
-0.877958 -1.4715141 0.45974851 0 60
-0.87515897 -1.4668226 0.47516593 0 61
-0.87014216 -1.4584142 0.48931459 0 62
-0.87554383 -1.4674678 0.50941962 0 63
-0.85185266 -1.4684999 -0.50610346 0 0
-0.84747827 -1.460959 -0.48663524 0 1
-0.84845501 -1.4626427 -0.47039661 0 2
-0.85881472 -1.4805018 -0.45922244 0 3
-0.85242838 -1.4694924 -0.43909824 0 4
-0.85176438 -1.4683478 -0.42213911 0 5
-0.84474444 -1.4562461 -0.40225506 0 6
-0.84553182 -1.4576035 -0.38628179 0 7
-0.84176171 -1.4511042 -0.36835259 0 8
-0.85082924 -1.4667357 -0.35600516 0 9
-0.84832782 -1.4624234 -0.33875382 0 10
-0.8456766 -1.4578531 -0.32160053 0 11
-0.84747642 -1.4609559 -0.30621263 0 12
-0.85423076 -1.4725995 -0.29250664 0 13
-0.85047805 -1.4661303 -0.27519679 0 14
-0.85172212 -1.468275 -0.25959891 0 15
-0.84451759 -1.4558551 -0.24158253 0 16
-0.85082757 -1.4667327 -0.22749087 0 17
-0.84764141 -1.4612402 -0.21084085 0 18
-0.85008097 -1.4654458 -0.19564043 0 19
-0.84913814 -1.4638203 -0.17966723 0 20
-0.85000682 -1.465318 -0.16410948 0 21
-0.84348989 -1.4540834 -0.14725822 0 22
-0.85220569 -1.4691085 -0.13305104 0 23
-0.84865004 -1.462979 -0.11685529 0 24
-0.84983712 -1.4650254 -0.10137614 0 25
-0.84533238 -1.4572597 -0.085296206 0 26
-0.8578527 -1.4788433 -0.070801452 0 27
-0.84708351 -1.4602784 -0.054364223 0 28
-0.85119951 -1.467374 -0.039013665 0 29
-0.8489235 -1.4634504 -0.023342976 0 30
-0.85805583 -1.4791934 -0.0078642527 0 31
-0.85108906 -1.4671836 0.0078004012 0 32
-0.85125244 -1.4674652 0.023407014 0 33
-0.84895962 -1.4635127 0.038911004 0 34
-0.85542089 -1.4746511 0.054899298 0 35
-0.84578025 -1.4580318 0.069805071 0 36
-0.84746379 -1.460934 0.085511275 0 37
-0.85049164 -1.4661536 0.10145421 0 38
-0.85250461 -1.4696238 0.11738605 0 39
-0.85213739 -1.4689908 0.13304038 0 40
-0.84943092 -1.4643251 0.14829542 0 41
-0.84972805 -1.4648373 0.16405566 0 42
-0.85388446 -1.4720025 0.1806715 0 43
-0.8447811 -1.4563093 0.1944207 0 44
-0.84840214 -1.4625516 0.21103008 0 45
-0.8516162 -1.4680923 0.22770174 0 46
-0.85176611 -1.4683506 0.24365602 0 47
-0.84786844 -1.4616317 0.25842434 0 48
-0.85588872 -1.4754575 0.27694756 0 49
-0.85097826 -1.4669926 0.29139289 0 50
-0.84013468 -1.4482994 0.3035599 0 51
-0.85240769 -1.4694568 0.32416031 0 52
-0.84959841 -1.4646138 0.3392612 0 53
-0.84961313 -1.4646393 0.35549632 0 54
-0.85135323 -1.4676389 0.3725498 0 55
-0.85144585 -1.4677986 0.38898361 0 56
-0.84978956 -1.4649433 0.40465745 0 57
-0.84668756 -1.4595959 0.41962302 0 58
-0.85320216 -1.4708263 0.43949682 0 59
-0.85823488 -1.4795022 0.45891237 0 60
-0.84976232 -1.4648964 0.4711214 0 61
-0.8477242 -1.4613829 0.48677644 0 62
-0.84672362 -1.459658 0.50305617 0 63
-0.82958817 -1.4715122 -0.50358784 0 0
-0.82909006 -1.4706286 -0.48642352 0 1
-0.82304168 -1.4599 -0.46622449 0 2
-0.82985461 -1.4719847 -0.45338118 0 3
-0.8210305 -1.4563327 -0.4321166 0 4
-0.82852924 -1.4696338 -0.41954815 0 5
-0.81878746 -1.452354 -0.39836872 0 6
-0.82996213 -1.4721755 -0.38740966 0 7
-0.82292664 -1.4596961 -0.36793709 0 8
-0.8279891 -1.4686759 -0.3539781 0 9
-0.82414025 -1.4618487 -0.33624786 0 10
-0.82714826 -1.4671843 -0.32139096 0 11
-0.82682729 -1.466615 -0.30524471 0 12
-0.82348204 -1.4606812 -0.28810614 0 13
-0.82557768 -1.4643984 -0.27294558 0 14
-0.83088696 -1.4738159 -0.25875261 0 15
-0.82956886 -1.4714779 -0.24246392 0 16
-0.8262217 -1.4655408 -0.22571316 0 17
-0.8216728 -1.457472 -0.20882352 0 18
-0.83492291 -1.4809748 -0.19632813 0 19
-0.82513374 -1.4636109 -0.17838271 0 20
-0.82957286 -1.471485 -0.16364536 0 21
-0.82387364 -1.4613757 -0.14695966 0 22
-0.82704484 -1.4670008 -0.13192916 0 23
-0.82696277 -1.4668553 -0.11634389 0 24
-0.83033073 -1.4728292 -0.10120198 0 25
-0.82866406 -1.469873 -0.085431613 0 26
-0.82672548 -1.4664344 -0.069715388 0 27
-0.82878798 -1.4700929 -0.054346088 0 28
-0.8262167 -1.4655319 -0.038691651 0 29
-0.826608 -1.466226 -0.023223365 0 30
-0.81821084 -1.4513313 -0.0076620504 0 31
-0.83200389 -1.4757972 0.0077912142 0 32
-0.82369584 -1.4610604 0.023141548 0 33
-0.82302648 -1.4598731 0.038542252 0 34
-0.82251632 -1.4589683 0.053934835 0 35
-0.82651395 -1.4660591 0.069697551 0 36
-0.82692373 -1.466786 0.085252188 0 37
-0.83013135 -1.4724756 0.10117768 0 38
-0.8158893 -1.4472133 0.11478598 0 39
-0.82911265 -1.4706687 0.13225901 0 40
-0.82313806 -1.460071 0.14682846 0 41
-0.82823938 -1.4691198 0.16338231 0 42
-0.82389301 -1.4614102 0.17811447 0 43
-0.82346022 -1.4606425 0.19363275 0 44
-0.82576215 -1.4647256 0.2098628 0 45
-0.82777303 -1.4682925 0.22613697 0 46
-0.82878971 -1.4700959 0.2422362 0 47
-0.82376337 -1.4611802 0.25653422 0 48
-0.82382464 -1.4612889 0.27236602 0 49
-0.82516074 -1.4636588 0.28869346 0 50
-0.83066422 -1.4734209 0.30666122 0 51
-0.83161384 -1.4751053 0.32312608 0 52
-0.82493091 -1.4632512 0.33657044 0 53
-0.82528603 -1.4638811 0.35282251 0 54
-0.83217877 -1.4761074 0.3720738 0 55
-0.82426775 -1.4620749 0.38475162 0 56
-0.82659644 -1.4662055 0.40216807 0 57
-0.82232088 -1.4586216 0.4164044 0 58
-0.82818192 -1.4690179 0.43588048 0 59
-0.82057083 -1.4555173 0.44830909 0 60
-0.83195579 -1.4757118 0.47127402 0 61
-0.82908916 -1.470627 0.48642296 0 62
-0.82481736 -1.4630498 0.50069183 0 63
-0.79592556 -1.453287 -0.49396402 0 0
-0.80589056 -1.4714822 -0.48339161 0 1
-0.80049098 -1.4616231 -0.46359622 0 2
-0.81230134 -1.4831877 -0.45372096 0 3
-0.80119866 -1.4629153 -0.43111396 0 4
-0.80081946 -1.4622228 -0.41458997 0 5
-0.8068037 -1.4731495 -0.40132123 0 6
-0.79915631 -1.4591861 -0.38137662 0 7
-0.80576521 -1.4712534 -0.36832497 0 8
-0.80630571 -1.4722402 -0.35242093 0 9
-0.7984091 -1.4578218 -0.33303821 0 10
-0.79244804 -1.4469374 -0.31479752 0 11
-0.80230016 -1.4649265 -0.30281711 0 12
-0.79802847 -1.4571269 -0.28544798 0 13
-0.79898554 -1.4588743 -0.27006432 0 14
-0.79738283 -1.4559479 -0.25387499 0 15
-0.8005653 -1.4617589 -0.23922229 0 16
-0.80126989 -1.4630454 -0.22379446 0 17
-0.79488409 -1.4513854 -0.20653538 0 18
-0.80010188 -1.4609126 -0.19234976 0 19
-0.79646224 -1.454267 -0.17603694 0 20
-0.80170637 -1.4638423 -0.16168684 0 21
-0.80335915 -1.4668602 -0.1465067 0 22
-0.81160879 -1.4819232 -0.13236363 0 23
-0.79441291 -1.450525 -0.11426523 0 24
-0.80129486 -1.4630909 -0.099848256 0 25
-0.80377018 -1.4676106 -0.084719263 0 26
-0.80447239 -1.4688928 -0.06935674 0 27
-0.80355752 -1.4672223 -0.053870622 0 28
-0.79922563 -1.4593127 -0.038265102 0 29
-0.80242997 -1.4651636 -0.023048511 0 30
-0.79990751 -1.4605577 -0.0076582539 0 31
-0.80118454 -1.4628894 0.0076704798 0 32
-0.79467577 -1.4510051 0.022825783 0 33
-0.80436146 -1.4686902 0.038510993 0 34
-0.81056887 -1.4800245 0.054340664 0 35
-0.80700803 -1.4735227 0.069575347 0 36
-0.80531651 -1.4704341 0.084882244 0 37
-0.80225307 -1.4648405 0.099967659 0 38
-0.80165863 -1.4637551 0.11530743 0 39
-0.80487216 -1.4696227 0.13126495 0 40
-0.80256307 -1.4654065 0.14636151 0 41
-0.79958642 -1.4599714 0.16125929 0 42
-0.80957413 -1.4782082 0.17893498 0 43
-0.80077714 -1.4621456 0.19251209 0 44
-0.80136007 -1.46321 0.20821805 0 45
-0.80614656 -1.4719497 0.22515652 0 46
-0.80249298 -1.4652786 0.23979832 0 47
-0.80442774 -1.4688113 0.25611797 0 48
-0.80394739 -1.4679341 0.27174148 0 49
-0.8016333 -1.4637089 0.28673738 0 50
-0.80438715 -1.4687372 0.30360484 0 51
-0.80817062 -1.4756453 0.32104325 0 52
-0.79529077 -1.4521281 0.33173746 0 53
-0.80494303 -1.4697522 0.35182533 0 54
-0.80435956 -1.4686868 0.36768243 0 55
-0.80058253 -1.4617902 0.38205725 0 56
-0.79897064 -1.458847 0.39742488 0 57
-0.79314154 -1.4482037 0.41061506 0 58
-0.80290341 -1.466028 0.43203124 0 59
-0.80974972 -1.4785287 0.45229572 0 60
-0.79412317 -1.4499961 0.4599084 0 61
-0.80192584 -1.4642431 0.48101348 0 62
-0.79668665 -1.4546767 0.49443638 0 63
-0.77541071 -1.4581013 -0.49232233 0 0
-0.77837396 -1.4636734 -0.47764602 0 1
-0.78154713 -1.4696404 -0.46305594 0 2
-0.78218603 -1.4708418 -0.44696814 0 3
-0.77878231 -1.4644413 -0.42870918 0 4
-0.77876377 -1.4644065 -0.41246277 0 5
-0.77613217 -1.4594579 -0.39496151 0 6
-0.77722532 -1.4615135 -0.37945837 0 7
-0.78626871 -1.4785188 -0.36769563 0 8
-0.78434169 -1.4748952 -0.35072127 0 9
-0.78190058 -1.470305 -0.33366829 0 10
-0.7788884 -1.4646409 -0.31654146 0 11
-0.78114575 -1.4688857 -0.30162719 0 12
-0.78465831 -1.4754907 -0.2871336 0 13
-0.77645791 -1.4600705 -0.268498 0 14
-0.77975899 -1.466278 -0.25398511 0 15
-0.78555548 -1.4771777 -0.24014668 0 16
-0.78335458 -1.4730392 -0.2238328 0 17
-0.78831005 -1.4823575 -0.20954755 0 18
-0.78710926 -1.4800996 -0.19358702 0 19
-0.77984905 -1.4664472 -0.17633721 0 20
-0.77743107 -1.4619004 -0.16040432 0 21
-0.77367663 -1.4548405 -0.1443451 0 22
-0.77848691 -1.4638858 -0.12988771 0 23
-0.78086108 -1.4683503 -0.11490434 0 24
-0.77981365 -1.4663807 -0.099410854 0 25
-0.77547318 -1.4582187 -0.083620332 0 26
-0.78012949 -1.4669745 -0.068808019 0 27
-0.78037381 -1.467434 -0.053522024 0 28
-0.7813434 -1.4692572 -0.03827104 0 29
-0.7799204 -1.4665815 -0.022918219 0 30
-0.78631651 -1.4786088 -0.0077016223 0 31
-0.7760247 -1.4592558 0.0076008188 0 32
-0.77827823 -1.4634935 0.022869963 0 33
-0.78271228 -1.4718313 0.038338091 0 34
-0.77728033 -1.461617 0.053309862 0 35
-0.78107524 -1.468753 0.068891436 0 36
-0.78222227 -1.4709098 0.084348097 0 37
-0.77668631 -1.4604999 0.099012174 0 38
-0.7770381 -1.4611615 0.11434179 0 39
-0.78100061 -1.4686127 0.13030711 0 40
-0.78109467 -1.4687896 0.14572909 0 41
-0.77234834 -1.4523426 0.15935563 0 42
-0.77652293 -1.4601928 0.17558514 0 43
-0.77623373 -1.4596488 0.19091222 0 44
-0.77388346 -1.4552294 0.20571271 0 45
-0.77620345 -1.459592 0.22178946 0 46
-0.78376341 -1.4738079 0.23959884 0 47
-0.77323067 -1.4540019 0.25185868 0 48
-0.7801519 -1.4670167 0.26977539 0 49
-0.77890235 -1.4646671 0.2850273 0 50
-0.78233469 -1.4711213 0.30208626 0 51
-0.77942306 -1.4656461 0.31675875 0 52
-0.77353281 -1.4545701 0.33009744 0 53
-0.77734053 -1.4617302 0.34759068 0 54
-0.78040487 -1.4674923 0.36495343 0 55
-0.77597189 -1.4591565 0.37884641 0 56
-0.77913749 -1.4651092 0.39649087 0 57
-0.77861232 -1.4641217 0.41238254 0 58
-0.77507198 -1.4574643 0.42666668 0 59
-0.77270126 -1.4530064 0.4415482 0 60
-0.78464508 -1.4754659 0.46489143 0 61
-0.77856463 -1.4640319 0.47776303 0 62
-0.78061068 -1.4678794 0.49562389 0 63
-0.75572497 -1.4642333 -0.49121797 0 0
-0.75470316 -1.4622536 -0.47411841 0 1
-0.75684196 -1.4663975 -0.45906717 0 2
-0.75864416 -1.4698893 -0.44381031 0 3
-0.75907195 -1.4707181 -0.42778188 0 4
-0.76083279 -1.4741299 -0.41253519 0 5
-0.75629586 -1.4653394 -0.39400667 0 6
-0.75972915 -1.4719915 -0.37972462 0 7
-0.75732064 -1.467325 -0.36256847 0 8
-0.75508565 -1.4629946 -0.34565732 0 9
-0.758147 -1.4689261 -0.3312147 0 10
-0.76197916 -1.476351 -0.31702334 0 11
-0.75305367 -1.4590576 -0.29768509 0 12
-0.75564444 -1.4640772 -0.28308293 0 13
-0.76196426 -1.4763221 -0.2697432 0 14
-0.75887102 -1.4703289 -0.25305131 0 15
-0.74967545 -1.4525123 -0.23462039 0 16
-0.7589342 -1.4704512 -0.22200473 0 17
-0.75642711 -1.4655937 -0.20584738 0 18
-0.75693595 -1.4665796 -0.19058692 0 19
-0.75143111 -1.4559139 -0.17394637 0 20
-0.75737333 -1.4674271 -0.15997678 0 21
-0.75401241 -1.4609152 -0.14401703 0 22
-0.75600523 -1.4647763 -0.12913214 0 23
-0.75859022 -1.4697849 -0.11427801 0 24
-0.7547372 -1.4623195 -0.098498918 0 25
-0.75755852 -1.4677858 -0.083628453 0 26
-0.7525444 -1.4580709 -0.067951217 0 27
-0.75248152 -1.457949 -0.052834604 0 28
-0.75631636 -1.4653791 -0.037924912 0 29
-0.75220132 -1.4574062 -0.022628587 0 30
-0.75390041 -1.4606982 -0.0075594741 0 31
-0.74934912 -1.45188 0.0075138374 0 32
-0.75361335 -1.460142 0.022671064 0 33
-0.75422859 -1.4613341 0.037820224 0 34
-0.7578373 -1.468326 0.053210653 0 35
-0.74981856 -1.4527895 0.067705087 0 36
-0.75428396 -1.4614414 0.083266973 0 37
-0.74579662 -1.444997 0.097332112 0 38
-0.75563115 -1.4640516 0.11383224 0 39
-0.75961024 -1.4717611 0.1297479 0 40
-0.75573945 -1.4642614 0.14434689 0 41
-0.75592458 -1.4646201 0.15967077 0 42
-0.7537415 -1.4603903 0.1744812 0 43
-0.75605708 -1.4648768 0.19036564 0 44
-0.74967498 -1.4525113 0.20400992 0 45
-0.76136422 -1.4751595 0.22271557 0 46
-0.75097239 -1.4550251 0.23502629 0 47
-0.75507367 -1.4629714 0.25178507 0 48
-0.75895393 -1.4704895 0.2686775 0 49
-0.75630891 -1.4653647 0.28333184 0 50
-0.75462693 -1.4621059 0.298307 0 51
-0.7558015 -1.4643816 0.3144531 0 52
-0.76526314 -1.4827137 0.33432356 0 53
-0.75863069 -1.4698633 0.34728017 0 54
-0.7584483 -1.4695098 0.36310837 0 55
-0.754682 -1.4622126 0.37720197 0 56
-0.75792801 -1.4685017 0.39485696 0 57
-0.75904864 -1.4706731 0.41156781 0 58
-0.75314778 -1.45924 0.42444327 0 59
-0.75513989 -1.4630997 0.4417603 0 60
-0.75657672 -1.4658836 0.45890629 0 61
-0.76107419 -1.4745976 0.4781208 0 62
-0.75598884 -1.4647446 0.49138951 0 63
-0.73120153 -1.4605058 -0.48691434 0 0
-0.73648965 -1.4710684 -0.4740043 0 1
-0.73048723 -1.4590791 -0.45392981 0 2
-0.72857547 -1.4552606 -0.4366554 0 3
-0.73140419 -1.4609107 -0.42228135 0 4
-0.72926998 -1.4566478 -0.40510267 0 5
-0.7382881 -1.4746608 -0.39404219 0 6
-0.73455918 -1.4672124 -0.37613326 0 7
-0.73500121 -1.4680954 -0.36049837 0 8
-0.73327744 -1.4646524 -0.34389266 0 9
-0.73141873 -1.4609398 -0.32736126 0 10
-0.7317571 -1.4616157 -0.31190339 0 11
-0.73561031 -1.469312 -0.29790923 0 12
-0.73406404 -1.4662235 -0.28173131 0 13
-0.73395818 -1.4660121 -0.26619032 0 14
-0.73264599 -1.4633911 -0.25028786 0 15
-0.73080039 -1.4597048 -0.23431294 0 16
-0.73499638 -1.4680858 -0.22026643 0 17
-0.74151754 -1.4811112 -0.20673057 0 18
-0.73449737 -1.4670891 -0.18946511 0 19
-0.73650813 -1.4711053 -0.17466615 0 20
-0.73213005 -1.4623605 -0.15843101 0 21
-0.73868716 -1.4754578 -0.14454427 0 22
-0.73219591 -1.4624921 -0.12812735 0 23
-0.73730344 -1.4726939 -0.11379068 0 24
-0.73097527 -1.4600539 -0.09773349 0 25
-0.72688401 -1.4518821 -0.082206853 0 26
-0.73446423 -1.4670229 -0.067942388 0 27
-0.72915202 -1.4564122 -0.052450027 0 28
-0.7273798 -1.4528723 -0.037366919 0 29
-0.7348302 -1.4677539 -0.022647243 0 30
-0.73720574 -1.4724988 -0.0075730584 0 31
-0.73241681 -1.4629333 0.0075238636 0 32
-0.73730367 -1.4726944 0.022723474 0 33
-0.73651814 -1.4711254 0.037836377 0 34
-0.73636395 -1.4708173 0.0529688 0 35
-0.7389673 -1.4760172 0.068358943 0 36
-0.7326988 -1.4634966 0.082864478 0 37
-0.728706 -1.4555213 0.097430088 0 38
-0.73195022 -1.4620013 0.11296449 0 39
-0.73179984 -1.461701 0.12805805 0 40
-0.73097527 -1.4600539 0.14303523 0 41
-0.73468721 -1.4674683 0.15898436 0 42
-0.73232359 -1.4627471 0.17367378 0 43
-0.73608786 -1.4702659 0.18987538 0 44
-0.73277444 -1.4636477 0.20429306 0 45
-0.73709756 -1.4722828 0.22089612 0 46
-0.73696768 -1.4720232 0.23629032 0 47
-0.73476034 -1.4676144 0.25101018 0 48
-0.73450232 -1.467099 0.26638764 0 49
-0.73138177 -1.460866 0.28070188 0 50
-0.73957831 -1.4772377 0.2995162 0 51
-0.73649693 -1.4710829 0.31392366 0 52
-0.73476297 -1.4676195 0.32885802 0 53
-0.73335755 -1.4648124 0.34393021 0 54
-0.73860329 -1.4752903 0.36226511 0 55
-0.72964472 -1.4573964 0.37361681 0 56
-0.73167515 -1.461452 0.3905127 0 57
-0.73071575 -1.4595356 0.40590578 0 58
-0.73227388 -1.4626478 0.42278349 0 59
-0.72862512 -1.4553598 0.43668514 0 60
-0.73068446 -1.4594731 0.45405233 0 61
-0.73885179 -1.4757866 0.4755246 0 62
-0.73415726 -1.4664098 0.48888263 0 63
-0.72217548 -1.4879019 -0.49305001 0 0
-0.72014964 -1.4837279 -0.47519419 0 1
-0.72299969 -1.4896001 -0.46062437 0 2
-0.72203678 -1.4876162 -0.44366619 0 3
-0.72845131 -1.500832 -0.43119898 0 4
-0.71918929 -1.4817494 -0.40959319 0 5
-0.72052431 -1.4844999 -0.39427406 0 6
-0.72276908 -1.4891249 -0.37944362 0 7
-0.7195673 -1.4825282 -0.36184236 0 8
-0.71511477 -1.4733547 -0.34384528 0 9
-0.72269636 -1.488975 -0.33162692 0 10
-0.72314894 -1.4899075 -0.3160193 0 11
-0.71815848 -1.4796256 -0.29818732 0 12
-0.71631503 -1.4758276 -0.28186294 0 13
-0.71881467 -1.4809775 -0.26728252 0 14
-0.7213136 -1.4861262 -0.25264022 0 15
-0.71993417 -1.483284 -0.23665899 0 16
-0.71971714 -1.482837 -0.22113511 0 17
-0.7180301 -1.4793611 -0.20523842 0 18
-0.71652395 -1.4762579 -0.18949704 0 19
-0.71792513 -1.4791449 -0.17455935 0 20
-0.73101139 -1.5061066 -0.16218431 0 21
-0.71794623 -1.4791883 -0.144034 0 22
-0.7188887 -1.4811301 -0.128976 0 23
-0.72159189 -1.4866995 -0.11417862 0 24
-0.71890795 -1.4811698 -0.098547757 0 25
-0.71160793 -1.4661295 -0.082511865 0 26
-0.71885824 -1.4810673 -0.068178296 0 27
-0.72194934 -1.4874359 -0.053243563 0 28
-0.72015566 -1.4837404 -0.037930205 0 29
-0.7205559 -1.4845651 -0.022768203 0 30
-0.71635079 -1.4759011 -0.0075446838 0 31
-0.71686506 -1.4769608 0.0075501003 0 32
-0.72228265 -1.4881226 0.022822764 0 33
-0.7163769 -1.4759551 0.037731182 0 34
-0.72244579 -1.4884589 0.053280175 0 35
-0.71859473 -1.4805244 0.068153299 0 36
-0.71855187 -1.4804362 0.083317026 0 37
-0.72040063 -1.4842452 0.098752372 0 38
-0.72165602 -1.4868317 0.11418878 0 39
-0.72046655 -1.484381 0.12925908 0 40
-0.72353607 -1.4907051 0.14515543 0 41
-0.72447318 -1.4926357 0.16073371 0 42
-0.72024125 -1.4839168 0.1751225 0 43
-0.72588831 -1.4955513 0.1919736 0 44
-0.7224347 -1.4884359 0.20649742 0 45
-0.72536516 -1.4944736 0.22287047 0 46
-0.72414279 -1.491955 0.23804246 0 47
-0.72240412 -1.4883729 0.25302216 0 48
-0.71831614 -1.4799504 0.26709715 0 49
-0.72201985 -1.4875813 0.28410774 0 50
-0.71926278 -1.4819008 0.29864585 0 51
-0.72090739 -1.4852892 0.31503975 0 52
-0.71793962 -1.4791747 0.32944417 0 53
-0.71983099 -1.4830714 0.34611294 0 54
-0.72298259 -1.4895647 0.36355975 0 55
-0.72449571 -1.4926822 0.38035008 0 56
-0.72023541 -1.4839047 0.39411598 0 57
-0.72952181 -1.5030375 0.41547775 0 58
-0.72074044 -1.4849453 0.42663461 0 59
-0.71225101 -1.4674544 0.43765318 0 60
-0.71978658 -1.48298 0.45857728 0 61
-0.71936953 -1.4821208 0.47467944 0 62
-0.72578293 -1.4953344 0.4955129 0 63
-0.70177412 -1.4923049 -0.49161234 0 0
-0.70181328 -1.4923882 -0.47516802 0 1
-0.70351905 -1.4960154 -0.45989838 0 2
-0.70139492 -1.4914985 -0.44221842 0 3
-0.70427203 -1.4976166 -0.42775479 0 4
-0.70070094 -1.4900229 -0.40946752 0 5
-0.69988555 -1.488289 -0.39296499 0 6
-0.70756131 -1.5046113 -0.38114393 0 7
-0.69835985 -1.4850446 -0.36033338 0 8
-0.69856215 -1.4854748 -0.34464309 0 9
-0.69845921 -1.485256 -0.32886088 0 10
-0.69827926 -1.4848732 -0.3131066 0 11
-0.70184594 -1.4924576 -0.2990115 0 12
-0.70171636 -1.4921821 -0.28331709 0 13
-0.69258255 -1.4727592 -0.26424235 0 14
-0.69724292 -1.4826695 -0.25057614 0 15
-0.69474208 -1.4773515 -0.23433171 0 16
-0.69945568 -1.4873749 -0.22051252 0 17
-0.70216596 -1.4931382 -0.20593636 0 18
-0.6959939 -1.4800134 -0.18886626 0 19
-0.6997301 -1.4879583 -0.17457084 0 20
-0.69618028 -1.4804099 -0.15848336 0 21
-0.6989364 -1.4862707 -0.14387588 0 22
-0.69566411 -1.4793122 -0.12806311 0 23
-0.69597238 -1.4799677 -0.11299583 0 24
-0.69888735 -1.4861664 -0.098300986 0 25
-0.69873786 -1.4858484 -0.08313179 0 26
-0.69788188 -1.4840282 -0.067914419 0 27
-0.70374876 -1.4965039 -0.053254366 0 28
-0.69822621 -1.4847604 -0.037733946 0 29
-0.70170331 -1.4921544 -0.022750547 0 30
-0.69993353 -1.488391 -0.0075639626 0 31
-0.69459784 -1.4770448 0.0075063012 0 32
-0.70013618 -1.4888219 0.022699736 0 33
-0.69398379 -1.475739 0.037504673 0 34
-0.69626027 -1.48058 0.052687697 0 35
-0.69683337 -1.4817985 0.067812383 0 36
-0.69719088 -1.4825588 0.082947738 0 37
-0.69145656 -1.4703648 0.097255811 0 38
-0.69350773 -1.4747267 0.11259567 0 39
-0.69714552 -1.4824624 0.12833583 0 40
-0.69999593 -1.4885237 0.14409398 0 41
-0.70070267 -1.4900266 0.15951285 0 42
-0.69754821 -1.4833187 0.1740265 0 43
-0.69821662 -1.48474 0.18946941 0 44
-0.6976912 -1.4836227 0.20462397 0 45
-0.7004478 -1.4894845 0.22082531 0 46
-0.69925976 -1.4869583 0.23585549 0 47
-0.69389117 -1.4755421 0.24937157 0 48
-0.70067221 -1.4899619 0.26732883 0 49
-0.69819713 -1.4846985 0.2818962 0 50
-0.6921578 -1.4718561 0.29488403 0 51
-0.70705402 -1.5035325 0.31704119 0 52
-0.69919258 -1.4868153 0.32920617 0 53
-0.7018885 -1.4925481 0.34628418 0 54
-0.69614112 -1.4803265 0.35918859 0 55
-0.69673276 -1.4815847 0.3753109 0 56
-0.70250231 -1.4938534 0.39443418 0 57
-0.70058268 -1.4897714 0.40939841 0 58
-0.6956988 -1.479386 0.42254767 0 59
-0.69624901 -1.4805559 0.43897402 0 60
-0.70316744 -1.4952677 0.45966852 0 61
-0.69753218 -1.4832845 0.47226945 0 62
-0.70256662 -1.4939902 0.49216753 0 63
-0.67000508 -1.4714637 -0.48199606 0 0
-0.67725372 -1.487383 -0.47088724 0 1
-0.68000364 -1.4934224 -0.45649621 0 2
-0.67667723 -1.486117 -0.43812266 0 3
-0.67533237 -1.4831635 -0.42122287 0 4
-0.67131335 -1.4743369 -0.40285799 0 5
-0.67819977 -1.4894608 -0.39104289 0 6
-0.68554646 -1.5055956 -0.37922919 0 7
-0.67377508 -1.4797432 -0.35700974 0 8
-0.67497164 -1.4823712 -0.34197155 0 9
-0.67212546 -1.4761205 -0.3249836 0 10
-0.67596352 -1.4845495 -0.31126213 0 11
-0.68091428 -1.4954224 -0.29790547 0 12
-0.67639446 -1.4854959 -0.28044721 0 13
-0.67595696 -1.4845352 -0.26484385 0 14
-0.67842031 -1.4899452 -0.25037697 0 15
-0.67343718 -1.4790012 -0.23326226 0 16
-0.6819132 -1.4976163 -0.22077104 0 17
-0.6771301 -1.4871116 -0.20394136 0 18
-0.67543733 -1.4833939 -0.18822354 0 19
