# .PCD v0.7 - Point Cloud Data file format
VERSION 0.7
FIELDS x y z intensity ring
SIZE 4 4 4 4 2
TYPE F F F F U
COUNT 1 1 1 1 1
WIDTH 1287
HEIGHT 1
VIEWPOINT 0 0 0 1 0 0 0
POINTS 1287
DATA ascii
1.0156939 -1.8277897 0.62336695 0 63
1.0555416 -1.8456768 -0.63384604 0 0
1.0623037 -1.8575006 -0.61653435 0 1
1.0570849 -1.8483754 -0.59235066 0 2
1.0627424 -1.8582678 -0.57436138 0 3
1.0567241 -1.8477443 -0.55017269 0 4
1.0664388 -1.8647311 -0.53420216 0 5
1.0628808 -1.8585097 -0.51155734 0 6
1.059683 -1.8529183 -0.48930976 0 7
1.0589657 -1.8516639 -0.46837106 0 8
1.0622265 -1.8573657 -0.44922575 0 9
1.0620108 -1.8569884 -0.42863047 0 10
1.0663617 -1.8645962 -0.4098742 0 11
1.0616606 -1.8563764 -0.38771701 0 12
1.0566373 -1.8475927 -0.36569589 0 13
1.0545068 -1.8438673 -0.3448762 0 14
1.0597918 -1.8531085 -0.32648194 0 15
1.0569509 -1.848141 -0.3055943 0 16
1.0589589 -1.851652 -0.28617728 0 17
1.0611407 -1.8554671 -0.26677752 0 18
1.056224 -1.8468699 -0.24569027 0 19
1.0564179 -1.847209 -0.22592272 0 20
1.059657 -1.8528728 -0.20678081 0 21
1.0558375 -1.8461943 -0.18630753 0 22
1.0558838 -1.8462751 -0.16661865 0 23
1.0567708 -1.847826 -0.1470734 0 24
1.0569123 -1.8480736 -0.12743028 0 25
1.0610443 -1.8552985 -0.10821048 0 26
1.0590233 -1.8517647 -0.088342272 0 27
1.0597966 -1.8531168 -0.068745308 0 28
1.0571069 -1.8484137 -0.048970882 0 29
1.0620474 -1.8570524 -0.029516522 0 30
1.0624763 -1.8578025 -0.0098422589 0 31
1.0668166 -1.8653917 0.009882465 0 32
1.064646 -1.8615962 0.02958874 0 33
1.067759 -1.8670397 0.049464349 0 34
1.0597744 -1.853078 0.06874387 0 35
1.0558244 -1.8461711 0.088075422 0 36
1.0604525 -1.8542638 0.10815013 0 37
1.0496697 -1.8354095 0.12655705 0 38
1.056489 -1.8473334 0.1470342 0 39
1.0679401 -1.8673563 0.16852114 0 40
1.047807 -1.8321524 0.18489049 0 41
1.0587544 -1.8512945 0.20660466 0 42
1.0616202 -1.8563056 0.22703527 0 43
1.0466439 -1.8301185 0.24346182 0 44
1.0613271 -1.8557931 0.26682436 0 45
1.0634389 -1.8594856 0.28738797 0 46
1.0558591 -1.8462319 0.30527863 0 47
1.0687304 -1.8687381 0.32923552 0 48
1.0619991 -1.8569679 0.34732655 0 49
1.060168 -1.8537664 0.36691785 0 50
1.0588293 -1.8514255 0.38668299 0 51
1.057256 -1.8486744 0.40637428 0 52
1.0563322 -1.8470592 0.42633861 0 53
1.0583919 -1.8506608 0.44760409 0 54
1.069564 -1.8701959 0.47305864 0 55
1.0635852 -1.8597414 0.49111161 0 56
1.0566416 -1.8476001 0.50855446 0 57
1.0622795 -1.8574584 0.53211868 0 58
1.0587173 -1.8512297 0.5512104 0 59
1.0579112 -1.8498201 0.57175034 0 60
1.0577916 -1.8496109 0.59274662 0 61
1.0643142 -1.8610163 0.61770123 0 62
1.0531384 -1.8414745 0.6324029 0 63
1.1056573 -1.8793042 -0.6500144 0 0
1.1094059 -1.8856758 -0.63036638 0 1
1.1055353 -1.8790969 -0.60650671 0 2
1.1021682 -1.8733737 -0.5831753 0 3
1.0949334 -1.8610766 -0.5581091 0 4
1.1106458 -1.8877833 -0.54467732 0 5
1.1022321 -1.8734823 -0.51936996 0 6
1.1060821 -1.8800262 -0.50002217 0 7
1.101007 -1.8714001 -0.47675174 0 8
1.1122794 -1.8905599 -0.46052733 0 9
1.1023879 -1.8737471 -0.43559465 0 10
1.1048869 -1.8779947 -0.41577452 0 11
1.1045539 -1.8774288 -0.3949208 0 12
1.1100785 -1.886819 -0.37613332 0 13
1.1006482 -1.8707901 -0.3524166 0 14
1.102787 -1.8744255 -0.33260152 0 15
1.1005727 -1.8706617 -0.31153235 0 16
1.1073549 -1.8821898 -0.29297927 0 17
1.1120565 -1.8901809 -0.27371404 0 18
1.1086124 -1.8843271 -0.2524676 0 19
1.11059 -1.8876884 -0.23252621 0 20
1.1046443 -1.8775824 -0.21103834 0 21
1.1075931 -1.8825945 -0.19134077 0 22
1.1095548 -1.8859288 -0.17141554 0 23
1.1008949 -1.8712096 -0.15000069 0 24
1.1049144 -1.8780415 -0.13042364 0 25
1.1064771 -1.8806976 -0.1104771 0 26
1.0999488 -1.8696012 -0.089831673 0 27
1.0981617 -1.8665638 -0.069739826 0 28
1.1019517 -1.8730059 -0.049977623 0 29
1.1060952 -1.8800485 -0.030095929 0 30
1.1056641 -1.8793157 -0.010027501 0 31
1.1032174 -1.875157 0.010005311 0 32
1.1045402 -1.8774055 0.030053621 0 33
1.1023375 -1.8736615 0.049995117 0 34
1.1037885 -1.8761278 0.070097163 0 35
1.1037686 -1.876094 0.090143643 0 36
1.1134014 -1.892467 0.11116846 0 37
1.1036515 -1.8758949 0.13027456 0 38
1.1054214 -1.8789033 0.15061744 0 39
1.1046957 -1.8776698 0.17066486 0 40
1.0997988 -1.8693464 0.18999428 0 41
1.1010797 -1.8715237 0.21035734 0 42
1.1046156 -1.8775337 0.23127533 0 43
1.0975055 -1.8654484 0.24993818 0 44
1.1135039 -1.8926412 0.27407029 0 45
1.1090236 -1.8850259 0.29342073 0 46
1.1022545 -1.8735205 0.31200841 0 47
1.1121029 -1.8902597 0.33541116 0 48
1.0983366 -1.8668611 0.35167646 0 49
1.1090478 -1.885067 0.37578407 0 50
1.1083262 -1.8838407 0.39626956 0 51
1.1051431 -1.8784302 0.41587093 0 52
1.1095554 -1.8859298 0.43842679 0 53
1.1026512 -1.8741949 0.45654091 0 54
1.1041733 -1.8767819 0.4781228 0 55
1.1141443 -1.8937297 0.50366682 0 56
1.1040787 -1.876621 0.52024007 0 57
1.1064725 -1.8806899 0.54263067 0 58
1.098253 -1.866719 0.55980116 0 59
1.1120214 -1.8901213 0.58838874 0 60
1.1091641 -1.8852648 0.6084975 0 61
1.108747 -1.8845558 0.62999201 0 62
1.1031953 -1.8751196 0.64856696 0 63
1.1465006 -1.8950213 -0.66027689 0 0
1.1520559 -1.9042035 -0.64124727 0 1
1.1583807 -1.9146577 -0.62253493 0 2
1.1555102 -1.9099132 -0.59892774 0 3
1.1587414 -1.9152539 -0.57858515 0 4
1.156436 -1.9114434 -0.55556482 0 5
1.1490238 -1.8991919 -0.53037393 0 6
1.1489909 -1.8991374 -0.50882429 0 7
1.1553199 -1.9095986 -0.49006519 0 8
1.1596533 -1.916761 -0.47034773 0 9
1.1537626 -1.9070246 -0.44659513 0 10
1.1550131 -1.9090915 -0.4257713 0 11
1.1552773 -1.9095283 -0.4046306 0 12
1.1501977 -1.9011323 -0.38177723 0 13
1.1487622 -1.8987595 -0.36031917 0 14
1.151116 -1.90265 -0.34009564 0 15
1.1455125 -1.8933883 -0.31763887 0 16
1.1488115 -1.8988409 -0.29774755 0 17
1.1502708 -1.9012531 -0.27734461 0 18
1.1598196 -1.9170361 -0.25874132 0 19
1.1575861 -1.9133444 -0.23742194 0 20
1.161579 -1.9199443 -0.21738875 0 21
1.1479373 -1.897396 -0.19426513 0 22
1.1545584 -1.90834 -0.17472972 0 23
1.154981 -1.9090385 -0.15415996 0 24
1.1511906 -1.9027734 -0.13311417 0 25
1.1598538 -1.9170927 -0.11344425 0 26
1.1521307 -1.9043274 -0.092173956 0 27
1.159436 -1.916402 -0.072129138 0 28
1.1541225 -1.9076194 -0.051276021 0 29
1.1511855 -1.9027649 -0.03068386 0 30
1.1506658 -1.901906 -0.010222759 0 31
1.1524117 -1.9047918 0.01023827 0 32
1.14731 -1.8963592 0.030580562 0 33
1.1572322 -1.9127594 0.051414184 0 34
1.1521403 -1.904343 0.071675263 0 35
1.1597975 -1.9169996 0.092787325 0 36
1.1503141 -1.9013247 0.11251118 0 37
1.1490147 -1.8991768 0.13286257 0 38
1.159825 -1.917045 0.15480651 0 39
1.160882 -1.918792 0.17568672 0 40
1.1537201 -1.9069543 0.19524376 0 41
1.1453129 -1.8930582 0.21434453 0 42
1.1493851 -1.8997892 0.23573992 0 43
1.1530291 -1.9058121 0.25722644 0 44
1.1573139 -1.9128945 0.27904278 0 45
1.1513538 -1.9030433 0.29840651 0 46
1.1512593 -1.902887 0.3192324 0 47
1.1573737 -1.9129933 0.34194446 0 48
1.149899 -1.9006385 0.36067575 0 49
1.1647363 -1.9251627 0.38660291 0 50
1.1616063 -1.9199892 0.40684733 0 51
1.1534064 -1.9064357 0.42517897 0 52
1.154038 -1.9074798 0.44670171 0 53
1.1614305 -1.9196986 0.47106856 0 54
1.150535 -1.9016898 0.4880355 0 55
1.1550658 -1.9091786 0.5115146 0 56
1.1575691 -1.9133162 0.53431839 0 57
1.1560673 -1.910834 0.55538768 0 58
1.1579618 -1.9139655 0.57819599 0 59
1.1549492 -1.9089859 0.59863693 0 60
1.1607296 -1.9185402 0.62379724 0 61
1.1585283 -1.9149016 0.6448499 0 62
1.1520283 -1.9041581 0.66346037 0 63
1.2057709 -1.9387566 -0.68063003 0 0
1.2107716 -1.9467973 -0.66055459 0 1
1.2063544 -1.9396949 -0.6354506 0 2
1.2039825 -1.9358811 -0.61166734 0 3
1.2022262 -1.9330572 -0.58838487 0 4
1.2051089 -1.9376923 -0.56745821 0 5
1.2048311 -1.9372457 -0.54509711 0 6
1.1971855 -1.9249523 -0.51964557 0 7
1.2064334 -1.939822 -0.50159067 0 8
1.2010846 -1.9312217 -0.47748423 0 9
1.2049409 -1.9374222 -0.45714897 0 10
1.2010276 -1.9311299 -0.43394727 0 11
1.20468 -1.9370027 -0.41356015 0 12
1.2005193 -1.9303126 -0.39057204 0 13
1.2067376 -1.9403112 -0.37099206 0 14
1.1965989 -1.9240091 -0.34651741 0 15
1.2055067 -1.938332 -0.3276408 0 16
1.2051942 -1.9378295 -0.30616179 0 17
1.1959029 -1.9228899 -0.28262466 0 18
1.2079324 -1.9422321 -0.26412678 0 19
1.1955611 -1.9223403 -0.24034429 0 20
1.2030258 -1.934343 -0.22067735 0 21
1.2079074 -1.9421921 -0.20035715 0 22
1.2080452 -1.9424136 -0.1791961 0 23
1.2047858 -1.9371729 -0.1576163 0 24
1.2047355 -1.9370919 -0.13654107 0 25
1.2057459 -1.9387165 -0.11559246 0 26
1.2076744 -1.9418174 -0.094700187 0 27
1.2026942 -1.9338098 -0.073335402 0 28
1.2006047 -1.93045 -0.052282572 0 29
1.2040579 -1.9360025 -0.031456225 0 30
1.1999402 -1.9293816 -0.01044896 0 31
1.2040633 -1.9360111 0.010484863 0 32
1.1987747 -1.9275076 0.031318199 0 33
1.2108811 -1.9469734 0.05273008 0 34
1.2021929 -1.9330037 0.073304839 0 35
1.2079715 -1.942295 0.094723478 0 36
1.2047112 -1.9370528 0.11549328 0 37
1.2066964 -1.9402448 0.1367633 0 38
1.2061332 -1.9393394 0.15779257 0 39
1.2038189 -1.9356182 0.1785692 0 40
1.2068535 -1.9404975 0.20018235 0 41
1.2082001 -1.9426626 0.22162649 0 42
1.2026196 -1.9336897 0.24176326 0 43
1.2082607 -1.94276 0.26419857 0 44
1.2042563 -1.9363214 0.2845988 0 45
1.2024964 -1.9334917 0.30547646 0 46
1.2018799 -1.9325004 0.32665506 0 47
1.2020892 -1.932837 0.34810734 0 48
1.2043086 -1.9364055 0.37024531 0 49
1.2008551 -1.9308527 0.3906813 0 50
1.2001162 -1.9296645 0.41199344 0 51
1.1991502 -1.9281113 0.43326893 0 52
1.2009757 -1.9310465 0.45564461 0 53
1.2008768 -1.9308876 0.47740161 0 54
1.2032708 -1.9347367 0.50027573 0 55
1.2038653 -1.9356927 0.52254498 0 56
1.2029415 -1.9342074 0.5442422 0 57
1.2003897 -1.9301044 0.56523609 0 58
1.2022041 -1.9330217 0.58837402 0 59
1.1989635 -1.9278111 0.60911751 0 60
1.2024075 -1.9333488 0.63337159 0 61
1.204212 -1.9362501 0.65697587 0 62
1.2058351 -1.9388601 0.68066633 0 63
1.2642776 -1.9781721 -0.6998722 0 0
1.2570614 -1.966881 -0.67256296 0 1
1.253682 -1.9615934 -0.64762598 0 2
1.2547247 -1.9632249 -0.62513459 0 3
1.2495084 -1.9550631 -0.59971434 0 4
1.2625446 -1.9754605 -0.58302122 0 5
1.2565852 -1.9661361 -0.55753177 0 6
1.2573643 -1.9673549 -0.53522557 0 7
1.2540613 -1.9621871 -0.51132244 0 8
1.254822 -1.9633772 -0.48921248 0 9
1.2551934 -1.9639583 -0.46701697 0 10
1.2568011 -1.9664738 -0.4453285 0 11
1.2589812 -1.9698849 -0.42385393 0 12
1.2567208 -1.9663481 -0.40095976 0 13
1.2582133 -1.9686834 -0.37934643 0 14
1.2493232 -1.9547734 -0.35479808 0 15
1.2509145 -1.9572632 -0.33341563 0 16
1.2559602 -1.9651581 -0.31289583 0 17
1.2482584 -1.9531074 -0.28930011 0 18
1.2559055 -1.9650724 -0.26931265 0 19
1.2601106 -1.971652 -0.24842808 0 20
1.2634227 -1.9768344 -0.22728011 0 21
1.2660578 -1.9809575 -0.20594664 0 22
1.2580537 -1.9684337 -0.18300988 0 23
1.2628477 -1.9759346 -0.16202132 0 24
1.2576886 -1.9678625 -0.13978955 0 25
1.2540822 -1.9622197 -0.11790433 0 26
1.2599503 -1.9714012 -0.096891209 0 27
1.2628024 -1.9758637 -0.075513363 0 28
1.2550144 -1.9636784 -0.0535964 0 29
1.2492651 -1.9546825 -0.032006912 0 30
1.2607982 -1.972728 -0.010766858 0 31
1.2583289 -1.9688644 0.010745771 0 32
1.255504 -1.9644443 0.032166757 0 33
1.2553403 -1.9641882 0.053610317 0 34
1.2560502 -1.965299 0.075109601 0 35
1.2569435 -1.9666966 0.096659981 0 36
1.2535337 -1.9613614 0.11785275 0 37
1.2510394 -1.9574586 0.13905048 0 38
1.2547247 -1.963225 0.16097917 0 39
1.2605976 -1.972414 0.18337993 0 40
1.2589407 -1.9698216 0.20478891 0 41
1.2556103 -1.9646108 0.22587474 0 42
1.2480451 -1.9527735 0.24604939 0 43
1.2533363 -1.9610525 0.26876172 0 44
1.2543133 -1.9625813 0.29070342 0 45
1.2527167 -1.960083 0.31208777 0 46
1.2536987 -1.9616196 0.33415771 0 47
1.2571491 -1.9670182 0.35702056 0 48
1.2486482 -1.9537171 0.37646258 0 49
1.2583786 -1.9689422 0.40148872 0 50
1.262671 -1.9756583 0.42509618 0 51
1.2603972 -1.9721005 0.44660273 0 52
1.2506647 -1.9568723 0.46533197 0 53
1.2588891 -1.9697407 0.49079806 0 54
1.2547075 -1.9631979 0.51158589 0 55
1.2652353 -1.9796704 0.53857607 0 56
1.2530116 -1.9605443 0.55594617 0 57
1.2547133 -1.9632071 0.57940483 0 58
1.2554036 -1.9642872 0.60254383 0 59
1.2655497 -1.9801624 0.63052785 0 60
1.2601203 -1.9716673 0.65095186 0 61
1.2582521 -1.9687443 0.67320007 0 62
1.256308 -1.9657022 0.69546044 0 63
1.3023211 -1.9835209 -0.70737684 0 0
1.3078089 -1.9918791 -0.68655795 0 1
1.315751 -2.0039752 -0.66690964 0 2
1.3166126 -2.0052876 -0.6436348 0 3
1.3208007 -2.0116663 -0.62201232 0 4
1.3136407 -2.0007613 -0.59521055 0 5
1.3110663 -1.9968402 -0.57076687 0 6
1.3199164 -2.0103197 -0.55128813 0 7
1.3084707 -1.9928871 -0.52347571 0 8
1.316039 -2.0044141 -0.50343174 0 9
1.3132668 -2.0001917 -0.47943681 0 10
1.3042564 -1.9864683 -0.45345411 0 11
1.3143957 -2.0019112 -0.43418971 0 12
1.3145936 -2.0022125 -0.411538 0 13
1.2998276 -1.9797231 -0.38452443 0 14
1.3210269 -2.0120111 -0.36810741 0 15
1.3114903 -1.9974861 -0.3429887 0 16
1.3072402 -1.9910131 -0.31954774 0 17
1.314698 -2.0023715 -0.29896924 0 18
1.3112165 -1.997069 -0.27588663 0 19
1.3234687 -2.0157299 -0.25601307 0 20
1.3162433 -2.0047252 -0.23233004 0 21
1.3097405 -1.9948211 -0.20904648 0 22
1.2997985 -1.9796786 -0.18552729 0 23
1.3068944 -1.9904861 -0.16451979 0 24
1.3117808 -1.9979285 -0.14306034 0 25
1.3082495 -1.9925501 -0.12068428 0 26
1.3159202 -2.0042331 -0.099292606 0 27
1.3088918 -1.9935284 -0.076797768 0 28
1.3133668 -2.000344 -0.055033781 0 29
1.3112234 -1.9970795 -0.032962661 0 30
1.3124454 -1.9989407 -0.010997173 0 31
1.306093 -1.9892656 0.010943945 0 32
1.3157055 -2.0039062 0.03307534 0 33
1.3130317 -1.9998336 0.05501974 0 34
1.3098518 -1.9949905 0.076854095 0 35
1.3088238 -1.9934249 0.098757155 0 36
1.3148314 -2.0025747 0.12129145 0 37
1.3054394 -1.9882702 0.14236875 0 38
1.3077143 -1.9917351 0.16462302 0 39
1.3215194 -2.0127609 0.18862763 0 40
1.3061372 -1.989333 0.20847137 0 41
1.3080432 -1.9922359 0.23088264 0 42
1.3060633 -1.9892203 0.25264615 0 43
1.3128994 -1.999632 0.27624068 0 44
1.3147725 -2.002485 0.2989862 0 45
1.3118025 -1.9979615 0.32066295 0 46
1.3107285 -1.9963259 0.3427895 0 47
1.3149867 -2.0028114 0.36642429 0 48
1.309505 -1.9944623 0.38738725 0 49
1.3103083 -1.9956858 0.41019648 0 50
1.3098315 -1.9949596 0.43268201 0 51
1.3084838 -1.9929069 0.45492387 0 52
1.3147341 -2.0024266 0.47997248 0 53
1.3062035 -1.9894339 0.49966928 0 54
1.3147538 -2.0024564 0.52598929 0 55
1.3109758 -1.9967024 0.5475539 0 56
1.3125389 -1.9990832 0.57140797 0 57
1.3134217 -2.0004277 0.59511131 0 58
1.3137034 -2.0008569 0.61866999 0 59
1.3173645 -2.0064328 0.64400238 0 60
1.3122677 -1.9986701 0.66514409 0 61
1.306952 -1.990574 0.68610811 0 62
1.3167831 -2.0055473 0.71523207 0 63
1.3726133 -2.0355792 -0.73190612 0 0
1.3657969 -2.0254705 -0.70387167 0 1
1.3690414 -2.030282 -0.68121523 0 2
1.3713959 -2.0337737 -0.65814078 0 3
1.3675269 -2.0280359 -0.63222551 0 4
1.3721001 -2.0348179 -0.61031532 0 5
1.3697176 -2.0312848 -0.58538228 0 6
1.3605349 -2.0176671 -0.55784863 0 7
1.3767667 -2.0417385 -0.54071361 0 8
1.3702221 -2.032033 -0.51456141 0 9
1.3631028 -2.0214751 -0.48851901 0 10
1.3654798 -2.0250003 -0.46604744 0 11
1.3667314 -2.0268562 -0.4432115 0 12
1.369589 -2.0310941 -0.42090407 0 13
1.3709236 -2.0330734 -0.39813089 0 14
1.3670331 -2.0273037 -0.37395242 0 15
1.3717338 -2.0342748 -0.35217538 0 16
1.3714937 -2.0339186 -0.32911569 0 17
1.3738598 -2.0374277 -0.30670255 0 18
1.3704697 -2.0324001 -0.28307408 0 19
1.3708699 -2.0329936 -0.26032695 0 20
1.3606128 -2.0177824 -0.23576438 0 21
1.3735282 -2.036936 -0.21521357 0 22
1.3714731 -2.0338881 -0.19217351 0 23
1.3589786 -2.0153589 -0.1679441 0 24
1.3753836 -2.0396876 -0.14725032 0 25
1.3691648 -2.0304649 -0.12399104 0 26
1.3667849 -2.0269358 -0.1012423 0 27
1.3813667 -2.0485604 -0.079566143 0 28
1.3797551 -2.0461705 -0.056757048 0 29
1.3707701 -2.0328457 -0.03382865 0 30
1.3704309 -2.0323427 -0.011272791 0 31
1.3694631 -2.0309074 0.01126483 0 32
1.36729 -2.0276847 0.033742767 0 33
1.3681885 -2.0290172 0.056281246 0 34
1.3727717 -2.035814 0.079071075 0 35
1.3676554 -2.0282266 0.10130677 0 36
1.3636074 -2.0222235 0.12348777 0 37
1.3700221 -2.0317361 0.1466763 0 38
1.3733573 -2.0366824 0.16972102 0 39
1.3728673 -2.0359559 0.19236887 0 40
1.3653857 -2.0248606 0.21393773 0 41
1.3657591 -2.0254145 0.23665613 0 42
1.3660897 -2.0259047 0.2594192 0 43
1.373648 -2.0371137 0.2837306 0 44
1.3665733 -2.0266218 0.30507591 0 45
1.3697464 -2.0313277 0.32869643 0 46
1.3779175 -2.0434451 0.35376298 0 47
1.3728933 -2.0359943 0.37555549 0 48
1.3734443 -2.0368116 0.39886293 0 49
1.3736914 -2.037178 0.42216486 0 50
1.3770711 -2.0421901 0.44656453 0 51
1.3678133 -2.0284607 0.46684384 0 52
1.3663162 -2.0262406 0.48967069 0 53
1.3666625 -2.0267541 0.51322466 0 54
1.3663498 -2.0262904 0.53662246 0 55
1.3638387 -2.0225663 0.55920321 0 56
1.380523 -2.0473092 0.59000021 0 57
1.3714126 -2.0337985 0.61000949 0 58
1.3670783 -2.0273707 0.63201815 0 59
1.3638946 -2.0226493 0.6545409 0 60
1.3704953 -2.0324383 0.68193865 0 61
1.3737534 -2.0372698 0.70797205 0 62
1.3623817 -2.0204058 0.72645044 0 63
1.3997166 -2.0216949 -0.73304707 0 0
1.4274822 -2.0617983 -0.72254115 0 1
1.4272161 -2.061414 -0.69749647 0 2
1.4324802 -2.0690172 -0.67519486 0 3
1.4292853 -2.0644026 -0.64899242 0 4
1.4270101 -2.0611162 -0.62341899 0 5
1.432667 -2.0692871 -0.60136527 0 6
1.4316349 -2.0677962 -0.57653207 0 7
1.4350948 -2.0727937 -0.55356944 0 8
1.4231386 -2.0555246 -0.52490175 0 9
1.4415733 -2.0821509 -0.50742769 0 10
1.4312072 -2.0671785 -0.47976866 0 11
1.4260423 -2.0597186 -0.45419756 0 12
1.4364011 -2.0746806 -0.43356395 0 13
1.4280814 -2.0626636 -0.40733346 0 14
1.4253683 -2.0587449 -0.38295606 0 15
1.4387139 -2.078021 -0.36278406 0 16
1.4308721 -2.0666945 -0.33724084 0 17
1.4350216 -2.0726881 -0.31464294 0 18
1.4293151 -2.0644455 -0.28996339 0 19
1.4264395 -2.0602922 -0.26604849 0 20
1.4279249 -2.0624378 -0.24301527 0 21
1.4343419 -2.0717061 -0.22073402 0 22
1.4299124 -2.0653083 -0.19678873 0 23
1.4301023 -2.0655828 -0.17358164 0 24
1.4334435 -2.0704086 -0.15072927 0 25
1.4267018 -2.0606711 -0.12689728 0 26
1.4379106 -2.0768604 -0.10461121 0 27
1.4230766 -2.0554349 -0.08050672 0 28
1.4319856 -2.0683029 -0.05785501 0 29
1.43036 -2.0659547 -0.034669686 0 30
1.4257611 -2.0593123 -0.011518756 0 31
1.4239483 -2.056694 0.011504111 0 32
1.4383695 -2.0775235 0.034863826 0 33
1.4357069 -2.0736778 0.058005359 0 34
1.4358182 -2.0738385 0.081227541 0 35
1.427389 -2.0616636 0.10384575 0 36
1.4241515 -2.0569875 0.12667045 0 37
1.4301566 -2.0656612 0.15038364 0 38
1.4277853 -2.0622361 0.1733004 0 39
1.4254466 -2.0588582 0.19617413 0 40
1.4381255 -2.0771711 0.22131629 0 41
1.4192172 -2.0498607 0.24153334 0 42
1.4314396 -2.0675144 0.2669811 0 43
1.4307648 -2.0665395 0.29025751 0 44
1.4402311 -2.0802121 0.31578514 0 45
1.4305639 -2.0662494 0.33716819 0 46
1.43003 -2.0654783 0.36059433 0 47
1.4301854 -2.0657027 0.38425031 0 48
1.4232308 -2.0556576 0.40594995 0 49
1.429172 -2.064239 0.43138191 0 50
1.4252028 -2.058506 0.4539302 0 51
1.4249756 -2.0581779 0.47767973 0 52
1.431344 -2.0673761 0.50382704 0 53
1.424471 -2.0574491 0.52539319 0 54
1.431245 -2.0672331 0.55208439 0 55
1.4298148 -2.0651674 0.57579911 0 56
1.4340111 -2.0712285 0.60192949 0 57
1.4294654 -2.0646629 0.62449175 0 58
1.4319053 -2.0681868 0.65018207 0 59
1.432816 -2.0695024 0.67535317 0 60
1.429216 -2.0643027 0.69847393 0 61
1.4272461 -2.0614574 0.72242165 0 62
1.4274007 -2.0616806 0.74754554 0 63
1.4351158 -2.0193131 -0.73852617 0 0
1.4772444 -2.0785911 -0.73473626 0 1
1.4914378 -2.0985622 -0.71621704 0 2
1.4965444 -2.1057475 -0.69313425 0 3
1.4958051 -2.1047072 -0.667395 0 4
1.4931328 -2.1009474 -0.64097148 0 5
1.494662 -2.1030989 -0.61648613 0 6
1.4858061 -2.0906379 -0.58795023 0 7
1.4991688 -2.1094403 -0.56823665 0 8
1.4996036 -2.1100521 -0.54349369 0 9
1.4941314 -2.1023524 -0.51678926 0 10
1.4973741 -2.106915 -0.49322706 0 11
1.4943045 -2.1025958 -0.46766916 0 12
1.4878865 -2.0935655 -0.44130057 0 13
1.5047042 -2.117229 -0.421731 0 14
1.5001643 -2.110841 -0.3960481 0 15
1.4971311 -2.1065731 -0.3709546 0 16
1.4940579 -2.1022489 -0.34601423 0 17
1.496729 -2.1060073 -0.32247046 0 18
1.4866283 -2.0917947 -0.29634994 0 19
1.4931411 -2.1009588 -0.27365005 0 20
1.4974715 -2.1070521 -0.25042287 0 21
1.4972314 -2.1067142 -0.22640851 0 22
1.4915041 -2.0986555 -0.20169838 0 23
1.499127 -2.1093814 -0.17879786 0 24
1.4970447 -2.1064515 -0.15468171 0 25
1.4913797 -2.0984805 -0.13034506 0 26
1.4903709 -2.0970609 -0.10654374 0 27
1.4894518 -2.0957677 -0.082797557 0 28
1.492945 -2.100683 -0.059269782 0 29
1.4924339 -2.0999637 -0.035545688 0 30
1.4976603 -2.1073177 -0.011889385 0 31
1.4894266 -2.0957322 0.01182402 0 32
1.4979777 -2.1077642 0.035677724 0 33
1.4931904 -2.1010282 0.059279528 0 34
1.5001689 -2.1108475 0.08339332 0 35
1.5008662 -2.1118286 0.10729403 0 36
1.4970564 -2.106468 0.1308412 0 37
1.4952375 -2.1039085 0.15449497 0 38
1.4895722 -2.095937 0.17765827 0 39
1.4974651 -2.107043 0.20250452 0 40
1.4989114 -2.1090782 0.22666256 0 41
1.4945114 -2.1028869 0.24992785 0 42
1.4978107 -2.1075294 0.27450585 0 43
1.5028121 -2.1145668 0.29957607 0 44
1.4869207 -2.0922062 0.32035726 0 45
1.4888886 -2.0949752 0.34481707 0 46
1.4910039 -2.0979517 0.36943644 0 47
1.5023104 -2.1138606 0.39661464 0 48
1.4913884 -2.0984929 0.41799891 0 49
1.4946651 -2.1031034 0.44331107 0 50
1.4952229 -2.1038883 0.4679566 0 51
1.4942324 -2.1024945 0.49219224 0 52
1.4886513 -2.0946412 0.51489371 0 53
1.4907206 -2.097553 0.54027432 0 54
1.4952242 -2.1038899 0.56674153 0 55
1.4963951 -2.1055374 0.59214044 0 56
1.4915285 -2.0986898 0.61519367 0 57
1.4906532 -2.0974581 0.63990694 0 58
1.4917543 -2.0990076 0.6655876 0 59
1.4885237 -2.0944619 0.68941939 0 60
1.4854249 -2.0901017 0.71332955 0 61
1.4922237 -2.099668 0.74218655 0 62
1.4976255 -2.1072688 0.77069438 0 63
1.4503951 -1.988571 -0.7337501 0 0
1.5018181 -2.0590746 -0.73430985 0 1
1.5522499 -2.1282196 -0.73279768 0 2
1.5632881 -2.1433535 -0.71178639 0 3
1.565906 -2.1469429 -0.68684155 0 4
1.5637683 -2.1440117 -0.65992647 0 5
1.5656552 -2.1465991 -0.6348328 0 6
1.5601999 -2.1391194 -0.60693419 0 7
1.5600981 -2.1389797 -0.58131766 0 8
1.5612698 -2.1405861 -0.55626136 0 9
1.5590106 -2.1374888 -0.53009856 0 10
1.5607232 -2.139837 -0.50538856 0 11
1.5643275 -2.1447785 -0.48129374 0 12
1.5631257 -2.143131 -0.45576555 0 13
1.5647936 -2.1454177 -0.431146 0 14
1.5553393 -2.1324553 -0.40366134 0 15
1.5658656 -2.1468875 -0.38141552 0 16
1.5692642 -2.151547 -0.35727739 0 17
1.5637225 -2.1439493 -0.33119926 0 18
1.5711782 -2.1541712 -0.30790079 0 19
1.5660197 -2.1470985 -0.28214657 0 20
1.5657768 -2.1467657 -0.25741166 0 21
1.5637591 -2.1439991 -0.23246446 0 22
1.5542114 -2.130909 -0.20661935 0 23
1.5630223 -2.1429892 -0.18326181 0 24
1.5648398 -2.1454811 -0.1589487 0 25
1.5622034 -2.1418662 -0.13422297 0 26
1.5591565 -2.1376889 -0.10957368 0 27
1.5605469 -2.1395953 -0.085280716 0 28
1.5560174 -2.1333849 -0.060727712 0 29
1.5556073 -2.1328228 -0.036422916 0 30
1.5695156 -2.1518917 -0.01224883 0 31
1.5569273 -2.1346326 0.012150589 0 32
1.5735208 -2.157383 0.036842339 0 33
1.5645683 -2.1451087 0.061061434 0 34
1.5706596 -2.1534603 0.085833356 0 35
1.5613832 -2.1407421 0.10973017 0 36
1.560799 -2.1399407 0.13410231 0 37
1.5675758 -2.1492321 0.15922661 0 38
1.5586308 -2.1369681 0.18274692 0 39
1.5705364 -2.1532912 0.20878962 0 40
1.5571164 -2.1348917 0.23147698 0 41
1.5590084 -2.1374857 0.25629893 0 42
1.5607136 -2.1398239 0.2811906 0 43
1.5614637 -2.1408522 0.30599707 0 44
1.5568854 -2.1345751 0.32975113 0 45
1.5599791 -2.1388166 0.35516346 0 46
1.556784 -2.1344361 0.37920341 0 47
1.5592252 -2.1377831 0.40466985 0 48
1.5557927 -2.1330769 0.428666 0 49
1.5569947 -2.1347249 0.45397788 0 50
1.5562559 -2.1337121 0.47881037 0 51
1.5630141 -2.142978 0.5061304 0 52
1.5615499 -2.1409705 0.53096199 0 53
1.5540398 -2.1306736 0.55368543 0 54
1.5588086 -2.1372118 0.58083719 0 55
1.564231 -2.1446464 0.60850233 0 56
1.5620978 -2.1417215 0.63339037 0 57
1.5678009 -2.1495409 0.66162831 0 58
1.5591512 -2.1376815 0.68387866 0 59
1.5664269 -2.1476569 0.71321553 0 60
1.5652506 -2.1460443 0.73893511 0 61
1.5677832 -2.1495166 0.76656336 0 62
1.5668142 -2.1481881 0.79264617 0 63
1.4801873 -1.9778715 -0.73646241 0 0
1.531549 -2.0465026 -0.73648679 0 1
1.5855474 -2.1186569 -0.73616254 0 2
1.6371399 -2.1875966 -0.73310894 0 3
1.6415521 -2.1934919 -0.70813739 0 4
1.6281465 -2.1755791 -0.67575413 0 5
1.6401548 -2.1916251 -0.65406382 0 6
1.6350685 -2.1848285 -0.62556052 0 7
1.6348445 -2.1845291 -0.59911489 0 8
1.6347864 -2.1844516 -0.57284087 0 9
1.6318295 -2.1805005 -0.54570055 0 10
1.6392033 -2.1903534 -0.52204067 0 11
1.6340485 -2.1834655 -0.49444672 0 12
1.6314089 -2.1799386 -0.46782395 0 13
1.6274124 -2.1745982 -0.44099835 0 14
1.6371719 -2.187639 -0.41788647 0 15
1.6289012 -2.1765876 -0.39022103 0 16
1.6319741 -2.1806936 -0.36542207 0 17
1.6353239 -2.1851697 -0.3406477 0 18
1.6334586 -2.1826773 -0.31482235 0 19
1.6350697 -2.1848302 -0.28972495 0 20
1.6407411 -2.1924083 -0.26528361 0 21
1.6421397 -2.194277 -0.24008712 0 22
1.6355885 -2.1855235 -0.21384889 0 23
1.6367857 -2.1871231 -0.18874292 0 24
1.6243597 -2.1705191 -0.16227117 0 25
1.6302295 -2.1783624 -0.13775584 0 26
1.640421 -2.1919808 -0.11338194 0 27
1.6317508 -2.1803954 -0.087700054 0 28
1.6341555 -2.1836085 -0.062724598 0 29
1.63351 -2.1827459 -0.037615649 0 30
1.6278344 -2.1751621 -0.01249428 0 31
1.6338873 -2.18325 0.012540738 0 32
1.6280458 -2.1754446 0.03748982 0 33
1.6448084 -2.1978433 0.063133493 0 34
1.6366577 -2.1869521 0.08796379 0 35
1.6370108 -2.1874239 0.11314623 0 36
1.6335977 -2.1828632 0.13804047 0 37
1.6394616 -2.1906989 0.16377982 0 38
1.6374091 -2.1879561 0.1888148 0 39
1.633444 -2.1826577 0.21356849 0 40
1.6361749 -2.186307 0.23921505 0 41
1.6330827 -2.1821752 0.26404539 0 42
1.6360655 -2.1861608 0.28990141 0 43
1.6419021 -2.1939597 0.31644967 0 44
1.6425424 -2.1948154 0.34215137 0 45
1.6354307 -2.1853125 0.36619607 0 46
1.6333886 -2.1825838 0.39129603 0 47
1.6294878 -2.1773713 0.41592512 0 48
1.6295376 -2.177438 0.44157422 0 49
1.6321 -2.1808617 0.46802208 0 50
1.6307659 -2.1790793 0.49345344 0 51
1.6343422 -2.1838579 0.52049255 0 52
1.6355274 -2.1854417 0.54693717 0 53
1.6401649 -2.1916385 0.57472551 0 54
1.6347507 -2.1844039 0.59908056 0 55
1.6397127 -2.1910341 0.62733734 0 56
1.6338046 -2.1831396 0.6515314 0 57
1.6355006 -2.185406 0.67880636 0 58
1.6403531 -2.19189 0.7076202 0 59
1.6400551 -2.1914916 0.73441428 0 60
1.633814 -2.1831522 0.75857246 0 61
1.6275258 -2.1747499 0.78263986 0 62
1.6361455 -2.1862676 0.8140589 0 63
1.4964616 -1.9491897 -0.73257899 0 0
1.5475277 -2.0157049 -0.73219615 0 1
1.6055593 -2.0912929 -0.73345894 0 2
1.6779208 -2.1855459 -0.73928028 0 3
1.707222 -2.2237117 -0.72461587 0 4
1.708782 -2.2257438 -0.6978094 0 5
1.7076224 -2.2242334 -0.67001122 0 6
1.7094404 -2.2266014 -0.64349073 0 7
1.7073689 -2.2239029 -0.61562461 0 8
1.6988668 -2.2128289 -0.58571631 0 9
1.7069854 -2.2234035 -0.56164819 0 10
1.7136081 -2.2320299 -0.53695518 0 11
1.7025161 -2.2175822 -0.50687486 0 12
1.7098957 -2.2271943 -0.48244098 0 13
1.7074349 -2.223989 -0.45523795 0 14
1.7115026 -2.2292874 -0.42982984 0 15
1.7117008 -2.2295456 -0.40345836 0 16
1.705233 -2.2211211 -0.37568185 0 17
1.7105337 -2.2280254 -0.35058096 0 18
1.7050921 -2.2209375 -0.32334056 0 19
1.6989994 -2.2130017 -0.29620871 0 20
1.7037494 -2.2191887 -0.27103853 0 21
1.7005457 -2.2150156 -0.24462569 0 22
1.7114795 -2.2292573 -0.22017075 0 23
1.7009645 -2.2155612 -0.19298744 0 24
1.7102495 -2.2276552 -0.16810228 0 25
1.7090793 -2.226131 -0.1420949 0 26
1.7008058 -2.2153544 -0.11566401 0 27
1.7041869 -2.2197585 -0.090119384 0 28
1.7011752 -2.2158356 -0.064246356 0 29
1.7087855 -2.2257483 -0.038715892 0 30
1.7006133 -2.2151036 -0.012842854 0 31
1.7093095 -2.2264307 0.012908527 0 32
1.7032213 -2.2185009 0.038589824 0 33
1.7083964 -2.2252414 0.06451907 0 34
1.713486 -2.2318709 0.090611137 0 35
1.7140167 -2.2325621 0.11656242 0 36
1.7062094 -2.2223928 0.1418563 0 37
1.7117844 -2.2296543 0.16825314 0 38
1.7055238 -2.2214999 0.19350474 0 39
1.703634 -2.2190382 0.21916148 0 40
1.7055472 -2.2215304 0.24534516 0 41
1.711794 -2.2296669 0.2723183 0 42
1.7183391 -2.2381921 0.29958045 0 43
1.7078497 -2.2245295 0.32386351 0 44
1.7012179 -2.2158914 0.34867164 0 45
1.7115451 -2.2293429 0.37707248 0 46
1.7195481 -2.2397668 0.40530801 0 47
1.7072623 -2.2237642 0.42876494 0 48
1.7064096 -2.2226536 0.45496458 0 49
1.7179503 -2.2376859 0.48471358 0 50
1.7041494 -2.2197094 0.50736111 0 51
1.6955166 -2.2084651 0.53128624 0 52
1.6985917 -2.2124705 0.55888647 0 53
1.7122089 -2.2302074 0.59031618 0 54
1.7020859 -2.2170217 0.61371976 0 55
1.7118796 -2.2297785 0.64440894 0 56
1.7177665 -2.2374463 0.67399144 0 57
1.7099011 -2.2272015 0.69826645 0 58
1.6999421 -2.2142296 0.72152603 0 59
1.7031111 -2.2183571 0.75037897 0 60
1.7059575 -2.2220647 0.77932328 0 61
1.7129624 -2.2311888 0.81046981 0 62
1.7058098 -2.2218723 0.83506346 0 63
1.5307804 -1.9439327 -0.7376219 0 0
1.5790364 -2.0052125 -0.73538232 0 1
1.6349945 -2.0762737 -0.73518693 0 2
1.6978458 -2.1560884 -0.73632228 0 3
1.7654725 -2.2419674 -0.73758292 0 4
1.792221 -2.2759349 -0.72040009 0 5
1.7897636 -2.2728143 -0.69122261 0 6
1.7807404 -2.2613559 -0.65981323 0 7
1.7905405 -2.2738008 -0.63548428 0 8
1.7848871 -2.2666218 -0.60571837 0 9
1.7928238 -2.2767005 -0.58063632 0 10
1.7880031 -2.2705789 -0.55147624 0 11
1.7938738 -2.278034 -0.52569455 0 12
1.7914727 -2.2749848 -0.49752715 0 13
1.7884047 -2.2710888 -0.46934494 0 14
1.7967842 -2.2817299 -0.4441677 0 15
1.7897229 -2.2727628 -0.41523001 0 16
1.7824268 -2.2634976 -0.38652739 0 17
1.7994751 -2.285147 -0.36302334 0 18
1.7883229 -2.2709849 -0.33380309 0 19
1.7794845 -2.2597611 -0.30537316 0 20
1.7990344 -2.2845874 -0.28170648 0 21
1.7842971 -2.2658725 -0.2526463 0 22
1.7944679 -2.2787886 -0.22722477 0 23
1.7939821 -2.2781715 -0.20034751 0 24
1.7912091 -2.2746501 -0.17329755 0 25
1.7873912 -2.2698016 -0.14627427 0 26
1.7835282 -2.2648962 -0.11938659 0 27
1.7907082 -2.274014 -0.093209006 0 28
1.7927011 -2.2765448 -0.066640683 0 29
1.7848952 -2.2666321 -0.039805811 0 30
1.7968484 -2.2818115 -0.013356709 0 31
1.7869251 -2.2692099 0.013282944 0 32
1.7935674 -2.2776449 0.039999217 0 33
1.7909993 -2.2743838 0.06657742 0 34
1.7889385 -2.2717667 0.093116894 0 35
1.7875624 -2.2700191 0.11965663 0 36
1.7899923 -2.2731049 0.14648713 0 37
1.7906764 -2.2739735 0.17324601 0 38
1.7904791 -2.2737231 0.1999563 0 39
1.7943044 -2.2785809 0.22720405 0 40
1.7948481 -2.2792711 0.25414026 0 41
1.7869492 -2.2692404 0.27981409 0 42
1.7928932 -2.2767887 0.3076742 0 43
1.7943342 -2.2786186 0.33492514 0 44
1.8001168 -2.2859619 0.3631528 0 45
1.7880845 -2.2706821 0.38775426 0 46
1.7891647 -2.2720537 0.41510049 0 47
1.7868688 -2.2691383 0.44171661 0 48
1.7823317 -2.2633767 0.46775115 0 49
1.785229 -2.267056 0.49579316 0 50
1.7903054 -2.2735023 0.52464885 0 51
1.7928394 -2.2767203 0.55296791 0 52
1.7773125 -2.2570028 0.57561278 0 53
1.7867078 -2.2689338 0.60633624 0 54
1.7846577 -2.2663305 0.63339645 0 55
1.7869849 -2.2692859 0.66212696 0 56
1.7862167 -2.2683103 0.68985277 0 57
1.7886977 -2.2714608 0.71898389 0 58
1.7817348 -2.2626188 0.74437708 0 59
1.7857767 -2.2677515 0.7744562 0 60
1.7915798 -2.275121 0.80559665 0 61
1.7846706 -2.2663469 0.83114952 0 62
1.7811114 -2.261827 0.85824639 0 63
1.5324565 -1.897586 -0.72713107 0 0
1.5974524 -1.9780681 -0.73257595 0 1
1.6570257 -2.0518355 -0.73369294 0 2
1.7226503 -2.1330962 -0.73564869 0 3
1.7930423 -2.2202601 -0.73763931 0 4
1.8528875 -2.2943642 -0.73338985 0 5
1.8686513 -2.3138838 -0.71064734 0 6
1.8651071 -2.3094952 -0.68049943 0 7
1.8808732 -2.3290179 -0.65733057 0 8
1.8743167 -2.3208992 -0.62633485 0 9
1.8788817 -2.3265519 -0.59919703 0 10
1.8680369 -2.3131232 -0.5673455 0 11
1.8755118 -2.3223791 -0.54120898 0 12
1.8791858 -2.3269284 -0.51390159 0 13
1.8690214 -2.3143423 -0.48299679 0 14
1.8716544 -2.3176026 -0.45559645 0 15
1.8620998 -2.3057716 -0.42541176 0 16
1.8789715 -2.326663 -0.40122902 0 17
1.8719072 -2.3179157 -0.37185761 0 18
1.8683083 -2.3134594 -0.34339708 0 19
1.8664954 -2.3112144 -0.315404 0 20
1.8730801 -2.3193681 -0.28881341 0 21
1.8676198 -2.3126066 -0.26039812 0 22
1.8631678 -2.3070939 -0.23231408 0 23
1.8798486 -2.3277493 -0.20672469 0 24
1.8687323 -2.3139844 -0.17803152 0 25
1.8720901 -2.3181422 -0.15086159 0 26
1.8630824 -2.3069882 -0.12280364 0 27
1.8662975 -2.3109694 -0.095657177 0 28
1.8757849 -2.3227172 -0.068662271 0 29
1.8816266 -2.3299508 -0.041321002 0 30
1.8725021 -2.3186524 -0.013706102 0 31
1.8716599 -2.3176095 0.013699938 0 32
1.8643688 -2.3085811 0.040942013 0 33
1.8750621 -2.3218222 0.068635814 0 34
1.8721128 -2.3181701 0.09595523 0 35
1.8776482 -2.3250246 0.12376373 0 36
1.8719254 -2.3179381 0.15084833 0 37
1.8691839 -2.3145435 0.17807454 0 38
1.8720883 -2.3181398 0.2058713 0 39
1.8749994 -2.3217447 0.23378935 0 40
1.8729787 -2.3192425 0.26114532 0 41
1.862195 -2.3058894 0.287135 0 42
1.8644127 -2.3086355 0.31505206 0 43
1.875646 -2.3225453 0.34474576 0 44
1.871291 -2.3171527 0.37173519 0 45
1.8694187 -2.3148344 0.39918917 0 46
1.8668816 -2.3116927 0.42650419 0 47
1.872023 -2.318059 0.45568615 0 48
1.8624078 -2.3061531 0.48128769 0 49
1.8776401 -2.3250144 0.51347888 0 50
1.8825614 -2.3311086 0.54324329 0 51
1.8629438 -2.3068166 0.5657987 0 52
1.8690145 -2.3143337 0.59605026 0 53
1.880479 -2.3285298 0.62839413 0 54
1.8800011 -2.3279381 0.65702575 0 55
1.8703321 -2.3159652 0.68240583 0 56
1.8763292 -2.3233912 0.71356732 0 57
1.8814442 -2.329725 0.74469286 0 58
1.8709778 -2.3167646 0.76970112 0 59
1.8736296 -2.3200483 0.80012357 0 60
1.8685131 -2.3137128 0.82733476 0 61
1.8755225 -2.3223925 0.8600961 0 62
1.8617252 -2.3053076 0.88336486 0 63
1.5759455 -1.9030814 -0.73660678 0 0
1.6249222 -1.9622246 -0.73405266 0 1
1.6942539 -2.0459483 -0.73898154 0 2
1.7478691 -2.1106932 -0.73527914 0 3
1.8105476 -2.1863825 -0.73372525 0 4
1.8834467 -2.2744141 -0.73436022 0 5
1.9715612 -2.3808193 -0.73859465 0 6
1.9684653 -2.3770809 -0.70749235 0 7
1.9604089 -2.3673522 -0.67490238 0 8
1.9603959 -2.3673363 -0.64532334 0 9
1.9603708 -2.367306 -0.61585492 0 10
1.9657477 -2.3737991 -0.58811188 0 11
1.9618568 -2.3691006 -0.55767667 0 12
1.9635919 -2.3711958 -0.52897054 0 13
1.9709626 -2.3800967 -0.50173956 0 14
1.965446 -2.3734348 -0.47128734 0 15
1.9771507 -2.3875692 -0.4449552 0 16
1.9683106 -2.376894 -0.41403377 0 17
1.9660572 -2.3741727 -0.38473213 0 18
1.9581846 -2.364666 -0.35454524 0 19
1.971225 -2.3804135 -0.32813039 0 20
1.9635606 -2.3711579 -0.29824644 0 21
1.9658452 -2.3739169 -0.27000308 0 22
1.9644268 -2.3722038 -0.24128447 0 23
1.9675663 -2.3759952 -0.2131419 0 24
1.9657931 -2.3738539 -0.18448353 0 25
1.9727424 -2.3822458 -0.15660021 0 26
1.9707018 -2.3797815 -0.12795877 0 27
1.9601657 -2.3670585 -0.098969057 0 28
1.9710689 -2.3802249 -0.071073368 0 29
1.9589876 -2.3656359 -0.042377863 0 30
1.9604926 -2.3674531 -0.01413601 0 31
1.9636142 -2.3712227 0.014158518 0 32
1.961777 -2.3690042 0.042438205 0 33
1.9677207 -2.3761818 0.070952646 0 34
1.9677281 -2.3761907 0.099350892 0 35
1.9629333 -2.3704004 0.12745437 0 36
1.9617488 -2.3689702 0.15572751 0 37
1.9609725 -2.3680327 0.18403111 0 38
1.9635729 -2.3711727 0.21270929 0 39
1.9702686 -2.3792584 0.24200201 0 40
1.9638207 -2.3714721 0.26972499 0 41
1.9668561 -2.3751376 0.29874703 0 42
1.9656172 -2.3736415 0.3271969 0 43
1.9646716 -2.3724997 0.35571975 0 44
1.9733628 -2.3829949 0.38616174 0 45
1.9673374 -2.3757188 0.41382906 0 46
1.965835 -2.3739045 0.44240862 0 47
1.9761181 -2.3863223 0.47384638 0 48
1.9642309 -2.3719676 0.50002587 0 49
1.9628448 -2.3702936 0.52876925 0 50
1.9617413 -2.3689611 0.55764383 0 51
1.9645901 -2.3724012 0.58776551 0 52
1.9550979 -2.3609385 0.61419845 0 53
1.9680233 -2.3765471 0.64783412 0 54
1.9665271 -2.3747404 0.67700863 0 55
1.9632468 -2.370779 0.70561677 0 56
1.963197 -2.370719 0.73546118 0 57
1.964336 -2.3720944 0.76589918 0 58
1.9627869 -2.3702238 0.79542029 0 59
1.9674885 -2.3759012 0.82766676 0 60
1.9657704 -2.3738265 0.8574087 0 61
1.9675107 -2.3759282 0.88881588 0 62
1.96623 -2.3743815 0.91902822 0 63
1.5965583 -1.8804189 -0.73537821 0 0
1.6527437 -1.9465936 -0.73575228 0 1
1.701592 -2.0041268 -0.73137802 0 2
1.7779526 -2.094064 -0.73704648 0 3
1.8393165 -2.1663382 -0.73453313 0 4
1.9145083 -2.2548988 -0.7356047 0 5
1.9899267 -2.3437262 -0.73462272 0 6
2.0614331 -2.4279461 -0.73012072 0 7
2.0649986 -2.4321456 -0.70056021 0 8
2.0630121 -2.4298058 -0.66921675 0 9
2.0578823 -2.4237638 -0.63707733 0 10
2.0564604 -2.4220893 -0.60629493 0 11
2.0628073 -2.4295647 -0.57783687 0 12
2.0529184 -2.4179175 -0.54498345 0 13
2.0659306 -2.4332433 -0.51825929 0 14
2.063694 -2.430609 -0.48764229 0 15
2.0606279 -2.4269977 -0.45699087 0 16
2.0621204 -2.4287558 -0.42745224 0 17
2.0600364 -2.4263012 -0.39725435 0 18
2.0516963 -2.4164782 -0.36606863 0 19
2.0631678 -2.4299891 -0.33843574 0 20
2.0657439 -2.4330232 -0.30919957 0 21
2.0571716 -2.4229267 -0.27843338 0 22
2.0622816 -2.4289455 -0.24961631 0 23
2.0525689 -2.4175057 -0.21911323 0 24
2.05497 -2.4203339 -0.19004509 0 25
2.0595827 -2.4257667 -0.16111374 0 26
2.0659413 -2.4332559 -0.13218999 0 27
2.060488 -2.4268329 -0.1025199 0 28
2.06513 -2.4323003 -0.073381051 0 29
2.06739 -2.434962 -0.044071842 0 30
2.0644124 -2.4314551 -0.014668628 0 31
2.0622201 -2.4288731 0.014653051 0 32
2.0705748 -2.4387131 0.044139732 0 33
2.0597365 -2.4259477 0.0731894 0 34
2.0646026 -2.431679 0.10272462 0 35
2.0710034 -2.439218 0.13251388 0 36
2.0600376 -2.4263024 0.16114932 0 37
2.0660763 -2.4334147 0.1910722 0 38
2.0544567 -2.4197292 0.21931475 0 39
2.0528264 -2.417809 0.24847184 0 40
2.0700181 -2.4380574 0.28017211 0 41
2.0592992 -2.4254327 0.30823493 0 42
2.064388 -2.4314263 0.33863589 0 43
2.0600333 -2.4262974 0.36755612 0 44
2.0675545 -2.4351559 0.39870411 0 45
2.057018 -2.4227459 0.42639455 0 46
2.0712578 -2.4395177 0.45934829 0 47
2.0609088 -2.4273286 0.48698416 0 48
2.0616059 -2.4281497 0.51717436 0 49
2.0561419 -2.4217141 0.54583919 0 50
2.0550232 -2.4203963 0.57565635 0 51
2.0576174 -2.4234519 0.60663605 0 52
2.0666754 -2.4341204 0.63979948 0 53
2.0615196 -2.4280479 0.66873258 0 54
2.0536735 -2.4188068 0.6967181 0 55
2.0532339 -2.4182889 0.72721666 0 56
2.0553908 -2.4208293 0.75879014 0 57
2.0591702 -2.4252808 0.79118758 0 58
2.0582972 -2.4242525 0.82198322 0 59
2.0666132 -2.434047 0.85671014 0 60
2.0629056 -2.4296803 0.8866778 0 61
2.0572612 -2.4230325 0.91583145 0 62
2.0558999 -2.4214292 0.94695187 0 63
1.6200316 -1.8611896 -0.73559296 0 0
1.6818194 -1.9321753 -0.73806334 0 1
1.7333182 -1.9913402 -0.73443431 0 2
1.7914698 -2.0581484 -0.73210335 0 3
1.8731829 -2.1520252 -0.73743421 0 4
1.9327409 -2.220449 -0.73206395 0 5
2.020776 -2.321589 -0.73541701 0 6
2.1105323 -2.4247065 -0.73689497 0 7
2.1561482 -2.4771128 -0.72109503 0 8
2.1665661 -2.4890816 -0.69282758 0 9
2.1543851 -2.4750872 -0.6574809 0 10
2.1580255 -2.4792693 -0.62720323 0 11
2.1636875 -2.4857743 -0.59748816 0 12
2.1672125 -2.4898241 -0.56715441 0 13
2.1743948 -2.4980757 -0.53772217 0 14
2.1613247 -2.4830596 -0.50345916 0 15
2.1714542 -2.4946971 -0.4747301 0 16
2.1648207 -2.487076 -0.44236794 0 17
2.1608858 -2.4825556 -0.41078421 0 18
2.1665854 -2.4891038 -0.38107762 0 19
2.1699605 -2.4929812 -0.35089862 0 20
2.1653028 -2.4876301 -0.31949878 0 21
2.1601529 -2.4817135 -0.28821954 0 22
2.1708689 -2.4940248 -0.25902802 0 23
2.1772361 -2.5013397 -0.22912082 0 24
2.1690671 -2.4919548 -0.19774811 0 25
2.1625335 -2.4844487 -0.1667648 0 26
2.1645992 -2.4868219 -0.1365357 0 27
2.157315 -2.4784532 -0.10581319 0 28
2.1610529 -2.4827476 -0.075698994 0 29
2.1639013 -2.4860201 -0.045474131 0 30
2.1654718 -2.4878242 -0.015168189 0 31
2.171797 -2.495091 0.015212494 0 32
2.1643767 -2.4865661 0.045484122 0 33
2.1606085 -2.4822369 0.075683422 0 34
2.1723125 -2.4956832 0.10654879 0 35
2.1656907 -2.4880755 0.13660455 0 36
2.1547117 -2.4754624 0.16616161 0 37
2.1563401 -2.4773331 0.19658782 0 38
2.1594732 -2.4809325 0.22725153 0 39
2.1666608 -2.4891903 0.25852591 0 40
2.161639 -2.4834206 0.28841785 0 41
2.1638858 -2.4860022 0.31928971 0 42
2.1698587 -2.4928641 0.35088214 0 43
2.1615102 -2.483273 0.38018495 0 44
2.1647277 -2.4869692 0.41151452 0 45
2.1682408 -2.4910054 0.44306684 0 46
2.1635749 -2.4856451 0.47300753 0 47
2.1645637 -2.4867809 0.50421369 0 48
2.1610236 -2.4827137 0.53441548 0 49
2.1674669 -2.4901161 0.56722093 0 50
2.160717 -2.4823618 0.59666795 0 51
2.1645107 -2.4867201 0.6290881 0 52
2.1620171 -2.483855 0.65981001 0 53
2.1570864 -2.4781904 0.68979609 0 54
2.1621201 -2.4839737 0.72309226 0 55
2.1643848 -2.4865756 0.75569767 0 56
2.1641736 -2.4863329 0.78760338 0 57
2.1679056 -2.4906204 0.82113731 0 58
2.1649773 -2.4872561 0.85230774 0 59
2.1559694 -2.4769073 0.88106 0 60
2.1649187 -2.4871888 0.9173103 0 61
2.1572344 -2.4783607 0.94669831 0 62
2.161288 -2.4830177 0.98135638 0 63
1.6327378 -1.8298601 -0.73109037 0 0
1.6995642 -1.9047546 -0.73551643 0 1
1.7530681 -1.9647181 -0.73251069 0 2
1.817569 -2.0370061 -0.73247755 0 3
1.8925409 -2.1210296 -0.73473185 0 4
1.9628768 -2.1998572 -0.73317724 0 5
2.0434144 -2.290118 -0.73335189 0 6
2.1319215 -2.3893111 -0.73404944 0 7
2.2258737 -2.494606 -0.73409945 0 8
2.2778611 -2.55287 -0.71832496 0 9
2.2730703 -2.5475008 -0.68408996 0 10
2.2766504 -2.551513 -0.65251213 0 11
2.2777116 -2.5527024 -0.62026036 0 12
2.2816415 -2.5571065 -0.58882695 0 13
2.2846863 -2.5605192 -0.5571686 0 14
2.2702694 -2.5443618 -0.52150941 0 15
2.2755423 -2.550271 -0.49059319 0 16
2.2815907 -2.55705 -0.45976934 0 17
2.2804344 -2.5557539 -0.42750382 0 18
2.2824154 -2.5579741 -0.39588842 0 19
2.2697778 -2.5438106 -0.36195424 0 20
2.2746136 -2.5492303 -0.33097768 0 21
2.2793384 -2.5545256 -0.29990816 0 22
2.2714205 -2.5456517 -0.26727059 0 23
2.2815728 -2.55703 -0.23677394 0 24
2.2783341 -2.5534 -0.20483175 0 25
2.2788038 -2.5539265 -0.17329617 0 26
2.27755 -2.5525212 -0.14166977 0 27
2.2762849 -2.5511036 -0.11010154 0 28
2.279726 -2.55496 -0.078749515 0 29
2.2742314 -2.5488021 -0.04713051 0 30
2.2802737 -2.5555737 -0.015751019 0 31
2.2757812 -2.550539 0.015719989 0 32
2.2730978 -2.5475316 0.047107015 0 33
2.2729697 -2.5473878 0.078516126 0 34
2.2735412 -2.5480287 0.10996883 0 35
2.2673671 -2.5411091 0.14103638 0 36
2.2863052 -2.5623336 0.17386663 0 37
2.2687385 -2.5426459 0.20396906 0 38
2.2820244 -2.5575356 0.23682079 0 39
2.2753088 -2.5500095 0.26772815 0 40
2.2885222 -2.5648184 0.30111656 0 41
2.2829208 -2.5585403 0.33218646 0 42
2.2667925 -2.5404649 0.36147818 0 43
2.2703552 -2.5444579 0.39379656 0 44
2.281317 -2.5567429 0.42766926 0 45
2.2669559 -2.540648 0.45682019 0 46
2.2864006 -2.5624404 0.4929342 0 47
2.2780223 -2.5530505 0.52329034 0 48
2.2798772 -2.5551293 0.55599576 0 49
2.2741084 -2.5486643 0.58688295 0 50
2.2822571 -2.5577967 0.62149817 0 51
2.2739568 -2.5484941 0.65174013 0 52
2.2778358 -2.5528417 0.68552417 0 53
2.2734196 -2.5478921 0.71692431 0 54
2.2700229 -2.5440853 0.74865997 0 55
2.2787943 -2.5539157 0.78461975 0 56
2.2808645 -2.5562358 0.8185693 0 57
2.281266 -2.5566859 0.85210252 0 58
2.2738495 -2.5483739 0.88276541 0 59
2.2769125 -2.5518067 0.91759223 0 60
2.2722814 -2.5466166 0.94946134 0 61
2.2758265 -2.5505898 0.98490411 0 62
2.2713306 -2.5455511 1.0170329 0 63
1.6632628 -1.8185565 -0.73469007 0 0
1.7249582 -1.8860123 -0.73641402 0 1
1.7832657 -1.9497639 -0.73505515 0 2
1.8489525 -2.0215838 -0.73505163 0 3
1.9154317 -2.0942698 -0.73356557 0 4
1.9913416 -2.1772671 -0.73375374 0 5
2.0818946 -2.2762747 -0.7370609 0 6
2.1551137 -2.3563302 -0.73200315 0 7
2.2647293 -2.4761801 -0.73681653 0 8
2.354461 -2.5742898 -0.73244303 0 9
2.4008698 -2.6250317 -0.71278346 0 10
2.4048808 -2.6294169 -0.67994606 0 11
2.3966222 -2.6203876 -0.64381862 0 12
2.4021826 -2.626467 -0.61155427 0 13
2.4001958 -2.6242948 -0.57742476 0 14
2.3894799 -2.6125782 -0.54147297 0 15
2.4022241 -2.6265125 -0.51090342 0 16
2.4041224 -2.628588 -0.4779115 0 17
2.3976271 -2.6214864 -0.44339699 0 18
2.3950849 -2.6187067 -0.40981486 0 19
2.3980911 -2.6219935 -0.37724602 0 20
2.398195 -2.6221073 -0.3442423 0 21
2.3978989 -2.6217835 -0.31124261 0 22
2.3999889 -2.6240685 -0.27858105 0 23
2.3994668 -2.6234977 -0.24564219 0 24
2.3930197 -2.6164486 -0.21223392 0 25
2.3946631 -2.6182454 -0.17964499 0 26
2.4017811 -2.6260283 -0.14737757 0 27
2.3896897 -2.6128078 -0.11402418 0 28
2.4087434 -2.6336405 -0.08208134 0 29
2.3900096 -2.6131575 -0.048860263 0 30
2.392616 -2.6160073 -0.016303595 0 31
2.3870232 -2.6098924 0.016265485 0 32
2.398535 -2.6224787 0.049034547 0 33
2.390322 -2.6134989 0.081453599 0 34
2.3955734 -2.6192408 0.11430492 0 35
2.4000747 -2.6241624 0.14727284 0 36
2.3945699 -2.6181436 0.179638 0 37
2.3861477 -2.6089351 0.21162444 0 38
2.3951452 -2.6187725 0.24519977 0 39
2.4040663 -2.6285267 0.27905434 0 40
2.4007909 -2.6249454 0.31161797 0 41
2.3942938 -2.6178417 0.34368232 0 42
2.3986869 -2.6226449 0.37733975 0 43
2.393837 -2.6173422 0.40960133 0 44
2.3893549 -2.6124418 0.44186717 0 45
2.3916249 -2.6149237 0.47542715 0 46
2.4090543 -2.6339803 0.51235604 0 47
2.4013186 -2.6255224 0.54415572 0 48
2.3861775 -2.6089678 0.57405233 0 49
2.38889 -2.6119335 0.60817021 0 50
2.4024658 -2.6267767 0.64538842 0 51
2.4001188 -2.6242106 0.67859972 0 52
2.3917825 -2.6150959 0.71008551 0 53
2.3900476 -2.613199 0.74351358 0 54
2.3933072 -2.6167631 0.77864856 0 55
2.3904991 -2.6136928 0.8119539 0 56
2.3938668 -2.6173749 0.84750962 0 57
2.3967597 -2.6205378 0.88313901 0 58
2.3919988 -2.6153324 0.91607958 0 59
2.3926499 -2.6160443 0.95119864 0 60
2.3904989 -2.6136925 0.98535424 0 61
2.4047956 -2.6293242 1.0266482 0 62
2.3986549 -2.6226101 1.0595247 0 63
1.6808033 -1.7929614 -0.73264402 0 0
1.7428672 -1.8591666 -0.73424429 0 1
1.809635 -1.9303898 -0.73608452 0 2
1.8649181 -1.9893618 -0.73161852 0 3
1.9457383 -2.0755751 -0.73534226 0 4
2.0208352 -2.155683 -0.73479861 0 5
2.0983202 -2.2383385 -0.73307639 0 6
2.1919148 -2.3381786 -0.73468179 0 7
2.290581 -2.4434288 -0.7353965 0 8
2.401747 -2.5620127 -0.737297 0 9
2.4971325 -2.663763 -0.73158264 0 10
2.5221062 -2.6904035 -0.70368314 0 11
2.520606 -2.6888032 -0.6681928 0 12
2.5264213 -2.6950064 -0.63469869 0 13
2.5275986 -2.6962621 -0.60005307 0 14
2.5199699 -2.6881244 -0.56351 0 15
2.5310981 -2.6999953 -0.53121108 0 16
2.5247214 -2.693193 -0.4952645 0 17
2.530071 -2.6988997 -0.46171784 0 18
2.5203085 -2.6884856 -0.42555267 0 19
2.5196123 -2.6877432 -0.39113402 0 20
2.5256808 -2.6942165 -0.35775939 0 21
2.529393 -2.6981764 -0.32397932 0 22
2.5236657 -2.6920669 -0.28907263 0 23
2.5274363 -2.696089 -0.25532967 0 24
2.5231788 -2.6915476 -0.2208256 0 25
2.5308635 -2.6997449 -0.18735801 0 26
2.5222998 -2.6906097 -0.15273109 0 27
2.5290914 -2.6978548 -0.11908383 0 28
2.5210552 -2.6892822 -0.084775254 0 29
2.5346076 -2.7037389 -0.051132817 0 30
2.5383484 -2.7077293 -0.017068464 0 31
2.5379825 -2.707339 0.017066004 0 32
2.5304849 -2.6993411 0.051049642 0 33
2.5278084 -2.696486 0.08500234 0 34
2.524014 -2.6924384 0.11884475 0 35
2.5218446 -2.6901243 0.15270354 0 36
2.5279069 -2.6965911 0.18713912 0 37
2.516515 -2.6844389 0.22024238 0 38
2.5297961 -2.6986063 0.25556806 0 39
2.5309978 -2.6998882 0.28991249 0 40
2.5199945 -2.6881506 0.32277551 0 41
2.5219474 -2.6902337 0.35723054 0 42
2.5285819 -2.6973112 0.39252639 0 43
2.5238485 -2.6922619 0.42615041 0 44
2.5319629 -2.7009177 0.46206307 0 45
2.5195472 -2.6876736 0.49424952 0 46
2.5150549 -2.6828816 0.52784401 0 47
2.5261571 -2.6947246 0.56489354 0 48
2.5210593 -2.6892865 0.59850061 0 49
2.5310018 -2.6998925 0.63584942 0 50
2.529629 -2.6984282 0.67058468 0 51
2.5236146 -2.6920125 0.70410401 0 52
2.5243638 -2.6928117 0.7395606 0 53
2.5264022 -2.6949861 0.77556413 0 54
2.5348077 -2.7039523 0.813806 0 55
2.5269916 -2.6956148 0.84699219 0 56
2.5321527 -2.7011201 0.88464159 0 57
2.5239975 -2.692421 0.91775417 0 58
2.5258658 -2.6944137 0.95458663 0 59
2.5250578 -2.6935518 0.99059522 0 60
2.5309775 -2.6998665 1.0294968 0 61
2.5227506 -2.6910908 1.0627978 0 62
2.5283535 -2.6970673 1.102082 0 63
1.7187877 -1.7888806 -0.73955691 0 0
1.7707834 -1.8429967 -0.73640203 0 1
1.8327912 -1.9075333 -0.73590696 0 2
1.8974257 -1.9748034 -0.73478949 0 3
1.9717021 -2.052109 -0.73556256 0 4
2.0464582 -2.1299136 -0.73453677 0 5
