# .PCD v0.7 - Point Cloud Data file format
VERSION 0.7
FIELDS x y z intensity ring
SIZE 4 4 4 4 2
TYPE F F F F U
COUNT 1 1 1 1 1
WIDTH 1204
HEIGHT 1
VIEWPOINT 0 0 0 1 0 0 0
POINTS 1204
DATA ascii
-0.24928747 -1.2711214 0.11347195 0 41
-0.24747063 -1.2618574 0.12457283 0 42
-0.24676046 -1.2582362 0.1361302 0 43
-0.25191972 -1.2845433 0.15116416 0 44
-0.24889727 -1.2691318 0.16141769 0 45
-0.24903183 -1.2698179 0.17360638 0 46
-0.24883899 -1.2688347 0.18559387 0 47
-0.2481662 -1.2654041 0.1972132 0 48
-0.24867243 -1.2679853 0.20979553 0 49
-0.25212753 -1.2856029 0.22509672 0 50
-0.24833415 -1.2662605 0.23394853 0 51
-0.24695453 -1.2592258 0.24485999 0 52
-0.24577682 -1.2532206 0.25588793 0 53
-0.24863559 -1.2677976 0.27124739 0 54
-0.24600154 -1.2543665 0.28067312 0 55
-0.24745998 -1.261803 0.29475939 0 56
-0.24780905 -1.2635829 0.30766755 0 57
-0.24767944 -1.2629222 0.3200475 0 58
-0.25022569 -1.2759055 0.33606562 0 59
-0.2481049 -1.2650915 0.34589744 0 60
-0.2471187 -1.2600628 0.35721475 0 61
-0.24937746 -1.2715803 0.37335378 0 62
-0.25017136 -1.2756286 0.38752598 0 63
-0.23335148 -1.2725199 -0.38568074 0 0
-0.23263718 -1.2686247 -0.37161794 0 1
-0.23598307 -1.2868706 -0.36396432 0 2
-0.23089206 -1.2591081 -0.34345922 0 3
-0.23310082 -1.271153 -0.33403361 0 4
-0.23423494 -1.2773376 -0.32294634 0 5
-0.23231055 -1.2668434 -0.30774266 0 6
-0.23338671 -1.272712 -0.29661492 0 7
-0.23350713 -1.2733686 -0.28426099 0 8
-0.23136209 -1.2616712 -0.26930761 0 9
-0.23306566 -1.2709613 -0.25890556 0 10
-0.23242298 -1.2674565 -0.24588616 0 11
-0.23250711 -1.2679154 -0.23370838 0 12
-0.23164293 -1.2632028 -0.22065926 0 13
-0.23471865 -1.2799754 -0.21128584 0 14
-0.23389879 -1.2755045 -0.1983241 0 15
-0.23197569 -1.2650174 -0.18460432 0 16
-0.23326445 -1.2720453 -0.17350562 0 17
-0.23120448 -1.2608118 -0.1599858 0 18
-0.23112059 -1.2603543 -0.14797199 0 19
-0.23123462 -1.2609762 -0.13610873 0 20
-0.23307602 -1.2710177 -0.12518474 0 21
-0.23211637 -1.2657845 -0.11273221 0 22
-0.23000592 -1.2542758 -0.099897683 0 23
-0.23381974 -1.2750734 -0.089566067 0 24
-0.23345636 -1.2730918 -0.077472635 0 25
-0.22972615 -1.25275 -0.064484484 0 26
-0.23416255 -1.2769428 -0.05376374 0 27
-0.23274939 -1.2692366 -0.041554499 0 28
-0.23362647 -1.2740195 -0.029788595 0 29
-0.23287858 -1.2699411 -0.017813932 0 30
-0.23233476 -1.2669755 -0.0059237764 0 31
-0.23262557 -1.2685614 0.0059311916 0 32
-0.23182879 -1.2642163 0.017733628 0 33
-0.23520006 -1.2826006 0.029989237 0 34
-0.23246355 -1.2676778 0.041503467 0 35
-0.23369797 -1.2744093 0.05365707 0 36
-0.23082255 -1.258729 0.064792246 0 37
-0.23082992 -1.2587692 0.076601051 0 38
-0.23464832 -1.2795918 0.089883454 0 39
-0.23196445 -1.2649561 0.10074833 0 40
-0.23132074 -1.2614458 0.11234579 0 41
-0.23212054 -1.2658073 0.12467156 0 42
-0.23157899 -1.2628541 0.13631143 0 43
-0.23181833 -1.2641593 0.14841871 0 44
-0.23335408 -1.272534 0.16147324 0 45
-0.2314344 -1.2620656 0.17214441 0 46
-0.23416217 -1.2769407 0.1863443 0 47
-0.23150915 -1.2624732 0.19629791 0 48
-0.2313624 -1.261673 0.20826466 0 49
-0.23356116 -1.2736633 0.22248651 0 50
-0.23239462 -1.2673019 0.23359531 0 51
-0.23418862 -1.2770849 0.24775408 0 52
-0.23178875 -1.2639979 0.25748706 0 53
-0.23346622 -1.2731456 0.27175686 0 54
-0.23229961 -1.2667838 0.28279102 0 55
-0.23439769 -1.2782251 0.29789978 0 56
-0.23253411 -1.2680626 0.30803877 0 57
-0.23155957 -1.2627482 0.31925774 0 58
-0.23152107 -1.2625382 0.33176982 0 59
-0.22844157 -1.2457449 0.33981404 0 60
-0.23142596 -1.2620195 0.35693571 0 61
-0.23514402 -1.282295 0.37562239 0 62
-0.23116283 -1.2605846 0.38206336 0 63
-0.21543421 -1.2620921 -0.38168851 0 0
-0.21508029 -1.2600187 -0.36829445 0 1
-0.21713161 -1.2720362 -0.35898644 0 2
-0.21577968 -1.264116 -0.3440755 0 3
-0.21620475 -1.2666062 -0.33211508 0 4
-0.21570894 -1.2637017 -0.31880409 0 5
-0.21809553 -1.2776831 -0.30970094 0 6
-0.21666005 -1.2692735 -0.29517034 0 7
-0.2167152 -1.2695967 -0.2828027 0 8
-0.21635878 -1.2675086 -0.26996535 0 9
-0.21710201 -1.2718627 -0.25852582 0 10
-0.21415432 -1.2545941 -0.24286161 0 11
-0.21785484 -1.2762731 -0.23473741 0 12
-0.21423547 -1.2550695 -0.2187618 0 13
-0.21676295 -1.2698764 -0.20916301 0 14
-0.21615469 -1.2663131 -0.19646682 0 15
-0.218474 -1.2799003 -0.18637007 0 16
-0.21677083 -1.2699225 -0.17283943 0 17
-0.21574041 -1.263886 -0.16002718 0 18
-0.21720836 -1.2724857 -0.14907143 0 19
-0.2166483 -1.2692047 -0.13669902 0 20
-0.2151334 -1.2603298 -0.12386218 0 21
-0.21559717 -1.2630469 -0.11224379 0 22
-0.21664022 -1.2691574 -0.10086315 0 23
-0.21686342 -1.270465 -0.089048304 0 24
-0.21769606 -1.2753428 -0.077440865 0 25
-0.21363844 -1.2515719 -0.064283751 0 26
-0.21554156 -1.2627209 -0.053049348 0 27
-0.21492687 -1.25912 -0.04113365 0 28
-0.21578996 -1.2641762 -0.029494174 0 29
-0.21601911 -1.2655187 -0.017713297 0 30
-0.21639389 -1.2677143 -0.0059143431 0 31
-0.21740058 -1.2736119 0.0059418571 0 32
-0.21525292 -1.2610301 0.017650472 0 33
-0.21795763 -1.2768753 0.029790452 0 34
-0.21518251 -1.2606176 0.041182578 0 35
-0.21704499 -1.2715287 0.053419378 0 36
-0.21619323 -1.2665387 0.065052487 0 37
-0.21827544 -1.2787371 0.077646971 0 38
-0.21642308 -1.2678853 0.088867486 0 39
-0.21790923 -1.2765918 0.10145398 0 40
-0.21622591 -1.2667302 0.11257113 0 41
-0.21813501 -1.2779144 0.12559034 0 42
-0.21761572 -1.2748723 0.13730945 0 43
-0.21555109 -1.262777 0.14793405 0 44
-0.21859817 -1.2806278 0.16214694 0 45
-0.21626312 -1.2669481 0.17243463 0 46
-0.216876 -1.2705387 0.18500689 0 47
-0.21639417 -1.2677159 0.19668448 0 48
-0.21514134 -1.2603763 0.20759825 0 49
-0.21731497 -1.2731104 0.22190636 0 50
-0.21645744 -1.2680866 0.23323171 0 51
-0.2167215 -1.2696337 0.24577294 0 52
-0.21669649 -1.269487 0.25804293 0 53
-0.21576104 -1.2640069 0.26921949 0 54
-0.21698752 -1.271192 0.28315806 0 55
-0.21436974 -1.255856 0.29205009 0 56
-0.21606895 -1.2658107 0.30682316 0 57
-0.21785372 -1.2762666 0.32197392 0 58
-0.21736054 -1.2733773 0.33389053 0 59
-0.2181589 -1.2780545 0.34786934 0 60
-0.21436062 -1.2558028 0.35440513 0 61
-0.21728529 -1.2729365 0.37207022 0 62
-0.21500942 -1.2596036 0.38093591 0 63
-0.19831999 -1.254651 -0.37867197 0 0
-0.20037423 -1.267647 -0.36977601 0 1
-0.2021531 -1.2789009 -0.36019498 0 2
-0.20106682 -1.2720286 -0.34553009 0 3
-0.19984083 -1.2642725 -0.33083379 0 4
-0.1991431 -1.2598584 -0.31719273 0 5
-0.200573 -1.2689044 -0.30695203 0 6
-0.20075442 -1.2700522 -0.29475507 0 7
-0.20145932 -1.2745117 -0.2833243 0 8
-0.20044355 -1.2680855 -0.26954287 0 9
-0.20015468 -1.266258 -0.25686687 0 10
-0.20085196 -1.2706693 -0.24547677 0 11
-0.19922321 -1.2603651 -0.23134349 0 12
-0.19999075 -1.2652209 -0.22008593 0 13
-0.20131671 -1.2736095 -0.20935433 0 14
-0.19775228 -1.2510595 -0.19370835 0 15
-0.20225273 -1.2795311 -0.1859401 0 16
-0.20105442 -1.2719501 -0.17276585 0 17
-0.20037864 -1.2676748 -0.1601828 0 18
-0.20064968 -1.2693895 -0.14840846 0 19
-0.19747053 -1.249277 -0.13428104 0 20
-0.20239712 -1.2804445 -0.12558492 0 21
-0.2017767 -1.2765195 -0.11321203 0 22
-0.19873701 -1.2572893 -0.099718213 0 23
-0.2008768 -1.2708263 -0.088893779 0 24
-0.20126183 -1.2732623 -0.077158421 0 25
-0.20112918 -1.272423 -0.065222755 0 26
-0.20141496 -1.274231 -0.053424817 0 27
-0.2003116 -1.2672508 -0.041315682 0 28
-0.20122141 -1.2730066 -0.029640224 0 29
-0.20170936 -1.2760935 -0.017825248 0 30
-0.20199481 -1.2778994 -0.0059498223 0 31
-0.20048639 -1.2683566 0.0059053912 0 32
-0.20122375 -1.2730213 0.017782334 0 33
-0.20093563 -1.2711986 0.029598126 0 34
-0.20037797 -1.2676706 0.041329373 0 35
-0.20285916 -1.2833676 0.053807888 0 36
-0.20100927 -1.2716645 0.06518387 0 37
-0.20095202 -1.2713023 0.077039652 0 38
-0.20225096 -1.2795199 0.089501888 0 39
-0.20374604 -1.2889783 0.10223154 0 40
-0.20055667 -1.2688011 0.1125275 0 41
-0.20195058 -1.2776196 0.12530784 0 42
-0.20079443 -1.2703053 0.13654131 0 43
-0.2011261 -1.2724036 0.14876084 0 44
-0.20115396 -1.2725799 0.1608026 0 45
-0.19986978 -1.2644556 0.17174789 0 46
-0.20046526 -1.2682228 0.1842968 0 47
-0.20071457 -1.2698002 0.19661006 0 48
-0.19951877 -1.2622349 0.2074846 0 49
-0.20176801 -1.2764646 0.22204177 0 50
-0.2004866 -1.2683579 0.23281059 0 51
-0.2013163 -1.2736068 0.24604426 0 52
-0.20194045 -1.2775555 0.25915864 0 53
-0.20075959 -1.2700849 0.26996785 0 54
-0.20041001 -1.2678733 0.28184858 0 55
-0.19984429 -1.2642943 0.29341877 0 56
-0.20129019 -1.2734417 0.30804959 0 57
-0.19946454 -1.2618918 0.31770474 0 58
-0.20175008 -1.2763511 0.33399454 0 59
-0.19855081 -1.2561111 0.34120634 0 60
-0.20303088 -1.284454 0.36175901 0 61
-0.20103714 -1.2718407 0.37099934 0 62
-0.19938511 -1.2613894 0.38070571 0 63
-0.18554671 -1.2753351 -0.38419709 0 0
-0.18458171 -1.2687023 -0.36939383 0 1
-0.18753868 -1.2890266 -0.36236998 0 2
-0.18693995 -1.2849114 -0.34837881 0 3
-0.1844281 -1.2676464 -0.33109823 0 4
-0.18212108 -1.2517895 -0.31457365 0 5
-0.1860933 -1.2790921 -0.30883956 0 6
-0.18602295 -1.2786084 -0.29618755 0 7
-0.18417422 -1.2659014 -0.28088555 0 8
-0.18511494 -1.2723674 -0.26994875 0 9
-0.18286975 -1.2569352 -0.25450033 0 10
-0.18478885 -1.270126 -0.24491434 0 11
-0.18692151 -1.2847846 -0.23538606 0 12
-0.18663466 -1.282813 -0.22273003 0 13
-0.18315727 -1.2589115 -0.20655246 0 14
-0.18541528 -1.2744317 -0.19695929 0 15
-0.18403333 -1.264933 -0.183476 0 16
-0.18345699 -1.2609715 -0.17095535 0 17
-0.18436831 -1.2672355 -0.15982874 0 18
-0.18386823 -1.2637982 -0.14747928 0 19
-0.18484859 -1.2705367 -0.13631156 0 20
-0.18243042 -1.2539155 -0.12275367 0 21
-0.18473223 -1.2697368 -0.11240052 0 22
-0.18508489 -1.2721609 -0.10070959 0 23
-0.18437836 -1.2673045 -0.088482149 0 24
-0.18686281 -1.2843812 -0.0776871 0 25
-0.1858601 -1.2774891 -0.065360345 0 26
-0.18399967 -1.2647016 -0.052926414 0 27
-0.18320762 -1.2592576 -0.040978536 0 28
-0.18486227 -1.2706307 -0.029529745 0 29
-0.18736999 -1.2878672 -0.017956169 0 30
-0.18319389 -1.2591633 -0.0058516576 0 31
-0.18444133 -1.2677374 0.0058915033 0 32
-0.18325883 -1.2596096 0.017562184 0 33
-0.18589799 -1.2777495 0.029695189 0 34
-0.18451613 -1.2682515 0.041271217 0 35
-0.1857115 -1.2764677 0.053418811 0 36
-0.18216656 -1.252102 0.064061463 0 37
-0.18318376 -1.2590935 0.076157555 0 38
-0.18529862 -1.2736298 0.088923775 0 39
-0.18603602 -1.2786983 0.10122712 0 40
-0.18464535 -1.2691398 0.11234767 0 41
-0.18205981 -1.2513682 0.1225043 0 42
-0.18520589 -1.2729925 0.13657503 0 43
-0.18560793 -1.2757558 0.14887467 0 44
-0.18539873 -1.274318 0.16072202 0 45
-0.18231083 -1.2530937 0.16988729 0 46
-0.18519522 -1.2729191 0.18463437 0 47
-0.18469273 -1.2694653 0.19619174 0 48
-0.18276821 -1.2562374 0.20611371 0 49
-0.18541718 -1.2744447 0.22127709 0 50
-0.18266584 -1.2555337 0.23002699 0 51
-0.18615761 -1.2795341 0.24672845 0 52
-0.18438588 -1.2673562 0.25661033 0 53
-0.18396267 -1.2644473 0.26826844 0 54
-0.18555248 -1.2753747 0.28298753 0 55
-0.18443422 -1.2676884 0.29365796 0 56
-0.18371122 -1.262719 0.30488625 0 57
-0.18398379 -1.2645924 0.31779101 0 58
-0.18572366 -1.2765514 0.33342412 0 59
-0.18578966 -1.277005 0.34623513 0 60
-0.18488364 -1.2707776 0.35723981 0 61
-0.18551289 -1.2751026 0.37125733 0 62
-0.18398601 -1.2646078 0.38096544 0 63
-0.16910163 -1.271878 -0.38250032 0 0
-0.16856554 -1.267846 -0.36851314 0 1
-0.16953433 -1.2751327 -0.35785103 0 2
-0.17241558 -1.2968036 -0.3510018 0 3
-0.17027232 -1.2806834 -0.33393127 0 4
-0.17005679 -1.2790623 -0.32087755 0 5
-0.17051266 -1.282491 -0.30913061 0 6
-0.16864765 -1.2684636 -0.29333493 0 7
-0.16953714 -1.2751538 -0.28245461 0 8
-0.16905962 -1.2715621 -0.26931652 0 9
-0.16789995 -1.2628398 -0.25525853 0 10
-0.16921583 -1.272737 -0.24499807 0 11
-0.16828324 -1.2657228 -0.23149711 0 12
-0.16924554 -1.2729605 -0.22064139 0 13
-0.16789021 -1.2627665 -0.20683061 0 14
-0.16796987 -1.2633657 -0.19491513 0 15
-0.16896535 -1.2708532 -0.18401945 0 16
-0.16916761 -1.2723744 -0.17220624 0 17
-0.17074281 -1.2842221 -0.16169414 0 18
-0.16759484 -1.260545 -0.14684805 0 19
-0.16856045 -1.2678077 -0.13578615 0 20
-0.16996537 -1.2783746 -0.12493408 0 21
-0.17015931 -1.2798333 -0.11310052 0 22
-0.1690826 -1.271735 -0.10050368 0 23
-0.16927415 -1.2731757 -0.088740043 0 24
-0.16675588 -1.2542348 -0.075733915 0 25
-0.16830067 -1.2658538 -0.064654283 0 26
-0.16948862 -1.2747889 -0.053257309 0 27
-0.16669177 -1.2537526 -0.040729616 0 28
-0.16842182 -1.266765 -0.029389553 0 29
-0.16958529 -1.2755159 -0.017753543 0 30
-0.1686817 -1.2687197 -0.0058859843 0 31
-0.17001836 -1.2787732 0.0059326258 0 32
-0.16887447 -1.2701696 0.017679131 0 33
-0.16936289 -1.2738432 0.029553769 0 34
-0.1679299 -1.2630651 0.041032143 0 35
-0.16799405 -1.2635475 0.052787676 0 36
-0.16969804 -1.276364 0.065191098 0 37
-0.16816199 -1.2648108 0.076372519 0 38
-0.16905326 -1.2715143 0.088624239 0 39
-0.16879199 -1.2695493 0.10033095 0 40
-0.16925585 -1.2730381 0.11250002 0 41
-0.16906965 -1.2716376 0.12427568 0 42
-0.17010418 -1.2794187 0.13702971 0 43
-0.16848822 -1.2672644 0.14763083 0 44
-0.17022319 -1.2803138 0.16120204 0 45
-0.16812399 -1.2645249 0.17114386 0 46
-0.17018406 -1.2800194 0.18534672 0 47
-0.17061017 -1.2832245 0.19797899 0 48
-0.1693465 -1.2737199 0.20862468 0 49
-0.16963281 -1.2758733 0.22114624 0 50
-0.1688855 -1.2702525 0.23232558 0 51
-0.16825092 -1.2654796 0.24360102 0 52
-0.16899569 -1.2710813 0.25692439 0 53
-0.16767059 -1.2611147 0.26710376 0 54
-0.16903572 -1.2713823 0.28161922 0 55
-0.16869771 -1.2688402 0.29342201 0 56
-0.16954333 -1.2752004 0.30737329 0 57
-0.16938686 -1.2740235 0.31961346 0 58
-0.16884199 -1.2699254 0.33112615 0 59
-0.16862077 -1.2682613 0.34327635 0 60
-0.16929883 -1.2733613 0.35735393 0 61
-0.16972676 -1.27658 0.37105176 0 62
-0.17034468 -1.2812276 0.38531208 0 63
-0.15464443 -1.2837732 -0.38547662 0 0
-0.15453205 -1.2828403 -0.37229094 0 1
-0.15484992 -1.2854789 -0.36019301 0 2
-0.1517545 -1.2597827 -0.34045061 0 3
-0.15262648 -1.2670214 -0.32985467 0 4
-0.15482593 -1.2852799 -0.32193539 0 5
-0.15421394 -1.2801995 -0.3080979 0 6
-0.15382864 -1.2770009 -0.29484951 0 7
-0.15284638 -1.2688468 -0.28062004 0 8
-0.15300554 -1.2701681 -0.26860246 0 9
-0.15241149 -1.2652366 -0.2553449 0 10
-0.15441734 -1.281888 -0.24637544 0 11
-0.15369451 -1.2758875 -0.23299295 0 12
-0.15265733 -1.2672774 -0.21931438 0 13
-0.15174858 -1.2597334 -0.20601261 0 14
-0.15360217 -1.2751209 -0.19642249 0 15
-0.15396228 -1.2781104 -0.18478219 0 16
-0.15449595 -1.2825407 -0.17331195 0 17
-0.15288518 -1.2691689 -0.15955006 0 18
-0.15466686 -1.2839594 -0.14934288 0 19
-0.15268691 -1.2675229 -0.1355443 0 20
-0.15582787 -1.2935975 -0.12622499 0 21
-0.15379365 -1.2767105 -0.11264892 0 22
-0.15286638 -1.2690128 -0.10013243 0 23
-0.15264572 -1.267181 -0.088184714 0 24
-0.15315092 -1.2713748 -0.076649368 0 25
-0.15177946 -1.2599897 -0.064254589 0 26
-0.15349568 -1.274237 -0.053151384 0 27
-0.15404496 -1.2787967 -0.04147853 0 28
-0.15299124 -1.2700492 -0.029419878 0 29
-0.15286799 -1.2690262 -0.017635718 0 30
-0.15268347 -1.2674943 -0.005871146 0 31
-0.15393436 -1.2778785 0.005919246 0 32
-0.15420483 -1.2801238 0.017789943 0 33
-0.15200882 -1.2618937 0.029230963 0 34
-0.15394513 -1.277968 0.041451655 0 35
-0.15399912 -1.2784162 0.053325709 0 36
-0.1532128 -1.2718886 0.06486138 0 37
-0.15356572 -1.2748183 0.076856971 0 38
-0.15452471 -1.2827795 0.089270227 0 39
-0.15315348 -1.2713962 0.10032049 0 40
-0.15339732 -1.2734205 0.11235862 0 41
-0.15264253 -1.2671546 0.12364478 0 42
-0.15320857 -1.2718536 0.1360074 0 43
-0.15383492 -1.2770531 0.14853959 0 44
-0.15319145 -1.2717113 0.15986967 0 45
-0.15334766 -1.2730081 0.17202379 0 46
-0.15350612 -1.2743236 0.18423471 0 47
-0.15388176 -1.2774419 0.19678003 0 48
-0.15445043 -1.2821628 0.20968063 0 49
-0.15370014 -1.2759342 0.22081253 0 50
-0.15359496 -1.2750611 0.23284204 0 51
-0.15322706 -1.272007 0.24447636 0 52
-0.15297988 -1.269955 0.25629714 0 53
-0.15299015 -1.2700403 0.26857543 0 54
-0.15503383 -1.2870057 0.28463608 0 55
-0.15330955 -1.2726918 0.29385456 0 56
-0.15324561 -1.272161 0.30616331 0 57
-0.15334928 -1.2730216 0.31886494 0 58
-0.1535829 -1.274961 0.33192167 0 59
-0.15419734 -1.2800617 0.34593093 0 60
-0.15513062 -1.2878094 0.36084595 0 61
-0.15373418 -1.2762167 0.37036875 0 62
-0.15219849 -1.2634684 0.37937972 0 63
-0.13750809 -1.2731711 -0.38175654 0 0
-0.13742891 -1.2724378 -0.36875379 0 1
-0.13899755 -1.2869618 -0.36010236 0 2
-0.13802484 -1.2779555 -0.34487703 0 3
-0.13798749 -1.2776098 -0.33214441 0 4
-0.13684659 -1.2670462 -0.31692281 0 5
-0.137337 -1.271587 -0.30559564 0 6
-0.13785011 -1.2763376 -0.29428273 0 7
-0.13877776 -1.2849268 -0.28377745 0 8
-0.13730256 -1.2712681 -0.26845777 0 9
-0.13719866 -1.270306 -0.25600815 0 10
-0.13558196 -1.2553372 -0.24093384 0 11
-0.13819399 -1.2795217 -0.23332866 0 12
-0.13747913 -1.272903 -0.21997873 0 13
-0.13763277 -1.2743254 -0.20810643 0 14
-0.13834131 -1.2808857 -0.19703358 0 15
-0.13868311 -1.2840503 -0.1853804 0 16
-0.13705181 -1.2689464 -0.17123425 0 17
-0.1375035 -1.2731285 -0.15982319 0 18
-0.13728473 -1.2711029 -0.14763997 0 19
-0.13677481 -1.2663816 -0.13523218 0 20
-0.13803381 -1.2780386 -0.12453178 0 21
-0.13699815 -1.2684495 -0.11176294 0 22
-0.13789135 -1.2767197 -0.10059915 0 23
-0.13660479 -1.2648073 -0.087895989 0 24
-0.13583188 -1.2576512 -0.075715572 0 25
-0.13889323 -1.2859958 -0.065488756 0 26
-0.13726026 -1.2708764 -0.0529368 0 27
-0.13617514 -1.2608293 -0.04083835 0 28
-0.13755533 -1.2736084 -0.029460916 0 29
-0.13629752 -1.2619627 -0.01751294 0 30
-0.13610239 -1.2601559 -0.0058289603 0 31
-0.13864715 -1.2837174 0.0059379465 0 32
-0.13735947 -1.2717949 0.01764939 0 33
-0.13856974 -1.2830007 0.029678177 0 34
-0.1361153 -1.2602754 0.040820405 0 35
-0.13838498 -1.2812901 0.053370569 0 36
-0.13777167 -1.2756115 0.064959928 0 37
-0.13814773 -1.2790934 0.077006474 0 38
-0.13783732 -1.2762192 0.088689044 0 39
-0.13876581 -1.284816 0.10123711 0 40
-0.13649873 -1.2638255 0.11135551 0 41
-0.13679168 -1.2665378 0.12341114 0 42
-0.13590489 -1.2583272 0.13437209 0 43
-0.13809471 -1.2786025 0.14851105 0 44
-0.13811143 -1.2787572 0.16052979 0 45
-0.13837098 -1.2811605 0.17288244 0 46
-0.13810693 -1.2787156 0.1846102 0 47
-0.13708067 -1.2692136 0.1952381 0 48
-0.13895598 -1.2865769 0.21010718 0 49
-0.1374931 -1.2730322 0.22000109 0 50
-0.13784641 -1.2763035 0.2327418 0 51
-0.13636403 -1.2625784 0.24232359 0 52
-0.1382747 -1.2802689 0.25801599 0 53
-0.13708687 -1.269271 0.26803601 0 54
-0.13755223 -1.2735798 0.28127146 0 55
-0.13728242 -1.2710816 0.29307085 0 56
-0.13605362 -1.2597044 0.30273992 0 57
-0.13751611 -1.2732453 0.31847337 0 58
-0.13720092 -1.270327 0.33025107 0 59
-0.13608342 -1.2599802 0.34002608 0 60
-0.1370801 -1.2692084 0.35513481 0 61
-0.13795614 -1.2773194 0.37016848 0 62
-0.13752955 -1.2733697 0.38181612 0 63
-0.1218207 -1.2745283 -0.3816855 0 0
-0.12085047 -1.2643775 -0.36595955 0 1
-0.12444764 -1.3020122 -0.3638579 0 2
-0.12135041 -1.269608 -0.34219575 0 3
-0.12266638 -1.2833762 -0.3332262 0 4
-0.12295847 -1.286432 -0.32136926 0 5
-0.12287589 -1.2855681 -0.30856922 0 6
-0.12137335 -1.269848 -0.29242021 0 7
-0.12250889 -1.2817285 -0.28271702 0 8
-0.12339151 -1.2909627 -0.27227575 0 9
-0.12338521 -1.2908968 -0.25983244 0 10
-0.12145308 -1.2706822 -0.2435739 0 11
-0.12259869 -1.2826679 -0.2336098 0 12
-0.12202534 -1.2766694 -0.22035368 0 13
-0.12027095 -1.2583144 -0.20523468 0 14
-0.1226095 -1.282781 -0.19707832 0 15
-0.12058421 -1.2615918 -0.1819102 0 16
-0.12189551 -1.2753111 -0.17187786 0 17
-0.12247913 -1.281417 -0.16066249 0 18
-0.1225394 -1.2820476 -0.14872494 0 19
-0.12202816 -1.2766988 -0.13616338 0 20
-0.12194598 -1.2758391 -0.12416195 0 21
-0.12160311 -1.2722518 -0.11195774 0 22
-0.12184315 -1.2747632 -0.10031936 0 23
-0.1225339 -1.2819902 -0.088978648 0 24
-0.12077212 -1.2635578 -0.075976014 0 25
-0.12152065 -1.2713891 -0.064663924 0 26
-0.12159686 -1.2721865 -0.052925088 0 27
-0.12249648 -1.2815986 -0.041459143 0 28
-0.12104397 -1.2664019 -0.029257575 0 29
-0.12082864 -1.2641492 -0.01752134 0 30
-0.12119897 -1.2680236 -0.0058580171 0 31
-0.12178586 -1.274164 0.0058863838 0 32
-0.12151273 -1.2713064 0.017620541 0 33
-0.12112072 -1.267205 0.029276129 0 34
-0.12115275 -1.2675401 0.041004356 0 35
-0.12104786 -1.2664427 0.052686136 0 36
-0.12209253 -1.2773724 0.064968243 0 37
-0.12073585 -1.2631783 0.0759532 0 38
-0.1218154 -1.2744728 0.088456899 0 39
-0.1212697 -1.2687635 0.099847205 0 40
-0.12233435 -1.2799023 0.11263099 0 41
-0.12182457 -1.2745688 0.12403834 0 42
-0.1220204 -1.2766178 0.13615474 0 43
-0.12307103 -1.2876098 0.14937019 0 44
-0.12084426 -1.2643125 0.15851794 0 45
-0.12254467 -1.2821027 0.17279319 0 46
-0.12037469 -1.2593998 0.18159413 0 47
-0.12256242 -1.2822886 0.19700265 0 48
-0.1218477 -1.2748108 0.2079253 0 49
-0.12185615 -1.2748992 0.22004814 0 50
-0.12203588 -1.2767797 0.2325374 0 51
-0.12107244 -1.2666999 0.24281053 0 52
-0.12179428 -1.2742519 0.25648215 0 53
-0.12138127 -1.2699308 0.26783994 0 54
-0.12260617 -1.2827463 0.28294152 0 55
-0.12164215 -1.2726604 0.29306784 0 56
-0.12102477 -1.266201 0.30392063 0 57
-0.12195962 -1.2759818 0.31875864 0 58
-0.12289178 -1.2857344 0.33383849 0 59
-0.1213412 -1.2695117 0.34216979 0 60
-0.12205698 -1.2770004 0.35686812 0 61
-0.12207761 -1.2772162 0.36967558 0 62
-0.12241776 -1.2807751 0.38355622 0 63
-0.10626569 -1.2774352 -0.38213581 0 0
-0.10575353 -1.2712784 -0.36755279 0 1
-0.1067996 -1.2838533 -0.35838914 0 2
-0.10732254 -1.2901397 -0.34734768 0 3
-0.10677557 -1.2835644 -0.33290899 0 4
-0.10613621 -1.2758787 -0.31838277 0 5
-0.10681012 -1.2839798 -0.3078495 0 6
-0.10565391 -1.2700808 -0.29215258 0 7
-0.10589673 -1.2729999 -0.28048328 0 8
-0.10527364 -1.2655096 -0.26661426 0 9
-0.10639761 -1.2790209 -0.25715929 0 10
-0.10599597 -1.2741928 -0.24397855 0 11
-0.10572248 -1.2709051 -0.23121323 0 12
-0.10634617 -1.2784026 -0.22041045 0 13
-0.10640232 -1.2790776 -0.20839207 0 14
-0.10717866 -1.2884101 -0.1977257 0 15
-0.10447884 -1.2559551 -0.1808985 0 16
-0.10524268 -1.2651373 -0.17031941 0 17
-0.10556401 -1.2690002 -0.1589309 0 18
-0.10677657 -1.2835764 -0.14873874 0 19
-0.1068 -1.2838581 -0.13677654 0 20
-0.10684504 -1.2843995 -0.12485774 0 21
-0.10586412 -1.2726078 -0.11186606 0 22
-0.10596202 -1.2737846 -0.10013224 0 23
-0.10645255 -1.2796813 -0.088720836 0 24
-0.10702867 -1.286607 -0.07727696 0 25
-0.1061483 -1.276024 -0.064828373 0 26
-0.10619873 -1.2766302 -0.053051617 0 27
-0.10616016 -1.2761666 -0.041238073 0 28
-0.10617248 -1.2763146 -0.0294542 0 29
-0.10615368 -1.2760887 -0.017667398 0 30
-0.10656682 -1.2810551 -0.0059117191 0 31
-0.10637464 -1.2787448 0.0059010577 0 32
-0.10539892 -1.2670156 0.017541781 0 33
-0.1067974 -1.2838268 0.029627562 0 34
-0.10645902 -1.2797592 0.041354168 0 35
-0.10755638 -1.2929506 0.053729832 0 36
-0.1070709 -1.2871146 0.065391831 0 37
-0.10668842 -1.2825167 0.077031292 0 38
-0.10657702 -1.2811776 0.088824585 0 39
-0.10639153 -1.2789479 0.10053812 0 40
-0.10748276 -1.2920656 0.11357646 0 41
-0.10607562 -1.2751503 0.12395861 0 42
-0.1064079 -1.2791445 0.13627438 0 43
-0.10450907 -1.2563186 0.14558014 0 44
-0.10680719 -1.2839446 0.16080256 0 45
-0.1058059 -1.2719079 0.17123091 0 46
-0.10603855 -1.2747046 0.18359905 0 47
-0.10543625 -1.2674643 0.19451126 0 48
-0.10677087 -1.2835079 0.20911388 0 49
-0.10601296 -1.274397 0.21971986 0 50
-0.10530124 -1.2658414 0.23029198 0 51
-0.10574329 -1.2711552 0.24339694 0 52
-0.10585551 -1.2725042 0.25584906 0 53
-0.10565719 -1.2701203 0.26758564 0 54
-0.10534631 -1.2663831 0.27902541 0 55
-0.10553318 -1.2686296 0.29181874 0 56
-0.10634302 -1.2783648 0.30650321 0 57
-0.1066905 -1.2825419 0.3200455 0 58
-0.1058781 -1.2727758 0.33011082 0 59
-0.1062621 -1.2773919 0.34391558 0 60
-0.10557099 -1.269084 0.35426629 0 61
-0.10567553 -1.2703407 0.36728165 0 62
-0.10666145 -1.2821926 0.38355899 0 63
-0.090200149 -1.2736923 -0.38065559 0 0
-0.089844249 -1.2686667 -0.36645058 0 1
-0.089847781 -1.2687166 -0.35382855 0 2
-0.089949541 -1.2701535 -0.34164312 0 3
-0.090892524 -1.2834692 -0.33256924 0 4
-0.090478927 -1.2776289 -0.3185178 0 5
-0.08971075 -1.2667816 -0.30343857 0 6
-0.090583183 -1.279101 -0.29394901 0 7
-0.090786338 -1.2819697 -0.28219232 0 8
-0.08986415 -1.2689477 -0.26708561 0 9
-0.090898976 -1.2835602 -0.25782773 0 10
-0.090299889 -1.2751007 -0.24392135 0 11
-0.090748936 -1.2814416 -0.23290949 0 12
-0.091401502 -1.2906562 -0.22231254 0 13
-0.090001278 -1.270884 -0.2068612 0 14
-0.089508854 -1.2639307 -0.19378541 0 15
-0.089936621 -1.269971 -0.18274416 0 16
-0.089801259 -1.2680596 -0.17055129 0 17
-0.089820519 -1.2683316 -0.15869685 0 18
-0.089681149 -1.2663636 -0.14660528 0 19
-0.090030983 -1.2713035 -0.13531086 0 20
-0.089878023 -1.2691436 -0.12325794 0 21
-0.090660907 -1.2801985 -0.1124268 0 22
-0.089514516 -1.2640107 -0.099269874 0 23
-0.090941578 -1.2841618 -0.088947222 0 24
-0.090429254 -1.2769274 -0.076622993 0 25
-0.091326244 -1.2895936 -0.065455772 0 26
-0.090373054 -1.2761338 -0.052980807 0 27
-0.090470828 -1.2775145 -0.041242562 0 28
-0.089828216 -1.2684402 -0.029244777 0 29
-0.090113439 -1.2724679 -0.017600596 0 30
-0.090480968 -1.2776576 -0.0058904612 0 31
-0.091082335 -1.2861494 0.0059296112 0 32
-0.090117596 -1.2725266 0.017601408 0 33
-0.090763494 -1.2816471 0.029549269 0 34
-0.090075895 -1.2719377 0.041062526 0 35
-0.090001263 -1.2708838 0.052762844 0 36
-0.090768203 -1.2817136 0.06505581 0 37
-0.090107352 -1.2723819 0.076350242 0 38
-0.090889357 -1.2834244 0.08889614 0 39
-0.090237893 -1.2742252 0.10007208 0 40
-0.090268008 -1.2746505 0.11193958 0 41
-0.090441041 -1.2770938 0.12403006 0 42
-0.090689115 -1.2805969 0.1363 0 43
-0.090820558 -1.2824529 0.14846791 0 44
-0.091358893 -1.2900546 0.16141489 0 45
-0.090505168 -1.2779994 0.17188816 0 46
-0.091370761 -1.2902222 0.18565822 0 47
-0.091173626 -1.2874384 0.19738962 0 48
-0.090830818 -1.2825978 0.20876785 0 49
-0.089563198 -1.2646981 0.21784131 0 50
-0.090332337 -1.2755588 0.23184027 0 51
-0.090324946 -1.2754545 0.24398904 0 52
-0.090665303 -1.2802606 0.25716496 0 53
-0.089767903 -1.2675887 0.26679957 0 54
-0.088938579 -1.255878 0.27644891 0 55
-0.090372212 -1.276122 0.29326439 0 56
-0.090509653 -1.2780627 0.30614078 0 57
-0.089935578 -1.2699564 0.316605 0 58
-0.091700986 -1.2948852 0.33552736 0 59
-0.090186357 -1.2734975 0.34254259 0 60
-0.090383381 -1.2762796 0.35593778 0 61
-0.090568766 -1.2788974 0.36940569 0 62
-0.090973869 -1.2846178 0.38392079 0 63
-0.075375438 -1.2891198 -0.38496017 0 0
-0.074399441 -1.2724278 -0.36724493 0 1
-0.074566908 -1.2752919 -0.35537976 0 2
-0.074460611 -1.2734739 -0.34226409 0 3
-0.075325757 -1.2882702 -0.3335481 0 4
-0.074877992 -1.2806122 -0.3190079 0 5
-0.074666202 -1.2769902 -0.30564085 0 6
-0.074974798 -1.2822679 -0.29444265 0 7
-0.074695244 -1.2774868 -0.28098211 0 8
-0.074107774 -1.2674395 -0.26655623 0 9
-0.074380092 -1.2720968 -0.25532207 0 10
-0.07466311 -1.2769371 -0.24407858 0 11
-0.074414492 -1.2726852 -0.23113418 0 12
-0.074606076 -1.2759618 -0.21960683 0 13
-0.075106792 -1.2845254 -0.20891549 0 14
-0.075528741 -1.2917418 -0.19789205 0 15
-0.074757926 -1.2785587 -0.18383373 0 16
-0.074165724 -1.2684306 -0.17046563 0 17
-0.074538521 -1.2748064 -0.15938026 0 18
-0.074679561 -1.2772186 -0.14774448 0 19
-0.074916914 -1.281278 -0.13626415 0 20
-0.074493855 -1.2740426 -0.12363542 0 21
-0.075163148 -1.2854892 -0.11280175 0 22
-0.074504748 -1.2742288 -0.099992856 0 23
-0.07479471 -1.2791879 -0.088532306 0 24
-0.07566797 -1.2941229 -0.077593133 0 25
-0.074340656 -1.2714224 -0.06448219 0 26
-0.074076973 -1.2669127 -0.052556183 0 27
-0.074771926 -1.2787982 -0.041251205 0 28
-0.074546121 -1.2749363 -0.029371193 0 29
-0.075769514 -1.2958596 -0.017909905 0 30
-0.075170092 -1.2856079 -0.005922406 0 31
-0.074957825 -1.2819777 0.0059056818 0 32
-0.075163998 -1.2855037 0.017766779 0 33
-0.074699737 -1.2775637 0.029431719 0 34
-0.074362472 -1.2717955 0.041025314 0 35
-0.074875847 -1.2805756 0.053122971 0 36
-0.074800573 -1.2792882 0.064881116 0 37
-0.074829794 -1.279788 0.076733634 0 38
-0.074767612 -1.2787244 0.088500232 0 39
-0.075224333 -1.2865356 0.10095861 0 40
-0.075277887 -1.2874515 0.11297394 0 41
-0.074391194 -1.2722868 0.12346503 0 42
-0.074272685 -1.27026 0.13509238 0 43
-0.074538231 -1.2748015 0.14746486 0 44
-0.074451581 -1.2733195 0.15919437 0 45
-0.074526131 -1.2745944 0.17129399 0 46
-0.074970096 -1.2821875 0.18435547 0 47
-0.074612275 -1.2760679 0.19549084 0 48
-0.073979758 -1.2652501 0.20578055 0 49
-0.073690146 -1.2602969 0.21691075 0 50
-0.074346125 -1.271516 0.23092183 0 51
-0.074127562 -1.267778 0.24232785 0 52
-0.074762687 -1.2786402 0.2566354 0 53
-0.074676275 -1.2771624 0.26860106 0 54
-0.074987791 -1.2824901 0.28208259 0 55
-0.07481394 -1.2795168 0.29381096 0 56
-0.075396441 -1.289479 0.30863002 0 57
-0.075099088 -1.2843935 0.31994987 0 58
-0.07521046 -1.2862983 0.33303753 0 59
-0.074033268 -1.2661651 0.34029976 0 60
-0.074438222 -1.2730911 0.35476643 0 61
-0.074072242 -1.2668318 0.36562982 0 62
-0.075143807 -1.2851584 0.3837772 0 63
-0.059059452 -1.2799828 -0.38198587 0 0
-0.059286464 -1.2849027 -0.37060699 0 1
-0.05934969 -1.286273 -0.35820934 0 2
-0.058971997 -1.2780874 -0.34328318 0 3
-0.058568425 -1.2693409 -0.32843575 0 4
-0.059085678 -1.2805512 -0.3187876 0 5
-0.0584343 -1.2664341 -0.30291942 0 6
-0.059212077 -1.2832905 -0.29448804 0 7
-0.058575734 -1.2694993 -0.27904576 0 8
-0.058898807 -1.2765011 -0.26828936 0 9
-0.058723055 -1.2726921 -0.25527734 0 10
-0.058852527 -1.2754982 -0.24364677 0 11
-0.058936451 -1.277317 -0.23182622 0 12
-0.058917426 -1.2769047 -0.21962783 0 13
-0.058452111 -1.2668201 -0.20590341 0 14
-0.059375115 -1.286824 -0.19701192 0 15
-0.05949771 -1.289481 -0.18528496 0 16
-0.059096396 -1.2807835 -0.17201509 0 17
-0.058946304 -1.2775306 -0.15961815 0 18
-0.058960345 -1.2778349 -0.14772072 0 19
-0.058767937 -1.2736648 -0.13536739 0 20
-0.059471525 -1.2889136 -0.12499812 0 21
-0.059060905 -1.2800143 -0.1122491 0 22
-0.059237748 -1.283847 -0.10068285 0 23
-0.058691517 -1.2720085 -0.087978825 0 24
-0.059253655 -1.2841917 -0.076948166 0 25
-0.059005901 -1.2788222 -0.064815782 0 26
-0.059420217 -1.2878015 -0.053388383 0 27
-0.058927853 -1.2771306 -0.041170929 0 28
-0.059606496 -1.2918388 -0.029741446 0 29
-0.058533892 -1.2685925 -0.017521778 0 30
-0.059003599 -1.2787724 -0.0058871284 0 31
-0.058666002 -1.2714555 0.0058534443 0 32
-0.058641851 -1.2709322 0.017554093 0 33
-0.059210118 -1.2832481 0.029543668 0 34
-0.058834393 -1.2751051 0.041105632 0 35
-0.059259616 -1.2843208 0.053244084 0 36
-0.058692038 -1.2720199 0.064471014 0 37
-0.058943525 -1.2774704 0.076545425 0 38
-0.058765158 -1.2736046 0.088089213 0 39
-0.059018925 -1.2791044 0.10031092 0 40
-0.059630275 -1.2923541 0.11333122 0 41
-0.059119057 -1.2812746 0.12425728 0 42
-0.058952678 -1.2776687 0.13579293 0 43
-0.059193447 -1.2828869 0.14830475 0 44
-0.058992714 -1.2785364 0.15974383 0 45
-0.058841314 -1.2752551 0.17127259 0 46
-0.058743365 -1.2731323 0.1829358 0 47
-0.059165653 -1.2822845 0.19631691 0 48
-0.059100643 -1.2808754 0.20818792 0 49
-0.058135431 -1.2599567 0.21671277 0 50
-0.058619328 -1.270444 0.23057882 0 51
-0.059339508 -1.2860523 0.24566284 0 52
-0.058073826 -1.2586216 0.25245506 0 53
-0.058558512 -1.2691261 0.26673931 0 54
-0.058946237 -1.2775291 0.28081077 0 55
-0.059078075 -1.2803863 0.2938216 0 56
-0.058535304 -1.268623 0.30344301 0 57
-0.058462605 -1.2670474 0.3154259 0 58
-0.058337193 -1.2643294 0.32713905 0 59
-0.058937851 -1.2773473 0.34308442 0 60
-0.058751363 -1.2733057 0.3545981 0 61
-0.058668844 -1.2715172 0.36674619 0 62
-0.059323728 -1.2857103 0.38369519 0 63
-0.043086469 -1.2737995 -0.37995377 0 0
-0.043285701 -1.2796896 -0.36892194 0 1
-0.043299817 -1.2801069 -0.35631698 0 2
-0.043082293 -1.2736762 -0.34193024 0 3
-0.043161165 -1.2760079 -0.32999852 0 4
-0.043209061 -1.2774239 -0.31785277 0 5
-0.043328602 -1.2809579 -0.30624282 0 6
-0.042986304 -1.2708384 -0.29148719 0 7
-0.042972416 -1.2704277 -0.27911258 0 8
-0.042816605 -1.2658215 -0.26591399 0 9
-0.043256488 -1.2788259 -0.25638157 0 10
-0.043234102 -1.2781641 -0.24403603 0 11
-0.043820854 -1.2955108 -0.23501272 0 12
-0.043487638 -1.2856597 -0.221025 0 13
-0.043175191 -1.2764225 -0.20736219 0 14
-0.042747017 -1.2637641 -0.19338636 0 15
-0.043433286 -1.2840528 -0.18441428 0 16
-0.043608848 -1.2892431 -0.17306614 0 17
-0.042823605 -1.2660284 -0.1581033 0 18
-0.042996548 -1.2711412 -0.1468747 0 19
-0.043333292 -1.2810967 -0.13609034 0 20
-0.043083105 -1.2737001 -0.12346201 0 21
-0.042958554 -1.2700179 -0.11131775 0 22
-0.042920154 -1.2688826 -0.099460393 0 23
-0.043135781 -1.2752575 -0.08816018 0 24
-0.043252822 -1.2787175 -0.076582506 0 25
-0.043422934 -1.2837467 -0.065033399 0 26
-0.043506783 -1.2862256 -0.053296842 0 27
-0.043314993 -1.2805556 -0.041261051 0 28
-0.043344978 -1.281442 -0.029487589 0 29
-0.043824475 -1.2956178 -0.017886257 0 30
-0.043729626 -1.2928137 -0.0059488462 0 31
-0.043210436 -1.2774645 0.0058782171 0 32
-0.043401822 -1.2831227 0.017713757 0 33
-0.042670004 -1.2614874 0.029028405 0 34
-0.043461405 -1.2848841 0.041400518 0 35
-0.043496516 -1.2859222 0.053284269 0 36
-0.043437161 -1.2841673 0.065054707 0 37
-0.043601993 -1.2890404 0.077200741 0 38
-0.043545444 -1.2873687 0.088997446 0 39
-0.042921957 -1.2689359 0.099464573 0 40
-0.043523554 -1.2867215 0.11278182 0 41
-0.043113198 -1.2745898 0.12354825 0 42
-0.043214444 -1.277583 0.13571709 0 43
-0.043420319 -1.2836695 0.14832227 0 44
-0.042897612 -1.2682163 0.15837651 0 45
-0.043139085 -1.2753551 0.17120184 0 46
-0.043302324 -1.2801811 0.18385823 0 47
-0.0432395 -1.2783238 0.19561434 0 48
-0.043452479 -1.2846202 0.20869395 0 49
-0.04320043 -1.2771688 0.21956527 0 50
-0.043432709 -1.2840357 0.23293109 0 51
-0.043062437 -1.2730891 0.24306707 0 52
-0.042947173 -1.2696815 0.25454828 0 53
-0.043729641 -1.2928141 0.27158442 0 54
-0.042924412 -1.2690086 0.27880079 0 55
-0.043623108 -1.2896646 0.29580531 0 56
-0.043488316 -1.2856797 0.30737168 0 57
-0.043055713 -1.2728903 0.31672472 0 58
-0.0437207 -1.2925498 0.33427659 0 59
-0.042935774 -1.2693444 0.34076735 0 60
-0.043465219 -1.2849969 0.35767806 0 61
-0.043309666 -1.2803981 0.3691262 0 62
-0.043417107 -1.2835745 0.38286948 0 63
-0.027579235 -1.2815788 -0.38214415 0 0
-0.02754082 -1.2797936 -0.36882645 0 1
-0.027532563 -1.27941 -0.35600182 0 2
-0.027462879 -1.2761718 -0.34248367 0 3
-0.027920036 -1.2974155 -0.33542079 0 4
-0.02757436 -1.2813523 -0.3187218 0 5
-0.027569233 -1.281114 -0.30617595 0 6
-0.02746621 -1.2763267 -0.29264644 0 7
-0.027351407 -1.2709919 -0.27914155 0 8
-0.027717445 -1.2880013 -0.27048135 0 9
-0.027517516 -1.2787107 -0.25627127 0 10
-0.027582141 -1.2817138 -0.2446305 0 11
-0.027160769 -1.2621331 -0.22887996 0 12
-0.027811011 -1.2923492 -0.22209945 0 13
-0.027565325 -1.2809324 -0.20802405 0 14
-0.027490782 -1.2774684 -0.19541696 0 15
-0.027638644 -1.2843395 -0.18439272 0 16
-0.027563984 -1.2808701 -0.17188367 0 17
-0.027777242 -1.2907799 -0.16113947 0 18
-0.027467189 -1.2763722 -0.14742894 0 19
-0.027485518 -1.2772239 -0.13563278 0 20
-0.027678015 -1.2861691 -0.12462823 0 21
-0.027569851 -1.2811428 -0.11225464 0 22
-0.027600683 -1.2825755 -0.1004995 0 23
-0.027579833 -1.2816066 -0.088568971 0 24
-0.027916629 -1.2972572 -0.077666409 0 25
-0.027798057 -1.2917472 -0.065416433 0 26
-0.027264493 -1.266953 -0.052480392 0 27
-0.02736919 -1.2718182 -0.040965579 0 28
-0.027645383 -1.2846526 -0.029551411 0 29
-0.027534271 -1.2794894 -0.017657591 0 30
-0.02764954 -1.2848458 -0.0059101712 0 31
-0.027894547 -1.296231 0.0059625423 0 32
-0.027242403 -1.2659266 0.017470418 0 33
-0.027635928 -1.2842133 0.029541304 0 34
-0.02788369 -1.2957265 0.041735671 0 35
-0.027752968 -1.289652 0.053420641 0 36
-0.027533924 -1.2794733 0.064794853 0 37
-0.027408736 -1.2736559 0.076253407 0 38
-0.027481992 -1.27706 0.088254765 0 39
-0.027796604 -1.2916796 0.10121288 0 40
-0.027457507 -1.2759223 0.11179722 0 41
-0.027521012 -1.2788733 0.12392128 0 42
-0.0274834 -1.2771255 0.13562234 0 43
-0.027278947 -1.2676247 0.14641856 0 44
-0.027778044 -1.2908173 0.16114414 0 45
-0.027602646 -1.2826667 0.17212476 0 46
-0.027664395 -1.2855362 0.18456452 0 47
-0.02791224 -1.2970532 0.19841288 0 48
-0.027778696 -1.2908475 0.20963427 0 49
-0.027512603 -1.2784824 0.21971636 0 50
-0.02752026 -1.2788383 0.23190933 0 51
-0.027700596 -1.2872183 0.24568111 0 52
-0.027585402 -1.2818654 0.2569035 0 53
-0.027653601 -1.2850345 0.2698583 0 54
-0.027470857 -1.2765425 0.28036061 0 55
-0.027552595 -1.2803409 0.29356685 0 56
-0.027289292 -1.2681055 0.303067 0 57
-0.027553419 -1.2803792 0.31847975 0 58
-0.027638955 -1.284354 0.33204398 0 59
-0.027543444 -1.2799156 0.3434884 0 60
-0.027484134 -1.2771596 0.35537565 0 61
-0.02776351 -1.2901418 0.37180871 0 62
-0.02746232 -1.2761459 0.38052419 0 63
-0.011838205 -1.2838556 -0.38275072 0 0
-0.011838402 -1.2838769 -0.36993328 0 1
-0.011778474 -1.2773777 -0.35536915 0 2
-0.011716027 -1.2706053 -0.34092537 0 3
-0.01188275 -1.2886865 -0.33310115 0 4
-0.011824043 -1.2823198 -0.31890216 0 5
-0.011808032 -1.2805834 -0.30599129 0 6
-0.011756058 -1.2749467 -0.2922748 0 7
-0.011763851 -1.2757919 -0.28014278 0 8
-0.011722039 -1.2712573 -0.26691464 0 9
-0.011865526 -1.2868186 -0.25784746 0 10
-0.011817474 -1.2816073 -0.24456397 0 11
-0.011925826 -1.2933581 -0.23449808 0 12
-0.011858144 -1.286018 -0.22096963 0 13
-0.011852175 -1.2853706 -0.20870537 0 14
-0.011901612 -1.2907321 -0.19740862 0 15
-0.011956816 -1.2967188 -0.18613485 0 16
-0.011890697 -1.2895484 -0.17301553 0 17
-0.011867178 -1.2869977 -0.16063693 0 18
-0.011930173 -1.2938296 -0.14941713 0 19
-0.011837267 -1.2837539 -0.13630046 0 20
-0.011880289 -1.2884196 -0.12482271 0 21
-0.011925143 -1.2932841 -0.11329706 0 22
-0.011902725 -1.2908529 -0.10112898 0 23
-0.011820029 -1.2818844 -0.088571429 0 24
-0.011760384 -1.2754158 -0.076344348 0 25
-0.01177877 -1.2774098 -0.06467814 0 26
-0.011964542 -1.2975568 -0.05373792 0 27
-0.011733362 -1.2724854 -0.040979322 0 28
-0.011828833 -1.2828392 -0.029504118 0 29
-0.011837336 -1.2837614 -0.017713198 0 30
-0.011890609 -1.2895389 -0.0059306375 0 31
-0.01186522 -1.2867854 0.0059179743 0 32
-0.011855002 -1.2856772 0.017739633 0 33
-0.011869403 -1.287239 0.02960531 0 34
-0.011796458 -1.2793281 0.041199688 0 35
-0.011691231 -1.2679162 0.052510366 0 36
-0.011748895 -1.2741699 0.064514093 0 37
-0.011872069 -1.287528 0.077069372 0 38
-0.011841073 -1.2841666 0.088729113 0 39
-0.011849437 -1.2850736 0.10067622 0 40
-0.011771523 -1.276624 0.11183757 0 41
-0.011876927 -1.2880549 0.12478739 0 42
-0.011872498 -1.2875746 0.13670613 0 43
-0.011753834 -1.2747055 0.14720862 0 44
-0.011961034 -1.2971764 0.16190739 0 45
-0.011833555 -1.2833513 0.17218408 0 46
-0.011849207 -1.2850487 0.18445967 0 47
-0.011760862 -1.2754678 0.19507402 0 48
-0.011799418 -1.2796491 0.20777638 0 49
-0.011787939 -1.2784041 0.21966138 0 50
-0.01193456 -1.2943052 0.23466982 0 51
-0.01192591 -1.2933671 0.24680804 0 52
-0.011837272 -1.2837543 0.25723347 0 53
-0.012033334 -1.3050174 0.27400294 0 54
-0.011833252 -1.2833185 0.2817955 0 55
-0.0117533 -1.2746477 0.29220623 0 56
-0.011765488 -1.2759695 0.30488881 0 57
-0.011901729 -1.2907448 0.32099739 0 58
-0.011913823 -1.2920564 0.33397219 0 59
-0.011748027 -1.2740757 0.34185654 0 60
-0.011975871 -1.2987856 0.36132488 0 61
-0.011872867 -1.2876147 0.37101027 0 62
-0.011837054 -1.2837307 0.38271353 0 63
0.0039391634 -1.2809041 -0.38185638 0 0
0.0039209384 -1.2749778 -0.36735523 0 1
0.0039662458 -1.2897104 -0.35878661 0 2
0.0039253007 -1.2763964 -0.34246624 0 3
0.0039640698 -1.2890029 -0.33317032 0 4
0.0039350805 -1.2795765 -0.31820792 0 5
0.0039562429 -1.2864578 -0.30738336 0 6
0.0039697131 -1.290838 -0.2959066 0 7
0.0039616278 -1.2882088 -0.28285864 0 8
0.0039340593 -1.2792443 -0.26858145 0 9
0.0039951741 -1.2991171 -0.26030195 0 10
0.0039159474 -1.2733549 -0.24298 0 11
0.0039304313 -1.2780646 -0.23171648 0 12
0.0039281826 -1.2773335 -0.21946913 0 13
0.0039221104 -1.275359 -0.20707197 0 14
0.0039863507 -1.2962481 -0.19824475 0 15
0.0039616134 -1.2882042 -0.18490565 0 16
0.0039213896 -1.2751244 -0.17107385 0 17
0.003970495 -1.2910923 -0.16114192 0 18
0.0039428361 -1.2820983 -0.14805676 0 19
0.0039587654 -1.2872782 -0.13666949 0 20
0.0039351755 -1.2796074 -0.1239643 0 21
0.0039194287 -1.2744869 -0.11164613 0 22
0.0039705802 -1.2911199 -0.10114608 0 23
0.0039550625 -1.2860739 -0.088857546 0 24
0.003964812 -1.2892443 -0.07716918 0 25
0.003932002 -1.2785754 -0.064734705 0 26
0.0039652605 -1.2893901 -0.053397682 0 27
0.0039971303 -1.2997533 -0.041855883 0 28
0.0039127986 -1.2723309 -0.029261334 0 29
0.0039283317 -1.2773819 -0.017624509 0 30
0.0039791204 -1.293897 -0.005950456 0 31
0.0039817835 -1.294763 0.0059544384 0 32
0.003974563 -1.292415 0.017831927 0 33
0.0039404379 -1.2813184 0.02946803 0 34
0.0039667031 -1.2898593 0.041537266 0 35
0.0039274506 -1.2770954 0.05288852 0 36
0.0039516473 -1.2849634 0.065058134 0 37
0.0039703716 -1.2910521 0.077277392 0 38
0.0039447937 -1.282735 0.088626847 0 39
0.0039623287 -1.2884368 0.10093588 0 40
0.0039276215 -1.277151 0.11187951 0 41
0.0039603952 -1.2878081 0.12475876 0 42
0.0039763045 -1.2929814 0.137275 0 43
0.0039399257 -1.2811519 0.14794748 0 44
0.0039496575 -1.2843164 0.16029622 0 45
0.0039602029 -1.2877455 0.17276712 0 46
0.0039374973 -1.2803622 0.18378003 0 47
0.0039412486 -1.2815821 0.19600178 0 48
0.0039443402 -1.2825873 0.20824559 0 49
0.0039648376 -1.2892525 0.22151704 0 50
0.0039333156 -1.2790024 0.23188651 0 51
0.0039712125 -1.2913256 0.24640913 0 52
0.0039050791 -1.2698208 0.2544319 0 53
0.0039805379 -1.2943579 0.27175459 0 54
0.0039339983 -1.2792245 0.28088593 0 55
0.0039289813 -1.277593 0.29287037 0 56
0.003982868 -1.2951156 0.30945203 0 57
0.0039507826 -1.2846823 0.31947765 0 58
0.0039462578 -1.283211 0.33167329 0 59
0.003943807 -1.2824141 0.34408084 0 60
0.0039541651 -1.2857822 0.35769382 0 61
0.0039491053 -1.2841369 0.36999422 0 62
0.0039640875 -1.2890086 0.38427246 0 63
0.019848675 -1.2911931 -0.38496736 0 0
0.019673413 -1.279792 -0.36878416 0 1
0.019923845 -1.2960831 -0.36060032 0 2
0.019650495 -1.2783012 -0.34301624 0 3
0.019824002 -1.2895881 -0.33335939 0 4
0.019702831 -1.2817057 -0.31877357 0 5
0.019843157 -1.2908342 -0.30846402 0 6
0.01985129 -1.2913632 -0.29606056 0 7
0.019670449 -1.2795992 -0.28100008 0 8
0.019688677 -1.280785 -0.26893541 0 9
0.019715667 -1.2825407 -0.25700971 0 10
0.019911904 -1.2953063 -0.24719678 0 11
0.01973531 -1.2838186 -0.23278607 0 12
0.019854071 -1.2915442 -0.22193594 0 13
0.019808032 -1.2885492 -0.20923731 0 14
0.019700866 -1.2815779 -0.19602336 0 15
0.019539384 -1.2710732 -0.1824674 0 16
0.019715851 -1.2825527 -0.17208996 0 17
0.01963092 -1.2770277 -0.15940459 0 18
0.019795526 -1.2877357 -0.14872463 0 19
0.019721374 -1.2829119 -0.13622138 0 20
0.01991489 -1.2955005 -0.1255182 0 21
0.019714156 -1.2824425 -0.11235579 0 22
0.019677611 -1.2800652 -0.10029142 0 23
0.019628933 -1.2768985 -0.088233598 0 24
0.019717006 -1.2826278 -0.076781847 0 25
0.019920442 -1.2958617 -0.06561736 0 26
0.019669181 -1.2795167 -0.052994803 0 27
0.019814689 -1.2889823 -0.04151373 0 28
0.019585034 -1.2740428 -0.029304028 0 29
0.019689862 -1.280862 -0.01767453 0 30
0.019700376 -1.281546 -0.0058943238 0 31
0.019708436 -1.2820704 0.0058967355 0 32
0.019696988 -1.2813256 0.017680928 0 33
0.01952835 -1.2703555 0.029219216 0 34
0.019576579 -1.2734928 0.041014869 0 35
0.019600587 -1.2750546 0.052809995 0 36
0.01989975 -1.2945157 0.065549202 0 37
0.019778326 -1.2866169 0.077020653 0 38
0.019634806 -1.2772806 0.088260002 0 39
0.019686371 -1.280635 0.10033607 0 40
0.019776078 -1.2864707 0.1127087 0 41
0.019709583 -1.2821449 0.12422422 0 42
0.019791847 -1.2874963 0.13670816 0 43
0.019820161 -1.2893384 0.14890973 0 44
0.019832181 -1.2901201 0.16103885 0 45
0.019598873 -1.2749431 0.17106892 0 46
0.019878969 -1.2931638 0.18563858 0 47
0.019666756 -1.279359 0.19568397 0 48
0.019610535 -1.2757018 0.20715111 0 49
0.019699754 -1.2815056 0.22021092 0 50
0.019777969 -1.2865936 0.23328926 0 51
0.019822832 -1.289512 0.24609099 0 52
0.019558672 -1.2723279 0.25496316 0 53
0.01985709 -1.2917407 0.27123585 0 54
0.019667324 -1.2793959 0.2809554 0 55
0.019768866 -1.2860014 0.29483134 0 56
0.019873604 -1.2928149 0.30893731 0 57
0.01978457 -1.2870229 0.32009602 0 58
0.019807773 -1.2885324 0.33308646 0 59
0.019861884 -1.2920524 0.34670621 0 60
0.019717796 -1.2826792 0.35687104 0 61
0.019600183 -1.2750282 0.36741143 0 62
0.019708613 -1.2820818 0.38225085 0 63
0.03562538 -1.2873206 -0.38391438 0 0
0.035369907 -1.2780892 -0.36839095 0 1
0.035853304 -1.2955567 -0.36054924 0 2
0.035477262 -1.2819684 -0.34409133 0 3
0.035872702 -1.2962575 -0.33517212 0 4
0.035059806 -1.2668836 -0.31517056 0 5
0.036341667 -1.3132036 -0.31389257 0 6
0.035495933 -1.282643 -0.29413921 0 7
0.035374001 -1.2782371 -0.28077525 0 8
0.035613425 -1.2868886 -0.27028856 0 9
0.035353854 -1.277509 -0.25606915 0 10
0.035018254 -1.2653822 -0.24154997 0 11
0.035915397 -1.2978004 -0.2353836 0 12
0.035532579 -1.2839673 -0.22069234 0 13
0.035496406 -1.2826601 -0.20833616 0 14
0.035776433 -1.2927788 -0.19778894 0 15
0.035107616 -1.2686112 -0.18216217 0 16
0.035449408 -1.2809619 -0.171922 0 17
0.035456378 -1.2812138 -0.15996943 0 18
0.034991387 -1.2644113 -0.14606948 0 19
0.035722904 -1.2908446 -0.13709995 0 20
0.035770878 -1.2925782 -0.12526822 0 21
0.035968333 -1.2997133 -0.11389903 0 22
0.035211012 -1.2723475 -0.099713139 0 23
0.035234302 -1.2731889 -0.088000558 0 24
0.035566226 -1.2851831 -0.076955177 0 25
0.035557199 -1.2848569 -0.065077342 0 26
0.035835642 -1.2949184 -0.053646907 0 27
0.035685953 -1.2895094 -0.041541699 0 28
0.035740137 -1.2914673 -0.029712668 0 29
0.035733581 -1.2912304 -0.01782232 0 30
0.035180863 -1.2712581 -0.0058485535 0 31
0.035783045 -1.2930177 0.0059486609 0 32
0.036148038 -1.3062068 0.018029032 0 33
0.035794586 -1.2934349 0.029757936 0 34
0.035382986 -1.2785617 0.041189019 0 35
0.035392925 -1.2789209 0.052984148 0 36
0.035632402 -1.2875744 0.065214977 0 37
0.035385698 -1.2786598 0.076564573 0 38
0.035720848 -1.2907703 0.089215748 0 39
0.035532176 -1.2839527 0.10062263 0 40
0.035662435 -1.2886596 0.11293035 0 41
0.035960689 -1.299437 0.12593293 0 42
0.0355503 -1.2846076 0.13643754 0 43
0.035484411 -1.2822267 0.14812759 0 44
0.03539411 -1.2789637 0.1596885 0 45
0.035626944 -1.2873771 0.172783 0 46
0.035106376 -1.2685665 0.18215574 0 47
0.035717539 -1.2906508 0.19746336 0 48
0.035423458 -1.2800243 0.20790802 0 49
0.035709612 -1.2903644 0.22179189 0 50
0.03559643 -1.2862746 0.23329315 0 51
0.035680972 -1.2893294 0.24612127 0 52
0.035322942 -1.276392 0.25584528 0 53
0.03575376 -1.2919596 0.27135363 0 54
0.035322528 -1.2763771 0.28036666 0 55
0.035831977 -1.294786 0.29692385 0 56
0.035217267 -1.2725735 0.30418083 0 57
0.035678349 -1.2892348 0.32073098 0 58
0.03583172 -1.2947767 0.33478922 0 59
0.035666328 -1.2888002 0.34592506 0 60
0.035570279 -1.2853295 0.35770306 0 61
0.035407655 -1.2794532 0.3687841 0 62
0.035269517 -1.2744616 0.38007945 0 63
0.0516808 -1.2925327 -0.38562912 0 0
0.051416378 -1.2859197 -0.37080216 0 1
0.051057365 -1.2769407 -0.35551634 0 2
0.051571023 -1.2897873 -0.34633401 0 3
0.051248789 -1.2817281 -0.33155316 0 4
0.051551674 -1.2893033 -0.32088149 0 5
0.051547561 -1.2892005 -0.30828336 0 6
0.051751819 -1.2943089 -0.29693794 0 7
0.051587004 -1.290187 -0.28351805 0 8
0.051155459 -1.279394 -0.26882625 0 9
0.05147345 -1.287347 -0.25814849 0 10
0.051663555 -1.2921015 -0.24675305 0 11
0.051556643 -1.2894276 -0.23396233 0 12
0.051296793 -1.2829288 -0.2206056 0 13
0.051763661 -1.2946051 -0.21036381 0 14
0.051561005 -1.2895367 -0.19737498 0 15
0.051252194 -1.2818134 -0.18413445 0 16
0.05156194 -1.2895602 -0.17314801 0 17
0.050943695 -1.2740978 -0.15914714 0 18
0.051697638 -1.2929538 -0.14942896 0 19
0.051511213 -1.2882915 -0.1368857 0 20
0.05092011 -1.273508 -0.1234714 0 21
0.051475897 -1.2874082 -0.11286763 0 22
0.051410109 -1.2857628 -0.10080642 0 23
0.051748432 -1.2942243 -0.089491695 0 24
0.051065557 -1.2771456 -0.076505721 0 25
0.051405497 -1.2856475 -0.065144472 0 26
0.051055953 -1.2769054 -0.052922655 0 27
0.051835157 -1.2963933 -0.041780841 0 28
