# .PCD v0.7 - Point Cloud Data file format
VERSION 0.7
FIELDS x y z intensity ring
SIZE 4 4 4 4 2
TYPE F F F F U
COUNT 1 1 1 1 1
WIDTH 1287
HEIGHT 1
VIEWPOINT 0 0 0 1 0 0 0
POINTS 1287
DATA ascii
1.0839669 1.3422374 0.32921392 0 52
1.0832031 1.3412915 0.34544596 0 53
1.0988537 1.3606712 0.36720067 0 54
1.0830961 1.3411592 0.37852216 0 55
1.0919763 1.3521551 0.3984164 0 56
1.0930082 1.3534328 0.41567057 0 57
1.0879319 1.3471471 0.4306134 0 58
1.0855724 1.3442254 0.44659337 0 59
1.0903037 1.3500841 0.46560842 0 60
1.0944903 1.3552682 0.48461521 0 61
1.0894754 1.3490584 0.49962267 0 62
1.0894947 1.3490822 0.51695132 0 63
1.0575163 1.3429363 -0.50957489 0 0
1.0544184 1.3390023 -0.49105945 0 1
1.0613035 1.3477457 -0.47722271 0 2
1.0566236 1.3418026 -0.45823687 0 3
1.0686499 1.3570746 -0.44646284 0 4
1.062519 1.3492891 -0.42708951 0 5
1.0552207 1.3400211 -0.40753564 0 6
1.0589694 1.3447815 -0.39237726 0 7
1.0647451 1.352116 -0.37789083 0 8
1.0554985 1.3403739 -0.35819343 0 9
1.0686243 1.3570422 -0.34609208 0 10
1.0549803 1.3397157 -0.32538903 0 11
1.0588684 1.3446531 -0.31030127 0 12
1.0585194 1.34421 -0.29397163 0 13
1.0640081 1.3511802 -0.27923593 0 14
1.0671654 1.3551896 -0.26380485 0 15
1.0549552 1.3396839 -0.24475802 0 16
1.0668086 1.3547364 -0.23134229 0 17
1.0695536 1.3582222 -0.2157701 0 18
1.0578878 1.3434079 -0.19746222 0 19
1.0552518 1.3400606 -0.1810893 0 20
1.0588506 1.3446306 -0.16580288 0 21
1.0654722 1.3530394 -0.15086479 0 22
1.0660609 1.3537869 -0.13499013 0 23
1.0691453 1.3577039 -0.11939953 0 24
1.0576366 1.343089 -0.10232521 0 25
1.0489126 1.3320104 -0.085839584 0 26
1.0627873 1.3496299 -0.071141325 0 27
1.075976 1.3663781 -0.056006141 0 28
1.0551046 1.3398736 -0.039221756 0 29
1.0617822 1.3483535 -0.02367932 0 30
1.0666394 1.3545216 -0.0079287672 0 31
1.0650674 1.3525254 0.0079170819 0 32
1.0535532 1.3379035 0.023495799 0 33
1.0598593 1.3459115 0.039398503 0 34
1.0529902 1.3371885 0.054809693 0 35
1.0567758 1.3419958 0.070738919 0 36
1.0584315 1.3440984 0.086618587 0 37
1.0589228 1.3447224 0.10244965 0 38
1.0662786 1.3540634 0.11907937 0 39
1.0676285 1.3557776 0.13518861 0 40
1.0581037 1.3436821 0.14982145 0 41
1.0667616 1.3546768 0.16704166 0 42
1.056726 1.3419325 0.18134226 0 43
1.0606259 1.3468851 0.19797331 0 44
1.0564207 1.3415449 0.2131207 0 45
1.0645574 1.3518777 0.23085411 0 46
1.0608445 1.3471627 0.2461244 0 47
1.061887 1.3484867 0.26250005 0 48
1.0639123 1.3510585 0.27921078 0 49
1.0578997 1.3434231 0.29379955 0 50
1.0622617 1.3489624 0.31129572 0 51
1.0615932 1.3481134 0.32742864 0 52
1.0637054 1.3507959 0.34449902 0 53
1.0649635 1.3523933 0.36140546 0 54
1.0616275 1.348157 0.37678435 0 55
1.0605749 1.3468202 0.39297208 0 56
1.0589018 1.3446956 0.40895727 0 57
1.0664668 1.3543024 0.4286764 0 58
1.0532882 1.337567 0.44004503 0 59
1.0596657 1.3456657 0.45955613 0 60
1.0693084 1.357911 0.48082215 0 61
1.0632437 1.3502095 0.49516955 0 62
1.0636899 1.3507761 0.51254964 0 63
1.0396044 1.3541182 -0.50892872 0 0
1.0422214 1.357527 -0.4931159 0 1
1.0415772 1.356688 -0.47581807 0 2
1.0321348 1.3443888 -0.4547514 0 3
1.0441561 1.3600471 -0.44318318 0 4
1.0437135 1.3594704 -0.42621765 0 5
1.0375277 1.3514134 -0.40708953 0 6
1.0398788 1.3544759 -0.39144531 0 7
1.0390147 1.3533502 -0.37463671 0 8
1.032359 1.344681 -0.35592517 0 9
1.0285801 1.3397588 -0.33843297 0 10
1.0389154 1.3532208 -0.32554176 0 11
1.0384443 1.3526073 -0.30916673 0 12
1.047349 1.3642058 -0.29550579 0 13
1.0389256 1.3532342 -0.27699935 0 14
1.0373327 1.3511593 -0.2605176 0 15
1.0248642 1.3349187 -0.24156678 0 16
1.0270511 1.3377672 -0.22627081 0 17
1.0386653 1.3528951 -0.21287875 0 18
1.0418239 1.3570093 -0.19756348 0 19
1.0354983 1.3487699 -0.1805319 0 20
1.0358213 1.3491907 -0.16478215 0 21
1.0398457 1.3544326 -0.14958313 0 22
1.0365148 1.3500938 -0.1333409 0 23
1.0433488 1.3589956 -0.11837591 0 24
1.0317627 1.3439043 -0.10141307 0 25
1.0309262 1.3428147 -0.08571244 0 26
1.0311027 1.3430444 -0.070120566 0 27
1.0308375 1.3426991 -0.054511886 0 28
1.0397316 1.3542839 -0.039266367 0 29
1.0344757 1.347438 -0.023438077 0 30
1.0347099 1.3477432 -0.0078140218 0 31
1.0291879 1.3405505 0.00777232 0 32
1.038429 1.3525872 0.023527648 0 33
1.0399293 1.3545414 0.039273828 0 34
1.0385437 1.3527367 0.054919399 0 35
1.0267268 1.3373449 0.069822989 0 36
1.0345309 1.34751 0.08601214 0 37
1.0326108 1.3450089 0.10149643 0 38
1.0389881 1.3533156 0.11788116 0 39
1.0295976 1.3410841 0.13245106 0 40
1.0393291 1.3537598 0.14950882 0 41
1.0367651 1.35042 0.1649323 0 42
1.0330623 1.345597 0.18010722 0 43
1.0331906 1.3457642 0.19592634 0 44
1.0306334 1.3424333 0.21123257 0 45
1.0406785 1.3555173 0.22927307 0 46
1.0354875 1.3487558 0.24407074 0 47
1.0306065 1.3423983 0.25882837 0 48
1.0365586 1.3501511 0.27636826 0 49
1.0369453 1.3506547 0.29257041 0 50
1.0345862 1.3475819 0.30801809 0 51
1.0376321 1.3515494 0.32513964 0 52
1.0281923 1.3392537 0.33830538 0 53
1.0446836 1.3607341 0.3601743 0 54
1.0302271 1.341904 0.37146816 0 55
1.0365665 1.3501613 0.39019841 0 56
1.0325091 1.3448765 0.40512043 0 57
1.0321021 1.3443463 0.42147595 0 58
1.0354648 1.3487263 0.43949422 0 59
1.0409064 1.3558142 0.45861617 0 60
1.033443 1.3460928 0.47210211 0 61
1.0508536 1.3687707 0.49720016 0 62
1.0311702 1.3431326 0.5047999 0 63
1.0171518 1.3591493 -0.50608057 0 0
1.020093 1.3630793 -0.49053928 0 1
1.0194894 1.3622729 -0.47334433 0 2
1.0176169 1.3597708 -0.4556874 0 3
1.0103258 1.3500282 -0.43583721 0 4
1.0169314 1.3588549 -0.42207232 0 5
1.0120003 1.3522658 -0.40356728 0 6
1.0157523 1.3572792 -0.38861644 0 7
1.0171778 1.3591841 -0.37276107 0 8
1.0181247 1.3604493 -0.35675821 0 9
1.0156084 1.357087 -0.33962986 0 10
1.0156406 1.3571299 -0.32345331 0 11
1.0189146 1.3615048 -0.30831337 0 12
1.0124027 1.3528033 -0.29031727 0 13
1.014415 1.3554925 -0.27488753 0 14
1.0088047 1.3479956 -0.25749639 0 15
1.0155249 1.3569754 -0.24328005 0 16
1.0123863 1.3527815 -0.22668761 0 17
1.0125737 1.353032 -0.21092516 0 18
1.0120143 1.3522844 -0.19504914 0 19
1.0066762 1.3451515 -0.17837724 0 20
1.0146862 1.3558547 -0.16405979 0 21
1.005125 1.3430787 -0.14695314 0 22
1.0173215 1.3593761 -0.1330121 0 23
1.0072085 1.3458626 -0.11614437 0 24
1.0116146 1.3517504 -0.10105883 0 25
1.0078745 1.3467526 -0.085166298 0 26
1.016273 1.357975 -0.070242338 0 27
1.0167099 1.3585588 -0.054644074 0 28
1.0054355 1.3434935 -0.038592122 0 29
1.0117983 1.3519958 -0.023299184 0 30
1.0157998 1.3573426 -0.0077966689 0 31
1.017338 1.3593981 0.0078084758 0 32
1.0060406 1.3443022 0.023166597 0 33
1.0092753 1.3486245 0.038739514 0 34
1.0128629 1.3534185 0.054437321 0 35
1.0242361 1.3686155 0.07079272 0 36
1.0064049 1.3447889 0.085042112 0 37
1.008919 1.3481483 0.10078953 0 38
1.0178728 1.3601128 0.11737413 0 39
1.0144272 1.3555086 0.13263367 0 40
1.0057193 1.3438729 0.14704002 0 41
1.0093325 1.348701 0.16319416 0 42
1.0165788 1.3583837 0.18013191 0 43
1.0082715 1.3472831 0.19432777 0 44
1.0064411 1.3448374 0.2096477 0 45
1.0130787 1.3537067 0.22684266 0 46
1.0079358 1.3468345 0.24146198 0 47
1.0126933 1.3531916 0.25848892 0 48
1.0123781 1.3527704 0.27433553 0 49
1.0179095 1.3601618 0.29189643 0 50
1.0120925 1.3523889 0.30624905 0 51
1.0042145 1.3418622 0.31981444 0 52
1.009306 1.3486655 0.33752227 0 53
1.0127881 1.3533185 0.35488823 0 54
1.013325 1.3540357 0.37134913 0 55
1.0129756 1.3535689 0.38755411 0 56
1.0049225 1.3428082 0.40074477 0 57
1.0093153 1.348678 0.41891128 0 58
1.0093617 1.34874 0.43542135 0 59
1.0126332 1.3531114 0.45345569 0 60
1.0143595 1.3554181 0.47096252 0 61
1.0069784 1.3455554 0.48423284 0 62
1.0108252 1.3506955 0.50293279 0 63
0.98257315 1.3471615 -0.49708056 0 0
0.98528332 1.3508773 -0.48175159 0 1
0.98913819 1.3561625 -0.46695969 0 2
0.9909336 1.3586241 -0.45118558 0 3
0.98724765 1.3535706 -0.43302897 0 4
0.98630261 1.3522749 -0.41622999 0 5
0.98332757 1.3481959 -0.39871398 0 6
0.99268615 1.361027 -0.38616535 0 7
0.98873031 1.3556033 -0.36841685 0 8
0.98555374 1.3512481 -0.35114077 0 9
0.98804939 1.3546698 -0.33595896 0 10
0.9857887 1.3515702 -0.31921503 0 11
0.98191196 1.3462549 -0.30210304 0 12
0.99140972 1.359277 -0.28906849 0 13
0.98854429 1.3553483 -0.2723726 0 14
0.99053168 1.3580731 -0.25707531 0 15
0.98455083 1.3498731 -0.23981813 0 16
0.98235583 1.3468636 -0.22365485 0 17
0.99046814 1.3579861 -0.20978296 0 18
0.98572719 1.351486 -0.19317108 0 19
0.99258864 1.3608934 -0.17883269 0 20
0.9703334 1.3303802 -0.15952154 0 21
0.97931522 1.3426948 -0.14558253 0 22
0.98612201 1.3520272 -0.13109665 0 23
0.99447042 1.3634733 -0.11660003 0 24
0.98139739 1.3455496 -0.099685505 0 25
0.98524469 1.3508245 -0.084651254 0 26
0.98715353 1.3534415 -0.069374718 0 27
0.98311538 1.3479049 -0.053725258 0 28
0.98768967 1.3541765 -0.03854721 0 29
0.99269474 1.3610388 -0.023242908 0 30
0.99376601 1.3625076 -0.0077555594 0 31
0.99216223 1.3603086 0.0077430429 0 32
0.99302107 1.3614862 0.023250548 0 33
0.9940275 1.362866 0.038794562 0 34
0.98029715 1.344041 0.053571247 0 35
0.98634183 1.3523287 0.069317669 0 36
0.98877001 1.3556578 0.084954143 0 37
0.98461211 1.3499571 0.10001204 0 38
0.9902178 1.3576428 0.11610142 0 39
0.98585975 1.3516676 0.13106178 0 40
0.98729324 1.353633 0.14676851 0 41
0.98887753 1.3558053 0.16257016 0 42
0.98485947 1.3502963 0.17744014 0 43
0.99679279 1.3666575 0.19533958 0 44
0.98549461 1.3511671 0.20872955 0 45
0.98406959 1.3492132 0.22404502 0 46
0.98265707 1.3472766 0.23935685 0 47
0.99546814 1.3648412 0.25835648 0 48
0.98699844 1.3532288 0.27194667 0 49
0.98900211 1.355976 0.28836647 0 50
0.98488653 1.3503333 0.30301821 0 51
0.98390555 1.3489883 0.31860524 0 52
0.99210167 1.3602257 0.33733684 0 53
0.98581064 1.3516003 0.35123229 0 54
0.98015016 1.3438395 0.36521974 0 55
0.98816317 1.3548257 0.38440585 0 56
0.98232144 1.3468164 0.39830598 0 57
0.98847848 1.3552581 0.4171482 0 58
0.99328452 1.3618474 0.43567687 0 59
0.99064708 1.3582313 0.45105511 0 60
0.99167871 1.3596457 0.46815905 0 61
0.99255842 1.360852 0.48530877 0 62
0.98151708 1.3457136 0.49654627 0 63
0.96534985 1.358318 -0.49677953 0 0
0.96424013 1.3567564 -0.47958359 0 1
0.96117681 1.3524461 -0.46157554 0 2
0.96919399 1.3637269 -0.44888848 0 3
0.97178757 1.3673762 -0.43358999 0 4
0.95902354 1.3494163 -0.41168922 0 5
0.96728361 1.3610389 -0.39896441 0 6
0.96315944 1.3552359 -0.38113305 0 7
0.9615975 1.3530381 -0.36447862 0 8
0.96461546 1.3572847 -0.34960067 0 9
0.9629643 1.3549613 -0.33306947 0 10
0.96585327 1.3590263 -0.31814694 0 11
0.96701956 1.3606673 -0.30264595 0 12
0.96716076 1.3608661 -0.28685561 0 13
0.96516573 1.3580588 -0.27051184 0 14
0.96431005 1.3568548 -0.25458089 0 15
0.96023792 1.3511251 -0.23792486 0 16
0.96837312 1.3625718 -0.22426902 0 17
0.96646494 1.3598869 -0.20822498 0 18
0.97461814 1.3713591 -0.19428395 0 19
0.96362567 1.3558918 -0.17660502 0 20
0.96152395 1.3529346 -0.16079611 0 21
0.96486014 1.3576288 -0.14590433 0 22
0.96101284 1.3522155 -0.12995926 0 23
0.96368128 1.3559701 -0.11493633 0 24
0.95500219 1.343758 -0.098675326 0 25
0.96358585 1.3558359 -0.084216423 0 26
0.96244854 1.3542355 -0.068803594 0 27
0.96601552 1.3592546 -0.053700112 0 28
0.96107191 1.3522985 -0.038154472 0 29
0.96139073 1.3527471 -0.022897692 0 30
0.95895195 1.3493156 -0.0076127732 0 31
0.96808094 1.3621608 0.007685245 0 32
0.95829052 1.3483849 0.022823853 0 33
0.96215224 1.3538187 0.038197361 0 34
0.96962929 1.3643394 0.053900998 0 35
0.96107423 1.3523018 0.068705343 0 36
0.96461761 1.3572876 0.084306598 0 37
0.96437359 1.3569442 0.099643618 0 38
0.95575631 1.3448192 0.11399113 0 39
0.964221 1.3567295 0.13039309 0 40
0.96459889 1.3572613 0.14586483 0 41
0.95387578 1.3421731 0.15951709 0 42
0.96397012 1.3563765 0.17666814 0 43
0.95810246 1.3481203 0.19099167 0 44
0.96294999 1.3549411 0.20746769 0 45
0.9645682 1.3572181 0.22338784 0 46
0.95495725 1.3436948 0.23661642 0 47
0.96026444 1.3511623 0.25351283 0 48
0.96333033 1.3554763 0.26999742 0 49
0.96387619 1.3562444 0.2858814 0 50
0.9596656 1.3503197 0.30034441 0 51
0.96566308 1.3587587 0.3180843 0 52
0.96458614 1.3572433 0.33363044 0 53
0.96154916 1.3529701 0.34848937 0 54
0.96730769 1.3610728 0.36664298 0 55
0.9665851 1.360056 0.38248864 0 56
0.96160936 1.3530549 0.39662403 0 57
0.96054471 1.3515568 0.41234225 0 58
0.96982026 1.364608 0.43271223 0 59
0.96504825 1.3578936 0.44696838 0 60
0.96695113 1.360571 0.4643485 0 61
0.96631241 1.3596723 0.48061427 0 62
0.95929468 1.3497978 0.49366349 0 63
0.93953353 1.3570247 -0.49204406 0 0
0.93706155 1.3534544 -0.47430754 0 1
0.94185144 1.3603725 -0.46029335 0 2
0.93807489 1.3549179 -0.44215855 0 3
0.94299841 1.3620292 -0.42818522 0 4
0.9305883 1.3441046 -0.40654686 0 5
0.93823022 1.3551422 -0.39382428 0 6
0.9455598 1.3657289 -0.38078532 0 7
0.94102919 1.359185 -0.36298993 0 8
0.94440818 1.3640654 -0.34832972 0 9
0.94161725 1.3600343 -0.33144528 0 10
0.94126731 1.3595289 -0.31553122 0 11
0.93794423 1.3547292 -0.29873729 0 12
0.93857169 1.3556355 -0.28329888 0 13
0.93478012 1.350159 -0.26662853 0 14
0.94308668 1.3621567 -0.25338069 0 15
0.94002092 1.3577286 -0.23703432 0 16
0.94114923 1.3593584 -0.22181854 0 17
0.94433635 1.3639617 -0.20705524 0 18
0.93750739 1.3540982 -0.19019099 0 19
0.93911296 1.3564173 -0.1751561 0 20
0.93913162 1.3564441 -0.15982865 0 21
0.94025773 1.3580707 -0.14469832 0 22
0.93356907 1.3484099 -0.12848049 0 23
0.93917525 1.3565072 -0.11399434 0 24
0.93922359 1.356577 -0.098761111 0 25
0.9394995 1.3569756 -0.08356332 0 26
0.9374823 1.3540621 -0.068203941 0 27
0.93852502 1.3555681 -0.053094521 0 28
0.93501621 1.3505001 -0.037776478 0 29
0.94023925 1.358044 -0.022789927 0 30
0.93571347 1.3515072 -0.0075596506 0 31
0.93885785 1.3560488 0.0075850538 0 32
0.93743116 1.3539882 0.022721864 0 33
0.93496287 1.350423 0.037774321 0 34
0.93753582 1.3541393 0.05303856 0 35
0.93800151 1.3548119 0.068241715 0 36
0.94286001 1.3618293 0.083862215 0 37
0.94176686 1.3602505 0.099028543 0 38
0.93827367 1.3552051 0.11388491 0 39
0.9407593 1.3587952 0.12947005 0 40
0.93762183 1.3542635 0.14429268 0 41
0.9474144 1.3684075 0.16123828 0 42
0.94411343 1.3636397 0.17608875 0 43
0.94228524 1.3609992 0.19116026 0 44
0.94347131 1.3627123 0.20686558 0 45
0.94239765 1.3611615 0.22211277 0 46
0.93731153 1.3538153 0.23635113 0 47
0.93592429 1.3518116 0.25145632 0 48
0.94097191 1.3591022 0.26839462 0 49
0.94418728 1.3637464 0.28499389 0 50
0.94239682 1.3611603 0.30015543 0 51
0.94403815 1.363531 0.31646004 0 52
0.93291247 1.3474616 0.32838124 0 53
0.93834335 1.3553057 0.34609282 0 54
0.93936473 1.3567809 0.3623479 0 55
0.93847609 1.3554974 0.37793264 0 56
0.93019253 1.3435329 0.39045045 0 57
0.93604571 1.351987 0.40893105 0 58
0.93559372 1.3513342 0.42482299 0 59
0.94211125 1.3607479 0.44406107 0 60
0.93876553 1.3559154 0.45878524 0 61
0.93845809 1.3554714 0.47501439 0 62
0.94047648 1.3583866 0.49253792 0 63
0.91561919 1.357859 -0.48822731 0 0
0.92500281 1.3717748 -0.47670576 0 1
0.91107887 1.3511257 -0.45333967 0 2
0.92370683 1.3698529 -0.44329223 0 3
0.91139364 1.3515925 -0.42134917 0 4
0.91117823 1.3512731 -0.40529552 0 5
0.92049545 1.3650905 -0.39339623 0 6
0.91623896 1.3587781 -0.37567768 0 7
0.9129529 1.353905 -0.35855463 0 8
0.91131902 1.3514818 -0.34222889 0 9
0.92516351 1.3720132 -0.33156705 0 10
0.9261384 1.373459 -0.31609726 0 11
0.9147439 1.3565609 -0.2966384 0 12
0.91688037 1.3597293 -0.28177699 0 13
0.91760886 1.3608096 -0.26648343 0 14
0.91697878 1.3598752 -0.25083989 0 15
0.92082542 1.3655797 -0.23641035 0 16
0.91765916 1.3608842 -0.22020957 0 17
0.91845149 1.3620592 -0.20503651 0 18
0.91818762 1.3616679 -0.18965404 0 19
0.91459912 1.3563462 -0.17368156 0 20
0.91975778 1.3639965 -0.15937386 0 21
0.92136496 1.3663799 -0.14436561 0 22
0.92006946 1.3644587 -0.12892194 0 23
0.92325586 1.3691841 -0.11409698 0 24
0.91408688 1.3555865 -0.097863309 0 25
0.91417205 1.3557129 -0.082787067 0 26
0.91767514 1.3609079 -0.067975245 0 27
0.90867841 1.3475658 -0.052339494 0 28
0.92090899 1.3657037 -0.037882138 0 29
0.90932709 1.3485279 -0.022440895 0 30
0.916462 1.3591088 -0.0075385659 0 31
0.91992486 1.3642443 0.0075670509 0 32
0.91849422 1.3621227 0.022667125 0 33
0.90760362 1.3459719 0.037334815 0 34
0.91668659 1.3594419 0.05280076 0 35
0.91767299 1.3609048 0.067975089 0 36
0.91332656 1.354459 0.082710505 0 37
0.91520047 1.3572381 0.097982533 0 38
0.92195034 1.3672481 0.11393566 0 39
0.92059046 1.3652314 0.12899494 0 40
0.91970599 1.3639197 0.14410567 0 41
0.9128744 1.3537884 0.15818113 0 42
0.91480267 1.3566481 0.17372021 0 43
0.90630972 1.344053 0.18720064 0 44
0.91372359 1.3550478 0.20398104 0 45
0.91587305 1.3582355 0.21978095 0 46
0.90928578 1.3484665 0.23344769 0 47
0.91813385 1.3615882 0.25115585 0 48
0.91351223 1.3547343 0.26529372 0 49
0.9224599 1.3680037 0.28349173 0 50
0.91477698 1.3566101 0.29664913 0 51
0.91882193 1.3626086 0.31360006 0 52
0.91426414 1.3558495 0.32766086 0 53
0.92306077 1.3688948 0.34663832 0 54
0.91358346 1.35484 0.35880226 0 55
0.91744173 1.3605618 0.37617087 0 56
0.91619712 1.358716 0.39155921 0 57
0.91518557 1.3572159 0.407078 0 58
0.91837746 1.3619494 0.42457789 0 59
0.90813822 1.3467648 0.43582076 0 60
0.92089593 1.3656843 0.45822448 0 61
0.90923673 1.3483938 0.46858063 0 62
0.91321045 1.3542868 0.48694292 0 63
0.88540179 1.3485252 -0.48092031 0 0
0.8853175 1.3483969 -0.46476343 0 1
0.8884629 1.3531876 -0.45033181 0 2
0.89169568 1.3581111 -0.43591136 0 3
0.88788837 1.3523124 -0.41813844 0 4
0.89410108 1.3617748 -0.40511715 0 5
0.89390522 1.3614765 -0.38915765 0 6
0.88952607 1.3548068 -0.37152743 0 7
0.89440417 1.3622364 -0.3578214 0 8
0.89385849 1.3614054 -0.34193265 0 9
0.89039487 1.35613 -0.32505816 0 10
0.89674449 1.365801 -0.31177342 0 11
0.89483202 1.3628881 -0.29559353 0 12
0.90310454 1.3754877 -0.28271994 0 13
0.89586359 1.3644593 -0.26502085 0 14
0.88837379 1.3530518 -0.24754754 0 15
0.88964701 1.354991 -0.23266576 0 16
0.89850157 1.3684771 -0.21963382 0 17
0.90036529 1.3713156 -0.20474781 0 18
0.88612252 1.349623 -0.18644468 0 19
0.89462739 1.3625765 -0.17305759 0 20
0.89916867 1.369493 -0.15871221 0 21
0.89291435 1.3599674 -0.14251724 0 22
0.89947265 1.369956 -0.1283866 0 23
0.89565092 1.3641354 -0.11274997 0 24
0.88995385 1.3554583 -0.097056687 0 25
0.88858217 1.3533691 -0.081970528 0 26
0.89288366 1.3599205 -0.067372434 0 27
0.88711089 1.3511283 -0.052050244 0 28
0.88730031 1.3514167 -0.03718039 0 29
0.89352334 1.3608948 -0.022462158 0 30
0.89077491 1.3567089 -0.0074639344 0 31
0.89729023 1.3666321 0.0075185271 0 32
0.88845235 1.3531715 0.02233468 0 33
0.89166653 1.3580668 0.03736335 0 34
0.88444966 1.347075 0.051894099 0 35
0.89175171 1.3581965 0.06728702 0 36
0.89855576 1.3685596 0.082890578 0 37
0.88960439 1.3549261 0.097018577 0 38
0.89543372 1.3638046 0.11272264 0 39
0.8890478 1.3540783 0.12689862 0 40
0.89786965 1.3675146 0.14330815 0 41
0.89464444 1.3626024 0.15791364 0 42
0.89311415 1.3602716 0.17276487 0 43
0.88908613 1.3541367 0.18706824 0 44
0.89554268 1.3639705 0.20365113 0 45
0.90067947 1.3717941 0.22016618 0 46
0.89017624 1.3557971 0.23280415 0 47
0.89539099 1.3637395 0.2495029 0 48
0.90048712 1.3715012 0.26638862 0 49
0.8932445 1.3604702 0.27963322 0 50
0.8967309 1.3657802 0.29622078 0 51
0.89664954 1.3656563 0.3117404 0 52
0.894669 1.3626398 0.32661852 0 53
0.89097446 1.3570127 0.34082943 0 54
0.89422131 1.3619579 0.35774824 0 55
0.89188313 1.3583968 0.37251192 0 56
0.89708275 1.3663161 0.39054096 0 57
0.88980287 1.3552283 0.40316963 0 58
0.89706343 1.3662866 0.42245927 0 59
0.89260501 1.3594962 0.43635589 0 60
0.89566308 1.3641539 0.45398131 0 61
0.88585722 1.3492188 0.46504676 0 62
0.89208418 1.358703 0.48454997 0 63
0.86912429 1.3598891 -0.48112532 0 0
0.86783922 1.3578784 -0.46431822 0 1
0.87164211 1.3638287 -0.45027214 0 2
0.86740714 1.3572024 -0.43216351 0 3
0.86885172 1.3594626 -0.41701427 0 4
0.86528844 1.3538873 -0.39957517 0 5
0.87152213 1.3636409 -0.38668388 0 6
0.87023783 1.3616314 -0.37043646 0 7
0.87221873 1.364731 -0.35563254 0 8
0.87213838 1.3646052 -0.34001711 0 9
0.875543 1.3699323 -0.32576129 0 10
0.87350303 1.3667405 -0.30951262 0 11
0.86202967 1.3487884 -0.29021454 0 12
0.86899382 1.3596849 -0.27725455 0 13
0.86086673 1.3469688 -0.25954798 0 14
0.87097597 1.3627864 -0.24735041 0 15
0.87925541 1.3757409 -0.23435453 0 16
0.87553263 1.3699161 -0.21812038 0 17
0.87172288 1.363955 -0.20203312 0 18
0.87179381 1.364066 -0.18694489 0 19
0.87425959 1.3679242 -0.17235839 0 20
0.86447829 1.3526196 -0.15551305 0 21
0.87616771 1.3709097 -0.14252414 0 22
0.87323892 1.3663272 -0.12703063 0 23
0.87288409 1.365772 -0.11198963 0 24
0.8735826 1.3668649 -0.097096935 0 25
0.86963624 1.3606901 -0.081760086 0 26
0.87253577 1.365227 -0.067098714 0 27
0.86962438 1.3606716 -0.052002013 0 28
0.87519109 1.3693817 -0.037375737 0 29
0.87736458 1.3727825 -0.022478599 0 30
0.87108684 1.3629599 -0.0074388338 0 31
0.87539077 1.3696941 0.007475588 0 32
0.87626481 1.3710617 0.022450423 0 33
0.87800914 1.373791 0.037496086 0 34
0.86852878 1.3589574 0.0519365 0 35
0.87445128 1.3682241 0.06724602 0 36
0.86932409 1.3602017 0.081730738 0 37
0.86488217 1.3532517 0.096129902 0 38
0.87551665 1.369891 0.11232738 0 39
0.87366426 1.3669927 0.1270925 0 40
0.86968338 1.3607639 0.14146934 0 41
0.86646026 1.3557209 0.1558696 0 42
0.86999035 1.3612442 0.17151672 0 43
0.86951745 1.3605043 0.18645674 0 44
0.86338735 1.3509128 0.20010124 0 45
0.8751812 1.3693662 0.21803284 0 46
0.86656225 1.3558804 0.23097132 0 47
0.87950569 1.3761326 0.24977277 0 48
0.87121475 1.36316 0.26266786 0 49
0.86813933 1.358348 0.27698192 0 50
0.87326622 1.3663698 0.2939975 0 51
0.86991453 1.3611256 0.30824107 0 52
0.87323666 1.3663236 0.32490316 0 53
0.86940312 1.3603255 0.33895075 0 54
0.87286824 1.3657471 0.35589734 0 55
0.86734164 1.3570999 0.36920363 0 56
0.87204146 1.3644536 0.38691431 0 57
0.86526752 1.3538547 0.39956552 0 58
0.86487561 1.3532413 0.41510591 0 59
0.8690995 1.3598504 0.43300667 0 60
0.86990136 1.361105 0.44937289 0 61
0.86625952 1.3554068 0.46347305 0 62
0.86790305 1.3579783 0.48044926 0 63
0.84392792 1.3569502 -0.47637799 0 0
0.84627426 1.3607228 -0.46169761 0 1
0.84675127 1.3614898 -0.44602865 0 2
0.84418684 1.3573664 -0.42887795 0 3
0.84613347 1.3604964 -0.41410851 0 4
0.84521329 1.3590169 -0.39799163 0 5
0.84953606 1.3659674 -0.38435233 0 6
0.84953582 1.365967 -0.36874616 0 7
0.84553933 1.3595412 -0.3515442 0 8
0.85362428 1.372541 -0.33935338 0 9
0.84683722 1.3616279 -0.32128611 0 10
0.85163736 1.369346 -0.30770791 0 11
0.84450632 1.3578801 -0.28991449 0 12
0.85125202 1.3687265 -0.27694285 0 13
0.84817225 1.3637745 -0.26075691 0 14
0.84287208 1.3552524 -0.24408334 0 15
0.84926403 1.36553 -0.23081873 0 16
0.84619027 1.3605877 -0.21496214 0 17
0.85033309 1.367249 -0.20095703 0 18
0.85475028 1.3743514 -0.1868999 0 19
0.84799069 1.3634826 -0.17047203 0 20
0.84790218 1.3633403 -0.15553515 0 21
0.84675771 1.3615 -0.14045279 0 22
0.84615052 1.3605238 -0.12551424 0 23
0.84767479 1.3629748 -0.11089719 0 24
0.84710968 1.362066 -0.096008837 0 25
0.85327882 1.3719854 -0.081802145 0 26
0.84983373 1.366446 -0.06663999 0 27
0.85196048 1.3698657 -0.051949088 0 28
0.84657639 1.3612086 -0.036865752 0 29
0.85617661 1.3766447 -0.022367762 0 30
0.84883142 1.3648344 -0.0073915389 0 31
0.84210682 1.354022 0.007332982 0 32
0.85370111 1.3726643 0.022303089 0 33
0.84653884 1.3611482 0.036864117 0 34
0.83832771 1.3479456 0.051117815 0 35
0.84803391 1.3635521 0.066498861 0 36
0.84626466 1.3607074 0.081129715 0 37
0.84911656 1.3652929 0.096236296 0 38
0.84718829 1.3621924 0.11083354 0 39
0.84761333 1.3628759 0.12573123 0 40
0.84388077 1.3568742 0.13997558 0 41
0.85169184 1.3694336 0.1562303 0 42
0.85465384 1.3741963 0.17181152 0 43
0.84996474 1.3666567 0.1858535 0 44
0.85375154 1.3727455 0.20176491 0 45
0.84886867 1.3648943 0.21564254 0 46
0.84859687 1.3644572 0.23063742 0 47
0.8500458 1.366787 0.24616075 0 48
0.84189796 1.3536861 0.25882798 0 49
0.84715253 1.3621349 0.27560917 0 50
0.84815979 1.3637545 0.29116869 0 51
0.84891975 1.3649765 0.30672601 0 52
0.84769273 1.3630035 0.32161069 0 53
0.84781659 1.3632027 0.33704457 0 54
0.85267949 1.3710217 0.35451278 0 55
0.85355699 1.3724327 0.37049156 0 56
0.85357887 1.3724678 0.38618138 0 57
0.84184694 1.3536042 0.3964065 0 58
0.85581911 1.3760699 0.41884881 0 59
0.84358776 1.3564032 0.42857358 0 60
0.84585953 1.3600559 0.44555894 0 61
0.84502774 1.3587185 0.46101755 0 62
0.84671789 1.3614361 0.47795287 0 63
0.82866389 1.3696773 -0.47723275 0 0
0.82331288 1.3608327 -0.45826522 0 1
0.82462311 1.3629984 -0.44316748 0 2
0.82465214 1.3630464 -0.42743632 0 3
0.82132936 1.3575542 -0.41010791 0 4
0.82186896 1.3584461 -0.39483503 0 5
0.83204448 1.375265 -0.38406056 0 6
0.8212201 1.3573736 -0.36367282 0 7
0.82947928 1.371025 -0.35184965 0 8
0.82529229 1.3641044 -0.33473313 0 9
0.82098442 1.3569841 -0.31778431 0 10
0.83344764 1.3775842 -0.30723295 0 11
0.82663077 1.3663168 -0.28952366 0 12
0.82162517 1.3580432 -0.2727164 0 13
0.82705736 1.3670219 -0.25941369 0 14
0.82438684 1.3626078 -0.24356395 0 15
0.82160896 1.3580164 -0.22782375 0 16
0.81175011 1.3417209 -0.21038841 0 17
0.82882893 1.3699501 -0.19984096 0 18
0.82772958 1.3681331 -0.18465617 0 19
0.82165593 1.3580941 -0.16852237 0 20
0.82149142 1.3578221 -0.15374157 0 21
0.82605726 1.3653688 -0.13979346 0 22
0.82486463 1.3633976 -0.12483419 0 23
0.82595879 1.365206 -0.11024404 0 24
0.82701552 1.3669527 -0.095629245 0 25
0.82784086 1.3683169 -0.080970362 0 26
0.82610202 1.3654429 -0.066090673 0 27
0.81852192 1.3529139 -0.050920691 0 28
0.8290574 1.3703277 -0.036833841 0 29
0.82604325 1.3653457 -0.022017473 0 30
0.83150309 1.3743701 -0.0073872497 0 31
0.82590121 1.3651109 0.0073374817 0 32
0.82496071 1.3635564 0.021988617 0 33
0.8332845 1.3773146 0.037021648 0 34
0.82064372 1.356421 0.05105269 0 35
0.8210029 1.3570147 0.065682724 0 36
0.82897443 1.3701905 0.081081234 0 37
0.81877714 1.3533357 0.094676621 0 38
0.82695472 1.3668522 0.11037698 0 39
0.82351595 1.3611684 0.12463009 0 40
0.82371289 1.3614938 0.13939671 0 41
0.82862449 1.3696121 0.15507652 0 42
0.83129787 1.3740309 0.17049994 0 43
0.82283407 1.3600413 0.18356402 0 44
0.82722384 1.3672971 0.19945396 0 45
0.82783157 1.3683015 0.21455637 0 46
0.82840639 1.3692516 0.2297086 0 47
0.81999296 1.3553454 0.24226579 0 48
0.82099938 1.3570088 0.25751355 0 49
0.82740015 1.3675885 0.27463326 0 50
0.82935971 1.3708274 0.29047945 0 51
0.82249022 1.359473 0.30319372 0 52
0.82685697 1.3666906 0.32005742 0 53
0.82500327 1.3636267 0.33461592 0 54
0.82612389 1.365479 0.35042635 0 55
0.81819212 1.3523688 0.36233193 0 56
0.83064705 1.3729552 0.38341555 0 57
0.82218593 1.35897 0.39498734 0 58
0.82734752 1.3675015 0.41311291 0 59
0.81986421 1.3551326 0.42495462 0 60
0.83085692 1.3733021 0.44651765 0 61
0.82916152 1.3704997 0.46152064 0 62
0.82618147 1.3655742 0.47580314 0 63
0.80854392 1.3742956 -0.47534183 0 0
0.81143236 1.3792051 -0.46105731 0 1
0.80775779 1.3729594 -0.44314325 0 2
0.81163287 1.3795459 -0.42944825 0 3
0.81035143 1.377368 -0.41305208 0 4
0.8044076 1.367265 -0.39449352 0 5
0.80101609 1.3615005 -0.37743747 0 6
0.80405658 1.3666683 -0.36348668 0 7
0.80338162 1.3655212 -0.34787568 0 8
0.80350536 1.3657316 -0.33268276 0 9
0.80322498 1.365255 -0.31738421 0 10
0.80534446 1.3688575 -0.3030552 0 11
0.80490202 1.3681054 -0.28778362 0 12
0.79874569 1.3576415 -0.27064291 0 13
0.79974222 1.3593353 -0.25606951 0 14
0.80578959 1.3696141 -0.24302682 0 15
0.79886633 1.3578465 -0.22613019 0 16
0.8026402 1.3642609 -0.21235913 0 17
0.80878204 1.3747003 -0.19906811 0 18
0.80014777 1.3600246 -0.18222004 0 19
0.80415052 1.3668281 -0.16836642 0 20
0.80231917 1.3637153 -0.1532802 0 21
0.80572486 1.369504 -0.13919193 0 22
0.79489505 1.3510964 -0.12280364 0 23
0.79956728 1.3590379 -0.10894376 0 24
0.80666399 1.3711003 -0.095218278 0 25
0.81283855 1.3815953 -0.081158519 0 26
0.81042677 1.3774959 -0.066186711 0 27
0.8014273 1.3621993 -0.050895415 0 28
0.80196774 1.3631181 -0.036372229 0 29
0.80801612 1.3733985 -0.021985447 0 30
0.7959308 1.3528569 -0.0072184643 0 31
0.8104679 1.3775659 0.0073503046 0 32
0.79710025 1.3548446 0.021688435 0 33
0.80261075 1.364211 0.036401391 0 34
0.80166894 1.3626101 0.050910763 0 35
0.80617017 1.3702608 0.065839082 0 36
0.79506743 1.3513894 0.079384148 0 37
0.80578822 1.3696117 0.095114909 0 38
0.81404746 1.3836501 0.11091673 0 39
0.80529362 1.3687711 0.12441012 0 40
0.8108694 1.3782483 0.14008066 0 41
0.80290532 1.3647115 0.15339218 0 42
0.80487341 1.3680569 0.16851778 0 43
0.79853928 1.3572905 0.18185373 0 44
0.8112179 1.3788407 0.19966768 0 45
0.8045646 1.3675319 0.21286829 0 46
0.80021572 1.3601401 0.22651215 0 47
0.80103648 1.3615351 0.24159327 0 48
0.81426525 1.3840202 0.26071963 0 49
0.80611062 1.3701597 0.2731384 0 50
0.80516541 1.3685532 0.28787783 0 51
0.80756414 1.3726302 0.30389047 0 52
0.80750036 1.3725219 0.31907359 0 53
0.80419415 1.3669022 0.33296794 0 54
0.80445945 1.3673532 0.34834239 0 55
0.80809349 1.37353 0.36531162 0 56
0.80319476 1.3652036 0.37846404 0 57
0.7979371 1.3562671 0.39132029 0 58
0.80279732 1.3645281 0.40920159 0 59
0.80488068 1.3680692 0.42587557 0 60
0.80931932 1.3756136 0.44399992 0 61
0.80864477 1.374467 0.4594734 0 62
0.80136555 1.3620945 0.4711217 0 63
0.86206377 1.5073694 -0.51766384 0 0
0.86784333 1.5174752 -0.50367445 0 1
0.86149412 1.5063733 -0.48274893 0 2
0.86713099 1.5162297 -0.46864277 0 3
0.86788088 1.5175409 -0.45185336 0 4
0.86485261 1.5122458 -0.43322331 0 5
0.8642149 1.5111307 -0.41594079 0 6
0.87148464 1.5238423 -0.40240896 0 7
0.86349785 1.509877 -0.38191742 0 8
0.86944366 1.5202736 -0.36769605 0 9
0.85732305 1.4990799 -0.34601796 0 10
0.8715027 1.5238738 -0.33497685 0 11
0.86223191 1.5076634 -0.31488588 0 12
0.86611056 1.5144454 -0.29975572 0 13
0.86564177 1.5136257 -0.28310797 0 14
0.86725771 1.5164514 -0.26716942 0 15
0.86177266 1.5068603 -0.24916276 0 16
0.86526006 1.5129583 -0.23383133 0 17
0.8736074 1.5275542 -0.21963045 0 18
0.86090571 1.5053444 -0.20025691 0 19
0.865771 1.5138518 -0.18515149 0 20
0.86114824 1.5057685 -0.16804393 0 21
0.86224979 1.5076946 -0.15214805 0 22
0.86703032 1.5160537 -0.13681753 0 23
0.8706972 1.5224655 -0.12117708 0 24
0.85686004 1.4982703 -0.10331029 0 25
0.86510754 1.5126916 -0.088227898 0 26
0.86279249 1.5086436 -0.071972974 0 27
0.86579138 1.5138873 -0.056160871 0 28
0.8646093 1.5118203 -0.040053356 0 29
0.86238867 1.5079374 -0.023967586 0 30
0.87002462 1.5212893 -0.0080594812 0 31
0.86416453 1.5110427 0.0080051962 0 32
0.8704586 1.5220482 0.024191868 0 33
0.86192805 1.5071321 0.039929148 0 34
0.86006242 1.5038699 0.055789255 0 35
0.8688888 1.5193033 0.07248152 0 36
0.86455458 1.5117247 0.088171504 0 37
0.86043799 1.5045265 0.10374167 0 38
0.86554927 1.513464 0.12046064 0 39
0.86885232 1.5192395 0.13710505 0 40
0.86752778 1.5169235 0.15307938 0 41
0.85862672 1.5013595 0.16755188 0 42
0.86975598 1.5208197 0.1860037 0 43
0.8679899 1.5177315 0.20190477 0 44
0.86596018 1.5141824 0.21770789 0 45
0.86086458 1.5052725 0.23264347 0 46
0.86470759 1.5119922 0.25001135 0 47
0.86458546 1.5117787 0.26634619 0 48
0.85921121 1.5023814 0.28100485 0 49
0.8552627 1.4954773 0.29600132 0 50
0.86607152 1.5143771 0.31628808 0 51
0.86308908 1.5091622 0.33174294 0 52
0.86500841 1.5125183 0.34911978 0 53
0.86550558 1.5133876 0.36603057 0 54
0.86760837 1.5170645 0.38373545 0 55
0.86466533 1.5119183 0.39926013 0 56
0.87266731 1.5259103 0.4200089 0 57
0.85945481 1.5028075 0.43051946 0 58
0.86693472 1.5158864 0.45136076 0 59
0.86804575 1.5178292 0.46913716 0 60
0.87061107 1.5223149 0.48785773 0 61
0.86306763 1.5091246 0.50090277 0 62
0.86259592 1.5082998 0.51798338 0 63
0.75681376 1.3619225 -0.46448311 0 0
0.75832957 1.3646502 -0.44982031 0 1
0.76313126 1.3732911 -0.43705967 0 2
0.76503348 1.3767143 -0.4225812 0 3
0.75814271 1.364314 -0.40342319 0 4
0.76232237 1.3718355 -0.39028412 0 5
0.75736797 1.3629198 -0.37255397 0 6
0.76318359 1.3733853 -0.36017156 0 7
0.7585243 1.3650007 -0.34288636 0 8
0.75928432 1.3663684 -0.32818931 0 9
0.75597858 1.3604195 -0.31184307 0 10
0.76332289 1.373636 -0.29986572 0 11
0.76086622 1.3692151 -0.2839945 0 12
0.75848597 1.3649317 -0.26829597 0 13
0.76641816 1.3792061 -0.2561841 0 14
0.75678241 1.3618661 -0.23827699 0 15
0.76143914 1.3702462 -0.22500809 0 16
0.76185292 1.3709908 -0.21042614 0 17
0.75388682 1.3566554 -0.19371127 0 18
0.76074028 1.3689884 -0.18085928 0 19
0.76318097 1.3733805 -0.16681081 0 20
0.76532727 1.3772429 -0.15263866 0 21
0.76182163 1.3709344 -0.13739125 0 22
0.75907201 1.3659863 -0.12242298 0 23
0.7599538 1.3675731 -0.10809685 0 24
0.76215178 1.3715285 -0.093917742 0 25
0.7609359 1.3693405 -0.079315193 0 26
0.77087092 1.387219 -0.065722972 0 27
0.76126337 1.3699297 -0.05046938 0 28
0.75782812 1.3637478 -0.035880808 0 29
0.75800049 1.3640581 -0.021530954 0 30
0.77391249 1.3926926 -0.0073272311 0 31
0.76411581 1.3750629 0.0072344784 0 32
0.76657832 1.3794943 0.021774607 0 33
0.75650465 1.3613663 0.035818148 0 34
0.76058078 1.3687013 0.050424129 0 35
0.76289129 1.3728594 0.065042652 0 36
0.76642025 1.3792098 0.079886846 0 37
0.76451999 1.3757902 0.094209567 0 38
0.7578451 1.3637785 0.10779691 0 39
0.76203883 1.3713253 0.12290147 0 40
0.76459229 1.3759203 0.13789092 0 41
0.75667977 1.3616813 0.15091398 0 42
0.75868928 1.3652976 0.16582903 0 43
0.76474851 1.3762014 0.18181221 0 44
0.76375085 1.3744061 0.19624583 0 45
0.76257312 1.3722868 0.21062505 0 46
0.75409997 1.3570389 0.22283933 0 47
0.76109844 1.369633 0.2396359 0 48
0.76337904 1.373737 0.2551682 0 49
0.76400137 1.3748569 0.27024692 0 50
0.76262963 1.3723884 0.28465268 0 51
0.76151961 1.3703909 0.29915735 0 52
0.75324172 1.3554944 0.3107141 0 53
0.75937819 1.3665373 0.32822987 0 54
0.75968868 1.3670961 0.3434127 0 55
0.75844592 1.3648596 0.3579357 0 56
0.76351172 1.3739758 0.37557611 0 57
0.76097924 1.3694184 0.38959646 0 58
0.76025784 1.3681203 0.40454867 0 59
0.7570017 1.3622607 0.41814467 0 60
0.76592922 1.3783262 0.43866211 0 61
0.75669312 1.3617054 0.44884965 0 62
0.76567894 1.3778758 0.46992397 0 63
0.74063444 1.3722801 -0.46487445 0 0
0.7370947 1.3657216 -0.44715205 0 1
0.73865116 1.3686055 -0.43264505 0 2
0.74080932 1.3726041 -0.41849184 0 3
0.7370351 1.3656112 -0.40109655 0 4
0.73731822 1.3661357 -0.38605398 0 5
0.74333328 1.3772807 -0.37395275 0 6
0.74069411 1.3723907 -0.35749516 0 7
0.73651159 1.3646411 -0.34049529 0 8
0.73985678 1.3708392 -0.32705328 0 9
0.73802799 1.3674508 -0.31135103 0 10
0.74078548 1.37256 -0.29761985 0 11
0.74399549 1.3785076 -0.28400287 0 12
0.73886049 1.3689933 -0.2672883 0 13
0.74097335 1.3729081 -0.25330269 0 14
0.74220717 1.3751942 -0.23899403 0 15
0.73608357 1.3638481 -0.22245435 0 16
0.74047619 1.371987 -0.20916571 0 17
0.74674559 1.3836032 -0.19623309 0 18
0.73225719 1.3567584 -0.17804055 0 19
0.73885578 1.3689846 -0.16516088 0 20
0.74061006 1.3722351 -0.15106292 0 21
0.74371493 1.3779877 -0.13717125 0 22
0.74303114 1.3767208 -0.12255692 0 23
0.73671663 1.365021 -0.10717098 0 24
0.74291497 1.3765056 -0.093625933 0 25
0.73410666 1.3601853 -0.07825613 0 26
0.73818952 1.3677502 -0.06436567 0 27
0.73746836 1.366414 -0.050001994 0 28
0.73938584 1.3699667 -0.035802513 0 29
0.74426442 1.3790059 -0.021620806 0 30
0.74423581 1.378953 -0.0072062518 0 31
0.7452904 1.3809069 0.0072164633 0 32
0.73381716 1.3596488 0.021317314 0 33
0.74458617 1.3796021 0.036054321 0 34
0.73919743 1.3696176 0.050119225 0 35
0.74262607 1.3759704 0.064752512 0 36
0.74427551 1.3790265 0.079340138 0 37
0.74322474 1.3770796 0.093664967 0 38
0.73322064 1.3585435 0.10666241 0 39
0.74011904 1.3713251 0.12207659 0 40
0.74382907 1.3781992 0.13719231 0 41
0.74134314 1.3735932 0.15121244 0 42
0.74524236 1.3808179 0.16658852 0 43
0.74546516 1.3812307 0.18125193 0 44
0.73944801 1.3700819 0.1943154 0 45
0.74032903 1.3717142 0.20912413 0 46
0.73961383 1.3703891 0.22352125 0 47
0.74113029 1.3731989 0.23864727 0 48
0.7407729 1.3725367 0.25323418 0 49
0.74079168 1.3725715 0.26798689 0 50
0.73593128 1.3635659 0.28092456 0 51
0.7459141 1.3820626 0.29968032 0 52
0.73942137 1.3700325 0.31193885 0 53
0.7342729 1.3604932 0.32458493 0 54
0.74263507 1.3759871 0.34332624 0 55
0.74301004 1.3766818 0.35861292 0 56
0.73420489 1.3603672 0.36936045 0 57
0.73916453 1.3695567 0.38702071 0 58
0.73856795 1.3684512 0.40193072 0 59
0.74288207 1.3764446 0.41966277 0 60
0.73109859 1.3546116 0.42822132 0 61
0.7391125 1.3694602 0.44837615 0 62
0.73776519 1.3669639 0.46307352 0 63
0.71593666 1.3664551 -0.45988411 0 0
0.71292484 1.3607067 -0.44260642 0 1
0.71900761 1.3723164 -0.43099064 0 2
0.71991765 1.3740532 -0.41620317 0 3
0.71730798 1.3690724 -0.39949232 0 4
0.72518826 1.384113 -0.38858485 0 5
0.71986991 1.3739622 -0.37062028 0 6
0.71993911 1.3740942 -0.35560596 0 7
0.7102282 1.3555598 -0.33602491 0 8
0.72156256 1.3771927 -0.32642758 0 9
0.70946062 1.3540947 -0.30630055 0 10
0.71448964 1.3636932 -0.29376993 0 11
0.71675307 1.3680133 -0.28000388 0 12
0.72697723 1.3875273 -0.26914126 0 13
0.72359085 1.3810641 -0.25314671 0 14
0.71400231 1.3627632 -0.23529005 0 15
0.71482885 1.3643407 -0.22108428 0 16
0.7277202 1.3889455 -0.21037099 0 17
0.72495508 1.3836678 -0.19496322 0 18
0.71975493 1.3737427 -0.17909437 0 19
0.72210741 1.3782327 -0.16519289 0 20
0.71512091 1.3648982 -0.14927591 0 21
0.71890175 1.3721144 -0.13569637 0 22
0.72308576 1.3801 -0.12205698 0 23
0.71722394 1.368912 -0.10677597 0 24
0.71954572 1.3733435 -0.092802025 0 25
0.71957463 1.3733985 -0.078501329 0 26
0.72383565 1.3815314 -0.064590462 0 27
0.71532238 1.3652827 -0.049634967 0 28
0.70854819 1.3523532 -0.035111856 0 29
0.71567029 1.3659467 -0.021276472 0 30
0.71712351 1.3687203 -0.0071061575 0 31
0.72043049 1.3750322 0.0071389279 0 32
0.71979779 1.3738245 0.021399181 0 33
0.72111893 1.3763461 0.035734795 0 34
0.71375626 1.3622935 0.049526297 0 35
0.71798062 1.3703562 0.064067997 0 36
0.72106791 1.3762487 0.078664243 0 37
0.717825 1.3700591 0.092580095 0 38
0.71891373 1.3721372 0.10702753 0 39
0.72087789 1.3758861 0.1216843 0 40
0.7165724 1.3676684 0.13525668 0 41
0.72532594 1.3843757 0.15140612 0 42
0.71774489 1.3699062 0.16419488 0 43
0.71834499 1.3710517 0.17874354 0 44
0.71528989 1.3652207 0.19236395 0 45
0.71511286 1.3648828 0.20672643 0 46
0.72462589 1.3830396 0.22411434 0 47
0.72199881 1.3780254 0.23792519 0 48
0.71302038 1.3608891 0.24944867 0 49
0.71799284 1.3703796 0.26581508 0 50
0.72542816 1.3845707 0.28339285 0 51
0.7268976 1.3873754 0.29887161 0 52
0.72157615 1.3772187 0.31153128 0 53
0.71891862 1.3721466 0.32523152 0 54
0.71962661 1.3734978 0.34047151 0 55
0.72018623 1.374566 0.35572803 0 56
0.71919411 1.3726723 0.37027234 0 57
0.71281379 1.3604947 0.38195413 0 58
0.71468896 1.3640736 0.39803368 0 59
0.71592993 1.3664422 0.41389778 0 60
0.71335304 1.3615239 0.42760116 0 61
0.71852738 1.3713998 0.44608465 0 62
0.71470124 1.3640971 0.45909053 0 63
0.6955111 1.3681319 -0.45753554 0 0
0.69788599 1.3728034 -0.44371629 0 1
0.70570755 1.3881891 -0.43321759 0 2
0.70059615 1.3781346 -0.41479862 0 3
0.69875157 1.3745061 -0.39854053 0 4
0.69481522 1.366763 -0.38128647 0 5
0.69929987 1.3755846 -0.36871055 0 6
0.69540823 1.3679295 -0.35177103 0 7
0.69081944 1.3589029 -0.33472261 0 8
0.70102155 1.3789713 -0.32478145 0 9
0.69826365 1.3735464 -0.30873501 0 10
0.69643223 1.3699437 -0.29324949 0 11
0.69826049 1.37354 -0.27935657 0 12
0.69669354 1.3704578 -0.26414853 0 13
0.7031951 1.383247 -0.25194284 0 14
0.69911695 1.3752248 -0.23593955 0 15
0.69926375 1.3755137 -0.22148472 0 16
0.70101708 1.3789626 -0.2075377 0 17
0.69831407 1.3736455 -0.19232659 0 18
0.70156014 1.3800309 -0.17877598 0 19
0.69912839 1.3752474 -0.16379227 0 20
0.70469612 1.3861996 -0.15064652 0 21
0.69705391 1.3711667 -0.13474479 0 22
0.70174521 1.3803948 -0.12131073 0 23
0.70184666 1.3805945 -0.10700595 0 24
0.69928229 1.3755502 -0.092363104 0 25
0.70208341 1.3810601 -0.078439869 0 26
0.70223433 1.3813571 -0.064173758 0 27
0.69679999 1.3706672 -0.049515482 0 28
0.70182413 1.3805501 -0.035617188 0 29
0.70139027 1.3796967 -0.021354694 0 30
0.7000851 1.3771293 -0.0071045845 0 31
0.69997799 1.3769187 0.0071034976 0 32
0.69855928 1.3741279 0.0212685 0 33
0.70176965 1.380443 0.035614423 0 34
0.69595641 1.3690078 0.049455538 0 35
0.69576502 1.3686312 0.063582554 0 36
0.69918197 1.3753527 0.078115709 0 37
0.7033059 1.3834648 0.092894547 0 38
0.69405508 1.3652676 0.10581801 0 39
0.69744349 1.371933 0.1205671 0 40
0.6964162 1.3699123 0.13462152 0 41
0.69541937 1.3679514 0.14866339 0 42
0.69886595 1.3747312 0.1637308 0 43
0.69871795 1.37444 0.17805171 0 44
0.69985849 1.3766835 0.19275194 0 45
0.69836956 1.3737546 0.20675388 0 46
0.70084643 1.3786268 0.22198601 0 47
0.69601744 1.3691279 0.23489352 0 48
0.69608641 1.3692635 0.24939591 0 49
0.70214581 1.3811829 0.26621577 0 50
0.68854356 1.3544261 0.27546906 0 51
0.69632769 1.3697381 0.29320544 0 52
0.6993165 1.3756174 0.30920053 0 53
0.70033669 1.3776243 0.32446414 0 54
0.69615787 1.3694041 0.33730924 0 55
0.69667029 1.3704121 0.35240942 0 56
0.69751167 1.3720672 0.36776772 0 57
0.69233698 1.3618881 0.3799265 0 58
0.69868886 1.3743827 0.39850479 0 59
0.69740963 1.3718665 0.41291198 0 60
0.69941175 1.3758048 0.42935273 0 61
0.69531786 1.3677517 0.44208351 0 62
0.70002133 1.3770038 0.46050254 0 63
0.67635286 1.3719475 -0.4559958 0 0
0.6793198 1.3779659 -0.44265154 0 1
0.67422521 1.3676318 -0.42418283 0 2
0.67742187 1.3741161 -0.41105083 0 3
0.67275435 1.3646482 -0.39325389 0 4
0.67585957 1.370947 -0.38010651 0 5
0.67779583 1.3748746 -0.36625856 0 6
0.67315888 1.3654687 -0.34898323 0 7
0.68001294 1.3793719 -0.33767933 0 8
0.68525326 1.3900017 -0.32537016 0 9
0.67513353 1.3694743 -0.30593058 0 10
0.67489827 1.3689971 -0.29124835 0 11
0.67432505 1.3678343 -0.27648878 0 12
0.68007898 1.3795059 -0.26426071 0 13
0.67812204 1.3755363 -0.24900086 0 14
0.67840594 1.3761122 -0.23464285 0 15
0.67517608 1.3695606 -0.21917278 0 16
0.67846453 1.3762311 -0.20585543 0 17
0.67845005 1.3762016 -0.19150195 0 18
0.68241841 1.3842512 -0.17822218 0 19
0.68270999 1.3848428 -0.16392286 0 20
0.67840827 1.376117 -0.14863297 0 21
0.67976481 1.3788686 -0.13467008 0 22
0.67956001 1.3784531 -0.12039664 0 23
0.67973095 1.3787999 -0.10621101 0 24
0.67830968 1.3759168 -0.091820739 0 25
0.67525131 1.3697131 -0.077317953 0 26
0.68053275 1.3804263 -0.063736938 0 27
0.68214011 1.3836868 -0.049679048 0 28
0.6788277 1.3769678 -0.035306748 0 29
0.67578435 1.3707944 -0.021086695 0 30
0.6785121 1.3763275 -0.0070568719 0 31
0.6853326 1.3901626 0.0071278084 0 32
0.68293947 1.3853081 0.021309957 0 33
0.67808694 1.3754652 0.035268217 0 34
0.68020016 1.3797517 0.049537763 0 35
0.6789884 1.3772937 0.0635923 0 36
0.68261713 1.3846544 0.078161366 0 37
0.6769262 1.3731107 0.091633461 0 38
0.67142069 1.361943 0.10491249 0 39
0.68378019 1.3870137 0.12114433 0 40
0.67715412 1.3735729 0.13415286 0 41
0.67718691 1.3736393 0.14836536 0 42
0.68149841 1.3823851 0.16363195 0 43
0.67704082 1.3733431 0.17681776 0 44
0.68257737 1.3845738 0.19266696 0 45
0.67888355 1.377081 0.20598255 0 46
0.67921895 1.3777614 0.22048515 0 47
0.67987537 1.3790928 0.23515108 0 48
0.68340552 1.3862536 0.25094089 0 49
0.67790091 1.3750877 0.26341435 0 50
0.67485791 1.3689152 0.27670726 0 51
0.67095345 1.3609952 0.28954598 0 52
0.67682582 1.372907 0.30669743 0 53
0.67798048 1.3752491 0.32191694 0 54
0.68541425 1.3903282 0.34036148 0 55
0.67796063 1.375209 0.35147262 0 56
0.67551655 1.3702513 0.36502692 0 57
0.67429984 1.3677832 0.37922931 0 58
0.67394477 1.3670629 0.39394975 0 59
0.67544591 1.370108 0.40985188 0 60
0.67368114 1.3665282 0.42384052 0 61
0.67767513 1.3746297 0.44157985 0 62
0.68025303 1.379859 0.45862535 0 63
0.65982038 1.3809711 -0.45626378 0 0
0.65564364 1.3722293 -0.43818575 0 1
0.66254085 1.3866649 -0.42752695 0 2
0.65903115 1.3793192 -0.41015217 0 3
0.65874159 1.3787133 -0.39494291 0 4
0.65784973 1.3768466 -0.37947071 0 5
0.66190612 1.3853364 -0.3668496 0 6
0.65542173 1.3717648 -0.34850624 0 7
0.66045249 1.3822939 -0.33638111 0 8
0.65826482 1.3777153 -0.32057524 0 9
0.65595448 1.3728799 -0.30486646 0 10
0.66349691 1.3886658 -0.29367489 0 11
0.65682292 1.3746976 -0.27622262 0 12
0.65619731 1.3733882 -0.26152331 0 13
0.6584748 1.3781549 -0.2479904 0 14
0.65517801 1.3712548 -0.23242334 0 15
0.65545201 1.3718282 -0.21822935 0 16
0.65895724 1.3791645 -0.20506668 0 17
0.66435945 1.3904711 -0.19233626 0 18
0.65388817 1.3685552 -0.17515285 0 19
0.65719783 1.3754822 -0.16184606 0 20
0.65782535 1.3767955 -0.14782141 0 21
0.66109693 1.3836428 -0.13433224 0 22
0.66132551 1.3841212 -0.12017236 0 23
0.65196192 1.3645236 -0.10448584 0 24
0.65603799 1.3730546 -0.091084503 0 25
0.66010988 1.3815769 -0.077523589 0 26
0.65678352 1.3746151 -0.063090958 0 27
0.66047525 1.3823416 -0.049335431 0 28
0.65349317 1.3677285 -0.034861166 0 29
0.66226786 1.3860935 -0.021195164 0 30
0.65735936 1.3758203 -0.007012296 0 31
0.65939623 1.3800833 0.0070340238 0 32
0.65544546 1.3718146 0.020976821 0 33
0.66013801 1.3816358 0.035215642 0 34
0.65676993 1.3745866 0.049058657 0 35
0.65928775 1.3798562 0.063331522 0 36
0.65550381 1.3719367 0.076982655 0 37
0.65717256 1.3754293 0.09124203 0 38
0.66053087 1.382458 0.10585912 0 39
0.65634108 1.3736891 0.11926661 0 40
0.65562147 1.372183 0.13321966 0 41
0.65844589 1.3780943 0.14796084 0 42
0.66096616 1.3833691 0.16277407 0 43
0.65541101 1.3717424 0.17556077 0 44
0.65611738 1.3732208 0.18995012 0 45
0.6561569 1.3733035 0.20419522 0 46
0.65803885 1.3772423 0.21909063 0 47
0.65372902 1.3682221 0.2319093 0 48
0.65974766 1.3808188 0.24846976 0 49
0.6623444 1.3862537 0.26397318 0 50
0.65576023 1.3724734 0.2757757 0 51
0.65597546 1.3729237 0.29034576 0 52
0.65913761 1.3795421 0.30634588 0 53
0.65717775 1.3754401 0.32004586 0 54
0.65723884 1.375568 0.33474436 0 55
0.65173483 1.3640484 0.34654582 0 56
0.65291041 1.3665088 0.36186385 0 57
0.65616262 1.3733155 0.37849751 0 58
0.65952617 1.3803552 0.39541328 0 59
0.65287316 1.3664308 0.40631968 0 60
0.65875834 1.3787483 0.42508617 0 61
0.65884054 1.3789203 0.44032237 0 62
0.65450811 1.3698528 0.45259035 0 63
0.63576108 1.3737895 -0.45127404 0 0
0.6367467 1.3759192 -0.43683082 0 1
0.63558447 1.3734078 -0.42099819 0 2
0.63332427 1.3685238 -0.40459576 0 3
0.63723558 1.3769757 -0.39217094 0 4
0.63961321 1.3821135 -0.37872601 0 5
0.63728756 1.3770878 -0.36256275 0 6
0.64036208 1.3837316 -0.34951955 0 7
0.63799292 1.3786122 -0.33355081 0 8
0.63697332 1.3764089 -0.31842467 0 9
0.63397986 1.3699404 -0.30245972 0 10
0.63623589 1.3748155 -0.28906944 0 11
0.63664699 1.3757038 -0.27483103 0 12
0.64216584 1.3876293 -0.26271161 0 13
0.64201123 1.3872951 -0.24819581 0 14
0.63589209 1.3740726 -0.23155808 0 15
0.63839728 1.379486 -0.21818225 0 16
0.6352734 1.3727356 -0.20293394 0 17
0.63562393 1.3734932 -0.18889238 0 18
0.63734782 1.3772181 -0.1752453 0 19
0.63785493 1.378314 -0.16124417 0 20
0.64193362 1.3871274 -0.148072 0 21
0.6415121 1.3862165 -0.13380615 0 22
0.63292742 1.3676662 -0.11805906 0 23
0.64016527 1.3833063 -0.10531335 0 24
0.64519393 1.3941724 -0.091952153 0 25
0.64283681 1.3890791 -0.07749515 0 26
0.6404773 1.3839806 -0.063154571 0 27
0.64144295 1.3860672 -0.049183175 0 28
0.64613801 1.3962125 -0.035381991 0 29
0.63631761 1.374992 -0.020904183 0 30
0.63481849 1.3717526 -0.0069512525 0 31
0.64045995 1.3839431 0.0070130262 0 32
0.63601565 1.3743396 0.020894263 0 33
0.6380142 1.3786582 0.03493714 0 34
0.63109505 1.3637068 0.048389744 0 35
0.63050681 1.3624358 0.062171426 0 36
0.63485509 1.3718317 0.076532938 0 37
0.63808525 1.3788116 0.09093903 0 38
0.6380496 1.3787347 0.10496531 0 39
0.64077014 1.3846133 0.11952195 0 40
0.64299166 1.3894137 0.13411477 0 41
0.64434719 1.3923428 0.14862874 0 42
0.63105929 1.3636295 0.15952629 0 43
0.63970321 1.3823079 0.17589295 0 44
0.63677949 1.37599 0.18923578 0 45
0.63933212 1.381506 0.20423047 0 46
0.63352275 1.3689528 0.2165163 0 47
0.6446014 1.3928921 0.23472956 0 48
0.6372208 1.3769437 0.24634388 0 49
0.6403352 1.3836735 0.26196271 0 50
0.6393429 1.3815292 0.27599481 0 51
0.6383217 1.3793226 0.29001713 0 52
0.64223218 1.3877727 0.30639675 0 53
0.63580495 1.3738842 0.31784061 0 54
0.6406514 1.3843567 0.3349407 0 55
0.63427043 1.3705684 0.34619462 0 56
0.63131517 1.3641825 0.35916498 0 57
0.64033622 1.3836756 0.37915409 0 58
