# .PCD v0.7 - Point Cloud Data file format
VERSION 0.7
FIELDS x y z intensity ring
SIZE 4 4 4 4 2
TYPE F F F F U
COUNT 1 1 1 1 1
WIDTH 1412
HEIGHT 1
VIEWPOINT 0 0 0 1 0 0 0
POINTS 1412
DATA ascii
3.4361162 -5.8404241 0.84574229 0 45
3.4335372 -5.8360405 0.9084307 0 46
3.4263892 -5.8238912 0.96988696 0 47
3.4268148 -5.8246145 1.0335302 0 48
3.4323409 -5.8340068 1.0990014 0 49
3.4323058 -5.8339477 1.162985 0 50
3.4279296 -5.826509 1.2256175 0 51
3.4305105 -5.8308959 1.2909185 0 52
3.4284489 -5.8273921 1.3547083 0 53
3.4274216 -5.8256459 1.4190871 0 54
3.4267719 -5.8245416 1.4838411 0 55
3.4295464 -5.829257 1.5503814 0 56
3.4323277 -5.8339849 1.6173072 0 57
3.4335194 -5.8360105 1.6838493 0 58
3.4296455 -5.8294258 1.7481577 0 59
0 0 0 0 60
0 0 0 0 61
0 0 0 0 62
0 0 0 0 63
1.2703406 -2.0997133 -0.73159713 0 0
1.320281 -2.1822586 -0.73488331 0 1
1.3700327 -2.2644918 -0.73628056 0 2
1.4185122 -2.3446226 -0.73524779 0 3
1.4711915 -2.4316947 -0.73459846 0 4
1.5285861 -2.526561 -0.73434991 0 5
1.5942949 -2.6351693 -0.73590517 0 6
1.6575482 -2.7397189 -0.73403621 0 7
1.7302291 -2.8598514 -0.73393095 0 8
1.8079967 -2.9883914 -0.73331159 0 9
1.9021944 -3.1440883 -0.736296 0 10
1.9980475 -3.3025212 -0.73653817 0 11
2.0979831 -3.4677024 -0.73480904 0 12
2.213918 -3.6593282 -0.73485059 0 13
2.3508008 -3.8855784 -0.73734897 0 14
2.482527 -4.1033053 -0.73345923 0 15
2.6438258 -4.3699117 -0.73310584 0 16
2.8485141 -4.7082357 -0.73827446 0 17
3.033937 -5.0147166 -0.73151994 0 18
3.2905879 -5.4389286 -0.7340892 0 19
3.5362933 -5.8450484 -0.72529691 0 20
3.533576 -5.8405571 -0.66130644 0 21
3.5394826 -5.8503199 -0.59898573 0 22
3.5340972 -5.8414187 -0.53484678 0 23
3.5403337 -5.851727 -0.47254261 0 24
3.5383713 -5.8484836 -0.40914807 0 25
3.5337653 -5.8408699 -0.34563437 0 26
3.5400779 -5.8513041 -0.28321698 0 27
3.5480974 -5.8645592 -0.22072904 0 28
3.5319235 -5.8378258 -0.15691835 0 29
3.5379901 -5.8478532 -0.094302088 0 30
3.5418925 -5.8543034 -0.031466927 0 31
3.5315959 -5.8372846 0.031375449 0 32
3.5378177 -5.847568 0.094297491 0 33
3.5388701 -5.8493075 0.15722696 0 34
3.5370626 -5.8463202 0.22004257 0 35
3.5356097 -5.8439183 0.2828595 0 36
3.5439029 -5.857626 0.34662592 0 37
3.5382719 -5.8483191 0.40913656 0 38
3.5337288 -5.8408093 0.471661 0 39
3.535799 -5.8442316 0.53510427 0 40
3.540818 -5.8525271 0.59921169 0 41
3.5400436 -5.8512473 0.66251677 0 42
3.5382755 -5.8483248 0.72570348 0 43
3.5397911 -5.8508301 0.78968328 0 44
3.5329201 -5.8394728 0.85183102 0 45
3.5370057 -5.8462257 0.91671681 0 46
3.5399702 -5.8511257 0.98159748 0 47
3.5436697 -5.8572407 1.0469723 0 48
3.5391726 -5.8498073 1.110092 0 49
3.5364385 -5.8452883 1.1738257 0 50
3.535418 -5.8436017 1.2382641 0 51
3.5381808 -5.8481684 1.304276 0 52
3.5401011 -5.8513422 1.3702922 0 53
3.5395279 -5.8503947 1.4356092 0 54
3.5335026 -5.8404355 1.4988459 0 55
3.5408301 -5.8525472 1.5680373 0 56
3.5345044 -5.8420916 1.6314797 0 57
3.5248401 -5.8261175 1.6933726 0 58
3.5409384 -5.852726 1.7680688 0 59
0 0 0 0 60
0 0 0 0 61
0 0 0 0 62
0 0 0 0 63
1.2905403 -2.0750573 -0.72848046 0 0
1.3467461 -2.1654305 -0.73473752 0 1
1.3947743 -2.242655 -0.7347014 0 2
1.4457771 -2.3246622 -0.73450786 0 3
1.502481 -2.4158363 -0.73533344 0 4
1.5666558 -2.5190229 -0.73770243 0 5
1.6284255 -2.6183422 -0.73674226 0 6
1.6859524 -2.7108397 -0.73179781 0 7
1.7696851 -2.8454735 -0.73577005 0 8
1.85013 -2.9748206 -0.73550844 0 9
1.9418815 -3.1223478 -0.73674089 0 10
2.030653 -3.2650833 -0.733702 0 11
2.1393659 -3.4398825 -0.73443288 0 12
2.2664521 -3.6442242 -0.73735833 0 13
2.3905344 -3.8437357 -0.73493135 0 14
2.5358906 -4.0774536 -0.73435658 0 15
2.7028282 -4.3458724 -0.73459297 0 16
2.8952398 -4.6552505 -0.73549289 0 17
3.0973899 -4.9802876 -0.73199821 0 18
3.3665574 -5.4130812 -0.7361322 0 19
3.642797 -5.8572464 -0.73231345 0 20
3.6554646 -5.877615 -0.67054111 0 21
3.6559083 -5.8783283 -0.60641021 0 22
3.6475058 -5.8648176 -0.5410549 0 23
3.6448846 -5.8606029 -0.47684261 0 24
3.656436 -5.8791761 -0.41440934 0 25
3.6495898 -5.8681684 -0.34987894 0 26
3.6464145 -5.8630629 -0.28593481 0 27
3.6519597 -5.8719792 -0.22268166 0 28
3.6573286 -5.8806114 -0.15926521 0 29
3.6527612 -5.8732677 -0.095429018 0 30
3.6462672 -5.8628263 -0.031751331 0 31
3.6503763 -5.8694329 0.031787112 0 32
3.65166 -5.8714972 0.095400251 0 33
3.648 -5.865612 0.15885897 0 34
3.6510098 -5.8704515 0.22262374 0 35
3.6458499 -5.8621554 0.28589052 0 36
3.6473794 -5.8646145 0.34966704 0 37
3.6564085 -5.8791327 0.41440624 0 38
3.6531181 -5.8738418 0.47791976 0 39
3.6467111 -5.8635397 0.54093707 0 40
3.6539984 -5.875257 0.60609341 0 41
3.6529982 -5.8736491 0.67008865 0 42
3.6464105 -5.8630567 0.73303992 0 43
3.6537797 -5.8749056 0.79893637 0 44
3.6471133 -5.8641868 0.86191291 0 45
3.6545012 -5.8760657 0.92837209 0 46
3.6422892 -5.8564296 0.98992604 0 47
3.6509554 -5.8703642 1.0572629 0 48
3.6508451 -5.8701868 1.1223936 0 49
3.6493466 -5.8677773 1.1872636 0 50
3.6508827 -5.8702474 1.2533284 0 51
3.646847 -5.8637581 1.3176544 0 52
3.6448128 -5.8604875 1.3828251 0 53
3.6486058 -5.8665862 1.450482 0 54
3.6523068 -5.8725371 1.518495 0 55
3.653738 -5.8748384 1.585927 0 56
3.651315 -5.8709421 1.6519504 0 57
3.6505394 -5.8696952 1.7189556 0 58
0 0 0 0 59
0 0 0 0 60
0 0 0 0 61
0 0 0 0 62
0 0 0 0 63
1.3276492 -2.0773275 -0.73495317 0 0
1.3745509 -2.150713 -0.73542315 0 1
1.4335749 -2.2430658 -0.74055487 0 2
1.4738325 -2.3060555 -0.73429948 0 3
1.5316508 -2.3965216 -0.7351315 0 4
1.5888081 -2.4859538 -0.733684 0 5
1.6630331 -2.6020911 -0.73786777 0 6
1.7193428 -2.6901972 -0.73187727 0 7
1.8042758 -2.8230886 -0.73566312 0 8
1.8964093 -2.967247 -0.73934555 0 9
1.9713923 -3.0845702 -0.73349142 0 10
2.079994 -3.2544956 -0.73701447 0 11
2.1892192 -3.4253964 -0.73703176 0 12
2.3018062 -3.6015575 -0.73439676 0 13
2.4407675 -3.8189859 -0.73588198 0 14
2.5951283 -4.0605087 -0.73699629 0 15
2.7534575 -4.3082409 -0.73389965 0 16
2.9554996 -4.6243696 -0.73630005 0 17
3.1677651 -4.9564943 -0.73417073 0 18
3.4206011 -5.3520975 -0.73350358 0 19
3.7106814 -5.8059764 -0.73155284 0 20
3.7675128 -5.8948984 -0.67774683 0 21
3.7650898 -5.8911076 -0.61245823 0 22
3.7663412 -5.8930655 -0.54789203 0 23
3.7642295 -5.8897614 -0.48294461 0 24
3.7686119 -5.8966184 -0.41887358 0 25
3.7572873 -5.8788991 -0.35324669 0 26
3.7660482 -5.8926072 -0.28961217 0 27
3.7620716 -5.886385 -0.22496527 0 28
3.7585056 -5.8808055 -0.16051 0 29
3.7658429 -5.8922863 -0.096483126 0 30
3.761143 -5.884932 -0.032119092 0 31
3.7684703 -5.8963971 0.032181665 0 32
3.7594123 -5.8822241 0.096318364 0 33
3.771765 -5.9015522 0.16107626 0 34
3.7654052 -5.8916011 0.22516462 0 35
3.76793 -5.8955517 0.28975689 0 36
3.7642667 -5.8898196 0.35390288 0 37
3.7665277 -5.8933573 0.4186419 0 38
3.7617817 -5.8859315 0.48263058 0 39
3.7680705 -5.895771 0.54814363 0 40
3.7694764 -5.8979712 0.61317182 0 41
3.7638583 -5.8891807 0.67708945 0 42
3.7692099 -5.8975539 0.74309158 0 43
3.7602372 -5.8835149 0.80633414 0 44
3.7695632 -5.8981066 0.87364525 0 45
3.7655416 -5.8918147 0.93810481 0 46
3.7684247 -5.8963256 1.0044265 0 47
3.771302 -5.9008274 1.0710204 0 48
3.764107 -5.8895698 1.1348637 0 49
3.7581136 -5.8801923 1.1990352 0 50
3.7702322 -5.8991537 1.2693022 0 51
3.7714148 -5.9010038 1.3363439 0 52
3.7592001 -5.8818922 1.3986771 0 53
3.7624576 -5.8869891 1.4668543 0 54
3.7663262 -5.8930421 1.5356562 0 55
3.7726557 -5.9029455 1.6059164 0 56
3.7650559 -5.8910546 1.6705101 0 57
3.7626314 -5.8872609 1.7375178 0 58
0 0 0 0 59
0 0 0 0 60
0 0 0 0 61
0 0 0 0 62
0 0 0 0 63
1.3507923 -2.0573456 -0.73370469 0 0
1.40374 -2.1379886 -0.73691869 0 1
1.4565624 -2.2184403 -0.7382822 0 2
1.499782 -2.2842667 -0.73317838 0 3
1.5715332 -2.3935485 -0.74009126 0 4
1.6091135 -2.4507859 -0.72908926 0 5
1.6939683 -2.5800252 -0.73746157 0 6
1.7554443 -2.6736572 -0.73319459 0 7
1.8419662 -2.8054357 -0.73690945 0 8
1.9196497 -2.9237528 -0.73433429 0 9
2.0139747 -3.0674162 -0.73524565 0 10
2.1046987 -3.2055948 -0.73174596 0 11
2.2255874 -3.3897161 -0.73518741 0 12
2.3526354 -3.5832183 -0.7365005 0 13
2.4834945 -3.7825255 -0.7346853 0 14
2.6359656 -4.0147491 -0.73451829 0 15
2.8045187 -4.2714667 -0.73345435 0 16
3.0065928 -4.5792384 -0.73494518 0 17
3.2424285 -4.9384322 -0.73734534 0 18
3.5082326 -5.3432693 -0.73815 0 19
3.8073831 -5.7988954 -0.7365039 0 20
3.8922772 -5.9281945 -0.68702567 0 21
3.889951 -5.9246516 -0.62087148 0 22
3.8851848 -5.9173923 -0.55455351 0 23
3.8871329 -5.9203591 -0.48933586 0 24
3.8804996 -5.9102564 -0.42319995 0 25
3.8895485 -5.9240384 -0.35880572 0 26
3.8852317 -5.9174638 -0.29315972 0 27
3.8859305 -5.9185281 -0.22800267 0 28
3.8901761 -5.9249945 -0.16300938 0 29
3.8832684 -5.9144735 -0.097620942 0 30
3.8837209 -5.9151626 -0.03254227 0 31
3.8829322 -5.9139614 0.032535661 0 32
3.8817127 -5.9121041 0.097581834 0 33
3.8862152 -5.9189615 0.16284341 0 34
3.8899534 -5.9246554 0.2282387 0 35
3.8803568 -5.9100389 0.29279187 0 36
3.8878391 -5.9214349 0.358648 0 37
3.8817408 -5.9121466 0.42333531 0 38
3.8816054 -5.9119406 0.48864004 0 39
3.8922787 -5.9281964 0.55556607 0 40
3.8868196 -5.9198823 0.6203717 0 41
3.8971379 -5.9355974 0.68788362 0 42
3.8832095 -5.9143839 0.75117183 0 43
3.8927927 -5.9289794 0.81906337 0 44
3.8841293 -5.9157848 0.88327152 0 45
3.8903148 -5.9252052 0.95096618 0 46
3.8871331 -5.9203596 1.0165861 0 47
3.8865452 -5.9194641 1.0829953 0 48
3.8807268 -5.9106026 1.1480247 0 49
3.885829 -5.9183731 1.2164719 0 50
3.886482 -5.9193678 1.2838376 0 51
3.8864448 -5.919311 1.35121 0 52
3.8945107 -5.9315963 1.4217765 0 53
3.8851779 -5.9173818 1.4862187 0 54
3.8914616 -5.9269524 1.5568445 0 55
3.8828669 -5.9138618 1.621753 0 56
3.8862495 -5.919014 1.6918614 0 57
3.8801901 -5.9097848 1.758114 0 58
0 0 0 0 59
0 0 0 0 60
0 0 0 0 61
0 0 0 0 62
0 0 0 0 63
1.3734807 -2.0368655 -0.73236865 0 0
1.4176326 -2.1023424 -0.73058546 0 1
1.472373 -2.1835222 -0.7326315 0 2
1.5263622 -2.263588 -0.73250997 0 3
1.5911591 -2.3596816 -0.73561364 0 4
1.6470963 -2.442636 -0.73263466 0 5
1.7219732 -2.5536783 -0.73592734 0 6
1.7951167 -2.6621497 -0.73603648 0 7
1.8696198 -2.7726374 -0.73427755 0 8
1.9568273 -2.9019656 -0.73485011 0 9
2.0414898 -3.0275199 -0.73164445 0 10
2.1457288 -3.1821058 -0.7323516 0 11
2.2602756 -3.3519781 -0.73297513 0 12
2.3903465 -3.5448728 -0.73460478 0 13
2.5247946 -3.7442586 -0.73322737 0 14
2.6798337 -3.9741807 -0.73306948 0 15
2.8615801 -4.24371 -0.73467475 0 16
3.0553701 -4.5310998 -0.73319352 0 17
3.2863925 -4.8737049 -0.73365927 0 18
3.5555499 -5.2728639 -0.73440808 0 19
3.8747342 -5.7462125 -0.73580849 0 20
4.006937 -5.9422688 -0.69431436 0 21
4.0047998 -5.9390993 -0.62749875 0 22
4.0090847 -5.9454541 -0.56176084 0 23
4.0143065 -5.953198 -0.49609247 0 24
4.0027304 -5.9360304 -0.4285374 0 25
4.0014877 -5.9341879 -0.3623732 0 26
4.0098114 -5.9465313 -0.29702005 0 27
4.0002766 -5.9323912 -0.23041424 0 28
4.0107594 -5.9479375 -0.16498497 0 29
4.0012712 -5.9338665 -0.098745659 0 30
4.0017724 -5.9346099 -0.032917488 0 31
4.0146785 -5.9537492 0.033023648 0 32
4.009294 -5.9457641 0.098943651 0 33
4.0105243 -5.9475884 0.16497529 0 34
4.0009747 -5.9334269 0.23045446 0 35
4.010695 -5.9478421 0.29708549 0 36
4.002141 -5.9351559 0.36243233 0 37
4.0116334 -5.9492335 0.4294906 0 38
4.0064998 -5.9416199 0.49512768 0 39
4.0158477 -5.9554834 0.5627085 0 40
4.0081811 -5.9441142 0.62802857 0 41
4.0139861 -5.9527225 0.69553584 0 42
4.0009351 -5.9333677 0.75977391 0 43
4.0125237 -5.9505539 0.82879722 0 44
4.0079203 -5.9437275 0.89473426 0 45
4.0121632 -5.9500194 0.96279401 0 46
4.0130782 -5.951376 1.0303073 0 47
4.0081043 -5.9440002 1.0964185 0 48
4.0048256 -5.9391375 1.1630441 0 49
4.0077052 -5.9434085 1.2316538 0 50
4.0010672 -5.9335642 1.297489 0 51
4.0077415 -5.9434624 1.367869 0 52
4.0087438 -5.9449482 1.4366837 0 53
4.0076323 -5.9433002 1.5049919 0 54
4.0060596 -5.940968 1.5733465 0 55
4.0109134 -5.9481659 1.6445608 0 56
4.0115676 -5.9491363 1.7144415 0 57
0 0 0 0 58
0 0 0 0 59
0 0 0 0 60
0 0 0 0 61
0 0 0 0 62
0 0 0 0 63
1.40351 -2.0271738 -0.73503369 0 0
1.4591438 -2.1075289 -0.73856711 0 1
1.5020663 -2.1695247 -0.73407662 0 2
1.552255 -2.2420154 -0.73165041 0 3
1.6177094 -2.336555 -0.73454976 0 4
1.6858352 -2.4349532 -0.73649222 0 5
1.7481141 -2.5249062 -0.7337749 0 6
1.8215483 -2.6309717 -0.73355365 0 7
1.905892 -2.7527945 -0.7351734 0 8
1.9894404 -2.8734684 -0.73377305 0 9
2.0954571 -3.0265946 -0.73759198 0 10
2.1907768 -3.1642704 -0.73439127 0 11
2.3009663 -3.3234239 -0.73286277 0 12
2.4504766 -3.5393705 -0.73965293 0 13
2.5677207 -3.7087133 -0.73239428 0 14
2.728724 -3.9412601 -0.73313087 0 15
2.9179246 -4.2145338 -0.7357797 0 16
3.1202366 -4.5067453 -0.7354055 0 17
3.3451254 -4.8315659 -0.73345244 0 18
3.6265299 -5.2380152 -0.73570973 0 19
3.9552863 -5.7128577 -0.73770952 0 20
4.1333885 -5.9701014 -0.70345193 0 21
4.1306653 -5.9661684 -0.63567716 0 22
4.132637 -5.9690161 -0.56874555 0 23
4.1292849 -5.9641743 -0.5012005 0 24
4.1359682 -5.9738274 -0.43490475 0 25
4.1322942 -5.9685206 -0.36754486 0 26
4.1265507 -5.9602251 -0.30021581 0 27
4.1336875 -5.9705329 -0.23385221 0 28
4.1342092 -5.9712863 -0.16703011 0 29
4.1324449 -5.9687381 -0.100164 0 30
4.125464 -5.9586554 -0.033329714 0 31
4.1300159 -5.9652295 0.03336649 0 32
4.1329908 -5.9695268 0.10017723 0 33
4.1294656 -5.9644351 0.16683845 0 34
4.1331167 -5.9697089 0.23381993 0 35
4.1305633 -5.9660206 0.30050772 0 36
4.1347451 -5.9720607 0.36776286 0 37
4.1434345 -5.9846115 0.43568987 0 38
4.1325135 -5.9688377 0.5015924 0 39
4.1334667 -5.9702144 0.56885976 0 40
4.1381435 -5.9769692 0.63682801 0 41
4.1344671 -5.9716592 0.70363551 0 42
4.1293406 -5.9642549 0.77017277 0 43
4.142066 -5.982635 0.84029591 0 44
4.1366076 -5.974751 0.90699285 0 45
4.1286035 -5.9631901 0.97306651 0 46
4.1366067 -5.9747496 1.0430808 0 47
4.1231952 -5.9553785 1.1077857 0 48
4.1297765 -5.9648843 1.1779414 0 49
4.1330924 -5.9696732 1.2475344 0 50
4.1291313 -5.9639525 1.3151374 0 51
4.1324139 -5.9686937 1.3852661 0 52
4.1380606 -5.9768496 1.4565798 0 53
4.1370826 -5.9754367 1.5258962 0 54
4.1348782 -5.9722528 1.5949762 0 55
4.1319399 -5.968009 1.6639689 0 56
4.1358294 -5.9736266 1.7360239 0 57
0 0 0 0 58
0 0 0 0 59
0 0 0 0 60
0 0 0 0 61
0 0 0 0 62
0 0 0 0 63
1.425019 -2.0051062 -0.73333031 0 0
1.4744569 -2.0746689 -0.73334986 0 1
1.5326298 -2.1565225 -0.73599833 0 2
1.5847596 -2.2298729 -0.73399168 0 3
1.6395116 -2.3069129 -0.73151362 0 4
1.7081674 -2.4035165 -0.73328143 0 5
1.7770615 -2.5004556 -0.73296422 0 6
1.8591162 -2.6159127 -0.73567325 0 7
1.936717 -2.7251027 -0.73408252 0 8
2.0304847 -2.8570406 -0.7358982 0 9
2.1259525 -2.9913707 -0.73532307 0 10
2.2246988 -3.1303139 -0.73280394 0 11
2.3463283 -3.3014555 -0.73432511 0 12
2.484674 -3.4961181 -0.73694324 0 13
2.6150839 -3.6796148 -0.7329427 0 14
2.7810626 -3.9131587 -0.73420924 0 15
2.9755657 -4.1868391 -0.73727667 0 16
3.1686347 -4.4585009 -0.73383552 0 17
3.4190192 -4.8108106 -0.73662812 0 18
3.6793816 -5.1771593 -0.73346144 0 19
4.0233245 -5.6611123 -0.73736024 0 20
4.2606034 -5.9949813 -0.71250278 0 21
4.2561579 -5.9887257 -0.64360815 0 22
4.2628284 -5.9981122 -0.57646888 0 23
4.2639866 -5.9997416 -0.50855708 0 24
4.2604508 -5.9947662 -0.44020984 0 25
4.2635522 -5.9991302 -0.37263012 0 26
4.2511239 -5.9816427 -0.30390465 0 27
4.2581916 -5.9915876 -0.23670983 0 28
4.2571301 -5.9900942 -0.1690077 0 29
4.2683854 -6.0059309 -0.10166124 0 30
4.2690926 -6.0069261 -0.033890784 0 31
4.2583666 -5.9918337 0.033805635 0 32
4.2608547 -5.9953346 0.10148188 0 33
4.2626896 -5.9979167 0.1692284 0 34
4.2614288 -5.9961424 0.23688978 0 35
4.268754 -6.0064492 0.30516499 0 36
4.2615862 -5.9963636 0.37245828 0 37
4.2671723 -6.0042243 0.44090435 0 38
4.2623148 -5.9973893 0.5083577 0 39
4.2627082 -5.9979429 0.57645261 0 40
4.2598991 -5.9939899 0.64417386 0 41
4.2645884 -6.0005884 0.71316916 0 42
4.2619267 -5.9968429 0.78108925 0 43
4.2564611 -5.9891524 0.84849858 0 44
4.2589436 -5.9926453 0.9175899 0 45
4.2665205 -6.0033064 0.9880988 0 46
4.2635665 -5.9991503 1.0564137 0 47
4.2551284 -5.987277 1.1233672 0 48
4.2629995 -5.9983525 1.1948123 0 49
4.2637429 -5.9993982 1.2646072 0 50
4.2641811 -6.0000153 1.3345513 0 51
4.2636843 -5.9993157 1.4044349 0 52
4.2619548 -5.9968824 1.4741222 0 53
4.2567806 -5.9896021 1.5427632 0 54
4.2649627 -6.0011148 1.616568 0 55
4.2629356 -5.9982629 1.6868918 0 56
4.26226 -5.9973121 1.7580056 0 57
0 0 0 0 58
0 0 0 0 59
0 0 0 0 60
0 0 0 0 61
0 0 0 0 62
0 0 0 0 63
1.4559971 -1.9962518 -0.73658419 0 0
1.50441 -2.0626285 -0.73557723 0 1
1.543741 -2.1165533 -0.72878075 0 2
1.6184665 -2.2190061 -0.73690987 0 3
1.6808306 -2.3045106 -0.73724997 0 4
1.7392191 -2.3845644 -0.73396856 0 5
1.8053554 -2.4752409 -0.73202503 0 6
1.8902367 -2.5916181 -0.735322 0 7
1.970814 -2.7020938 -0.73435706 0 8
2.0587211 -2.8226194 -0.73349726 0 9
2.1618054 -2.9639535 -0.7350623 0 10
2.2676351 -3.1090517 -0.73429859 0 11
2.3857033 -3.2709301 -0.73400497 0 12
2.5296159 -3.4682419 -0.73756814 0 13
2.6694546 -3.6599684 -0.73551214 0 14
2.843858 -3.899085 -0.73807406 0 15
3.0267715 -4.1498694 -0.73726487 0 16
3.2237105 -4.4198833 -0.73394835 0 17
3.4689727 -4.7561517 -0.73473471 0 18
3.7468448 -5.1371293 -0.73426205 0 19
4.0664735 -5.5753579 -0.73264831 0 20
4.3952656 -6.0261497 -0.7225759 0 21
4.3892312 -6.0178761 -0.65249199 0 22
4.4059052 -6.0407372 -0.58572811 0 23
4.3868756 -6.0146465 -0.51435399 0 24
4.3932977 -6.0234518 -0.44624951 0 25
4.3972187 -6.0288272 -0.3778047 0 26
4.3990183 -6.0312943 -0.30915216 0 27
4.3953438 -6.026257 -0.2401966 0 28
4.3817353 -6.0075989 -0.17100886 0 29
4.3906746 -6.019855 -0.10280304 0 30
4.3975043 -6.0292192 -0.034319051 0 31
4.3953881 -6.0263176 0.034302533 0 32
4.3966684 -6.0280728 0.10294338 0 33
4.3988848 -6.0311117 0.17167816 0 34
4.3911977 -6.0205727 0.23997004 0 35
4.3792968 -6.0042553 0.30776617 0 36
4.388267 -6.0165544 0.37703556 0 37
4.3866129 -6.0142865 0.4455705 0 38
4.3901753 -6.0191703 0.51474088 0 39
4.3921809 -6.0219207 0.58390361 0 40
4.4010901 -6.0341353 0.65425491 0 41
4.3865457 -6.014194 0.72114235 0 42
4.3935466 -6.0237927 0.79157639 0 43
4.3959246 -6.0270529 0.86146092 0 44
4.3892212 -6.0178623 0.929645 0 45
4.395143 -6.0259814 1.0006506 0 46
4.3985748 -6.0306869 1.0714104 0 47
4.3913622 -6.0207982 1.139702 0 48
4.3911424 -6.0204964 1.209887 0 49
4.3885145 -6.0168939 1.2795731 0 50
4.3810949 -6.0067205 1.3479234 0 51
4.3861527 -6.0136557 1.4203104 0 52
4.3810477 -6.0066562 1.4896544 0 53
4.385067 -6.0121665 1.5623459 0 54
4.3925395 -6.0224123 1.636731 0 55
4.3936796 -6.0239754 1.7091876 0 56
0 0 0 0 57
0 0 0 0 58
0 0 0 0 59
0 0 0 0 60
0 0 0 0 61
0 0 0 0 62
0 0 0 0 63
1.4781681 -1.9751735 -0.73545778 0 0
1.5239559 -2.0363564 -0.73283547 0 1
1.5746439 -2.1040874 -0.73110008 0 2
1.6391406 -2.1902697 -0.7340048 0 3
1.7078804 -2.2821221 -0.73675036 0 4
1.7640452 -2.3571713 -0.73215818 0 5
1.8430448 -2.4627328 -0.7349726 0 6
1.9181345 -2.5630698 -0.73385864 0 7
2.0053279 -2.6795805 -0.7348845 0 8
2.1022837 -2.8091357 -0.73665529 0 9
2.1998758 -2.9395413 -0.73566103 0 10
2.3141291 -3.0922101 -0.7369858 0 11
2.4203732 -3.2341766 -0.73238075 0 12
2.5524168 -3.4106174 -0.73193282 0 13
2.7155063 -3.6285424 -0.73585147 0 14
2.881038 -3.849731 -0.73538202 0 15
3.0670395 -4.0982718 -0.7347427 0 16
3.2899716 -4.3961606 -0.73667115 0 17
3.5307739 -4.7179279 -0.73548126 0 18
3.8088076 -5.0894451 -0.73408514 0 19
4.1350217 -5.525342 -0.73270208 0 20
4.5152864 -6.033464 -0.73005521 0 21
4.5310683 -6.0545521 -0.66245961 0 22
4.5287905 -6.0515084 -0.59212744 0 23
4.5252728 -6.0468082 -0.52182353 0 24
4.5325809 -6.0565729 -0.45279819 0 25
4.5291476 -6.0519857 -0.38271704 0 26
4.5204048 -6.0403028 -0.31243944 0 27
4.5298233 -6.0528879 -0.24345982 0 28
4.5261579 -6.0479903 -0.17372975 0 29
4.524251 -6.0454426 -0.10418218 0 30
4.5251012 -6.0465789 -0.034731962 0 31
4.5298266 -6.0528927 0.034768231 0 32
4.5349107 -6.0596862 0.10442764 0 33
4.5294075 -6.0523329 0.17385449 0 34
4.5316925 -6.0553865 0.2435603 0 35
4.5317717 -6.0554919 0.31322512 0 36
4.5334392 -6.0577202 0.38307968 0 37
4.5256119 -6.0472612 0.45210204 0 38
4.5212426 -6.0414228 0.52135879 0 39
4.5262499 -6.0481133 0.59179521 0 40
4.524559 -6.0458541 0.6615079 0 41
4.5309844 -6.0544395 0.73259324 0 42
4.5219564 -6.0423765 0.8012647 0 43
4.5397921 -6.0662088 0.87497044 0 44
4.5202851 -6.0401435 0.94160241 0 45
4.5309157 -6.054348 1.014536 0 46
4.5233269 -6.044208 1.0836122 0 47
4.5159292 -6.0343223 1.1526864 0 48
4.533061 -6.0572147 1.2283748 0 49
4.5265675 -6.0485377 1.2980416 0 50
4.530798 -6.0541911 1.3709743 0 51
4.5245228 -6.0458055 1.4409348 0 52
4.5366588 -6.0620217 1.5171052 0 53
4.5260391 -6.0478315 1.5859565 0 54
4.5233307 -6.0442128 1.6576469 0 55
4.5313396 -6.0549145 1.7336444 0 56
0 0 0 0 57
0 0 0 0 58
0 0 0 0 59
0 0 0 0 60
0 0 0 0 61
0 0 0 0 62
0 0 0 0 63
1.5006453 -1.9546388 -0.73462707 0 0
1.5533823 -2.0233305 -0.73496622 0 1
1.6073635 -2.0936427 -0.73428309 0 2
1.6804616 -2.1888556 -0.74039978 0 3
1.7320946 -2.2561092 -0.73517281 0 4
1.8012997 -2.346251 -0.73559052 0 5
1.8757215 -2.4431877 -0.7359674 0 6
1.9448806 -2.5332699 -0.73211837 0 7
2.0392663 -2.6562104 -0.73529667 0 8
2.1368191 -2.7832758 -0.73670858 0 9
2.2342355 -2.9101641 -0.735129 0 10
2.3492239 -3.0599401 -0.73612392 0 11
2.4775248 -3.227056 -0.73761129 0 12
2.6033559 -3.3909552 -0.73452759 0 13
2.7489438 -3.5805881 -0.73292607 0 14
2.9337733 -3.8213344 -0.7367931 0 15
3.125628 -4.0712314 -0.73672968 0 16
3.3378241 -4.3476238 -0.73535991 0 17
3.5902507 -4.6764174 -0.73583674 0 18
3.8841324 -5.0592079 -0.73655707 0 19
4.2173862 -5.4932818 -0.73527193 0 20
4.6212726 -6.0193572 -0.73516858 0 21
4.6653862 -6.0768161 -0.67112178 0 22
4.6633234 -6.0741296 -0.59990633 0 23
4.6759295 -6.090549 -0.53051996 0 24
4.6620226 -6.0724349 -0.45823523 0 25
4.6557851 -6.0643106 -0.38708755 0 26
4.665802 -6.0773573 -0.31729981 0 27
4.6684289 -6.0807791 -0.24687195 0 28
4.6646976 -6.0759196 -0.17616636 0 29
4.65692 -6.0657883 -0.10551167 0 30
4.6689858 -6.0815048 -0.035259694 0 31
4.667634 -6.0797443 0.035249487 0 32
4.6632786 -6.0740709 0.10565574 0 33
4.6656942 -6.0772176 0.176204 0 34
4.6594915 -6.0691381 0.24639933 0 35
4.6681137 -6.0803685 0.31745702 0 36
4.6675115 -6.0795841 0.38806248 0 37
4.6624451 -6.0729852 0.45827675 0 38
4.6675472 -6.0796309 0.52956891 0 39
4.658227 -6.0674911 0.59925073 0 40
4.6585402 -6.0678992 0.67013699 0 41
4.6724768 -6.0860519 0.74331427 0 42
4.6647973 -6.0760493 0.81327492 0 43
4.6648231 -6.0760827 0.88460124 0 44
4.6645098 -6.0756745 0.95601052 0 45
4.6567888 -6.0656176 1.0259426 0 46
4.6702814 -6.0831923 1.100814 0 47
4.6696715 -6.0823979 1.1727496 0 48
4.6664453 -6.0781956 1.2441721 0 49
4.6575489 -6.066608 1.3141108 0 50
4.6637135 -6.0746369 1.3884856 0 51
4.6601715 -6.0700235 1.460254 0 52
4.661942 -6.07233 1.5339155 0 53
4.661643 -6.0719404 1.6071891 0 54
4.6644225 -6.075561 1.6818471 0 55
4.6601 -6.069931 1.7542181 0 56
0 0 0 0 57
0 0 0 0 58
0 0 0 0 59
0 0 0 0 60
0 0 0 0 61
0 0 0 0 62
0 0 0 0 63
1.5233417 -1.9344862 -0.73403746 0 0
1.586243 -2.0143642 -0.7387386 0 1
1.6251817 -2.0638125 -0.73077452 0 2
1.6941996 -2.151458 -0.73474097 0 3
1.7530043 -2.2261341 -0.73237395 0 4
1.8254336 -2.3181117 -0.73375022 0 5
1.9002877 -2.4131687 -0.73390806 0 6
1.9751452 -2.50823 -0.73184556 0 7
2.0790946 -2.6402349 -0.73789567 0 8
2.1564002 -2.738405 -0.73179489 0 9
2.268585 -2.8808682 -0.73471969 0 10
2.398272 -3.0455573 -0.7397024 0 11
2.5093615 -3.1866295 -0.73536819 0 12
2.6494441 -3.3645198 -0.73580271 0 13
2.799155 -3.5546372 -0.73460406 0 14
2.9731607 -3.7756062 -0.73496974 0 15
3.1686323 -4.0238347 -0.73514795 0 16
3.3921375 -4.3076634 -0.73560047 0 17
3.6487353 -4.6335158 -0.73609024 0 18
3.9464896 -5.0116329 -0.73664016 0 19
4.3036366 -5.4651728 -0.73853695 0 20
4.6668644 -5.9264345 -0.73077309 0 21
4.8109384 -6.1093931 -0.68120146 0 22
4.812623 -6.1115327 -0.60939908 0 23
4.8014803 -6.097383 -0.53621757 0 24
4.8084064 -6.1061783 -0.46520817 0 25
4.8150558 -6.1146221 -0.39404848 0 26
4.8056688 -6.1027017 -0.32168394 0 27
4.8043022 -6.100966 -0.25007102 0 28
4.8084621 -6.1062493 -0.17874657 0 29
4.8198619 -6.1207256 -0.10749008 0 30
4.8085389 -6.1063466 -0.035743836 0 31
4.8108459 -6.1092763 0.035760984 0 32
4.8132763 -6.1123629 0.10734321 0 33
4.8042927 -6.1009545 0.17859158 0 34
4.8153925 -6.1150503 0.25064829 0 35
4.8052502 -6.10217 0.32165593 0 36
4.8052359 -6.1021523 0.39324486 0 37
4.8083529 -6.1061106 0.46520302 0 38
4.8130131 -6.1120281 0.53750551 0 39
4.8027005 -6.0989323 0.60814267 0 40
4.806704 -6.1040168 0.68060195 0 41
4.8043365 -6.1010098 0.75229955 0 42
4.811676 -6.1103301 0.82572043 0 43
4.8098783 -6.108047 0.8977977 0 44
4.8175526 -6.1177931 0.97188574 0 45
4.8114548 -6.1100492 1.0433859 0 46
4.8157973 -6.1155643 1.1173035 0 47
4.821599 -6.122932 1.1919065 0 48
4.7971168 -6.0918412 1.2589446 0 49
4.8048816 -6.1017017 1.33441 0 50
4.8151813 -6.1147819 1.4110885 0 51
4.8170381 -6.1171393 1.4857256 0 52
4.8140378 -6.1133294 1.5591077 0 53
4.8073983 -6.1048985 1.6314363 0 54
4.8106112 -6.1089783 1.7073437 0 55
0 0 0 0 56
0 0 0 0 57
0 0 0 0 58
0 0 0 0 59
0 0 0 0 60
0 0 0 0 61
0 0 0 0 62
0 0 0 0 63
1.5467157 -1.9152427 -0.73389691 0 0
1.6079152 -1.9910238 -0.73737401 0 1
1.6644334 -2.0610082 -0.73697293 0 2
1.7181511 -2.1275249 -0.73372728 0 3
1.7883459 -2.2144446 -0.73570728 0 4
1.857775 -2.3004162 -0.73532438 0 5
1.9264631 -2.3854704 -0.73263317 0 6
2.0140495 -2.4939253 -0.7348423 0 7
2.0983903 -2.5983615 -0.73334879 0 8
2.1994963 -2.7235575 -0.73499918 0 9
2.3033786 -2.8521912 -0.73457402 0 10
2.4213243 -2.9982393 -0.73538566 0 11
2.5463123 -3.1530075 -0.7347793 0 12
2.681587 -3.320513 -0.73333448 0 13
2.8365219 -3.5123634 -0.73302048 0 14
3.0270634 -3.7483041 -0.73684508 0 15
3.2129145 -3.9784369 -0.7340163 0 16
3.4416451 -4.2616658 -0.73491693 0 17
3.7125762 -4.5971503 -0.73750967 0 18
3.9864485 -4.9362764 -0.73271352 0 19
4.339519 -5.3734713 -0.73330033 0 20
4.7772379 -5.915483 -0.73661047 0 21
4.9579935 -6.1393061 -0.69128215 0 22
4.9516521 -6.1314535 -0.61741006 0 23
4.9595714 -6.1412597 -0.54539812 0 24
4.9561138 -6.1369781 -0.47216201 0 25
4.956768 -6.1377883 -0.39943907 0 26
4.9517207 -6.1315384 -0.32638887 0 27
4.9545765 -6.1350746 -0.25394708 0 28
4.948945 -6.1281013 -0.18115394 0 29
4.9554615 -6.1361704 -0.1088232 0 30
4.9595699 -6.1412578 -0.036302425 0 31
4.9482822 -6.1272807 0.036219805 0 32
4.9561009 -6.1369624 0.10883724 0 33
4.951674 -6.1314802 0.18125382 0 34
4.9619184 -6.1441655 0.25432336 0 35
4.951653 -6.1314549 0.3263844 0 36
4.9456401 -6.1240091 0.39854234 0 37
4.9476137 -6.1264529 0.47135222 0 38
4.9531732 -6.133337 0.54469454 0 39
4.9599552 -6.1417346 0.61844534 0 40
4.9558158 -6.1366091 0.69097853 0 41
4.9528222 -6.1329021 0.76368403 0 42
4.9598727 -6.141633 0.83812886 0 43
4.9589987 -6.1405506 0.91146928 0 44
4.9582896 -6.1396723 0.98497277 0 45
4.9559755 -6.136807 1.0582818 0 46
4.9548874 -6.1354594 1.1319841 0 47
4.9499383 -6.1293316 1.2049097 0 48
4.9437022 -6.1216092 1.2775627 0 49
4.9513102 -6.1310296 1.3540365 0 50
4.9604521 -6.1423502 1.4314181 0 51
4.9505816 -6.1301279 1.5035517 0 52
4.9559007 -6.136714 1.5804938 0 53
4.9637899 -6.1464834 1.658735 0 54
4.952343 -6.132309 1.7307527 0 55
0 0 0 0 56
0 0 0 0 57
0 0 0 0 58
0 0 0 0 59
0 0 0 0 60
0 0 0 0 61
0 0 0 0 62
0 0 0 0 63
1.570245 -1.8961977 -0.73394239 0 0
1.6244955 -1.9617095 -0.73385996 0 1
1.6789352 -2.0274498 -0.73229992 0 2
1.7417103 -2.1032557 -0.73268825 0 3
1.800064 -2.1737227 -0.72947675 0 4
1.8821504 -2.2728486 -0.73385483 0 5
1.9576315 -2.3639982 -0.7333762 0 6
2.0458336 -2.4705093 -0.73529953 0 7
2.1209233 -2.5611861 -0.73016202 0 8
2.2289879 -2.6916828 -0.73373848 0 9
2.3367424 -2.8218052 -0.73409295 0 10
2.4528675 -2.9620357 -0.73384821 0 11
2.5862374 -3.1230905 -0.73516291 0 12
2.7320557 -3.2991776 -0.73598635 0 13
2.8804455 -3.4783704 -0.73326272 0 14
3.0590019 -3.6939919 -0.73350728 0 15
3.2646039 -3.9422727 -0.73469484 0 16
3.5037069 -4.231009 -0.7370041 0 17
3.7431591 -4.5201669 -0.73248816 0 18
4.0532885 -4.8946729 -0.73388082 0 19
4.4406948 -5.3624978 -0.73919868 0 20
4.8202481 -5.8208389 -0.73215055 0 21
5.108048 -6.1683803 -0.70157534 0 22
5.1063018 -6.1662717 -0.62719131 0 23
5.1114607 -6.1725016 -0.55371267 0 24
5.1116199 -6.1726937 -0.47970948 0 25
5.1055446 -6.1653576 -0.40528825 0 26
5.1114998 -6.1725488 -0.33189255 0 27
5.102798 -6.1620407 -0.25764105 0 28
5.11127 -6.1722713 -0.18430364 0 29
5.1091924 -6.1697626 -0.11052477 0 30
5.1155128 -6.1773949 -0.036885086 0 31
5.1083059 -6.1686916 0.036833119 0 32
5.1087542 -6.1692328 0.11051529 0 33
5.1010394 -6.1599169 0.18393475 0 34
5.1092272 -6.1698041 0.25796562 0 35
5.1091304 -6.1696877 0.33173871 0 36
5.110383 -6.1712003 0.40567231 0 37
5.1044722 -6.1640625 0.47903872 0 38
5.1135697 -6.1750479 0.55394113 0 39
5.1123347 -6.1735568 0.62793231 0 40
5.1139355 -6.1754904 0.70238405 0 41
5.1125898 -6.1738648 0.77655447 0 42
5.1125946 -6.1738706 0.85104316 0 43
5.108254 -6.1686292 0.92489088 0 44
5.1119061 -6.173039 1.0003343 0 45
5.1086402 -6.1690955 1.0746015 0 46
5.1184549 -6.1809478 1.1519017 0 47
5.1180992 -6.1805182 1.2272509 0 48
5.1143217 -6.1759562 1.301931 0 49
5.1131105 -6.1744938 1.3774168 0 50
5.1113138 -6.1723242 1.4529401 0 51
5.1150026 -6.1767788 1.530305 0 52
5.1059356 -6.1658292 1.6040412 0 53
5.1128278 -6.1741524 1.6830412 0 54
5.1061869 -6.1661329 1.7578871 0 55
0 0 0 0 56
0 0 0 0 57
0 0 0 0 58
0 0 0 0 59
0 0 0 0 60
0 0 0 0 61
0 0 0 0 62
0 0 0 0 63
1.5896554 -1.8722886 -0.73219866 0 0
1.6462232 -1.9389137 -0.73284948 0 1
1.7084855 -2.0122459 -0.73434103 0 2
1.7681193 -2.0824826 -0.73297018 0 3
1.8437127 -2.1715159 -0.73628873 0 4
1.9078225 -2.2470243 -0.7330358 0 5
1.9930543 -2.3474097 -0.73577732 0 6
2.0879426 -2.4591687 -0.73950982 0 7
2.170969 -2.5569568 -0.73651111 0 8
2.2650514 -2.6677666 -0.73475587 0 9
2.3737171 -2.7957525 -0.73485315 0 10
2.4990041 -2.9433153 -0.73676765 0 11
2.62061 -3.0865419 -0.73408943 0 12
2.7717896 -3.2646005 -0.73582053 0 13
2.9383874 -3.4608185 -0.73712373 0 14
3.1120448 -3.6653514 -0.73536319 0 15
3.3113813 -3.9001293 -0.73437375 0 16
3.5377922 -4.1667948 -0.73334086 0 17
3.8197339 -4.4988642 -0.7365917 0 18
4.1417561 -4.8781404 -0.73898214 0 19
4.4870787 -5.2848597 -0.73604661 0 20
4.9409695 -5.8194504 -0.73956198 0 21
5.2645097 -6.2005143 -0.71253914 0 22
5.2722998 -6.2096891 -0.63815331 0 23
5.2646003 -6.2006207 -0.56199992 0 24
5.252316 -6.1861529 -0.48573795 0 25
5.2671838 -6.2036638 -0.41203281 0 26
5.2587671 -6.1937509 -0.33648407 0 27
5.2659774 -6.2022429 -0.2620095 0 28
5.2588758 -6.1938787 -0.18686564 0 29
5.2631493 -6.1989121 -0.11219783 0 30
5.2567892 -6.191421 -0.037351977 0 31
5.26509 -6.2011981 0.03741096 0 32
5.2650404 -6.201139 0.11223814 0 33
5.2660251 -6.2022991 0.18711968 0 34
5.262042 -6.197608 0.2618137 0 35
5.2556195 -6.1900434 0.33628267 0 36
5.2688813 -6.2056632 0.41216558 0 37
5.2574806 -6.1922355 0.48621556 0 38
5.2602987 -6.1955547 0.56154072 0 39
5.2693443 -6.2062082 0.63779563 0 40
5.2651896 -6.2013149 0.71263117 0 41
5.2614675 -6.1969314 0.78753394 0 42
5.2578211 -6.1926365 0.86247689 0 43
5.2594051 -6.1945024 0.9383958 0 44
5.2582726 -6.1931682 1.0139973 0 45
5.2623343 -6.1979523 1.0908172 0 46
5.264544 -6.2005548 1.1675317 0 47
5.2606707 -6.1959929 1.2430745 0 48
5.2653108 -6.2014575 1.3208556 0 49
5.2596302 -6.1947675 1.3962618 0 50
5.2579026 -6.1927323 1.472852 0 51
5.2593899 -6.1944847 1.5505971 0 52
5.2666068 -6.2029843 1.6304314 0 53
5.2543716 -6.1885738 1.7044561 0 54
0 0 0 0 55
0 0 0 0 56
0 0 0 0 57
0 0 0 0 58
0 0 0 0 59
0 0 0 0 60
0 0 0 0 61
0 0 0 0 62
0 0 0 0 63
1.6280494 -1.870401 -0.73923355 0 0
1.6786869 -1.9285765 -0.73668861 0 1
1.7346961 -1.9929231 -0.73501819 0 2
1.8010533 -2.0691583 -0.73601973 0 3
1.8687333 -2.1469131 -0.73568243 0 4
1.94025 -2.2290759 -0.73490822 0 5
2.0210049 -2.321852 -0.73550028 0 6
2.1061149 -2.4196315 -0.73535258 0 7
2.1882591 -2.5140035 -0.73183399 0 8
2.2965152 -2.6383748 -0.73438281 0 9
2.4095078 -2.7681875 -0.73533988 0 10
2.5196838 -2.8947644 -0.73231477 0 11
2.6680629 -3.0652311 -0.73676813 0 12
2.8003571 -3.2172186 -0.73284686 0 13
2.9750936 -3.4179664 -0.73573285 0 14
3.1497414 -3.6186125 -0.73370105 0 15
3.3642051 -3.865001 -0.73549306 0 16
3.5907998 -4.1253266 -0.73375809 0 17
3.8754997 -4.4524069 -0.73673213 0 18
4.1720343 -4.7930837 -0.73381311 0 19
4.5201373 -5.1930056 -0.73093957 0 20
4.9969301 -5.7407737 -0.73731631 0 21
5.4196658 -6.226438 -0.72312182 0 22
5.4290538 -6.2372236 -0.64779454 0 23
5.4176097 -6.2240758 -0.57012063 0 24
5.4208713 -6.2278228 -0.49420649 0 25
5.4229136 -6.2301688 -0.41819051 0 26
5.4154553 -6.221601 -0.34158888 0 27
5.4211054 -6.2280917 -0.26589739 0 28
5.4251857 -6.2327795 -0.1900375 0 29
5.4230714 -6.2303505 -0.11396521 0 30
5.4119267 -6.2175469 -0.037908196 0 31
5.4286971 -6.2368135 0.038025666 0 32
5.4257665 -6.2334466 0.11402185 0 33
5.422276 -6.2294369 0.18993558 0 34
5.4282861 -6.2363415 0.2662496 0 35
5.4250154 -6.2325835 0.34219187 0 36
5.419518 -6.2262683 0.4179287 0 37
5.4239984 -6.2314157 0.49449158 0 38
5.4206209 -6.2275352 0.57043755 0 39
5.4276299 -6.2355876 0.64762467 0 40
5.4160051 -6.2222323 0.72263342 0 41
5.4216495 -6.2287173 0.79998529 0 42
5.4143629 -6.2203455 0.8755424 0 43
5.4332619 -6.2420578 0.95564866 0 44
5.428381 -6.2364502 1.0319347 0 45
5.4201541 -6.2269988 1.1075755 0 46
5.4264879 -6.2342758 1.1863558 0 47
5.4220581 -6.2291865 1.2630148 0 48
5.4229803 -6.2302461 1.3410889 0 49
5.4220037 -6.2291236 1.4189255 0 50
5.4221368 -6.2292767 1.4972876 0 51
5.4275274 -6.2354698 1.5774434 0 52
5.4268584 -6.2347012 1.6561829 0 53
5.4329991 -6.241756 1.737372 0 54
0 0 0 0 55
0 0 0 0 56
0 0 0 0 57
0 0 0 0 58
0 0 0 0 59
0 0 0 0 60
0 0 0 0 61
0 0 0 0 62
0 0 0 0 63
1.635747 -1.8332326 -0.73243779 0 0
1.6944114 -1.8989797 -0.73328644 0 1
1.7489245 -1.9600742 -0.73077929 0 2
1.8242378 -2.0444801 -0.73516506 0 3
1.8906242 -2.1188815 -0.73398775 0 4
1.9618521 -2.1987088 -0.73279446 0 5
2.0400157 -2.2863092 -0.73213214 0 6
2.1347358 -2.3924649 -0.73501843 0 7
2.2229836 -2.4913669 -0.73314625 0 8
2.3312433 -2.6126969 -0.73515904 0 9
2.4437408 -2.7387764 -0.7354539 0 10
2.574302 -2.8851004 -0.73782223 0 11
2.6934032 -3.0185809 -0.73346043 0 12
2.8484509 -3.1923478 -0.73510444 0 13
3.0149622 -3.378962 -0.73526168 0 14
3.19101 -3.5762644 -0.73301512 0 15
3.4182792 -3.830972 -0.73696041 0 16
3.6654782 -4.108016 -0.73864013 0 17
3.9111514 -4.3833494 -0.73320776 0 18
4.2171631 -4.7263064 -0.73147339 0 19
4.6175632 -5.1750469 -0.73634815 0 20
5.054791 -5.665062 -0.73551971 0 21
5.58254 -6.2565265 -0.73453301 0 22
5.5873065 -6.2618685 -0.65744007 0 23
5.5963769 -6.2720342 -0.58077312 0 24
5.5902848 -6.2652063 -0.50258994 0 25
5.5896654 -6.2645125 -0.42507723 0 26
5.5838833 -6.2580318 -0.34733263 0 27
5.5835905 -6.2577038 -0.27007246 0 28
5.5954633 -6.2710104 -0.19328639 0 29
5.5821118 -6.2560463 -0.11568205 0 30
5.5943232 -6.2697325 -0.038642861 0 31
5.5982666 -6.2741518 0.0386701 0 32
5.6018009 -6.2781129 0.11609009 0 33
5.5942836 -6.2696881 0.19324563 0 34
5.5961394 -6.2717681 0.27067944 0 35
5.5983567 -6.2742529 0.34823292 0 36
5.5821762 -6.2561188 0.42450771 0 37
5.5904212 -6.2653589 0.50260216 0 38
5.5805531 -6.2542996 0.57913095 0 39
5.5885839 -6.2633004 0.65759039 0 40
5.594924 -6.2704058 0.73616248 0 41
5.5920534 -6.2671885 0.81369638 0 42
5.5943799 -6.2697959 0.89211798 0 43
5.5939107 -6.2692699 0.9702723 0 44
5.5931587 -6.2684274 1.0485269 0 45
5.5944405 -6.2698641 1.1273503 0 46
5.5914373 -6.2664981 1.2054802 0 47
5.5919175 -6.2670364 1.2845337 0 48
5.5899601 -6.2648425 1.3632288 0 49
5.5944061 -6.2698255 1.4437577 0 50
5.597693 -6.2735085 1.5243487 0 51
5.588026 -6.2626748 1.6015875 0 52
5.592824 -6.2680521 1.6831836 0 53
5.5887647 -6.2635026 1.7624204 0 54
0 0 0 0 55
0 0 0 0 56
0 0 0 0 57
0 0 0 0 58
0 0 0 0 59
0 0 0 0 60
0 0 0 0 61
0 0 0 0 62
0 0 0 0 63
1.6633732 -1.8186773 -0.73473883 0 0
1.72118 -1.8818814 -0.73480099 0 1
1.7873287 -1.9542062 -0.73672992 0 2
1.8527272 -2.0257106 -0.73655224 0 3
1.9272826 -2.1072271 -0.73810416 0 4
1.9892501 -2.1749802 -0.73298311 0 5
2.0832407 -2.2777467 -0.7375375 0 6
2.156426 -2.3577647 -0.73244882 0 7
2.2644846 -2.4759126 -0.73673689 0 8
2.367656 -2.5887167 -0.73654783 0 9
2.4704885 -2.7011507 -0.7334522 0 10
2.6025639 -2.8455575 -0.73583817 0 11
2.7379315 -2.9935637 -0.73550653 0 12
2.8727922 -3.1410162 -0.73136342 0 13
3.0626645 -3.3486164 -0.73679751 0 14
3.2379422 -3.5402591 -0.73374057 0 15
3.4532166 -3.7756329 -0.73442775 0 16
3.6723847 -4.015264 -0.73002726 0 17
3.9863749 -4.3585706 -0.73720664 0 18
4.2953768 -4.6964231 -0.73496735 0 19
4.6724024 -5.1086502 -0.7350201 0 20
5.1088352 -5.5858316 -0.73333371 0 21
5.6321096 -6.1579628 -0.73103684 0 22
5.7767491 -6.3161068 -0.67054176 0 23
5.7608829 -6.298759 -0.58976263 0 24
5.7642379 -6.3024273 -0.51122302 0 25
5.7549953 -6.2923217 -0.4317334 0 26
5.7627764 -6.3008294 -0.35361421 0 27
5.7567368 -6.2942257 -0.274683 0 28
5.7692294 -6.3078847 -0.19659464 0 29
5.7660251 -6.3043814 -0.11787798 0 30
5.7679596 -6.3064966 -0.039303627 0 31
5.755589 -6.2929711 0.039219331 0 32
5.7635236 -6.3016462 0.11782683 0 33
5.7674599 -6.3059502 0.19653435 0 34
5.7574596 -6.2950163 0.27471751 0 35
5.7531357 -6.2902884 0.35302263 0 36
5.7610378 -6.2989287 0.43218672 0 37
5.7631793 -6.3012695 0.51112914 0 38
5.760458 -6.2982945 0.58971918 0 39
5.7614756 -6.2994075 0.66876888 0 40
5.7613316 -6.2992496 0.74780959 0 41
5.7628865 -6.3009501 0.8272177 0 42
5.7584224 -6.2960691 0.90586305 0 43
5.7661924 -6.3045645 0.98663366 0 44
5.7601404 -6.2979469 1.0652319 0 45
5.7689195 -6.3075461 1.146794 0 46
5.7616158 -6.2995605 1.2253766 0 47
5.768281 -6.3068476 1.3071332 0 48
5.7677469 -6.3062639 1.38757 0 49
5.7729359 -6.3119373 1.4696898 0 50
5.7588611 -6.2965484 1.5470365 0 51
5.7589092 -6.2966013 1.6282502 0 52
5.7586517 -6.2963195 1.7096602 0 53
0 0 0 0 54
0 0 0 0 55
0 0 0 0 56
0 0 0 0 57
0 0 0 0 58
0 0 0 0 59
0 0 0 0 60
0 0 0 0 61
0 0 0 0 62
0 0 0 0 63
1.6798205 -1.791913 -0.7322157 0 0
1.741361 -1.8575599 -0.7336098 0 1
1.8060558 -1.9265717 -0.73462862 0 2
1.8672327 -1.9918308 -0.73252654 0 3
1.9476345 -2.0775979 -0.73605889 0 4
2.0226052 -2.1575713 -0.73544222 0 5
2.0985012 -2.2385316 -0.73313963 0 6
2.1940987 -2.3405082 -0.73541373 0 7
2.2875443 -2.4401891 -0.73442149 0 8
2.3934622 -2.5531752 -0.73475373 0 9
2.5109315 -2.678483 -0.73562533 0 10
2.635618 -2.8114896 -0.73535365 0 11
2.7699974 -2.9548359 -0.73430443 0 12
2.9148965 -3.1094041 -0.73229313 0 13
3.10536 -3.312577 -0.73721391 0 14
3.2911601 -3.5107753 -0.73596179 0 15
3.4967325 -3.7300653 -0.73387235 0 16
3.7457976 -3.9957502 -0.73479813 0 17
4.0254636 -4.2940779 -0.73461509 0 18
4.3371706 -4.626585 -0.73232883 0 19
4.7197819 -5.0347276 -0.73267907 0 20
5.1670332 -5.5118227 -0.73190349 0 21
5.7083859 -6.0892997 -0.73116314 0 22
5.9447145 -6.3413982 -0.6809358 0 23
5.9444823 -6.3411508 -0.60053056 0 24
5.9350481 -6.3310866 -0.51942831 0 25
5.9420533 -6.3385592 -0.43988591 0 26
5.9344273 -6.3304243 -0.35934332 0 27
5.9452429 -6.3419614 -0.27993542 0 28
5.9401255 -6.336503 -0.19974796 0 29
5.9410272 -6.3374648 -0.11985344 0 30
5.942584 -6.3391256 -0.039959364 0 31
5.9365158 -6.3326521 0.039918557 0 32
5.9332833 -6.3292041 0.11969722 0 33
5.9424548 -6.3389878 0.19982629 0 34
5.9434166 -6.3400135 0.27984944 0 35
5.9363222 -6.3324456 0.35945806 0 36
5.943192 -6.3397741 0.43997023 0 37
5.9330187 -6.3289223 0.51925069 0 38
5.9317865 -6.3276076 0.59924799 0 39
5.938798 -6.3350868 0.6802581 0 40
5.9426703 -6.3392177 0.7611717 0 41
5.9460053 -6.3427749 0.84224391 0 42
5.9413071 -6.3377633 0.9223035 0 43
5.9364433 -6.3325748 1.0023651 0 44
5.9451151 -6.3418255 1.0849361 0 45
5.9451361 -6.3418479 1.1662335 0 46
5.9404631 -6.336863 1.2467473 0 47
5.9366808 -6.3328285 1.3275472 0 48
5.9436345 -6.3402462 1.4110216 0 49
5.9452658 -6.3419862 1.4935958 0 50
5.9395356 -6.3358741 1.574524 0 51
5.9441185 -6.3407621 1.6584455 0 52
5.9343753 -6.3303695 1.7385887 0 53
0 0 0 0 54
0 0 0 0 55
0 0 0 0 56
0 0 0 0 57
0 0 0 0 58
0 0 0 0 59
0 0 0 0 60
0 0 0 0 61
0 0 0 0 62
0 0 0 0 63
1.7139139 -1.783808 -0.73745984 0 0
1.7610736 -1.8328909 -0.73236406 0 1
1.8357297 -1.9105915 -0.73708683 0 2
1.8990709 -1.9765158 -0.73542655 0 3
1.9572778 -2.0370965 -0.73018146 0 4
2.052453 -2.136153 -0.73668849 0 5
2.1293836 -2.2162206 -0.73435253 0 6
2.2175362 -2.3079681 -0.73370171 0 7
2.3300266 -2.4250462 -0.73843116 0 8
2.4261708 -2.5251112 -0.73520732 0 9
2.5429041 -2.6466048 -0.73540235 0 10
2.6689932 -2.7778358 -0.73507971 0 11
2.798945 -2.9130871 -0.73242706 0 12
2.9559174 -3.0764608 -0.73303938 0 13
3.1333587 -3.2611384 -0.73428541 0 14
3.3177066 -3.4530039 -0.73234791 0 15
3.5634463 -3.708765 -0.7382468 0 16
3.8034708 -3.9585779 -0.7365073 0 17
4.0607295 -4.2263279 -0.73151165 0 18
4.3938146 -4.5729961 -0.73234308 0 19
4.7734013 -4.9680624 -0.73146409 0 20
5.2323284 -5.4457049 -0.73161197 0 21
5.7925124 -6.0287337 -0.73238796 0 22
6.1210938 -6.3707147 -0.6921137 0 23
6.1268382 -6.3766932 -0.61098522 0 24
6.1227903 -6.3724804 -0.52896142 0 25
6.1228714 -6.3725648 -0.44743702 0 26
6.1187987 -6.3683262 -0.36573806 0 27
6.118494 -6.3680086 -0.28438455 0 28
6.1287045 -6.3786359 -0.20343639 0 29
6.125392 -6.3751879 -0.1219821 0 30
6.1205916 -6.3701921 -0.040626545 0 31
6.1287451 -6.3786778 0.040680662 0 32
6.1240101 -6.3737497 0.12195458 0 33
6.1158805 -6.3652887 0.20301071 0 34
6.1338701 -6.3840122 0.28509924 0 35
6.1258969 -6.3757133 0.36616233 0 36
6.1226373 -6.3723211 0.44741991 0 37
6.1137381 -6.3630586 0.52817935 0 38
6.1123843 -6.36165 0.6095438 0 39
6.1292281 -6.3791804 0.6930334 0 40
6.1256671 -6.3754745 0.77451104 0 41
6.1229143 -6.3726096 0.85613847 0 42
6.1239519 -6.3736892 0.9384191 0 43
6.1280699 -6.377975 1.0214016 0 44
6.126368 -6.376204 1.1036217 0 45
6.1136041 -6.3629193 1.1838434 0 46
6.1159263 -6.3653364 1.2670496 0 47
6.1204605 -6.3700557 1.3510257 0 48
6.1274796 -6.3773608 1.4359412 0 49
6.12499 -6.3747697 1.5189394 0 50
6.1222124 -6.3718786 1.6020586 0 51
6.1230903 -6.3727927 1.6863886 0 52
0 0 0 0 53
0 0 0 0 54
0 0 0 0 55
0 0 0 0 56
0 0 0 0 57
0 0 0 0 58
0 0 0 0 59
0 0 0 0 60
0 0 0 0 61
0 0 0 0 62
0 0 0 0 63
1.727653 -1.7544105 -0.73403352 0 0
1.7903734 -1.8181025 -0.73519611 0 1
1.8504622 -1.8791218 -0.73366898 0 2
1.9214971 -1.9512569 -0.7347641 0 3
1.9852996 -2.0160475 -0.73133171 0 4
2.0613937 -2.0933201 -0.73060328 0 5
2.1623292 -2.1958189 -0.73634702 0 6
2.2366924 -2.2713339 -0.73074377 0 7
2.3454037 -2.3817286 -0.7339673 0 8
2.468662 -2.5068963 -0.73868644 0 9
2.5684524 -2.608232 -0.73346025 0 10
2.7060556 -2.7479665 -0.73592532 0 11
2.8445907 -2.8886473 -0.73502117 0 12
3.0013399 -3.0478241 -0.73495418 0 13
3.1684568 -3.2175293 -0.73318338 0 14
3.3731818 -3.4254251 -0.73524022 0 15
3.5960767 -3.651772 -0.73564845 0 16
3.8396599 -3.8991277 -0.73417526 0 17
4.1374822 -4.2015629 -0.73597544 0 18
4.4775143 -4.5468607 -0.73691916 0 19
4.8796649 -4.9552402 -0.73835486 0 20
5.2885733 -5.370482 -0.73018748 0 21
5.8806143 -5.9716921 -0.73418742 0 22
6.305696 -6.4033575 -0.70403045 0 23
6.3175821 -6.4154277 -0.62209284 0 24
6.3091416 -6.4068565 -0.53821391 0 25
6.3194427 -6.4173169 -0.45600078 0 26
6.3201604 -6.418046 -0.37302861 0 27
6.3148847 -6.4126883 -0.28982574 0 28
6.3183675 -6.416225 -0.2070975 0 29
6.3065009 -6.4041748 -0.12401114 0 30
6.3119063 -6.4096637 -0.041370142 0 31
6.313827 -6.4116144 0.041382734 0 32
6.3084545 -6.4061584 0.12404955 0 33
6.3192186 -6.4170895 0.2071254 0 34
6.3185935 -6.4164548 0.28999597 0 35
6.3152966 -6.4131069 0.37274155 0 36
6.312397 -6.410162 0.45549235 0 37
6.3212743 -6.4191771 0.53924888 0 38
6.32236 -6.4202795 0.62256336 0 39
6.3141761 -6.4119692 0.70497727 0 40
6.3075848 -6.4052753 0.78749412 0 41
6.3258643 -6.4238381 0.87340504 0 42
6.3195453 -6.4174213 0.95622689 0 43
6.2949815 -6.392477 1.036042 0 44
6.3119173 -6.4096751 1.122764 0 45
6.3209682 -6.4188662 1.2086223 0 46
6.3118196 -6.4095759 1.2912073 0 47
6.3261414 -6.4241195 1.3788862 0 48
6.3041072 -6.4017439 1.4587753 0 49
6.3116727 -6.4094267 1.5455731 0 50
6.3104854 -6.4082208 1.6305826 0 51
6.3089547 -6.4066668 1.7157516 0 52
0 0 0 0 53
0 0 0 0 54
0 0 0 0 55
0 0 0 0 56
0 0 0 0 57
0 0 0 0 58
0 0 0 0 59
0 0 0 0 60
0 0 0 0 61
0 0 0 0 62
0 0 0 0 63
1.7455069 -1.7294815 -0.73252821 0 0
1.8058628 -1.7892832 -0.7324664 0 1
1.8760455 -1.8588215 -0.73469436 0 2
1.9464934 -1.9286227 -0.73519832 0 3
2.0142844 -1.9957913 -0.7329132 0 4
2.112808 -2.0934105 -0.73964638 0 5
2.1826944 -2.1626551 -0.73417073 0 6
2.2677927 -2.2469723 -0.73182231 0 7
2.3724177 -2.3506367 -0.7333203 0 8
2.4837244 -2.4609215 -0.73408318 0 9
2.6017137 -2.5778275 -0.73385113 0 10
2.7332449 -2.7081511 -0.73420775 0 11
2.8815961 -2.8551402 -0.73545575 0 12
3.0402358 -3.0123236 -0.73535281 0 13
3.2198606 -3.1902993 -0.73594493 0 14
3.4209793 -3.3895714 -0.73651803 0 15
3.6449699 -3.6115055 -0.73651016 0 16
3.876308 -3.8407199 -0.73209709 0 17
4.1804519 -4.1420712 -0.73450339 0 18
4.5292478 -4.4876652 -0.73629588 0 19
4.9327202 -4.8874331 -0.7372334 0 20
5.3485866 -5.2994814 -0.72942102 0 21
5.9428811 -5.88832 -0.73286623 0 22
6.5138884 -6.4540844 -0.71836001 0 23
6.5323176 -6.4723444 -0.63535291 0 24
6.5190253 -6.4591742 -0.54930139 0 25
6.5176749 -6.4578366 -0.46453977 0 26
6.5149555 -6.455142 -0.37981218 0 27
6.5068808 -6.4471412 -0.29497674 0 28
6.5246868 -6.4647837 -0.21123849 0 29
6.510056 -6.4502878 -0.12644462 0 30
6.5179396 -6.4580989 -0.04219687 0 31
6.5256772 -6.465765 0.04224696 0 32
6.5132103 -6.453413 0.1265059 0 33
6.5156517 -6.4558315 0.21094598 0 34
6.5153065 -6.4554901 0.29535872 0 35
6.5156665 -6.4558468 0.37985364 0 36
6.5093937 -6.4496312 0.4639495 0 37
6.5166359 -6.4568071 0.54910004 0 38
6.5133548 -6.4535561 0.6335085 0 39
6.5071473 -6.4474058 0.71761662 0 40
6.5233226 -6.4634323 0.80444527 0 41
6.5198941 -6.4600353 0.88915974 0 42
6.5170999 -6.4572668 0.97403127 0 43
6.5064325 -6.4466972 1.0577164 0 44
6.5189834 -6.4591331 1.1453823 0 45
6.5216222 -6.4617476 1.2317032 0 46
6.5151143 -6.4552994 1.3164575 0 47
6.5139322 -6.4541283 1.4024138 0 48
6.5171289 -6.4572954 1.4895824 0 49
6.51443 -6.4546218 1.5756688 0 50
6.5179276 -6.458087 1.6635391 0 51
6.5222654 -6.4623852 1.7520194 0 52
0 0 0 0 53
0 0 0 0 54
0 0 0 0 55
0 0 0 0 56
0 0 0 0 57
0 0 0 0 58
0 0 0 0 59
0 0 0 0 60
0 0 0 0 61
0 0 0 0 62
0 0 0 0 63
1.7741957 -1.7151933 -0.73566121 0 0
1.840585 -1.7793748 -0.73761946 0 1
1.9040358 -1.8407155 -0.73673618 0 2
1.9668723 -1.9014624 -0.73400885 0 3
2.0453832 -1.9773623 -0.73532611 0 4
2.1276317 -2.0568755 -0.73592585 0 5
2.2210104 -2.1471488 -0.73812222 0 6
2.2960174 -2.2196615 -0.73206729 0 7
2.3898618 -2.310385 -0.72987568 0 8
2.5062542 -2.4229066 -0.73188108 0 9
2.6311462 -2.5436454 -0.73327523 0 10
2.7693603 -2.677263 -0.73501033 0 11
2.913805 -2.8169041 -0.73478025 0 12
3.0864718 -2.9838285 -0.73760581 0 13
3.2387464 -3.1310394 -0.73140633 0 14
3.4589751 -3.3439441 -0.73579007 0 15
3.6769674 -3.5546868 -0.73408794 0 16
3.9409604 -3.8099005 -0.73540407 0 17
4.2258887 -4.0853534 -0.73360485 0 18
4.5703387 -4.4183483 -0.73408818 0 19
4.9940896 -4.8280072 -0.73747689 0 20
5.425108 -5.2446914 -0.73100638 0 21
6.020503 -5.8202863 -0.73355716 0 22
6.7193069 -6.495851 -0.73214966 0 23
6.7173624 -6.4939709 -0.64553535 0 24
6.7134047 -6.4901447 -0.55891323 0 25
6.7161093 -6.4927597 -0.47295681 0 26
6.713346 -6.4900885 -0.38669631 0 27
6.7215137 -6.4979844 -0.30106175 0 28
6.7157907 -6.4924517 -0.21482463 0 29
6.7191062 -6.495657 -0.12894388 0 30
6.7167177 -6.4933476 -0.042963587 0 31
6.7179222 -6.4945126 0.042971294 0 32
6.7128339 -6.489593 0.12882349 0 33
6.7212367 -6.4977169 0.21499886 0 34
6.7231789 -6.4995942 0.30113631 0 35
6.7152395 -6.491919 0.38680539 0 36
6.7225451 -6.4989815 0.47341007 0 37
6.7145853 -6.4912863 0.55901158 0 38
6.7169843 -6.4936056 0.64549905 0 39
6.7297273 -6.5059247 0.73328507 0 40
6.7295442 -6.5057478 0.81994903 0 41
6.7153826 -6.4920568 0.90486449 0 42
6.7131653 -6.4899135 0.99133259 0 43
6.7193213 -6.4958649 1.079258 0 44
6.7226887 -6.4991202 1.1670437 0 45
6.7184834 -6.4950552 1.2537045 0 46
6.7212472 -6.4977269 1.341863 0 47
6.7205806 -6.4970822 1.4295958 0 48
