# .PCD v0.7 - Point Cloud Data file format
VERSION 0.7
FIELDS x y z intensity ring
SIZE 4 4 4 4 2
TYPE F F F F U
COUNT 1 1 1 1 1
WIDTH 1334
HEIGHT 1
VIEWPOINT 0 0 0 1 0 0 0
POINTS 1334
DATA ascii
1.4062536 -4.0387297 -0.73478574 0 13
1.4852622 -4.2656403 -0.73336452 0 14
1.5845988 -4.5509334 -0.73698872 0 15
1.6786984 -4.8211856 -0.73276728 0 16
1.8028724 -5.1778102 -0.73556995 0 17
1.9246346 -5.5275087 -0.7305122 0 18
1.9239111 -5.5254307 -0.67564702 0 19
1.9188058 -5.5107689 -0.619524 0 20
1.9208642 -5.5166802 -0.56590623 0 21
1.9228328 -5.5223341 -0.51224506 0 22
1.9219337 -5.5197515 -0.45787698 0 23
1.921278 -5.5178685 -0.40368861 0 24
1.9194752 -5.512691 -0.34939694 0 25
1.9244072 -5.5268559 -0.2963028 0 26
1.9196362 -5.5131536 -0.24176028 0 27
1.9227936 -5.5222216 -0.18830255 0 28
1.9230806 -5.5230455 -0.13449912 0 29
1.9165593 -5.5043168 -0.080416746 0 30
1.9201105 -5.5145154 -0.026853735 0 31
1.9203786 -5.5152855 0.026857484 0 32
1.9211982 -5.5176396 0.080611385 0 33
1.9228776 -5.5224624 0.13448492 0 34
1.9205478 -5.5157714 0.18808261 0 35
1.9231241 -5.5231705 0.24219954 0 36
1.9134098 -5.4952712 0.29460952 0 37
1.9259065 -5.5311613 0.35056761 0 38
1.9206475 -5.516058 0.40355614 0 39
1.9238511 -5.5252585 0.45833379 0 40
1.9254842 -5.5299487 0.51295137 0 41
1.9264838 -5.5328193 0.56756181 0 42
1.9209284 -5.5168643 0.62020928 0 43
1.9199665 -5.514102 0.67426175 0 44
1.9243972 -5.5268269 0.73042208 0 45
1.9262331 -5.5320992 0.78590095 0 46
1.9212806 -5.5178761 0.8386566 0 47
1.9206213 -5.5159826 0.89327103 0 48
1.920599 -5.5159183 0.94831687 0 49
1.9180887 -5.508709 1.0022262 0 50
1.92283 -5.5223255 1.0601636 0 51
1.9228042 -5.5222516 1.1157941 0 52
1.9206712 -5.5161257 1.1703347 0 53
1.9225904 -5.5216374 1.2275444 0 54
1.9192419 -5.5120206 1.2815655 0 55
1.9208742 -5.5167089 1.33909 0 56
1.9250798 -5.5287876 1.3988189 0 57
1.9212121 -5.5176792 1.4529411 0 58
1.9200698 -5.5143986 1.5092367 0 59
1.9208772 -5.5167174 1.5673276 0 60
1.9219577 -5.5198207 1.625982 0 61
1.9249833 -5.5285101 1.6867026 0 62
1.9218978 -5.5196486 1.742375 0 63
0.83452803 -2.3050802 -0.73082358 0 0
0.86979914 -2.4025037 -0.73619139 0 1
0.89950204 -2.4845474 -0.73507953 0 2
0.93191272 -2.57407 -0.73450649 0 3
0.96631706 -2.6690993 -0.7337029 0 4
1.010133 -2.7901251 -0.73792374 0 5
1.0458913 -2.8888943 -0.73410726 0 6
1.0959166 -3.0270712 -0.7379868 0 7
1.1394163 -3.1472235 -0.73494327 0 8
1.1945385 -3.2994783 -0.73673421 0 9
1.2502021 -3.4532287 -0.73586398 0 10
1.3127997 -3.6261315 -0.73588115 0 11
1.3808378 -3.8140624 -0.73541921 0 12
1.4460725 -3.9942493 -0.72987312 0 13
1.5371981 -4.2459507 -0.73317367 0 14
1.6387843 -4.5265455 -0.736247 0 15
1.7389753 -4.803287 -0.7332415 0 16
1.8691152 -5.1627512 -0.73664004 0 17
1.9999655 -5.5241776 -0.73326665 0 18
2.0006044 -5.5259423 -0.67866641 0 19
2.001606 -5.5287089 -0.6242606 0 20
2.0050228 -5.5381465 -0.57059425 0 21
2.0061224 -5.541183 -0.51624262 0 22
2.0032842 -5.5333443 -0.46101308 0 23
2.0110865 -5.5548949 -0.40817586 0 24
2.0028243 -5.532074 -0.35215977 0 25
2.0037031 -5.5345011 -0.29801103 0 26
2.00791 -5.5461211 -0.24427021 0 27
2.0024037 -5.5309119 -0.18942416 0 28
2.0072255 -5.5442305 -0.13560583 0 29
2.0036979 -5.5344868 -0.081211343 0 30
2.0062749 -5.5416045 -0.027103735 0 31
2.0053186 -5.5389638 0.027090818 0 32
2.00669 -5.5427513 0.081332617 0 33
2.0106747 -5.5537577 0.13583885 0 34
2.002629 -5.5315347 0.18944548 0 35
2.0039625 -5.5352178 0.24378999 0 36
2.0049279 -5.5378838 0.29819322 0 37
2.0034714 -5.5338612 0.35227352 0 38
2.0003974 -5.5253706 0.40600637 0 39
2.0085318 -5.5478387 0.46222067 0 40
2.0054426 -5.5393062 0.51606774 0 41
2.0008712 -5.526679 0.56941277 0 42
2.0087759 -5.5485129 0.62649679 0 43
2.0108252 -5.554173 0.68213356 0 44
2.004997 -5.5380754 0.73511142 0 45
2.0003774 -5.5253148 0.78837192 0 46
2.0050917 -5.5383363 0.84544981 0 47
2.0011041 -5.5273223 0.89902425 0 48
2.0002842 -5.5250573 0.9540447 0 49
2.0068567 -5.5432119 1.0129166 0 50
2.0090275 -5.5492077 1.0699861 0 51
1.9998598 -5.5238853 1.1210083 0 52
2.003413 -5.5336995 1.1792008 0 53
2.0053821 -5.5391383 1.2368237 0 54
2.0063388 -5.5417809 1.2941233 0 55
2.0023518 -5.5307684 1.3483773 0 56
2.0010703 -5.5272288 1.4045438 0 57
2.0038524 -5.5349135 1.4638569 0 58
2.0068932 -5.5433121 1.5237889 0 59
2.0017581 -5.529129 1.5777276 0 60
2.005096 -5.5383482 1.6385788 0 61
2.0039368 -5.5351462 1.6961168 0 62
1.9982412 -5.5194144 1.7499254 0 63
0.8641355 -2.2981777 -0.73194873 0 0
0.8983658 -2.3892136 -0.7354483 0 1
0.93238342 -2.4796836 -0.73697692 0 2
0.96196342 -2.5583522 -0.73334134 0 3
0.99731994 -2.6523833 -0.73242354 0 4
1.0376538 -2.7596514 -0.73318332 0 5
1.0820571 -2.8777428 -0.73459905 0 6
1.1253716 -2.992938 -0.73298353 0 7
1.1752423 -3.1255696 -0.73320591 0 8
1.2269896 -3.2631919 -0.73194551 0 9
1.2871825 -3.4232757 -0.73279858 0 10
1.3480796 -3.585232 -0.73088986 0 11
1.4317236 -3.8076844 -0.73752826 0 12
1.50919 -4.0137072 -0.73676401 0 13
1.5931232 -4.2369285 -0.73494285 0 14
1.6947701 -4.5072594 -0.736444 0 15
1.7948484 -4.7734189 -0.73199582 0 16
1.9294505 -5.1313949 -0.73549557 0 17
2.0780234 -5.5265255 -0.73691434 0 18
2.0834281 -5.5408998 -0.68359804 0 19
2.0897603 -5.5577402 -0.63039243 0 20
2.0948732 -5.5713377 -0.57662439 0 21
2.0901885 -5.5588789 -0.52024645 0 22
2.086937 -5.5502315 -0.46452293 0 23
2.0921803 -5.5641761 -0.41071716 0 24
2.0957327 -5.5736241 -0.35641825 0 25
2.0883424 -5.5539694 -0.30041936 0 26
2.0845077 -5.5437708 -0.24527708 0 27
2.0895579 -5.5572019 -0.19119006 0 28
2.0891259 -5.5560527 -0.13651299 0 29
2.0915747 -5.5625653 -0.081994556 0 30
2.089349 -5.5566459 -0.027300894 0 31
2.0884302 -5.5542026 0.027288888 0 32
2.087106 -5.5506806 0.08181937 0 33
2.0894425 -5.5568948 0.13653368 0 34
2.0899117 -5.5581427 0.19122244 0 35
2.0862432 -5.5483861 0.24548127 0 36
2.0833414 -5.540669 0.29969993 0 37
2.086961 -5.5502958 0.35492647 0 38
2.0831218 -5.5400848 0.40893885 0 39
2.0902653 -5.559083 0.46526378 0 40
2.0897255 -5.5576477 0.52013117 0 41
2.0902934 -5.5591583 0.57536381 0 42
2.0850687 -5.5452628 0.62897724 0 43
2.0875962 -5.5519843 0.68496561 0 44
2.0901346 -5.5587354 0.74120927 0 45
2.0903232 -5.5592375 0.79681933 0 46
2.0881326 -5.5534115 0.85160637 0 47
2.0864778 -5.5490103 0.90665632 0 48
2.0845571 -5.5439019 0.96165216 0 49
2.0904107 -5.5594697 1.0205072 0 50
2.0851388 -5.5454493 1.0741241 0 51
2.0856111 -5.5467052 1.1307582 0 52
2.0877535 -5.552403 1.1885672 0 53
2.0933251 -5.5672207 1.2487473 0 54
2.0876679 -5.5521755 1.3024468 0 55
2.0815182 -5.53582 1.3557465 0 56
2.0871072 -5.550684 1.4169185 0 57
2.0854461 -5.5462661 1.4735302 0 58
2.08675 -5.5497346 1.532492 0 59
2.0888381 -5.5552874 1.5924007 0 60
2.0886254 -5.5547218 1.6508968 0 61
2.0888855 -5.5554137 1.7100688 0 62
0 0 0 0 63
0.89280075 -2.2885921 -0.73233688 0 0
0.93176156 -2.3884637 -0.73868847 0 1
0.95674092 -2.4524953 -0.73233753 0 2
0.9968257 -2.555248 -0.73590946 0 3
1.0343809 -2.6515164 -0.73564082 0 4
1.0791359 -2.7662406 -0.73840356 0 5
1.1183102 -2.8666596 -0.73522455 0 6
1.1636331 -2.9828398 -0.7339592 0 7
1.2128481 -3.1089966 -0.73276132 0 8
1.2622478 -3.2356269 -0.72918892 0 9
1.333138 -3.417346 -0.73498279 0 10
1.4069065 -3.6064429 -0.73868489 0 11
1.4775951 -3.7876453 -0.73711032 0 12
1.5616982 -4.0032339 -0.73831069 0 13
1.6420748 -4.20927 -0.73359221 0 14
1.7436675 -4.4696908 -0.73375344 0 15
1.8580074 -4.7627883 -0.7338137 0 16
1.9941841 -5.1118617 -0.73615491 0 17
2.1446378 -5.4975328 -0.73650914 0 18
2.1784253 -5.5841427 -0.69218552 0 19
2.1710596 -5.5652614 -0.63422567 0 20
2.1756265 -5.5769682 -0.57993215 0 21
2.1756737 -5.5770893 -0.52441484 0 22
2.1724248 -5.5687609 -0.46827412 0 23
2.1761951 -5.5784259 -0.41371298 0 24
2.171514 -5.5664263 -0.35763848 0 25
2.1750836 -5.5755768 -0.30301192 0 26
2.1730635 -5.5703988 -0.24761871 0 27
2.1715863 -5.5666113 -0.19241795 0 28
2.1710587 -5.565259 -0.13738474 0 29
2.1702104 -5.5630846 -0.08238934 0 30
2.1749923 -5.5753427 -0.027522076 0 31
2.1766779 -5.5796638 0.027543407 0 32
2.166976 -5.5547938 0.082266554 0 33
2.1747611 -5.5747499 0.13761903 0 34
2.1723986 -5.5686941 0.19248992 0 35
2.1730349 -5.5703249 0.24761541 0 36
2.1764901 -5.5791817 0.30320784 0 37
2.1714633 -5.5662966 0.35763013 0 38
2.1759484 -5.5777936 0.41366604 0 39
2.1743917 -5.5738034 0.46869811 0 40
2.1756773 -5.5770984 0.52441573 0 41
2.1779034 -5.5828052 0.58053905 0 42
2.1750057 -5.575377 0.63537842 0 43
2.1699886 -5.5625162 0.6895048 0 44
2.176265 -5.5786052 0.74737048 0 45
2.1734369 -5.5713558 0.80232632 0 46
2.1740072 -5.5728173 0.85861671 0 47
2.1731255 -5.5705571 0.91447383 0 48
2.1732674 -5.5709214 0.97090107 0 49
2.1724346 -5.5687866 1.0270433 0 50
2.1796482 -5.5872774 1.0873351 0 51
2.1656344 -5.5513544 1.1370488 0 52
2.1732693 -5.5709257 1.1981622 0 53
2.1722295 -5.5682607 1.254877 0 54
2.1743984 -5.5738201 1.3136971 0 55
2.1704919 -5.5638065 1.3690333 0 56
2.1725748 -5.5691457 1.4283428 0 57
2.1759324 -5.5777521 1.4888915 0 58
2.1747115 -5.5746226 1.5466319 0 59
2.1757741 -5.5773468 1.6062715 0 60
2.1682718 -5.5581155 1.659704 0 61
2.1689482 -5.5598493 1.719514 0 62
0 0 0 0 63
0.9233737 -2.2836268 -0.73432583 0 0
0.95579576 -2.3638108 -0.73464334 0 1
0.99350309 -2.4570661 -0.73729461 0 2
1.0263996 -2.5384235 -0.73464334 0 3
1.0695586 -2.6451616 -0.73747081 0 4
1.1047502 -2.7321951 -0.73288637 0 5
1.1511941 -2.8470571 -0.7337721 0 6
1.2051444 -2.9804833 -0.73697007 0 7
1.2541598 -3.1017051 -0.734622 0 8
1.3096725 -3.2389953 -0.73352188 0 9
1.3760158 -3.4030712 -0.7354961 0 10
1.4467475 -3.5780003 -0.73644727 0 11
1.519722 -3.758476 -0.73501486 0 12
1.6056964 -3.9711022 -0.7359705 0 13
1.6905464 -4.1809478 -0.73222375 0 14
1.8052882 -4.4647193 -0.73652577 0 15
1.9192264 -4.7465038 -0.73488522 0 16
2.0475993 -5.0639873 -0.73283106 0 17
2.2074895 -5.4594173 -0.7349838 0 18
2.255775 -5.5788341 -0.69491321 0 19
2.2621119 -5.5945058 -0.64067996 0 20
2.2606401 -5.5908656 -0.58422375 0 21
2.253464 -5.5731182 -0.52660722 0 22
2.2628949 -5.5964417 -0.47290587 0 23
2.2634659 -5.5978546 -0.41718644 0 24
2.2642543 -5.5998044 -0.36154449 0 25
2.2560916 -5.5796165 -0.30471611 0 26
2.265738 -5.6034737 -0.25030851 0 27
2.2627356 -5.5960479 -0.19438252 0 28
2.259043 -5.5869155 -0.13859461 0 29
2.2642152 -5.5997076 -0.083337769 0 30
2.2600811 -5.5894833 -0.027726971 0 31
2.2570167 -5.5819044 0.027689377 0 32
2.2611363 -5.592093 0.083224438 0 33
2.2590072 -5.5868273 0.13859242 0 34
2.2617853 -5.593698 0.19430089 0 35
2.2537007 -5.5737033 0.24897867 0 36
2.2605007 -5.5905209 0.30531162 0 37
2.259527 -5.5881124 0.36078963 0 38
2.2712998 -5.6172285 0.41863033 0 39
2.2619095 -5.5940051 0.47269994 0 40
2.2604349 -5.5903578 0.52823621 0 41
2.2619801 -5.5941796 0.58457005 0 42
2.2661595 -5.6045156 0.64182627 0 43
2.2608635 -5.5914183 0.69648081 0 44
2.2595179 -5.5880904 0.75230664 0 45
2.2591918 -5.5872841 0.8085596 0 46
2.2632451 -5.5973086 0.86661243 0 47
2.2583537 -5.5852113 0.9213686 0 48
2.2566226 -5.5809298 0.97740746 0 49
2.2583599 -5.5852265 1.0351187 0 50
2.2609258 -5.5915723 1.0934987 0 51
2.2646608 -5.6008096 1.1527951 0 52
2.2598972 -5.5890288 1.2079409 0 53
2.2625723 -5.5956445 1.2672224 0 54
2.2597013 -5.5885439 1.3236163 0 55
2.2639821 -5.5991306 1.3844706 0 56
2.2613201 -5.5925474 1.4413674 0 57
2.2581067 -5.5846004 1.4980181 0 58
2.2610793 -5.5919523 1.5590358 0 59
2.264483 -5.6003699 1.6207991 0 60
2.2593656 -5.5877137 1.6767116 0 61
2.2625527 -5.5955958 1.7390424 0 62
0 0 0 0 63
0.94870466 -2.2657058 -0.73225904 0 0
0.98828804 -2.3602395 -0.7372545 0 1
1.0212824 -2.4390371 -0.73559731 0 2
1.0582619 -2.5273516 -0.73514944 0 3
1.098461 -2.6233556 -0.73510152 0 4
1.1361561 -2.7133791 -0.73153144 0 5
1.1866696 -2.8340163 -0.73411638 0 6
1.2376198 -2.9556959 -0.73454839 0 7
1.2967979 -3.0970256 -0.73723471 0 8
1.3506716 -3.2256875 -0.73421383 0 9
1.4108731 -3.3694613 -0.73192632 0 10
1.4874508 -3.5523448 -0.7348758 0 11
1.5645976 -3.7365875 -0.73444122 0 12
1.6494019 -3.9391181 -0.73374623 0 13
1.7588117 -4.2004118 -0.73936433 0 14
1.8527672 -4.4247975 -0.73364288 0 15
1.9769872 -4.7214608 -0.73471618 0 16
2.11092 -5.0413203 -0.73325169 0 17
2.2735317 -5.4296713 -0.73468733 0 18
2.3474388 -5.6061769 -0.70186162 0 19
2.3479898 -5.6074929 -0.64542478 0 20
2.3441827 -5.5984006 -0.58797872 0 21
2.3470657 -5.6052856 -0.53233349 0 22
2.346354 -5.6035862 -0.47591162 0 23
2.3520436 -5.6171741 -0.4207499 0 24
2.3452125 -5.6008601 -0.36344704 0 25
2.3448291 -5.5999441 -0.30737767 0 26
2.3449781 -5.6003003 -0.25143582 0 27
2.3438222 -5.5975399 -0.19542068 0 28
2.3464394 -5.6037903 -0.13971841 0 29
2.3441172 -5.5982437 -0.083738633 0 30
2.3514414 -5.615736 -0.027998514 0 31
2.3405051 -5.5896177 0.027868295 0 32
2.343226 -5.5961161 0.083706804 0 33
2.3488157 -5.6094646 0.1398599 0 34
2.3457789 -5.6022129 0.19558384 0 35
2.3442717 -5.5986128 0.25136006 0 36
2.3481207 -5.6078053 0.30780914 0 37
2.3482955 -5.608223 0.36392483 0 38
2.3490036 -5.6099138 0.4202061 0 39
2.3538136 -5.6214013 0.47742462 0 40
2.3456535 -5.6019135 0.53201324 0 41
2.3515158 -5.6159134 0.58981806 0 42
2.3489501 -5.6097865 0.64568877 0 43
2.3492758 -5.6105638 0.70241082 0 44
2.3498828 -5.6120138 0.75936002 0 45
2.3485527 -5.6088371 0.81579614 0 46
2.3462658 -5.6033759 0.87195271 0 47
2.3494353 -5.6109447 0.93030924 0 48
2.3511939 -5.6151447 0.98838824 0 49
2.3550155 -5.6242719 1.0476427 0 50
2.344511 -5.599185 1.1005422 0 51
2.3486741 -5.609127 1.1603637 0 52
2.3461859 -5.6031852 1.2171437 0 53
2.3505421 -5.6135883 1.2777351 0 54
2.3423917 -5.5941234 1.331659 0 55
2.3439472 -5.5978379 1.3911725 0 56
2.3444214 -5.5989709 1.4503431 0 57
2.3427789 -5.595048 1.5084341 0 58
2.3484383 -5.6085639 1.5715994 0 59
2.3489096 -5.6096892 1.6317319 0 60
2.347681 -5.6067553 1.69096 0 61
2.346756 -5.6045461 1.7506601 0 62
0 0 0 0 63
0.97986144 -2.2616491 -0.73478651 0 0
1.0169755 -2.3473134 -0.73706734 0 1
1.0449345 -2.4118464 -0.73121673 0 2
1.0914397 -2.5191867 -0.73662263 0 3
1.1343968 -2.6183369 -0.73754823 0 4
1.179085 -2.7214835 -0.73756945 0 5
1.2200878 -2.816123 -0.73331219 0 6
1.2743012 -2.9412549 -0.73479813 0 7
1.3317436 -3.0738394 -0.73555791 0 8
1.3947293 -3.2192187 -0.73658943 0 9
1.454702 -3.3576438 -0.73318946 0 10
1.5329927 -3.5383492 -0.73582447 0 11
1.6072075 -3.7096467 -0.73297495 0 12
1.7009885 -3.9261055 -0.73516291 0 13
1.7966876 -4.1469917 -0.73379457 0 14
1.9069685 -4.4015346 -0.73361832 0 15
2.0436051 -4.7169094 -0.73786253 0 16
2.1807239 -5.0333982 -0.73594403 0 17
2.3338208 -5.386766 -0.73270947 0 18
2.4388616 -5.6292138 -0.70844662 0 19
2.4373047 -5.6256204 -0.65091169 0 20
2.4401262 -5.6321325 -0.59462786 0 21
2.4302087 -5.609242 -0.53550673 0 22
2.4383178 -5.6279583 -0.48049161 0 23
2.4398768 -5.631557 -0.42404243 0 24
2.4378304 -5.6268334 -0.36704999 0 25
2.4325922 -5.6147428 -0.3098084 0 26
2.4379201 -5.6270409 -0.25396308 0 27
2.4391942 -5.629981 -0.19758546 0 28
2.4315469 -5.6123304 -0.1406662 0 29
2.4415565 -5.6354337 -0.084737591 0 30
2.4359992 -5.6226068 -0.028179983 0 31
2.4375367 -5.6261559 0.028197771 0 32
2.4353917 -5.6212049 0.084523633 0 33
2.4376884 -5.6265054 0.14102148 0 34
2.4381802 -5.6276412 0.19750334 0 35
2.4261603 -5.5998974 0.25273803 0 36
2.4418664 -5.6361489 0.31098953 0 37
2.4367321 -5.6242986 0.36688462 0 38
2.4353795 -5.6211767 0.42326081 0 39
2.436059 -5.622745 0.48004654 0 40
2.4330044 -5.6156945 0.53612274 0 41
2.4399147 -5.6316442 0.5945763 0 42
2.4323969 -5.6142921 0.64960098 0 43
2.4344609 -5.6190562 0.70716828 0 44
2.4419298 -5.6362953 0.76665056 0 45
2.4395895 -5.6308937 0.82330519 0 46
2.4337075 -5.6173172 0.87871265 0 47
2.4367814 -5.6244121 0.93743938 0 48
2.4345365 -5.6192307 0.99430174 0 49
2.439791 -5.6313591 1.0544714 0 50
2.43349 -5.6168151 1.1098051 0 51
2.4328246 -5.6152797 1.1677368 0 52
2.4332705 -5.6163087 1.2264012 0 53
2.4337552 -5.6174273 1.2853235 0 54
2.4380593 -5.6273618 1.3466059 0 55
2.4320178 -5.6134171 1.4023703 0 56
2.4331751 -5.6160884 1.462417 0 57
2.4404144 -5.6327977 1.5265863 0 58
2.4417429 -5.6358643 1.5875427 0 59
2.4342415 -5.6185498 1.6428918 0 60
2.4369066 -5.6247015 1.705281 0 61
0 0 0 0 62
0 0 0 0 63
1.0075077 -2.249234 -0.73472238 0 0
1.0411503 -2.3243403 -0.73381823 0 1
1.0832127 -2.4182436 -0.73713875 0 2
1.1191169 -2.4983988 -0.73451245 0 3
1.1619596 -2.594044 -0.73467439 0 4
1.2034713 -2.6867177 -0.73210257 0 5
1.2598718 -2.8126304 -0.73638111 0 6
1.3160241 -2.9379885 -0.7379691 0 7
1.3678665 -3.0537255 -0.73471409 0 8
1.4294026 -3.1911032 -0.73412251 0 9
1.4991537 -3.3468208 -0.73479599 0 10
1.5699536 -3.5048797 -0.73282343 0 11
1.6558748 -3.6966968 -0.73438382 0 12
1.7494463 -3.9055924 -0.73529434 0 13
1.8497262 -4.1294646 -0.73466235 0 14
1.9672654 -4.3918676 -0.73598337 0 15
2.100492 -4.6892924 -0.73752707 0 16
2.2442071 -5.0101328 -0.73652154 0 17
2.4073362 -5.3743138 -0.73498666 0 18
2.5256965 -5.6385503 -0.7134763 0 19
2.5262294 -5.6397395 -0.65608996 0 20
2.5329604 -5.654767 -0.6002605 0 21
2.5230024 -5.6325359 -0.54065156 0 22
2.5308533 -5.6500626 -0.48499906 0 23
2.5223892 -5.6311669 -0.42631629 0 24
2.5304513 -5.6491656 -0.37050849 0 25
2.5243392 -5.63552 -0.31264395 0 26
2.5277913 -5.6432271 -0.25607711 0 27
2.5239859 -5.6347313 -0.19882636 0 28
2.5237541 -5.6342139 -0.14198177 0 29
2.5309582 -5.6502967 -0.08542259 0 30
2.5248446 -5.6366487 -0.028403815 0 31
2.525238 -5.6375265 0.028408241 0 32
2.528579 -5.6449852 0.085342288 0 33
2.5293257 -5.6466522 0.1422952 0 34
2.5286674 -5.6451831 0.19919516 0 35
2.533725 -5.6564736 0.25667822 0 36
2.5175693 -5.6204066 0.31180549 0 37
2.5315349 -5.6515841 0.3706671 0 38
2.5252347 -5.6375194 0.42679724 0 39
2.529582 -5.6472249 0.48475549 0 40
2.528023 -5.643744 0.54172736 0 41
2.532387 -5.6534867 0.60012466 0 42
2.5252264 -5.6375008 0.65582949 0 43
2.5254357 -5.6379681 0.71340263 0 44
2.5272672 -5.6420569 0.77160293 0 45
2.5242112 -5.6352344 0.82841551 0 46
2.5268667 -5.6411624 0.88723612 0 47
2.525202 -5.6374464 0.9447158 0 48
2.5266211 -5.6406145 1.0035071 0 49
2.5270052 -5.6414719 1.0621033 0 50
2.5217977 -5.6298461 1.1184223 0 51
2.527669 -5.6429534 1.1798661 0 52
2.5277774 -5.6431961 1.2389661 0 53
2.5263004 -5.6398988 1.297475 0 54
2.5291131 -5.6461778 1.3584477 0 55
2.5210032 -5.6280727 1.4136691 0 56
2.5254476 -5.6379943 1.476096 0 57
2.5265882 -5.6405406 1.5369886 0 58
2.525599 -5.6383328 1.5968653 0 59
2.5231647 -5.6328983 1.6560342 0 60
2.5305262 -5.6493325 1.7220522 0 61
0 0 0 0 62
0 0 0 0 63
1.0339857 -2.2342966 -0.73394066 0 0
1.070537 -2.3132784 -0.73442632 0 1
1.1054151 -2.3886452 -0.73220444 0 2
1.1546222 -2.4949746 -0.73762405 0 3
1.1949568 -2.5821321 -0.7354067 0 4
1.247131 -2.6948731 -0.73844773 0 5
1.3007882 -2.8108187 -0.74003851 0 6
1.3496929 -2.9164948 -0.73668331 0 7
1.4043591 -3.0346208 -0.73421681 0 8
1.4708661 -3.1783328 -0.73528987 0 9
1.5416788 -3.3313489 -0.73550558 0 10
1.612309 -3.4839709 -0.73254162 0 11
1.7067722 -3.6880925 -0.73678809 0 12
1.7959425 -3.8807769 -0.73472452 0 13
1.9021978 -4.1103797 -0.73537272 0 14
2.0199411 -4.3648062 -0.73555517 0 15
2.1524134 -4.6510596 -0.73562092 0 16
2.2998567 -4.9696641 -0.73467422 0 17
2.4764488 -5.3512545 -0.73594195 0 18
2.6194766 -5.6603169 -0.72025186 0 19
2.6217217 -5.6651683 -0.6627484 0 20
2.6250067 -5.672267 -0.60549879 0 21
2.6219091 -5.6655736 -0.54687601 0 22
2.61971 -5.660821 -0.4886508 0 23
2.6160991 -5.653019 -0.43037349 0 24
2.6145461 -5.649663 -0.37262154 0 25
2.6180112 -5.6571507 -0.31560603 0 26
2.6195304 -5.6604333 -0.25830004 0 27
2.6190083 -5.6593051 -0.20081466 0 28
2.6211209 -5.6638703 -0.14353044 0 29
2.6210077 -5.6636252 -0.086104833 0 30
2.6289289 -5.6807423 -0.02878673 0 31
2.6172454 -5.6554956 0.028658796 0 32
2.6187229 -5.6586881 0.086029775 0 33
2.6213078 -5.6642742 0.14354068 0 34
2.6182332 -5.6576304 0.20075522 0 35
2.6224284 -5.6666956 0.25858581 0 36
2.6186826 -5.6586018 0.31568697 0 37
2.6194668 -5.660296 0.37332281 0 38
2.6196604 -5.6607141 0.43095934 0 39
2.6227274 -5.6673417 0.48921368 0 40
2.621737 -5.6652012 0.54684013 0 41
2.6199367 -5.6613111 0.60432929 0 42
2.6184783 -5.6581602 0.66192853 0 43
2.6270738 -5.6767335 0.72234082 0 44
2.6146705 -5.6499314 0.77701813 0 45
2.6226964 -5.667275 0.83780324 0 46
2.6246846 -5.6715708 0.89702696 0 47
2.619647 -5.6606855 0.95393616 0 48
2.6186609 -5.6585546 1.0123509 0 49
2.620225 -5.6619344 1.0719405 0 50
2.6214783 -5.6646423 1.1316532 0 51
2.6167104 -5.6543398 1.1888846 0 52
2.6204591 -5.6624403 1.2501712 0 53
2.6190703 -5.6594391 1.3092803 0 54
2.6233015 -5.6685824 1.3714955 0 55
2.6178174 -5.6567321 1.4288454 0 56
2.6186628 -5.6585584 1.4897978 0 57
2.6244447 -5.6710525 1.5539789 0 58
2.6208825 -5.6633549 1.6129575 0 59
2.6248796 -5.6719923 1.67689 0 60
2.6174135 -5.655859 1.7337214 0 61
0 0 0 0 62
0 0 0 0 63
1.0695565 -2.2385283 -0.73959506 0 0
1.0951992 -2.292197 -0.73195356 0 1
1.1427796 -2.3917806 -0.73741728 0 2
1.1764385 -2.4622269 -0.73216379 0 3
1.2283409 -2.5708561 -0.73644131 0 4
1.2734274 -2.6652198 -0.73455739 0 5
1.3212972 -2.7654088 -0.73230517 0 6
1.3839499 -2.8965378 -0.7358852 0 7
1.4463292 -3.0270946 -0.7366432 0 8
1.514132 -3.1690028 -0.73738295 0 9
1.5801111 -3.3070936 -0.73438466 0 10
1.6559073 -3.4657311 -0.73293239 0 11
1.7488179 -3.6601884 -0.73545402 0 12
1.8334049 -3.8372247 -0.73069197 0 13
1.9454585 -4.0717473 -0.73268563 0 14
2.074635 -4.3421073 -0.73597336 0 15
2.207577 -4.620348 -0.73500133 0 16
2.3688869 -4.957962 -0.73719472 0 17
2.5393 -5.3146276 -0.73514336 0 18
2.709801 -5.6714783 -0.72585714 0 19
2.7159605 -5.6843696 -0.66885108 0 20
2.713156 -5.6784997 -0.60967934 0 21
2.7178617 -5.6883483 -0.55225855 0 22
2.7134643 -5.6791449 -0.49307546 0 23
2.7094538 -5.6707511 -0.43422711 0 24
2.7083015 -5.6683397 -0.37602139 0 25
2.7135508 -5.6793261 -0.31868058 0 26
2.714642 -5.6816101 -0.2607699 0 27
2.7149396 -5.6822329 -0.20279749 0 28
2.7106631 -5.6732821 -0.14460269 0 29
2.7115657 -5.6751714 -0.086780719 0 30
2.7107728 -5.673512 -0.028916817 0 31
2.7148087 -5.6819587 0.02895987 0 32
2.7182293 -5.6891179 0.086993985 0 33
2.7140269 -5.6803226 0.14478214 0 34
2.7110012 -5.6739898 0.20250329 0 35
2.7151949 -5.6827669 0.26082301 0 36
2.7091117 -5.6700354 0.31815928 0 37
2.7209513 -5.6948147 0.37777764 0 38
2.7155321 -5.6834726 0.43520126 0 39
2.7180402 -5.6887221 0.49390697 0 40
2.7145925 -5.6815062 0.55159432 0 41
2.7088754 -5.6695409 0.60871744 0 42
2.7157302 -5.6838875 0.66879439 0 43
2.712657 -5.6774549 0.7266221 0 44
2.7120974 -5.6762843 0.78516936 0 45
2.7104056 -5.6727428 0.84347486 0 46
2.7161531 -5.684773 0.90432912 0 47
2.7181318 -5.6889138 0.96425283 0 48
2.7124877 -5.6771011 1.021559 0 49
2.7144599 -5.6812286 1.0818309 0 50
2.717639 -5.6878824 1.1428854 0 51
2.7089543 -5.6697059 1.1990287 0 52
2.7122962 -5.6767001 1.2605877 0 53
2.717026 -5.6865993 1.3231928 0 54
2.7177064 -5.6880236 1.3841799 0 55
2.7225854 -5.698235 1.4476756 0 56
2.7131383 -5.6784625 1.5037081 0 57
2.7110682 -5.67413 1.5638388 0 58
2.7133677 -5.6789427 1.6267765 0 59
2.7117887 -5.6756382 1.6876986 0 60
2.7116022 -5.6752477 1.7497532 0 61
0 0 0 0 62
0 0 0 0 63
1.0897804 -2.2105646 -0.73472792 0 0
1.1209044 -2.2736981 -0.73039246 0 1
1.1653844 -2.3639235 -0.73319131 0 2
1.2141861 -2.4629152 -0.73675245 0 3
1.2563207 -2.548383 -0.73437357 0 4
1.2997361 -2.6364491 -0.73097754 0 5
1.3585397 -2.7557292 -0.73411012 0 6
1.4187317 -2.8778255 -0.73550779 0 7
1.4769603 -2.9959395 -0.73342568 0 8
1.5522215 -3.148603 -0.7370218 0 9
1.6183602 -3.2827618 -0.73334509 0 10
1.698583 -3.4454899 -0.73301345 0 11
1.7918346 -3.6346462 -0.73469341 0 12
1.8880562 -3.8298266 -0.73364866 0 13
1.9960247 -4.0488353 -0.73292392 0 14
2.1180341 -4.2963252 -0.73257256 0 15
2.2573462 -4.5789127 -0.73277003 0 16
2.4181371 -4.9050689 -0.73369581 0 17
2.5990181 -5.2719769 -0.73360896 0 18
2.8101099 -5.7001657 -0.73389566 0 19
2.8203452 -5.7209277 -0.67718214 0 20
2.8114722 -5.702929 -0.61596745 0 21
2.8068171 -5.6934867 -0.55606622 0 22
2.8107889 -5.7015433 -0.49798331 0 23
2.809073 -5.6980624 -0.43893021 0 24
2.8062019 -5.6922393 -0.37986714 0 25
2.8137348 -5.7075191 -0.32217965 0 26
2.81077 -5.7015052 -0.26324946 0 27
2.8174269 -5.7150083 -0.20518817 0 28
2.8094852 -5.6988988 -0.14612511 0 29
2.8118024 -5.703599 -0.087737486 0 30
2.8160462 -5.7122078 -0.029288316 0 31
2.8120611 -5.7041235 0.029246869 0 32
2.8121583 -5.7043214 0.087748587 0 33
2.8098979 -5.6997361 0.14614658 0 34
2.8091607 -5.6982408 0.20458616 0 35
2.8100891 -5.7001243 0.26318571 0 36
2.817343 -5.714838 0.32259279 0 37
2.8077757 -5.6954312 0.38008013 0 38
2.8061574 -5.6921482 0.43847463 0 39
2.8052013 -5.6902094 0.49699339 0 40
2.8090618 -5.69804 0.55651093 0 41
2.8062353 -5.6923065 0.61482012 0 42
2.808872 -5.6976547 0.67442739 0 43
2.8100893 -5.7001243 0.7338903 0 44
2.8157341 -5.7115746 0.79478014 0 45
2.8098352 -5.6996088 0.8525424 0 46
2.8102212 -5.7003918 0.91224194 0 47
2.8073206 -5.6945081 0.97097868 0 48
2.8062916 -5.692421 1.0304472 0 49
2.8115847 -5.7031574 1.0925075 0 50
2.811708 -5.7034073 1.1528648 0 51
2.8107052 -5.7013736 1.2129432 0 52
2.8094275 -5.698782 1.2730664 0 53
2.8133357 -5.7067094 1.3358208 0 54
2.8112931 -5.7025661 1.3960257 0 55
2.8111155 -5.7022061 1.4573562 0 56
2.8123536 -5.7047176 1.5197034 0 57
2.8079298 -5.6957436 1.5791924 0 58
2.814162 -5.7083855 1.6449988 0 59
2.8054528 -5.6907196 1.7023126 0 60
0 0 0 0 61
0 0 0 0 62
0 0 0 0 63
1.1147765 -2.1928639 -0.73334539 0 0
1.1600552 -2.2819312 -0.73756373 0 1
1.1936332 -2.3479822 -0.73274392 0 2
1.2406422 -2.4404528 -0.73454106 0 3
1.2857163 -2.5291176 -0.73332226 0 4
1.3399764 -2.6358521 -0.73532474 0 5
1.39703 -2.7480814 -0.73659343 0 6
1.457227 -2.8664942 -0.73713565 0 7
1.5103928 -2.9710763 -0.73183036 0 8
1.5848037 -3.117449 -0.73423535 0 9
1.6564929 -3.2584682 -0.73241299 0 10
1.7416523 -3.4259841 -0.73336446 0 11
1.8325855 -3.6048577 -0.73317164 0 12
1.941537 -3.819175 -0.73612595 0 13
2.0521915 -4.0368423 -0.73526531 0 14
2.1742284 -4.2768993 -0.7337634 0 15
2.3100252 -4.544024 -0.73167717 0 16
2.4838059 -4.8858657 -0.7353363 0 17
2.6751115 -5.2621808 -0.73676747 0 18
2.8909924 -5.6868377 -0.73670089 0 19
2.9081218 -5.7205329 -0.68131679 0 20
2.907311 -5.7189379 -0.62151086 0 21
2.9068453 -5.7180219 -0.56191099 0 22
2.9040141 -5.7124524 -0.50201708 0 23
2.9012411 -5.7069974 -0.44233316 0 24
2.9071147 -5.7185516 -0.38397962 0 25
2.909601 -5.7234421 -0.32507351 0 26
2.9093223 -5.7228942 -0.26586872 0 27
2.9058552 -5.716074 -0.20649372 0 28
2.9078004 -5.7199006 -0.14756927 0 29
2.9040349 -5.7124934 -0.088416934 0 30
2.9170415 -5.7380786 -0.029602643 0 31
2.9084361 -5.7211509 0.029515313 0 32
2.9121718 -5.7284994 0.088664666 0 33
2.9037216 -5.7118769 0.14736228 0 34
2.9143095 -5.7327042 0.20709449 0 35
2.9089329 -5.7221284 0.26583314 0 36
2.9130578 -5.7302423 0.32545975 0 37
2.9069853 -5.7182975 0.38396251 0 38
2.9120502 -5.72826 0.44398114 0 39
2.9022751 -5.7090321 0.50171649 0 40
2.9131856 -5.7304935 0.56313658 0 41
2.9108973 -5.7259922 0.6222775 0 42
2.9056387 -5.7156482 0.68073499 0 43
2.9042423 -5.7129016 0.74007732 0 44
2.9122682 -5.7286887 0.80208409 0 45
2.906476 -5.7172952 0.86046875 0 46
2.9078138 -5.7199268 0.92102057 0 47
2.9045138 -5.7134356 0.98022181 0 48
2.9087305 -5.7217302 1.0421486 0 49
2.9020994 -5.7086859 1.1003193 0 50
2.9100697 -5.7243643 1.1642461 0 51
2.9114621 -5.7271032 1.2259408 0 52
2.9012179 -5.7069521 1.2827641 0 53
2.9056091 -5.71559 1.346161 0 54
2.9102879 -5.7247939 1.4101213 0 55
2.9089973 -5.7222548 1.471511 0 56
2.9087694 -5.7218065 1.5336682 0 57
2.9075835 -5.7194738 1.595564 0 58
2.9024332 -5.709343 1.6554344 0 59
2.9029365 -5.7103324 1.7187276 0 60
0 0 0 0 61
0 0 0 0 62
0 0 0 0 63
1.149738 -2.1944194 -0.73853767 0 0
1.1789516 -2.2501771 -0.73193067 0 1
1.2313565 -2.3501985 -0.738105 0 2
1.2755694 -2.4345846 -0.73743999 0 3
1.3185215 -2.5165639 -0.73432779 0 4
1.3667629 -2.6086388 -0.73236614 0 5
1.4298345 -2.7290187 -0.73614085 0 6
1.4874855 -2.8390529 -0.73472703 0 7
1.5487387 -2.9559624 -0.73274308 0 8
1.6201172 -3.0921972 -0.73292464 0 9
1.7106918 -3.2650702 -0.73856932 0 10
1.7853371 -3.4075401 -0.73406017 0 11
1.8796042 -3.5874608 -0.73427856 0 12
1.9820609 -3.7830124 -0.73379797 0 13
2.0999327 -4.0079856 -0.73465699 0 14
2.2275145 -4.2514915 -0.73404807 0 15
2.372834 -4.5288515 -0.73387676 0 16
2.5435278 -4.8546424 -0.73528874 0 17
2.7330625 -5.2163935 -0.73500651 0 18
2.9417839 -5.6147642 -0.73199493 0 19
3.0099936 -5.7449508 -0.68858105 0 20
3.0084264 -5.74196 -0.6279856 0 21
3.0077016 -5.7405767 -0.56771898 0 22
3.0059459 -5.7372251 -0.50740409 0 23
3.0002623 -5.7263775 -0.44666094 0 24
3.0078967 -5.7409487 -0.38793766 0 25
3.0120745 -5.7489228 -0.32859951 0 26
3.0079982 -5.7411423 -0.26841453 0 27
3.0063589 -5.7380137 -0.20860597 0 28
3.0064776 -5.7382402 -0.14898494 0 29
3.0080612 -5.7412624 -0.089427955 0 30
3.0125349 -5.7498016 -0.029851969 0 31
3.0042951 -5.7340746 0.02977032 0 32
3.0056698 -5.7366986 0.089356862 0 33
3.005127 -5.735662 0.148918 0 34
3.007453 -5.7401018 0.20868188 0 35
3.0065365 -5.7383528 0.26828408 0 36
3.0107784 -5.746449 0.3284581 0 37
3.0002813 -5.7264137 0.3869555 0 38
3.009558 -5.7441192 0.44804478 0 39
3.0052261 -5.7358518 0.50728261 0 40
3.0110607 -5.7469878 0.568353 0 41
3.011009 -5.7468886 0.6285246 0 42
3.0083508 -5.7418156 0.6882053 0 43
3.0145395 -5.7536273 0.75009841 0 44
3.0100899 -5.7451348 0.80950785 0 45
3.009798 -5.7445774 0.8700791 0 46
3.00631 -5.7379203 0.92980003 0 47
3.0048673 -5.7351665 0.99021435 0 48
3.0099735 -5.7449126 1.0530329 0 49
3.0075047 -5.7402005 1.1134374 0 50
3.0060809 -5.737483 1.1743435 0 51
3.0088949 -5.7428536 1.2371389 0 52
3.0117235 -5.7482524 1.3002731 0 53
3.014231 -5.7530389 1.3636076 0 54
3.013895 -5.7523971 1.4259413 0 55
3.0032287 -5.732039 1.4834116 0 56
3.0127122 -5.7501397 1.551075 0 57
3.0120823 -5.7489376 1.613994 0 58
3.0055611 -5.7364912 1.6738955 0 59
3.0030894 -5.7317734 1.7361645 0 60
0 0 0 0 61
0 0 0 0 62
0 0 0 0 63
1.1794357 -2.1853106 -0.74029714 0 0
1.2125061 -2.2465847 -0.73555619 0 1
1.2586898 -2.3321559 -0.73724365 0 2
1.3017422 -2.4119256 -0.73536944 0 3
1.3510233 -2.5032356 -0.73523062 0 4
1.4069543 -2.6068671 -0.73667014 0 5
1.4653357 -2.7150385 -0.73717445 0 6
1.5305415 -2.8358548 -0.7387141 0 7
1.5943834 -2.954144 -0.73709643 0 8
1.6700985 -3.0944321 -0.73826617 0 9
1.740181 -3.2242842 -0.73412818 0 10
1.8304197 -3.3914824 -0.735394 0 11
1.9333079 -3.5821183 -0.73799509 0 12
2.0218246 -3.7461257 -0.73141009 0 13
2.1503398 -3.9842446 -0.73509645 0 14
2.2801526 -4.2247672 -0.73421931 0 15
2.4348209 -4.5113435 -0.73583561 0 16
2.6074133 -4.83113 -0.73652798 0 17
2.7970624 -5.1825204 -0.73502433 0 18
3.029202 -5.612639 -0.7365182 0 19
3.1061873 -5.755281 -0.69434476 0 20
3.1065962 -5.7560382 -0.63365525 0 21
3.1139257 -5.769619 -0.5743345 0 22
3.1140099 -5.7697744 -0.51363051 0 23
3.1029923 -5.749361 -0.45139572 0 24
3.1028349 -5.7490692 -0.39103505 0 25
3.1088562 -5.7602258 -0.33140558 0 26
3.1093524 -5.7611451 -0.27111673 0 27
3.107666 -5.7580204 -0.21070665 0 28
3.1056211 -5.7542315 -0.15038025 0 29
3.1085103 -5.7595849 -0.090301909 0 30
3.1195965 -5.7801261 -0.030206284 0 31
3.1068859 -5.7565751 0.030083211 0 32
3.1089926 -5.7604785 0.090315916 0 33
3.1052518 -5.7535477 0.15036239 0 34
3.1108963 -5.7640061 0.21092568 0 35
3.1087947 -5.7601118 0.27106813 0 36
3.1075091 -5.75773 0.33126199 0 37
3.1112435 -5.7646489 0.39209473 0 38
3.1146898 -5.7710347 0.45309734 0 39
3.1040921 -5.7513986 0.51199466 0 40
3.1038604 -5.7509694 0.572478 0 41
3.1157882 -5.7730699 0.63553017 0 42
3.1120198 -5.7660875 0.69564849 0 43
3.1071153 -5.7570004 0.75546205 0 44
3.107327 -5.7573924 0.81655705 0 45
3.0993648 -5.7426395 0.8754918 0 46
3.107137 -5.7570405 0.93901855 0 47
3.1139994 -5.7697554 1.0027218 0 48
3.1073263 -5.7573915 1.0622435 0 49
3.1123676 -5.7667317 1.1259222 0 50
3.107044 -5.7568679 1.1860414 0 51
3.108464 -5.7594995 1.2488643 0 52
3.1070199 -5.7568235 1.3107549 0 53
3.114563 -5.7707996 1.3767909 0 54
3.1049325 -5.7529559 1.4354357 0 55
3.1123421 -5.7666845 1.5021683 0 56
3.1065531 -5.7559586 1.5628306 0 57
3.1094103 -5.7612524 1.6280626 0 58
3.1073608 -5.7574553 1.6910344 0 59
3.1087623 -5.7600517 1.7561761 0 60
0 0 0 0 61
0 0 0 0 62
0 0 0 0 63
1.1971012 -2.1542408 -0.73470294 0 0
1.2389654 -2.2295775 -0.73492038 0 1
1.2777681 -2.2994046 -0.73180187 0 2
1.3317469 -2.3965423 -0.73561645 0 3
1.3846965 -2.4918275 -0.73682523 0 4
1.4377937 -2.5873785 -0.73610336 0 5
1.4896314 -2.6806629 -0.73275888 0 6
1.5509729 -2.7910497 -0.73195541 0 7
1.6223036 -2.9194126 -0.73335254 0 8
1.7087924 -3.0750537 -0.73860002 0 9
1.7904598 -3.2220178 -0.73856914 0 10
1.8717928 -3.3683805 -0.73531991 0 11
1.978285 -3.5600183 -0.7383979 0 12
2.077219 -3.7380545 -0.73476571 0 13
2.192884 -3.9461992 -0.73299664 0 14
2.3324533 -4.197361 -0.73438531 0 15
2.4841444 -4.4703364 -0.73407388 0 16
2.6669436 -4.7992926 -0.7366181 0 17
2.8606374 -5.1478539 -0.73504096 0 18
3.0877612 -5.5565739 -0.734088 0 19
3.2134333 -5.7827268 -0.70236999 0 20
3.2162082 -5.7877202 -0.64144814 0 21
3.2183492 -5.791573 -0.58041543 0 22
3.2113056 -5.7788978 -0.51791871 0 23
3.21679 -5.7887673 -0.45756054 0 24
3.2152128 -5.7859292 -0.39620131 0 25
3.214294 -5.7842755 -0.33503789 0 26
3.2087359 -5.7742739 -0.27357069 0 27
3.2113843 -5.7790394 -0.21290474 0 28
3.2173045 -5.7896929 -0.15232939 0 29
3.2114477 -5.7791533 -0.091220953 0 30
3.2053087 -5.768106 -0.030347148 0 31
3.2231748 -5.8002572 0.0305163 0 32
3.2186232 -5.7920661 0.091424771 0 33
3.2041395 -5.7660022 0.15170605 0 34
3.2155008 -5.786447 0.21317765 0 35
3.2064557 -5.7701702 0.27337629 0 36
3.2077248 -5.7724543 0.33435318 0 37
3.211314 -5.7789125 0.39572084 0 38
3.2129343 -5.7818284 0.45701209 0 39
3.2169204 -5.7890015 0.51882422 0 40
3.2066202 -5.7704659 0.57830012 0 41
3.2137394 -5.7832775 0.64095575 0 42
3.2125547 -5.7811456 0.70217794 0 43
3.211092 -5.778513 0.76340878 0 44
3.2121649 -5.7804441 0.82536596 0 45
3.2117355 -5.7796712 0.88709128 0 46
3.2187479 -5.7922902 0.95115185 0 47
3.209532 -5.7757063 1.0105383 0 48
3.2122829 -5.7806563 1.0737425 0 49
3.2136223 -5.7830667 1.1367408 0 50
3.2164981 -5.7882419 1.2005628 0 51
3.2091451 -5.7750096 1.2606888 0 52
3.2180781 -5.7910852 1.3274654 0 53
3.2184422 -5.7917404 1.3911235 0 54
3.2181809 -5.7912703 1.4547594 0 55
3.2111411 -5.7786016 1.5154436 0 56
3.2167158 -5.7886338 1.5823224 0 57
3.2087097 -5.7742262 1.6427544 0 58
3.2114885 -5.7792268 1.7088984 0 59
0 0 0 0 60
0 0 0 0 61
0 0 0 0 62
0 0 0 0 63
1.2203389 -2.1338348 -0.73280585 0 0
1.266863 -2.2151847 -0.73525542 0 1
1.3056295 -2.2829702 -0.73162574 0 2
1.3569515 -2.3727098 -0.73336726 0 3
1.4182829 -2.4799514 -0.73841459 0 4
1.4632593 -2.5585952 -0.73297817 0 5
1.5251806 -2.6668682 -0.73405915 0 6
1.5970471 -2.792531 -0.73743814 0 7
1.6679021 -2.9164252 -0.73769826 0 8
1.7332815 -3.030745 -0.73302132 0 9
1.8178067 -3.1785424 -0.73367184 0 10
1.9113215 -3.3420584 -0.73464882 0 11
2.0148208 -3.5230331 -0.73580974 0 12
2.1153159 -3.6987548 -0.73209828 0 13
2.2422774 -3.9207542 -0.73333633 0 14
2.3790522 -4.1599131 -0.73289627 0 15
2.5340116 -4.4308686 -0.73265415 0 16
2.7068181 -4.7330313 -0.73150134 0 17
2.9108348 -5.0897665 -0.73180234 0 18
3.1444881 -5.498323 -0.73144537 0 19
3.3228765 -5.8102455 -0.71062154 0 20
3.3113415 -5.7900763 -0.64617312 0 21
3.3165896 -5.7992525 -0.58522791 0 22
3.3225508 -5.8096762 -0.52429909 0 23
3.3150795 -5.7966118 -0.46136782 0 24
3.3234971 -5.8113308 -0.40070888 0 25
3.3174546 -5.800765 -0.33833024 0 26
3.3136754 -5.7941566 -0.27642226 0 27
3.3138692 -5.7944956 -0.21495914 0 28
3.3170772 -5.8001051 -0.15366487 0 29
3.3139827 -5.7946939 -0.09210252 0 30
3.3127022 -5.7924552 -0.030687246 0 31
3.3143845 -5.7953968 0.030702829 0 32
3.3163533 -5.7988396 0.092168406 0 33
3.3095965 -5.787025 0.15331833 0 34
3.3139515 -5.7946401 0.21496449 0 35
3.3145356 -5.795661 0.27649403 0 36
3.3236063 -5.8115215 0.33895761 0 37
3.3086834 -5.785428 0.3989228 0 38
3.3102994 -5.7882538 0.46070257 0 39
3.3099339 -5.7876143 0.52230811 0 40
3.3230131 -5.8104844 0.58636135 0 41
3.3292627 -5.8214126 0.64967024 0 42
3.3145497 -5.7956858 0.70884073 0 43
3.3162737 -5.7987003 0.77140474 0 44
3.3190856 -5.803617 0.83443922 0 45
3.3194137 -5.8041906 0.89705157 0 46
3.3167565 -5.7995443 0.9589678 0 47
3.3155148 -5.7973733 1.0213852 0 48
3.3134239 -5.7937174 1.0836545 0 49
3.3190253 -5.8035116 1.1486949 0 50
3.3145628 -5.7957087 1.2104737 0 51
3.3168714 -5.7997456 1.2748958 0 52
3.3176832 -5.8011646 1.3390261 0 53
3.3184211 -5.8024549 1.403392 0 54
3.3254354 -5.8147197 1.4708104 0 55
3.3238969 -5.8120298 1.5348129 0 56
3.3196976 -5.804687 1.5977482 0 57
3.3170683 -5.8000898 1.6615911 0 58
3.3171518 -5.8002357 1.7270415 0 59
0 0 0 0 60
0 0 0 0 61
0 0 0 0 62
0 0 0 0 63
1.2506049 -2.125674 -0.73522884 0 0
1.2925321 -2.1969385 -0.73441905 0 1
1.3348472 -2.268862 -0.73230928 0 2
1.3951784 -2.3714082 -0.73821175 0 3
1.4416467 -2.4503911 -0.73483568 0 4
1.4981911 -2.5465004 -0.73473537 0 5
1.5630646 -2.6567671 -0.7365135 0 6
1.6238923 -2.7601569 -0.7341066 0 7
1.6962547 -2.8831525 -0.73450243 0 8
1.7723936 -3.012567 -0.73384047 0 9
1.8535221 -3.1504626 -0.73239583 0 10
1.965091 -3.3400979 -0.73947364 0 11
2.0591869 -3.5000343 -0.73623908 0 12
2.1728127 -3.693166 -0.73622471 0 13
2.2985356 -3.9068596 -0.73596829 0 14
2.4420884 -4.1508584 -0.73653597 0 15
2.5981381 -4.4160991 -0.735439 0 16
2.7843566 -4.7326174 -0.73667324 0 17
2.9759915 -5.0583425 -0.73249036 0 18
3.2181191 -5.4698911 -0.73287183 0 19
3.4309542 -5.8316503 -0.71834499 0 20
3.4321759 -5.8337269 -0.65570492 0 21
3.4214995 -5.8155799 -0.59107661 0 22
3.4317195 -5.8329511 -0.5301677 0 23
3.435576 -5.8395061 -0.46810892 0 24
3.4284122 -5.8273296 -0.40468836 0 25
3.4258718 -5.8230119 -0.34205893 0 26
3.4230952 -5.8182921 -0.27956066 0 27
3.4298239 -5.8297291 -0.2178143 0 28
3.4298933 -5.8298469 -0.15555845 0 29
3.4240396 -5.8198977 -0.093165271 0 30
3.4222476 -5.8168516 -0.031037087 0 31
3.4273825 -5.8255792 0.031083656 0 32
3.4309611 -5.8316622 0.093353599 0 33
3.432677 -5.8345785 0.15568471 0 34
3.4299593 -5.8299594 0.21782289 0 35
3.4276927 -5.8261065 0.27993613 0 36
3.4344895 -5.8376594 0.34291935 0 37
3.4246871 -5.8209982 0.40424865 0 38
3.4263344 -5.8237977 0.46684971 0 39
3.4246233 -5.8208895 0.52907139 0 40
3.4292784 -5.8288016 0.5924204 0 41
3.4354877 -5.8393559 0.65633762 0 42
3.4323151 -5.8339634 0.7186299 0 43
3.4270327 -5.8249846 0.78044832 0 44
3.420974 -5.8146868 0.84201533 0 45
3.4198146 -5.812716 0.9048 0 46
3.4342868 -5.8373151 0.97212249 0 47
3.4278529 -5.8263788 1.0338434 0 48
3.4270959 -5.8250923 1.0973221 0 49
3.4276876 -5.826098 1.1614201 0 50
3.4231789 -5.8184347 1.223919 0 51
3.4159107 -5.8060803 1.2854245 0 52
3.4242153 -5.8201962 1.3530354 0 53
3.4247453 -5.8210969 1.417979 0 54
3.4329879 -5.8351068 1.4865327 0 55
3.4298058 -5.8296986 1.5504987 0 56
3.4376237 -5.8429866 1.6198026 0 57
3.4204962 -5.8138747 1.6774625 0 58
3.4295583 -5.8292775 1.7481134 0 59
0 0 0 0 60
0 0 0 0 61
0 0 0 0 62
0 0 0 0 63
1.2735066 -2.1049464 -0.73342049 0 0
1.321716 -2.1846304 -0.73568195 0 1
1.3735813 -2.2703571 -0.73818761 0 2
1.4205275 -2.3479533 -0.7362923 0 3
1.4712107 -2.4317265 -0.73460805 0 4
1.5299852 -2.5288732 -0.73502201 0 5
1.5953382 -2.6368937 -0.73638678 0 6
1.6554487 -2.7362485 -0.73310637 0 7
1.726799 -2.8541818 -0.732476 0 8
1.8074231 -2.9874432 -0.73307896 0 9
1.9031863 -3.1457279 -0.73667991 0 10
1.9922482 -3.2929361 -0.73440039 0 11
2.1058955 -3.4807808 -0.73758036 0 12
2.2129939 -3.6578009 -0.73454386 0 13
2.3506718 -3.885365 -0.7373085 0 14
2.4818933 -4.1022577 -0.73327196 0 15
2.6442645 -4.3706369 -0.73322749 0 16
2.8366749 -4.6886673 -0.73520595 0 17
3.0351689 -5.0167527 -0.73181701 0 18
3.2935767 -5.4438686 -0.73475593 0 19
3.5349586 -5.8428426 -0.72502321 0 20
3.5365045 -5.8453975 -0.66185451 0 21
3.5338688 -5.8410411 -0.59803569 0 22
3.5388381 -5.8492546 -0.53556424 0 23
3.5448787 -5.8592391 -0.47314924 0 24
3.5338306 -5.8409781 -0.40862298 0 25
3.5309103 -5.8361506 -0.34535512 0 26
3.5373392 -5.846777 -0.28299788 0 27
3.5394149 -5.8502078 -0.2201889 0 28
3.5353308 -5.8434577 -0.15706973 0 29
3.5388153 -5.8492169 -0.094324075 0 30
3.5364199 -5.8452573 -0.031418305 0 31
3.5317507 -5.8375401 0.031376824 0 32
3.5436926 -5.8572788 0.09445408 0 33
3.5386772 -5.8489885 0.1572184 0 34
3.5323257 -5.8384905 0.21974789 0 35
3.5412569 -5.8532529 0.28331131 0 36
3.5393505 -5.8501015 0.34618068 0 37
3.5382531 -5.8482876 0.40913436 0 38
3.5304635 -5.8354125 0.47122517 0 39
3.53824 -5.8482661 0.5354737 0 40
3.5388358 -5.8492508 0.59887624 0 41
3.5350144 -5.8429346 0.66157562 0 42
3.5305922 -5.8356252 0.72412759 0 43
3.5404949 -5.8519931 0.78984028 0 44
3.5431306 -5.8563499 0.85429293 0 45
3.5397503 -5.8507624 0.9174282 0 46
3.5401964 -5.8514996 0.98166019 0 47
3.5334134 -5.8402886 1.0439421 0 48
3.5278246 -5.8310509 1.1065327 0 49
3.5419683 -5.8544288 1.1756612 0 50
3.544646 -5.8588543 1.2414961 0 51
3.5376472 -5.8472862 1.3040793 0 52
3.5315239 -5.8371654 1.3669722 0 53
3.5343385 -5.8418174 1.4335045 0 54
3.5421255 -5.8546882 1.5025036 0 55
3.5424488 -5.8552227 1.5687542 0 56
3.5370839 -5.8463554 1.6326705 0 57
3.5415523 -5.8537412 1.7014014 0 58
3.5367196 -5.8457532 1.7659622 0 59
0 0 0 0 60
0 0 0 0 61
0 0 0 0 62
0 0 0 0 63
1.3026868 -2.0945876 -0.7353369 0 0
1.3437749 -2.1606531 -0.73311651 0 1
1.3998139 -2.2507579 -0.73735595 0 2
1.4465955 -2.325978 -0.73492366 0 3
1.5019933 -2.4150522 -0.73509467 0 4
1.5596048 -2.5076857 -0.73438227 0 5
1.6283958 -2.6182945 -0.73672879 0 6
1.6833246 -2.7066143 -0.73065722 0 7
1.7686524 -2.8438129 -0.73534071 0 8
1.8468541 -2.9695532 -0.73420614 0 9
1.9308767 -3.1046531 -0.7325657 0 10
2.030267 -3.2644625 -0.73356247 0 11
2.1401708 -3.4411767 -0.73470914 0 12
2.2633452 -3.6392286 -0.73634756 0 13
2.381249 -3.8288057 -0.73207664 0 14
2.5399632 -4.084002 -0.73553592 0 15
2.6948547 -4.3330517 -0.73242593 0 16
2.8989511 -4.6612182 -0.73643571 0 17
3.1039331 -4.9908085 -0.73354453 0 18
3.3711174 -5.420413 -0.73712933 0 19
3.6520174 -5.8720717 -0.7341671 0 20
3.6554208 -5.8775444 -0.670533 0 21
3.6526263 -5.8730507 -0.60586578 0 22
3.6462066 -5.8627286 -0.5408622 0 23
3.6516557 -5.87149 -0.47772843 0 24
3.6539044 -5.8751063 -0.41412243 0 25
3.6487672 -5.8668456 -0.34980005 0 26
3.654686 -5.8763628 -0.28658342 0 27
3.6451447 -5.8610215 -0.22226611 0 28
3.6459026 -5.8622398 -0.15876764 0 29
3.6540143 -5.8752828 -0.095461756 0 30
3.6484194 -5.8662868 -0.031770073 0 31
3.6477051 -5.8651381 0.031763852 0 32
3.6464689 -5.8631506 0.095264629 0 33
3.6482997 -5.8660941 0.15887202 0 34
3.6474535 -5.8647337 0.22240689 0 35
3.6544101 -5.8759193 0.28656179 0 36
3.6517434 -5.8716316 0.35008541 0 37
3.6528213 -5.8733644 0.41399968 0 38
3.6523304 -5.8725753 0.4778167 0 39
3.6444569 -5.8599153 0.54060262 0 40
3.65469 -5.8763695 0.60620815 0 41
3.6612754 -5.8869581 0.67160696 0 42
3.6512043 -5.8707647 0.7340036 0 43
3.6457753 -5.8620353 0.79718608 0 44
3.6532888 -5.8741159 0.86337239 0 45
3.6473367 -5.8645458 0.92655206 0 46
3.6512599 -5.8708539 0.99236417 0 47
3.652905 -5.8734994 1.0578275 0 48
3.6485133 -5.8664374 1.1216767 0 49
3.6513679 -5.8710275 1.1879212 0 50
3.657541 -5.8809533 1.2556142 0 51
3.6487277 -5.8667822 1.3183339 0 52
3.6482472 -5.8660097 1.3841281 0 53
3.6549718 -5.8768225 1.4530128 0 54
3.6533916 -5.8742814 1.5189459 0 55
3.6544144 -5.875926 1.5862207 0 56
3.6500738 -5.868947 1.6513889 0 57
3.6535552 -5.8745441 1.7203757 0 58
0 0 0 0 59
0 0 0 0 60
0 0 0 0 61
0 0 0 0 62
0 0 0 0 63
1.3306015 -2.0819466 -0.73658741 0 0
1.3715346 -2.1459932 -0.73380929 0 1
1.4285898 -2.2352657 -0.73797971 0 2
1.4712731 -2.3020508 -0.7330243 0 3
1.5348798 -2.4015741 -0.73668128 0 4
1.6011708 -2.5052972 -0.73939288 0 5
1.6650121 -2.6051877 -0.73874581 0 6
1.7240924 -2.6976285 -0.733899 0 7
1.7964896 -2.8109059 -0.73248845 0 8
1.8915039 -2.9595716 -0.73743308 0 9
1.9726512 -3.0865402 -0.73395985 0 10
2.0801816 -3.2547891 -0.73708093 0 11
2.1819308 -3.4139926 -0.73457801 0 12
2.3018079 -3.6015601 -0.73439729 0 13
2.4336617 -3.8078675 -0.73373955 0 14
2.591897 -4.0554528 -0.73607856 0 15
2.7553627 -4.3112221 -0.73440748 0 16
2.9579372 -4.6281834 -0.7369073 0 17
3.1728692 -4.9644804 -0.73535371 0 18
3.4185278 -5.3488541 -0.73305899 0 19
3.706202 -5.7989678 -0.73066974 0 20
3.7677603 -5.8952861 -0.67779136 0 21
3.7633715 -5.8884187 -0.61217874 0 22
3.7654445 -5.8916626 -0.54776162 0 23
3.7620213 -5.8863063 -0.48266131 0 24
3.7626164 -5.8872375 -0.41820717 0 25
3.7630405 -5.8879013 -0.3537876 0 26
3.7654028 -5.8915973 -0.28956252 0 27
3.7677596 -5.8952847 -0.22530541 0 28
3.7680061 -5.8956704 -0.16091573 0 29
3.7677341 -5.8952451 -0.096531577 0 30
3.7735956 -5.9044161 -0.032225434 0 31
3.7606215 -5.8841162 0.032114636 0 32
3.769995 -5.8987827 0.096589498 0 33
3.7681129 -5.8958378 0.16092029 0 34
3.7717841 -5.9015818 0.22554606 0 35
3.7699142 -5.8986564 0.28990948 0 36
3.7644699 -5.8901377 0.35392198 0 37
3.7723398 -5.9024515 0.41928792 0 38
3.7656503 -5.8919845 0.48312691 0 39
3.761502 -5.8854942 0.5471881 0 40
3.7674174 -5.8947496 0.6128369 0 41
3.7647109 -5.8905144 0.67724282 0 42
3.7637539 -5.8890171 0.74201596 0 43
3.7645063 -5.8901944 0.80724961 0 44
3.7666714 -5.8935823 0.87297505 0 45
3.7644758 -5.8901467 0.93783927 0 46
3.7696495 -5.898242 1.004753 0 47
3.76566 -5.8919997 1.0694182 0 48
3.7720621 -5.9020166 1.1372621 0 49
3.7629719 -5.8877935 1.2005851 0 50
3.7686782 -5.8967223 1.2687792 0 51
3.7707069 -5.8998961 1.3360931 0 52
3.770386 -5.8993945 1.4028389 0 53
3.7630873 -5.8879743 1.4670999 0 54
3.7590153 -5.8816032 1.5326754 0 55
3.7681196 -5.8958483 1.6039855 0 56
3.7619312 -5.8861656 1.6691236 0 57
3.7651141 -5.8911457 1.7386644 0 58
0 0 0 0 59
0 0 0 0 60
0 0 0 0 61
0 0 0 0 62
0 0 0 0 63
1.3532777 -2.061131 -0.73505467 0 0
1.3975716 -2.1285934 -0.73368043 0 1
1.449545 -2.2077525 -0.7347253 0 2
1.4975529 -2.2808716 -0.73208869 0 3
1.5622079 -2.3793454 -0.73569959 0 4
1.6273291 -2.4785292 -0.73734272 0 5
1.6789252 -2.5571136 -0.73091257 0 6
1.7585989 -2.678462 -0.73451221 0 7
1.8368196 -2.7975972 -0.73485053 0 8
1.9156122 -2.9176035 -0.73278975 0 9
2.0057414 -3.0548761 -0.73223984 0 10
2.1074035 -3.2097142 -0.73268628 0 11
2.2279358 -3.3932929 -0.73596317 0 12
2.3550396 -3.5868804 -0.73725319 0 13
2.4799914 -3.7771902 -0.73364902 0 14
2.6303835 -4.006247 -0.73296279 0 15
2.8045092 -4.271452 -0.73345184 0 16
2.992029 -4.5570569 -0.73138511 0 17
3.2521727 -4.9532733 -0.73956126 0 18
3.5050745 -5.3384595 -0.73748553 0 19
3.8114252 -5.8050513 -0.73728579 0 20
3.8854756 -5.9178352 -0.68582511 0 21
3.8843908 -5.916183 -0.61998403 0 22
3.8807545 -5.9106445 -0.55392116 0 23
3.8866348 -5.919601 -0.48927319 0 24
3.8850877 -5.9172444 -0.42370033 0 25
3.8857775 -5.9182949 -0.35845783 0 26
3.8864121 -5.9192615 -0.2932488 0 27
3.8860259 -5.918673 -0.22800826 0 28
3.8934274 -5.9299459 -0.16314562 0 29
3.8823264 -5.9130387 -0.097597264 0 30
3.8902102 -5.925046 -0.032596644 0 31
3.889039 -5.9232626 0.032586832 0 32
3.8833201 -5.9145522 0.097622238 0 33
3.8834255 -5.9147124 0.16272651 0 34
3.881475 -5.9117422 0.22774123 0 35
3.8828254 -5.9137983 0.29297814 0 36
3.8788676 -5.9077706 0.35782039 0 37
3.885416 -5.9177446 0.42373613 0 38
3.8872056 -5.9204698 0.48934501 0 39
3.8900619 -5.9248204 0.55524963 0 40
3.8843713 -5.916153 0.61998093 0 41
3.8846858 -5.9166322 0.68568569 0 42
3.8867226 -5.9197345 0.75185138 0 43
3.886996 -5.9201508 0.81784374 0 44
3.877409 -5.905549 0.88174325 0 45
3.881531 -5.9118271 0.94881904 0 46
3.8897707 -5.924377 1.0172758 0 47
3.8844333 -5.9162478 1.0824069 0 48
3.8885622 -5.9225364 1.1503427 0 49
3.885509 -5.9178863 1.2163719 0 50
3.8821709 -5.9128017 1.2824135 0 51
3.8893378 -5.9237175 1.3522159 0 52
3.8757131 -5.902966 1.414914 0 53
3.8898044 -5.924428 1.4879885 0 54
3.8889451 -5.9231191 1.5558378 0 55
3.8852634 -5.9175119 1.622754 0 56
3.8831167 -5.9142423 1.6904975 0 57
3.881274 -5.9114361 1.7586051 0 58
0 0 0 0 59
0 0 0 0 60
0 0 0 0 61
0 0 0 0 62
0 0 0 0 63
1.3840975 -2.0526102 -0.73802972 0 0
1.4236498 -2.1112659 -0.73368651 0 1
1.4722621 -2.183358 -0.73257637 0 2
