# .PCD v0.7 - Point Cloud Data file format
VERSION 0.7
FIELDS x y z intensity ring
SIZE 4 4 4 4 2
TYPE F F F F U
COUNT 1 1 1 1 1
WIDTH 1288
HEIGHT 1
VIEWPOINT 0 0 0 1 0 0 0
POINTS 1288
DATA ascii
-1.0872536 2.9464471 0.5396179 0 50
-1.0892255 2.951791 0.57043779 0 51
-1.0888969 2.9509006 0.60019755 0 52
-1.0890522 2.9513214 0.63032454 0 53
-1.0886575 2.9502518 0.66023749 0 54
-1.0876378 2.9474883 0.68984878 0 55
-1.0882819 2.949234 0.72062731 0 56
-1.0860536 2.9431953 0.74958771 0 57
-1.0873961 2.9468334 0.78112203 0 58
-1.0933988 2.9631009 0.81635195 0 59
-1.0870696 2.9459486 0.84251177 0 60
-1.0904466 2.9551001 0.87626362 0 61
-1.0886368 2.9501956 0.9060517 0 62
-1.0831188 2.9352422 0.93270856 0 63
-0.88290679 2.3050025 -0.73583645 0 0
-0.91492629 2.3885953 -0.7369749 0 1
-0.94252539 2.4606485 -0.73302716 0 2
-0.9749828 2.5453849 -0.73132795 0 3
-1.0066415 2.6280363 -0.72739494 0 4
-1.0583467 2.7630229 -0.73579305 0 5
-1.1022029 2.8775179 -0.73625684 0 6
-1.1309701 2.9526207 -0.72479808 0 7
-1.1320456 2.9554284 -0.69491249 0 8
-1.1365203 2.9671102 -0.66708732 0 9
-1.1347227 2.9624176 -0.63562638 0 10
-1.1304375 2.9512303 -0.6030463 0 11
-1.1359876 2.9657199 -0.57578552 0 12
-1.1308696 2.9523582 -0.54320616 0 13
-1.1312056 2.9532351 -0.51346803 0 14
-1.1382946 2.9717426 -0.4866887 0 15
-1.1321472 2.9556935 -0.45430899 0 16
-1.1318259 2.9548547 -0.42451563 0 17
-1.1302404 2.9507155 -0.39437109 0 18
-1.1331462 2.9583015 -0.36582711 0 19
-1.1345465 2.9619575 -0.33674756 0 20
-1.1314352 2.9538345 -0.30643091 0 21
-1.1303281 2.9509442 -0.27681893 0 22
-1.1330051 2.9579332 -0.24814032 0 23
-1.125337 2.9379144 -0.21736719 0 24
-1.1347221 2.9624157 -0.18988086 0 25
-1.1346214 2.9621527 -0.16059972 0 26
-1.1329159 2.9577003 -0.13116524 0 27
-1.1349494 2.9630094 -0.10217746 0 28
-1.1345439 2.9619508 -0.072945476 0 29
-1.1353481 2.9640501 -0.043793365 0 30
-1.1332939 2.9586873 -0.014570555 0 31
-1.135384 2.9641438 0.014597426 0 32
-1.134804 2.9626298 0.043772377 0 33
-1.137217 2.9689293 0.073117338 0 34
-1.1381775 2.971437 0.10246808 0 35
-1.1353848 2.9641459 0.13145109 0 36
-1.1324677 2.9565303 0.16029489 0 37
-1.1348861 2.9628444 0.18990833 0 38
-1.1269104 2.9420221 0.21767111 0 39
-1.1362021 2.9662795 0.24884048 0 40
-1.1326375 2.9569738 0.27738455 0 41
-1.1342412 2.9611604 0.3071909 0 42
-1.1310841 2.9529181 0.33571985 0 43
-1.129859 2.9497199 0.36476585 0 44
-1.134216 2.9610946 0.39575827 0 45
-1.1328093 2.957422 0.42488447 0 46
-1.1345801 2.9620452 0.45528525 0 47
-1.1376083 2.9699509 0.48639527 0 48
-1.1321141 2.9556069 0.51388037 0 49
-1.1359093 2.9655154 0.54562694 0 50
-1.1302184 2.9506581 0.57286131 0 51
-1.1316042 2.9542758 0.60366863 0 52
-1.131654 2.954406 0.63390738 0 53
-1.1359426 2.9656022 0.66674829 0 54
-1.1387781 2.9730048 0.6990453 0 55
-1.1322374 2.955929 0.72561026 0 56
-1.1373161 2.969188 0.75971198 0 57
-1.1349342 2.9629693 0.78903884 0 58
-1.1327602 2.9572937 0.8185277 0 59
-1.1319511 2.9551816 0.84906882 0 60
-1.1354641 2.9643528 0.88308072 0 61
-1.1324052 2.9563668 0.91215456 0 62
-1.1347718 2.9625456 0.94574696 0 63
-0.90763795 2.2850516 -0.73297495 0 0
-0.9431805 2.3745327 -0.73615873 0 1
-0.97933275 2.465549 -0.73801869 0 2
-1.0086483 2.5393531 -0.73310304 0 3
-1.0570539 2.6612182 -0.74012077 0 4
-1.0874166 2.737659 -0.73254406 0 5
-1.1344874 2.8561633 -0.73430675 0 6
-1.1801287 2.9710689 -0.7328335 0 7
-1.1816857 2.9749887 -0.7028752 0 8
-1.1774827 2.9644077 -0.66968429 0 9
-1.1838114 2.9803405 -0.64254671 0 10
-1.1779441 2.965569 -0.60888994 0 11
-1.1789118 2.9680054 -0.57899988 0 12
-1.1807966 2.9727504 -0.54958802 0 13
-1.1814988 2.9745183 -0.51965511 0 14
-1.1791229 2.9685369 -0.48850128 0 15
-1.1791931 2.9687135 -0.45850432 0 16
-1.1853698 2.9842639 -0.43080226 0 17
-1.1765864 2.9621511 -0.39780307 0 18
-1.177291 2.9639249 -0.36828482 0 19
-1.1758914 2.9604013 -0.33818898 0 20
-1.1751764 2.9586012 -0.30840117 0 21
-1.1799363 2.9705846 -0.28000122 0 22
-1.182922 2.9781013 -0.25103348 0 23
-1.1809018 2.9730151 -0.22102183 0 24
-1.1820388 2.9758778 -0.19166087 0 25
-1.172325 2.9514225 -0.16078736 0 26
-1.1826813 2.9774954 -0.13267799 0 27
-1.1788425 2.9678311 -0.10283583 0 28
-1.1772531 2.9638295 -0.073342711 0 29
-1.1776619 2.9648585 -0.04401594 0 30
-1.1782242 2.9662743 -0.014678157 0 31
-1.1816291 2.9748464 0.014720574 0 32
-1.1830907 2.9785261 0.044218846 0 33
-1.1842179 2.981364 0.07377661 0 34
-1.1791823 2.9686863 0.10286546 0 35
-1.176949 2.963064 0.13203491 0 36
-1.1863415 2.9867101 0.16270976 0 37
-1.1815012 2.9745243 0.19157369 0 38
-1.1854653 2.9845042 0.22187598 0 39
-1.1828536 2.9779291 0.25101894 0 40
-1.180326 2.9715657 0.2800937 0 41
-1.1777714 2.9651344 0.30908218 0 42
-1.185565 2.9847553 0.34097111 0 43
-1.1796294 2.9698122 0.36901635 0 44
-1.1802348 2.9713359 0.39903656 0 45
-1.1747295 2.9574761 0.42693523 0 46
-1.1848395 2.9829288 0.4606998 0 47
-1.1796594 2.9698875 0.48872355 0 48
-1.180041 2.9708481 0.51901394 0 49
-1.1786325 2.9673021 0.54858083 0 50
-1.1795179 2.9695313 0.57929754 0 51
-1.1783397 2.9665651 0.6090945 0 52
-1.1838871 2.9805312 0.64258784 0 53
-1.1783732 2.9666495 0.67019081 0 54
-1.1806756 2.972446 0.70227444 0 55
-1.1834731 2.9794888 0.73491037 0 56
-1.1732308 2.9537029 0.75938374 0 57
-1.1845586 2.9822218 0.79798436 0 58
-1.1803213 2.971554 0.82642937 0 59
-1.1780428 2.9658177 0.85622197 0 60
-1.180184 2.9712083 0.88937885 0 61
-1.179979 2.9706919 0.92098153 0 62
-1.1784354 2.9668062 0.95166111 0 63
-0.93782407 2.278965 -0.73466611 0 0
-0.96911699 2.3550084 -0.73374468 0 1
-1.0079932 2.4494798 -0.73686308 0 2
-1.043039 2.5346429 -0.73539037 0 3
-1.0837775 2.6336398 -0.73610151 0 4
-1.1260574 2.7363825 -0.73585194 0 5
-1.1677308 2.837651 -0.73318356 0 6
-1.2189416 2.9620962 -0.73426193 0 7
-1.2242355 2.9749608 -0.70637184 0 8
-1.228928 2.9863636 -0.67800695 0 9
-1.2297524 2.9883671 -0.64748842 0 10
-1.2297398 2.9883363 -0.61662263 0 11
-1.229393 2.9874935 -0.58570647 0 12
-1.2231097 2.972225 -0.5522297 0 13
-1.2303308 2.9897728 -0.52492344 0 14
-1.2259182 2.9790497 -0.49267468 0 15
-1.2273484 2.9825253 -0.46293336 0 16
-1.2264675 2.9803843 -0.43238664 0 17
-1.2266109 2.9807332 -0.40229371 0 18
-1.2193087 2.9629886 -0.37000349 0 19
-1.2309144 2.9911907 -0.34340939 0 20
-1.2253604 2.9776943 -0.31193846 0 21
-1.2278452 2.9837325 -0.28264228 0 22
-1.2225353 2.970829 -0.2516686 0 23
-1.228098 2.9843469 -0.22297008 0 24
-1.2262137 2.9797678 -0.19286792 0 25
-1.2240651 2.9745464 -0.16285479 0 26
-1.2259054 2.9790187 -0.13340749 0 27
-1.2291998 2.9870241 -0.10401674 0 28
-1.2254212 2.9778419 -0.074056737 0 29
-1.2253925 2.9777722 -0.044427995 0 30
-1.2256742 2.9784565 -0.014811899 0 31
-1.2293743 2.9874482 0.014856614 0 32
-1.2256792 2.9784689 0.044438384 0 33
-1.2270175 2.9817209 0.074153215 0 34
-1.2283388 2.9849322 0.10394389 0 35
-1.2240281 2.9744568 0.13320319 0 36
-1.2232192 2.972491 0.16274224 0 37
-1.2259483 2.9791231 0.1928262 0 38
-1.2256573 2.9784157 0.22252695 0 39
-1.2232624 2.9725959 0.2518183 0 40
-1.2284651 2.9852388 0.28278494 0 41
-1.223147 2.9723155 0.31137499 0 42
-1.2276661 2.9832973 0.34250319 0 43
-1.223464 2.9730859 0.3712644 0 44
-1.2246375 2.9759376 0.40164652 0 45
-1.2264763 2.980406 0.43238977 0 46
-1.2254596 2.9779353 0.46222094 0 47
-1.2274812 2.9828479 0.49330282 0 48
-1.2233005 2.9726887 0.5219239 0 49
-1.2262919 2.9799578 0.55366641 0 50
-1.2247752 2.9762723 0.58350646 0 51
-1.2241853 2.974839 0.61383754 0 52
-1.2305298 2.9902561 0.64789772 0 53
-1.2251999 2.9773045 0.67595017 0 54
-1.2242873 2.9750865 0.70640165 0 55
-1.2239282 2.9742141 0.73726577 0 56
-1.2250978 2.977056 0.76920259 0 57
-1.2250698 2.9769881 0.80055422 0 58
-1.2249477 2.9766912 0.83198428 0 59
-1.2220775 2.9697165 0.86162078 0 60
-1.2246485 2.9759643 0.89524239 0 61
-1.227073 2.9818559 0.92905021 0 62
-1.2280792 2.9843011 0.96204418 0 63
-0.96548319 2.2665782 -0.73444468 0 0
-0.99617916 2.3386405 -0.73240614 0 1
-1.0296994 2.4173329 -0.73094618 0 2
-1.0719541 2.5165305 -0.73390418 0 3
-1.1121674 2.6109354 -0.73352259 0 4
-1.1587111 2.720202 -0.73527676 0 5
-1.2062792 2.8318732 -0.73546755 0 6
-1.2504066 2.9354672 -0.73141706 0 7
-1.2720232 2.9862146 -0.71270394 0 8
-1.2726586 2.9877062 -0.68181312 0 9
-1.2731586 2.9888802 -0.65094239 0 10
-1.2728561 2.9881701 -0.61977112 0 11
-1.2714155 2.9847879 -0.58819664 0 12
-1.2750533 2.9933281 -0.55902135 0 13
-1.2698859 2.9811971 -0.52611965 0 14
-1.2755682 2.9945371 -0.49779233 0 15
-1.2751961 2.9936633 -0.46706069 0 16
-1.2730806 2.9886968 -0.43583074 0 17
-1.2726636 2.9877179 -0.40531787 0 18
-1.2763921 2.9964712 -0.37611616 0 19
-1.2739643 2.9907718 -0.34513369 0 20
-1.2778738 2.9999495 -0.3158921 0 21
-1.2761799 2.9959731 -0.28526673 0 22
-1.2694547 2.980185 -0.25376436 0 23
-1.2759591 2.9954548 -0.22495522 0 24
-1.2707566 2.9832411 -0.19408946 0 25
-1.2750392 2.9932952 -0.1647272 0 26
-1.278533 3.001497 -0.13510795 0 27
-1.2752775 2.9938543 -0.10479274 0 28
-1.2756166 2.9946506 -0.074859187 0 29
-1.2760864 2.9957535 -0.044926986 0 30
-1.2777081 2.9995606 -0.014993848 0 31
-1.2733043 2.9892223 0.01494217 0 32
-1.2751604 2.9935796 0.044894386 0 33
-1.2752328 2.9937496 0.074836664 0 34
-1.264568 2.9687126 0.1039127 0 35
-1.276644 2.9970627 0.13490835 0 36
-1.2777315 2.9996157 0.16507503 0 37
-1.2727777 2.9879858 0.19439816 0 38
-1.2711359 2.9841318 0.22410487 0 39
-1.2745993 2.9922624 0.25479275 0 40
-1.2728817 2.9882302 0.28452951 0 41
-1.2658275 2.9716697 0.31291425 0 42
-1.2760626 2.9956975 0.34570214 0 43
-1.2713004 2.9845178 0.37461576 0 44
-1.2789865 3.0025616 0.40733159 0 45
-1.2700502 2.9815826 0.43479329 0 46
-1.2675551 2.9757254 0.4642621 0 47
-1.2750375 2.9932909 0.49758518 0 48
-1.2722213 2.9866798 0.52708721 0 49
-1.2672782 2.9750752 0.5556125 0 50
-1.2721883 2.9866023 0.58855414 0 51
-1.2744442 2.9918983 0.62054437 0 52
-1.2763741 2.996429 0.65258646 0 53
-1.2746855 2.9924645 0.682899 0 54
-1.2747867 2.9927022 0.71425229 0 55
-1.2738718 2.9905543 0.74514288 0 56
-1.2800118 3.0049686 0.78042233 0 57
-1.2692776 2.9797692 0.80543828 0 58
-1.2747298 2.9925687 0.84073955 0 59
-1.2747874 2.9927042 0.87277228 0 60
-1.273537 2.9897685 0.90403765 0 61
-1.2775273 2.9991364 0.93925768 0 62
-1.2759827 2.9955101 0.97064215 0 63
-0.9947719 2.2579243 -0.7355485 0 0
-1.0343902 2.3478496 -0.73921776 0 1
-1.0677239 2.4235098 -0.73672825 0 2
-1.1000645 2.4969165 -0.73207361 0 3
-1.1458117 2.6007528 -0.73456466 0 4
-1.1885893 2.6978493 -0.73312992 0 5
-1.2421407 2.8193996 -0.73613918 0 6
-1.2958195 2.9412396 -0.7367698 0 7
-1.3215711 2.9996903 -0.71974409 0 8
-1.3232968 3.003607 -0.68910301 0 9
-1.3178459 2.9912348 -0.65493494 0 10
-1.31972 2.9954886 -0.62460762 0 11
-1.3245869 3.0065353 -0.59564698 0 12
-1.319113 2.9941108 -0.56215429 0 13
-1.3206613 2.9976251 -0.5318445 0 14
-1.3236061 3.0043092 -0.50208437 0 15
-1.3227787 3.0024312 -0.47093073 0 16
-1.3210304 2.9984627 -0.43959042 0 17
-1.3186318 2.9930184 -0.40820578 0 18
-1.3202643 2.9967241 -0.37815705 0 19
-1.3271028 3.0122459 -0.34946856 0 20
-1.328545 3.0155194 -0.31922767 0 21
-1.3225304 3.0018675 -0.28735474 0 22
-1.3232632 3.0035307 -0.25711834 0 23
-1.3168175 2.9889007 -0.22566196 0 24
-1.328818 3.016139 -0.19727796 0 25
-1.3217402 3.0000737 -0.16598211 0 26
-1.3197708 2.9956038 -0.13556294 0 27
-1.321884 3.0004005 -0.10558284 0 28
-1.3216122 2.9997835 -0.075388044 0 29
-1.3187392 2.9932623 -0.045129403 0 30
-1.3191278 2.9941444 -0.015046719 0 31
-1.3207433 2.9978111 0.015065146 0 32
-1.3271959 3.0124574 0.045418806 0 33
-1.3150319 2.9848475 0.075012684 0 34
-1.3217052 2.9999945 0.10556855 0 35
-1.3217629 3.0001256 0.13576756 0 36
-1.3213357 2.9991558 0.16593133 0 37
-1.3322504 3.0239298 0.19778754 0 38
-1.3185613 2.9928584 0.22596078 0 39
-1.3210492 2.9985054 0.25668815 0 40
-1.3174539 2.990345 0.28625172 0 41
-1.3235649 3.0042155 0.31803104 0 42
-1.3185891 2.9929216 0.34722662 0 43
-1.31762 2.9907219 0.37739965 0 44
-1.3204283 2.9970963 0.40876192 0 45
-1.3230383 3.0030205 0.44025859 0 46
-1.3272052 3.0124784 0.47250661 0 47
-1.32064 2.9975767 0.50095928 0 48
-1.3326291 3.0247896 0.53666413 0 49
-1.3206872 2.9976838 0.56282514 0 50
-1.3154665 2.9858339 0.5915457 0 51
-1.3178558 2.9912574 0.6237253 0 52
-1.3160677 2.9871986 0.65405118 0 53
-1.3254007 3.0083826 0.69019866 0 54
-1.3217239 3.000037 0.71982735 0 55
-1.3187379 2.9932594 0.74980056 0 56
-1.3158917 2.9867992 0.77984685 0 57
-1.3253827 3.0083418 0.817505 0 58
-1.3132623 2.9808311 0.84191507 0 59
-1.3186095 2.9929678 0.8775115 0 60
-1.3258337 3.0093656 0.91482377 0 61
-1.3187336 2.9932497 0.94242126 0 62
-1.319841 2.9957633 0.97590929 0 63
-1.0245414 2.2500954 -0.73704648 0 0
-1.054285 2.3154185 -0.73303312 0 1
-1.0953982 2.4057112 -0.73535657 0 2
-1.1397477 2.5031114 -0.73794317 0 3
-1.168926 2.5671928 -0.72909039 0 4
-1.2195247 2.6783175 -0.73184192 0 5
-1.2714254 2.7923017 -0.73309058 0 6
-1.3313254 2.9238539 -0.73645985 0 7
-1.3633242 2.9941294 -0.7223776 0 8
-1.3665172 3.001142 -0.69234025 0 9
-1.3685858 3.0056849 -0.66173345 0 10
-1.368937 3.0064564 -0.63035691 0 11
-1.3713951 3.0118549 -0.59999645 0 12
-1.3703285 3.0095124 -0.56816667 0 13
-1.3706605 3.0102415 -0.53703266 0 14
-1.3699775 3.0087414 -0.50560218 0 15
-1.3732102 3.015841 -0.47564659 0 16
-1.3699768 3.0087397 -0.44353324 0 17
-1.3719237 3.0130157 -0.4132027 0 18
-1.3691133 3.0068433 -0.38152963 0 19
-1.3676361 3.0035994 -0.35038999 0 20
-1.3689073 3.0063913 -0.3200191 0 21
-1.3644531 2.9966087 -0.28843561 0 22
-1.3681557 3.0047405 -0.25864252 0 23
-1.3640543 2.995733 -0.22742698 0 24
-1.3689567 3.0064995 -0.19773354 0 25
-1.3728215 3.0149875 -0.1677285 0 26
-1.3686576 3.0058427 -0.13677755 0 27
-1.3710831 3.0111697 -0.10654702 0 28
-1.3659476 2.9998908 -0.075807124 0 29
-1.3656034 2.9991353 -0.045467686 0 30
-1.3674412 3.0031712 -0.015175435 0 31
-1.3669565 3.0021067 0.015170055 0 32
-1.3741854 3.017983 0.045753419 0 33
-1.3681754 3.0047836 0.075930759 0 34
-1.3709667 3.0109138 0.10653798 0 35
-1.3694196 3.0075161 0.13685371 0 36
-1.3671337 3.002496 0.16703358 0 37
-1.3649006 2.9975915 0.19714767 0 38
-1.3669903 3.0021808 0.22791649 0 39
-1.3681142 3.0046494 0.25863469 0 40
-1.3634497 2.994405 0.28822348 0 41
-1.3701552 3.0091319 0.32031083 0 42
-1.3690685 3.0067453 0.35075697 0 43
-1.3685308 3.005564 0.38136727 0 44
-1.3705965 3.0101008 0.41280296 0 45
-1.3697767 3.0083005 0.44346851 0 46
-1.3661309 3.0002937 0.47319454 0 47
-1.3678254 3.004015 0.50480795 0 48
-1.3651338 2.9981036 0.53486729 0 49
-1.3703761 3.0096169 0.56818646 0 50
-1.3735404 3.0165663 0.60093498 0 51
-1.36948 3.0076489 0.63060695 0 52
-1.365302 2.9984732 0.6601457 0 53
-1.3732704 3.0159733 0.69576174 0 54
-1.3676029 3.0035264 0.72464478 0 55
-1.3708862 3.0107372 0.75834399 0 56
-1.3638538 2.9952927 0.78638381 0 57
-1.3735915 3.0166786 0.82429808 0 58
-1.3685542 3.0056155 0.85360384 0 59
-1.3652602 2.9983814 0.88395387 0 60
-1.3691176 3.0068529 0.91910833 0 61
-1.3706673 3.0102563 0.95301032 0 62
-1.3660066 3.0000207 0.98269373 0 63
-1.0522848 2.2376571 -0.7371549 0 0
-1.0839415 2.3049741 -0.73389077 0 1
-1.1286559 2.4000585 -0.7378152 0 2
-1.1718214 2.4918487 -0.73881495 0 3
-1.2036994 2.5596364 -0.73109269 0 4
-1.2495437 2.6571231 -0.73019385 0 5
-1.3050096 2.7750702 -0.73272419 0 6
-1.359714 2.8913977 -0.73244077 0 7
-1.4228414 3.0256362 -0.73414475 0 8
-1.4200512 3.0197029 -0.70059741 0 9
-1.4216263 3.0230527 -0.66935515 0 10
-1.4162257 3.0115683 -0.63503194 0 11
-1.4262601 3.0329063 -0.60763794 0 12
-1.420602 3.0208743 -0.5735662 0 13
-1.4181199 3.0155962 -0.541058 0 14
-1.4194071 3.0183334 -0.51010853 0 15
-1.4231989 3.0263968 -0.48003519 0 16
-1.416863 3.0129232 -0.44668454 0 17
-1.4232999 3.0266113 -0.4174358 0 18
-1.4187335 3.016901 -0.3849903 0 19
-1.4247115 3.029613 -0.35544148 0 20
-1.4219793 3.023803 -0.32370931 0 21
-1.4220942 3.0240476 -0.29273772 0 22
-1.4182357 3.0158422 -0.26107958 0 23
-1.4211503 3.0220404 -0.23073336 0 24
-1.4225118 3.0249355 -0.20008135 0 25
-1.4221351 3.0241346 -0.16919741 0 26
-1.4226586 3.0252476 -0.13844611 0 27
-1.4186046 3.0166268 -0.10734923 0 28
-1.4199284 3.0194418 -0.076736592 0 29
-1.4209521 3.0216186 -0.04606995 0 30
-1.4139657 3.0067623 -0.015280283 0 31
-1.415157 3.0092955 0.015293158 0 32
-1.4182218 3.0158129 0.04598143 0 33
-1.4177734 3.0148592 0.076620124 0 34
-1.4213963 3.0225632 0.10756049 0 35
-1.4147911 3.0085175 0.13768049 0 36
-1.4176691 3.0146375 0.16866606 0 37
-1.4253799 3.0310345 0.20048474 0 38
-1.4204445 3.0205393 0.23061876 0 39
-1.4197358 3.0190325 0.26135573 0 40
-1.4193345 3.0181789 0.29216963 0 41
-1.4222611 3.0244024 0.32377347 0 42
-1.4171753 3.0135875 0.35356131 0 43
-1.4173414 3.0139408 0.38461253 0 44
-1.4162788 3.0116813 0.4153766 0 45
-1.4186647 3.0167546 0.44725257 0 46
-1.4193398 3.0181904 0.47873354 0 47
-1.4204928 3.020642 0.51049864 0 48
-1.4191756 3.0178411 0.54146081 0 49
-1.4173599 3.0139802 0.57225722 0 50
-1.4149464 3.008848 0.60281789 0 51
-1.4262333 3.0328491 0.63951927 0 52
-1.4107565 2.999938 0.6642372 0 53
-1.4200431 3.0196857 0.70059341 0 54
-1.422526 3.0249655 0.73398203 0 55
-1.4283 3.0372441 0.76938617 0 56
-1.4183369 3.0160575 0.79635406 0 57
-1.4166365 3.0124416 0.82783765 0 58
-1.4240171 3.0281363 0.86490738 0 59
-1.417648 3.0145924 0.89380467 0 60
-1.4205151 3.0206895 0.92860681 0 61
-1.4177916 3.0148981 0.95992655 0 62
-1.4196494 3.0188487 0.99450403 0 63
-1.0750057 2.2148397 -0.73393732 0 0
-1.1061714 2.2790506 -0.72991252 0 1
-1.1495916 2.3685095 -0.7324068 0 2
-1.1946552 2.4613543 -0.73407358 0 3
-1.246389 2.5679419 -0.73778671 0 4
-1.2890517 2.6558397 -0.73414159 0 5
-1.3402456 2.7613149 -0.73338825 0 6
-1.4004027 2.8852568 -0.73519176 0 7
-1.4645995 3.0175219 -0.73649001 0 8
-1.4716753 3.0321002 -0.70761865 0 9
-1.4752295 3.039423 -0.67694521 0 10
-1.4708743 3.0304501 -0.64277864 0 11
-1.4660699 3.0205514 -0.60872841 0 12
-1.4686172 3.0257995 -0.57788646 0 13
-1.4708372 3.0303736 -0.54691303 0 14
-1.4726448 3.0340977 -0.5157941 0 15
-1.4709924 3.0306933 -0.48354918 0 16
-1.4683603 3.0252702 -0.45115778 0 17
-1.4660666 3.0205445 -0.41905376 0 18
-1.4706722 3.0300336 -0.38894448 0 19
-1.4747697 3.0384758 -0.35858172 0 20
-1.4643686 3.0170462 -0.32488906 0 21
-1.4677465 3.0240057 -0.29445851 0 22
-1.4685264 3.0256124 -0.26346868 0 23
-1.4663819 3.021194 -0.23202792 0 24
-1.4709668 3.0306404 -0.20163983 0 25
-1.4683968 3.0253456 -0.17026253 0 26
-1.4711267 3.0309699 -0.13952528 0 27
-1.4695467 3.0277147 -0.10837866 0 28
-1.4745102 3.0379407 -0.077661641 0 29
-1.4657177 3.0198257 -0.046313904 0 30
-1.4686517 3.0258706 -0.015467998 0 31
-1.4728557 3.0345323 0.015512276 0 32
-1.4728091 3.034436 0.046537977 0 33
-1.4659662 3.0203378 0.077211641 0 34
-1.4701281 3.0289123 0.10842153 0 35
-1.4709632 3.0306332 0.13950978 0 36
-1.4655075 3.0193927 0.16992751 0 37
-1.4723824 3.0335572 0.20183389 0 38
-1.4715309 3.0318027 0.23284265 0 39
-1.4710896 3.0308933 0.26392856 0 40
-1.4691213 3.0268383 0.29473436 0 41
-1.4739224 3.0367298 0.32700866 0 42
-1.4661257 3.0206664 0.35647997 0 43
-1.4715974 3.0319397 0.38918915 0 44
-1.4674362 3.0233665 0.41944525 0 45
-1.4749854 3.0389199 0.45319337 0 46
-1.4704748 3.0296271 0.48337907 0 47
-1.4677892 3.0240934 0.5140934 0 48
-1.4706608 3.03001 0.5468474 0 49
-1.4749444 3.0388355 0.58037615 0 50
-1.4696743 3.0279777 0.61022502 0 51
-1.4683472 3.0252433 0.64167422 0 52
-1.4724714 3.0337403 0.6756795 0 53
-1.4705265 3.0297332 0.7070663 0 54
-1.4790801 3.0473564 0.74377179 0 55
-1.4783838 3.0459218 0.77613074 0 56
-1.4648939 3.0181284 0.8015964 0 57
-1.4644203 3.0171528 0.83401769 0 58
-1.4713994 3.0315318 0.87097919 0 59
-1.4702463 3.029156 0.90341461 0 60
-1.4692678 3.0271401 0.93607306 0 61
-1.4694096 3.0274322 0.96959698 0 62
-1.4664307 3.0212946 1.0011744 0 63
-1.0968124 2.190779 -0.73037827 0 0
-1.1376255 2.2722993 -0.73217511 0 1
-1.1756504 2.3482504 -0.7305572 0 2
-1.2221396 2.4411082 -0.73246199 0 3
-1.2736731 2.5440414 -0.73536408 0 4
-1.326542 2.6496422 -0.73688173 0 5
-1.3748697 2.7461722 -0.73380113 0 6
-1.4267852 2.8498685 -0.73058969 0 7
-1.4924574 2.9810426 -0.7320103 0 8
-1.5208501 3.0377541 -0.71324867 0 9
-1.5259327 3.0479064 -0.68296206 0 10
-1.5184866 3.0330334 -0.64723814 0 11
-1.5208644 3.0377829 -0.61592335 0 12
-1.5160153 3.0280974 -0.58184159 0 13
-1.5214195 3.0388918 -0.55178505 0 14
-1.5214342 3.0389211 -0.51975518 0 15
-1.5157578 3.0275829 -0.48598996 0 16
-1.5170554 3.0301747 -0.45463675 0 17
-1.5156685 3.0274045 -0.42255914 0 18
-1.5234405 3.0429285 -0.39297462 0 19
-1.5226482 3.0413458 -0.36110273 0 20
-1.5201777 3.0364113 -0.32896245 0 21
-1.5116786 3.0194349 -0.2958011 0 22
-1.5211174 3.0382881 -0.26618114 0 23
-1.5207217 3.0374978 -0.23469841 0 24
-1.5220191 3.0400894 -0.20349833 0 25
-1.5223124 3.0406752 -0.17216572 0 26
-1.5207908 3.037636 -0.14068235 0 27
-1.522498 3.0410457 -0.10951771 0 28
-1.52633 3.0486999 -0.078410551 0 29
-1.5217896 3.0396307 -0.046901092 0 30
-1.5209327 3.0379193 -0.015624013 0 31
-1.5214615 3.0389755 0.015629444 0 32
-1.5240073 3.0440605 0.04696944 0 33
-1.5162584 3.0285826 0.077893153 0 34
-1.5231321 3.0423124 0.10956333 0 35
-1.5202188 3.0364933 0.14062944 0 36
-1.517962 3.0319855 0.1716737 0 37
-1.5212085 3.0384703 0.20338996 0 38
-1.5215167 3.0390856 0.23482111 0 39
-1.5216076 3.0392673 0.26626691 0 40
-1.5213113 3.0386753 0.29768601 0 41
-1.5217366 3.039525 0.32929978 0 42
-1.5246816 3.0454073 0.36158496 0 43
-1.5247017 3.0454476 0.39329994 0 44
-1.5265312 3.0491016 0.42558759 0 45
-1.515485 3.0270381 0.45416614 0 46
-1.5248988 3.045841 0.48892078 0 47
-1.5274887 3.0510144 0.52182353 0 48
-1.5192794 3.0346169 0.55100882 0 49
-1.5246388 3.0453219 0.58515126 0 50
-1.5224997 3.0410492 0.61658561 0 51
-1.5216446 3.0393412 0.64858419 0 52
-1.5269123 3.0498631 0.68340051 0 53
-1.523137 3.0423222 0.7143212 0 54
-1.5183648 3.0327902 0.74471718 0 55
-1.5207508 3.0375559 0.77870512 0 56
-1.5235629 3.0431728 0.81316233 0 57
-1.5228314 3.0417118 0.84591872 0 58
-1.5197014 3.0354598 0.87741029 0 59
-1.5240031 3.0440521 0.91337711 0 60
-1.5208811 3.037816 0.94508594 0 61
-1.5247191 3.0454822 0.98130834 0 62
-1.5180357 3.0321326 1.010875 0 63
-1.1267408 2.1830845 -0.73237664 0 0
-1.1642345 2.2557292 -0.73139352 0 1
-1.2090987 2.3426547 -0.73338634 0 2
-1.2522734 2.4263067 -0.73258573 0 3
-1.3038124 2.5261645 -0.73477536 0 4
-1.3533005 2.6220486 -0.73378021 0 5
-1.4125636 2.7368722 -0.73590177 0 6
-1.4650671 2.838599 -0.73226368 0 7
-1.5384982 2.9808731 -0.7365585 0 8
-1.5713006 3.0444288 -0.71929801 0 9
-1.577163 3.0557871 -0.68902147 0 10
-1.5726663 3.0470748 -0.65431172 0 11
-1.5813798 3.0639572 -0.62512571 0 12
-1.5703557 3.0425978 -0.58829367 0 13
-1.5815041 3.0641983 -0.55986875 0 14
-1.574587 3.050796 -0.52505797 0 15
-1.5787665 3.0588939 -0.49409491 0 16
-1.5829645 3.0670278 -0.4630515 0 17
-1.5734087 3.0485132 -0.42817354 0 18
-1.5741512 3.0499516 -0.3963514 0 19
-1.5742552 3.0501533 -0.36441928 0 20
-1.5799757 3.0612369 -0.33373162 0 21
-1.5783992 3.0581822 -0.30147561 0 22
-1.5733534 3.0484061 -0.26874217 0 23
-1.5812144 3.0636368 -0.23820242 0 24
-1.5754424 3.0524535 -0.20560718 0 25
-1.5694886 3.0409179 -0.17325911 0 26
-1.5736642 3.0490081 -0.14209448 0 27
-1.5730329 3.047785 -0.11044865 0 28
-1.5751526 3.051892 -0.078984842 0 29
-1.5791088 3.0595572 -0.04750457 0 30
-1.5822281 3.0656009 -0.015865242 0 31
-1.575513 3.0525901 0.015797907 0 32
-1.5744977 3.0506229 0.047365852 0 33
-1.57392 3.0495036 0.078923024 0 34
-1.5723403 3.046443 0.11040002 0 35
-1.5737174 3.0491111 0.14209928 0 36
-1.5705916 3.0430548 0.17338085 0 37
-1.577998 3.0574052 0.20594071 0 38
-1.5753762 3.052325 0.23732291 0 39
-1.5678087 3.037663 0.26779509 0 40
-1.5747154 3.0510447 0.30077201 0 41
-1.5817157 3.0646081 0.33409914 0 42
-1.5742927 3.0502257 0.36442795 0 43
-1.5754925 3.0525506 0.39668915 0 44
-1.5721443 3.0460632 0.42782947 0 45
-1.5720931 3.0459642 0.45987138 0 46
-1.5714772 3.0447707 0.49181363 0 47
-1.5731013 3.0479174 0.52456254 0 48
-1.5710301 3.0439045 0.55616087 0 49
-1.5692742 3.0405023 0.58788854 0 50
-1.575085 3.0517609 0.62263733 0 51
-1.5738494 3.049367 0.65480393 0 52
-1.5724128 3.0465837 0.68694627 0 53
-1.5786588 3.0586853 0.72266638 0 54
-1.5729086 3.047544 0.75303251 0 55
-1.5757296 3.05301 0.78757453 0 56
-1.5678337 3.0377114 0.81679267 0 57
-1.5811116 3.0634375 0.8573029 0 58
-1.5704618 3.0428033 0.88504797 0 59
-1.5748448 3.0512955 0.92129147 0 60
-1.5694361 3.0408161 0.95195121 0 61
-1.5718983 3.0455868 0.98749548 0 62
-1.5758082 3.0531621 1.0242685 0 63
-1.1653318 2.1913185 -0.73989028 0 0
-1.1977597 2.2522967 -0.73500043 0 1
-1.2375466 2.3271127 -0.73322934 0 2
-1.2805964 2.4080646 -0.73177701 0 3
-1.328791 2.4986911 -0.73148155 0 4
-1.3882654 2.610528 -0.73527789 0 5
-1.4501662 2.726928 -0.73796684 0 6
-1.5033365 2.826911 -0.73396176 0 7
-1.5650079 2.9428792 -0.73187011 0 8
-1.6230884 3.0520949 -0.72576988 0 9
-1.6265061 3.0585217 -0.69409531 0 10
-1.6289207 3.0630622 -0.66199589 0 11
-1.6325547 3.0698957 -0.63038534 0 12
-1.6281716 3.0616536 -0.59580421 0 13
-1.6247803 3.0552764 -0.56184661 0 14
-1.628669 3.0625892 -0.53049427 0 15
-1.6253611 3.0563686 -0.49687779 0 16
-1.6334968 3.0716672 -0.46674922 0 17
-1.6327984 3.070354 -0.43402833 0 18
-1.6242256 3.0542336 -0.39947313 0 19
-1.625434 3.0565059 -0.36753845 0 20
-1.6265581 3.0586195 -0.33560139 0 21
-1.629639 3.0644131 -0.30404231 0 22
-1.6307597 3.0665205 -0.27208635 0 23
-1.6333578 3.0714059 -0.24034992 0 24
-1.6295413 3.0642292 -0.20773436 0 25
-1.6264505 3.0584173 -0.17538239 0 26
-1.6289922 3.0631969 -0.14367837 0 27
-1.6222104 3.0504441 -0.11125948 0 28
-1.6297065 3.0645399 -0.079824775 0 29
-1.6273668 3.0601404 -0.04782071 0 30
-1.6265072 3.0585239 -0.015930917 0 31
-1.6334219 3.0715265 0.015998645 0 32
-1.6287507 3.0627427 0.047861375 0 33
-1.6277019 3.0607705 0.079726592 0 34
-1.6259531 3.057482 0.11151618 0 35
-1.6282606 3.0618212 0.14361385 0 36
-1.6177903 3.0421326 0.17444855 0 37
-1.6243036 3.0543802 0.20706666 0 38
-1.6322837 3.069386 0.24019186 0 39
-1.6289651 3.0631459 0.27178693 0 40
-1.6292424 3.0636673 0.30396831 0 41
-1.623674 3.0531962 0.33500633 0 42
-1.6231811 3.0522695 0.36702904 0 43
-1.6344316 3.0734253 0.40198326 0 44
-1.6340098 3.0726321 0.43435037 0 45
-1.630408 3.0658593 0.46586668 0 46
-1.6316097 3.0681188 0.498788 0 47
-1.6272743 3.0599663 0.53003997 0 48
-1.629475 3.0641048 0.56347007 0 49
-1.6264079 3.058337 0.59515882 0 50
-1.6244818 3.0547152 0.62726814 0 51
-1.6262467 3.0580339 0.66090918 0 52
-1.6267701 3.0590184 0.69420803 0 53
-1.6278342 3.0610194 0.72789204 0 54
-1.6248649 3.0554359 0.75986207 0 55
-1.6292534 3.063688 0.7954371 0 56
-1.6298845 3.0648746 0.82942271 0 57
-1.6288344 3.0629001 0.8626923 0 58
-1.6319999 3.0688524 0.89839393 0 59
-1.62887 3.0629671 0.93079263 0 60
-1.6282479 3.0617971 0.96471447 0 61
-1.626726 3.0589354 0.99823385 0 62
-1.6282802 3.0618577 1.0338246 0 63
-1.1858869 2.1653206 -0.73598021 0 0
-1.22778 2.2418137 -0.73645055 0 1
-1.2738789 2.3259861 -0.73775405 0 2
-1.3156906 2.4023304 -0.73489529 0 3
-1.3586926 2.4808481 -0.73109376 0 4
-1.4217446 2.5959752 -0.73604739 0 5
-1.479829 2.7020321 -0.73609823 0 6
-1.5347165 2.8022513 -0.73240364 0 7
-1.6092393 2.9383233 -0.73560262 0 8
-1.6806338 3.0686831 -0.73457313 0 9
-1.6804593 3.0683644 -0.70096534 0 10
-1.6854514 3.0774796 -0.66954035 0 11
-1.6772116 3.0624347 -0.63304037 0 12
-1.6855197 3.0776043 -0.60289603 0 13
-1.6791804 3.0660293 -0.56757814 0 14
-1.6806369 3.0686889 -0.53509009 0 15
-1.677339 3.0626669 -0.50121689 0 16
-1.6817589 3.0707374 -0.46971479 0 17
-1.678575 3.0649242 -0.43614554 0 18
-1.6863654 3.0791485 -0.40541336 0 19
-1.6833762 3.0736904 -0.37206581 0 20
-1.6740248 3.0566158 -0.33761463 0 21
-1.67725 3.0625045 -0.30587611 0 22
-1.6861527 3.0787601 -0.27499121 0 23
-1.682373 3.0718589 -0.24198593 0 24
-1.6769375 3.061934 -0.20896088 0 25
-1.6803691 3.0681999 -0.17711486 0 26
-1.6866833 3.0797288 -0.14541562 0 27
-1.6908954 3.08742 -0.11335789 0 28
-1.6831412 3.0732615 -0.080584966 0 29
-1.6865784 3.0795376 -0.048444256 0 30
-1.6794486 3.066519 -0.016078914 0 31
-1.6813735 3.0700338 0.016097343 0 32
-1.6823894 3.0718887 0.048323929 0 33
-1.6809112 3.0691895 0.080478199 0 34
-1.6765491 3.0612247 0.11239611 0 35
-1.6846151 3.0759528 0.14523731 0 36
-1.6849124 3.0764954 0.17759372 0 37
-1.679127 3.0659318 0.20923372 0 38
-1.6795893 3.066776 0.24158552 0 39
-1.6845092 3.0757592 0.27472317 0 40
-1.6815346 3.070328 0.30665746 0 41
-1.6785061 3.0647981 0.33851841 0 42
-1.6805829 3.0685902 0.37144843 0 43
-1.6774395 3.0628507 0.40326753 0 44
-1.6866521 3.0796719 0.43824419 0 45
-1.6851065 3.0768499 0.47064978 0 46
-1.6854541 3.0774846 0.50364184 0 47
-1.6748646 3.0581491 0.5332523 0 48
-1.6864446 3.0792933 0.57003355 0 49
-1.6806123 3.068644 0.60114068 0 50
-1.6805538 3.068537 0.63430184 0 51
-1.6816593 3.0705557 0.66803396 0 52
-1.6801757 3.0678468 0.70084709 0 53
-1.6846364 3.0759914 0.73632258 0 54
-1.6849411 3.0765479 0.77020681 0 55
-1.6809984 3.0693491 0.80221295 0 56
-1.6782154 3.0642674 0.8347798 0 57
-1.6895801 3.0850182 0.8747077 0 58
-1.6762325 3.0606468 0.90195757 0 59
-1.6791035 3.0658891 0.93788403 0 60
-1.6862248 3.0788918 0.97656 0 61
-1.6834358 3.0737994 1.0097634 0 62
-1.6763233 3.0608127 1.0403528 0 63
-1.2098703 2.1460516 -0.73443192 0 0
-1.2513641 2.2196527 -0.73416984 0 1
-1.3032739 2.3117297 -0.73825938 0 2
-1.341143 2.378901 -0.73271751 0 3
-1.3973902 2.4786718 -0.73546058 0 4
-1.4549345 2.5807428 -0.73674536 0 5
-1.5123577 2.6825995 -0.73581493 0 6
-1.5646641 2.7753799 -0.73035383 0 7
-1.6409104 2.9106243 -0.73366416 0 8
-1.728009 3.0651188 -0.73875046 0 9
-1.737276 3.0815563 -0.70880568 0 10
-1.7361969 3.0796423 -0.67460459 0 11
-1.7372537 3.081517 -0.64135224 0 12
-1.7352674 3.0779936 -0.60710633 0 13
-1.7323419 3.0728045 -0.57273239 0 14
-1.7376739 3.0822623 -0.54114181 0 15
-1.7350595 3.0776248 -0.50711805 0 16
-1.7350043 3.0775268 -0.4739809 0 17
-1.7353637 3.0781643 -0.44103292 0 18
-1.7374529 3.0818703 -0.40855378 0 19
-1.7344265 3.0765021 -0.37495944 0 20
-1.7311761 3.0707366 -0.34149978 0 21
-1.735867 3.0790572 -0.30963781 0 22
-1.740243 3.0868192 -0.27760139 0 23
-1.7330831 3.0741191 -0.24382432 0 24
-1.7377591 3.0824134 -0.21180075 0 25
-1.7333592 3.074609 -0.1787017 0 26
-1.7307664 3.0700097 -0.14595056 0 27
-1.7347286 3.0770378 -0.11375129 0 28
-1.7374835 3.0819244 -0.081366189 0 29
-1.7359949 3.0792842 -0.048772387 0 30
-1.7368273 3.0807605 -0.016264338 0 31
-1.7408291 3.0878589 0.016301813 0 32
-1.7316202 3.0715244 0.048649479 0 33
-1.7363917 3.0799878 0.081315055 0 34
-1.7345036 3.0766387 0.11373654 0 35
-1.7389499 3.0845256 0.14664066 0 36
-1.7377024 3.0823126 0.17914945 0 37
-1.7324511 3.072998 0.21115381 0 38
-1.7339865 3.0757215 0.24395141 0 39
-1.7339326 3.0756259 0.27659476 0 40
-1.7360888 3.0794506 0.30967739 0 41
-1.7333808 3.0746472 0.34193468 0 42
-1.7396622 3.0857892 0.37609136 0 43
-1.7351902 3.0778565 0.40802169 0 44
-1.733322 3.074543 0.44051406 0 45
-1.7228891 3.0560372 0.47067121 0 46
-1.7418033 3.089587 0.50908911 0 47
-1.7373589 3.0817034 0.54104376 0 48
-1.7336051 3.0750451 0.57314998 0 49
-1.7329967 3.073966 0.60631198 0 50
-1.7444316 3.094249 0.64400214 0 51
-1.7347778 3.0771251 0.67405319 0 52
-1.7347438 3.077065 0.70777255 0 53
-1.7357033 3.0787671 0.74203992 0 54
-1.7274945 3.0642061 0.7723766 0 55
-1.7378272 3.0825341 0.81118286 0 56
-1.7391522 3.0848844 0.84615833 0 57
-1.7341481 3.0760083 0.87813276 0 58
-1.7362076 3.0796614 0.91378349 0 59
-1.7391275 3.0848408 0.95015162 0 60
-1.736765 3.0806501 0.98381698 0 61
-1.7326832 3.0734098 1.0165577 0 62
-1.7391922 3.0849555 1.055748 0 63
-1.2317342 2.1233737 -0.73179901 0 0
-1.2821804 2.2103374 -0.73624802 0 1
-1.3292147 2.2914195 -0.73693728 0 2
-1.3774707 2.3746073 -0.73655635 0 3
-1.4328134 2.4700122 -0.73806298 0 4
-1.4838997 2.5580792 -0.73542887 0 5
-1.5438988 2.6615109 -0.73518223 0 6
-1.6088578 2.7734931 -0.73500776 0 7
-1.6782243 2.8930736 -0.73438632 0 8
-1.756493 3.0279999 -0.73495424 0 9
-1.7936516 3.0920572 -0.71623999 0 10
-1.7987679 3.1008773 -0.68404955 0 11
-1.7963771 3.0967557 -0.64907217 0 12
-1.7984012 3.100245 -0.61581051 0 13
-1.7907579 3.0870688 -0.5794515 0 14
-1.795426 3.0951164 -0.54723322 0 15
-1.7874585 3.0813811 -0.51131999 0 16
-1.7976781 3.0989985 -0.480656 0 17
-1.796954 3.0977502 -0.44697124 0 18
-1.7941281 3.0928786 -0.41290653 0 19
-1.793125 3.0911496 -0.37940332 0 20
-1.8028134 3.1078513 -0.34806636 0 21
-1.7896875 3.0852237 -0.3124474 0 22
-1.7996497 3.1023974 -0.2809712 0 23
-1.8014121 3.1054356 -0.24804634 0 24
-1.7958717 3.0958846 -0.21422757 0 25
-1.7929835 3.0909054 -0.18091664 0 26
-1.7962369 3.096514 -0.14824943 0 27
-1.7906802 3.0869348 -0.11492247 0 28
-1.7910805 3.087625 -0.082091935 0 29
-1.8019087 3.1062915 -0.049547352 0 30
-1.7951831 3.0946975 -0.01645321 0 31
-1.7965488 3.0970519 0.016465729 0 32
-1.8046036 3.1109374 0.049621452 0 33
-1.8100923 3.1203995 0.082963325 0 34
-1.7951128 3.0945764 0.11520696 0 35
-1.7937483 3.0922241 0.14804405 0 36
-1.7969736 3.097784 0.18131925 0 37
-1.7969939 3.0978191 0.21436143 0 38
-1.7953522 3.0949891 0.24721192 0 39
-1.7942064 3.0930138 0.28012139 0 40
-1.789984 3.0857346 0.31249914 0 41
-1.8031907 3.1085017 0.3481392 0 42
-1.7955559 3.0953403 0.37991765 0 43
-1.798061 3.0996587 0.41381165 0 44
-1.7998145 3.1026814 0.44768274 0 45
-1.79546 3.0951748 0.4800629 0 46
-1.7908537 3.0872343 0.51229125 0 47
-1.7932434 3.0913537 0.54656798 0 48
-1.7922946 3.0897181 0.57994878 0 49
-1.802085 3.1065955 0.61707193 0 50
-1.8003191 3.1035514 0.65049654 0 51
-1.7995378 3.1022043 0.68434232 0 52
-1.7975852 3.0988386 0.71781081 0 53
-1.7940365 3.0927207 0.75066328 0 54
-1.7908746 3.08727 0.78368181 0 55
-1.793882 3.0924544 0.81953627 0 56
-1.788504 3.0831835 0.85165972 0 57
-1.795717 3.095618 0.8899672 0 58
-1.7925301 3.0901239 0.92335826 0 59
-1.7958434 3.0958357 0.96026713 0 60
-1.7910269 3.0875328 0.99297315 0 61
-1.7948641 3.0941474 1.0306389 0 62
-1.8011147 3.1049228 1.0700798 0 63
-1.2635802 2.1178417 -0.7351917 0 0
-1.306388 2.1895902 -0.73463249 0 1
-1.3597703 2.2790623 -0.73828471 0 2
-1.3940071 2.3364456 -0.72998101 0 3
-1.4564265 2.4410646 -0.73470896 0 4
-1.5109259 2.532409 -0.73333472 0 5
-1.576515 2.6423404 -0.73518598 0 6
-1.6406882 2.7498989 -0.73404604 0 7
-1.714517 2.8736408 -0.73474962 0 8
-1.7996036 3.0162513 -0.737418 0 9
-1.8540812 3.1075592 -0.72505713 0 10
-1.8500617 3.1008222 -0.68900383 0 11
-1.8603824 3.1181207 -0.65829521 0 12
-1.8490589 3.0991416 -0.62006068 0 13
-1.854982 3.1090691 -0.58781809 0 14
-1.855533 3.1099927 -0.55385566 0 15
-1.8518739 3.1038599 -0.51878953 0 16
-1.8501078 3.1008997 -0.48444274 0 17
-1.8488469 3.0987864 -0.45036697 0 18
-1.8483994 3.0980363 -0.41659793 0 19
-1.8497574 3.1003125 -0.38329071 0 20
-1.86488 3.1256588 -0.3526023 0 21
-1.8565784 3.1117449 -0.3174212 0 22
-1.8517092 3.1035838 -0.28311941 0 23
-1.8589669 3.1157482 -0.25067696 0 24
-1.8520918 3.1042249 -0.21636426 0 25
-1.8540635 3.1075296 -0.18321027 0 26
-1.85621 3.1111274 -0.15003049 0 27
-1.8570428 3.1125231 -0.11671638 0 28
-1.8558639 3.1105473 -0.083301827 0 29
-1.8418874 3.0871215 -0.049599089 0 30
-1.8621253 3.1210418 -0.016713746 0 31
-1.8528903 3.1055634 0.016630856 0 32
-1.8508384 3.1021242 0.049840126 0 33
-1.8528912 3.1055648 0.083168387 0 34
-1.8513802 3.1030324 0.11636049 0 35
-1.8527676 3.1053576 0.14975226 0 36
-1.8567699 3.1120658 0.1834777 0 37
-1.8532737 3.1062059 0.21650235 0 38
-1.851761 3.1036704 0.24970523 0 39
-1.8568922 3.1122708 0.28391185 0 40
-1.8545049 3.1082695 0.3170667 0 41
-1.848278 3.0978329 0.34946328 0 42
-1.8521571 3.1043344 0.38378793 0 43
-1.8561182 3.1109734 0.41833761 0 44
-1.8531641 3.1060221 0.45141864 0 45
-1.8594487 3.1165555 0.48688859 0 46
-1.856708 3.1119621 0.52014375 0 47
-1.854229 3.1078069 0.55346644 0 48
-1.8563808 3.1114135 0.58826131 0 49
-1.8534554 3.1065104 0.62153506 0 50
-1.8490425 3.0991142 0.65428257 0 51
-1.8539541 3.1073463 0.69045347 0 52
-1.8566241 3.1118214 0.72605157 0 53
-1.8528116 3.1054313 0.75922084 0 54
-1.8477972 3.0970268 0.79186624 0 55
-1.8581607 3.114397 0.83134359 0 56
-1.854457 3.1081891 0.86480045 0 57
-1.8593512 3.1163921 0.90244448 0 58
-1.8507088 3.101907 0.93360865 0 59
-1.8517543 3.1036594 0.96968335 0 60
-1.8548182 3.1087947 1.0070702 0 61
-1.8575416 3.113359 1.0445675 0 62
-1.8472739 3.0961499 1.0748036 0 63
-1.2910028 2.1045547 -0.73603439 0 0
-1.334552 2.1755474 -0.73537123 0 1
-1.3782755 2.2468243 -0.73327613 0 2
-1.4313453 2.3333371 -0.73445326 0 3
-1.4780391 2.409456 -0.73061043 0 4
-1.5448068 2.5182986 -0.73469388 0 5
-1.6117415 2.6274135 -0.73649138 0 6
-1.6710082 2.7240283 -0.73256975 0 7
-1.7473283 2.8484433 -0.7337451 0 8
-1.8228207 2.9715085 -0.73190373 0 9
-1.9066975 3.108242 -0.73063153 0 10
-1.9036285 3.1032391 -0.69468957 0 11
-1.913321 3.1190395 -0.66340607 0 12
-1.9115416 3.1161389 -0.62811679 0 13
-1.9115119 3.1160903 -0.5935446 0 14
-1.9144862 3.120939 -0.55995524 0 15
-1.9082321 3.1107438 -0.52382249 0 16
-1.9066509 3.1081662 -0.48920369 0 17
-1.9125084 3.1177149 -0.45650136 0 18
-1.9169463 3.1249495 -0.42335472 0 19
-1.9098874 3.1134424 -0.38778806 0 20
-1.9085801 3.111311 -0.3536045 0 21
-1.9110075 3.115268 -0.32015345 0 22
-1.9136151 3.119519 -0.28669795 0 23
-1.9216479 3.1326139 -0.25391579 0 24
-1.9131659 3.1187866 -0.21900237 0 25
-1.9086844 3.111481 -0.18481298 0 26
-1.9054724 3.106245 -0.15091355 0 27
-1.9129552 3.118443 -0.11781155 0 28
-1.9098043 3.1133068 -0.083998285 0 29
-1.9094778 3.1127744 -0.050384667 0 30
-1.9167601 3.1246459 -0.016857991 0 31
-1.9196498 3.1293566 0.016883405 0 32
-1.9172025 3.1253672 0.050588496 0 33
-1.9192911 3.128772 0.08441554 0 34
-1.9233738 3.1354272 0.11845319 0 35
-1.908796 3.1116631 0.15117678 0 36
-1.9115714 3.1161873 0.18509252 0 37
-1.9093671 3.1125939 0.21856751 0 38
-1.9148045 3.1214578 0.25301152 0 39
-1.9078047 3.1100471 0.28582743 0 40
-1.9169536 3.1249614 0.32114962 0 41
-1.9133153 3.1190302 0.35448182 0 42
-1.9122438 3.1172836 0.3882665 0 43
-1.9108057 3.1149392 0.42199856 0 44
-1.9149721 3.121731 0.45708942 0 45
-1.9112873 3.1157243 0.49039328 0 46
-1.9167609 3.1246471 0.5261637 0 47
-1.9070443 3.1088073 0.5577786 0 48
-1.9072262 3.1091039 0.59221387 0 49
-1.9127449 3.1181004 0.62851214 0 50
-1.9140021 3.1201499 0.66364223 0 51
-1.9105861 3.1145813 0.69722861 0 52
-1.9091976 3.1123176 0.73158956 0 53
-1.9109573 3.1151862 0.76729256 0 54
-1.9061401 3.1073334 0.80043399 0 55
-1.9118382 3.1166222 0.83814961 0 56
-1.9166338 3.12444 0.87581313 0 57
-1.9167854 3.1246872 0.91160297 0 58
-1.9181688 3.1269424 0.94817114 0 59
-1.9192605 3.128722 0.98481274 0 60
-1.9139903 3.1201305 1.0182893 0 61
-1.9123323 3.1174278 1.0537424 0 62
-1.9134165 3.1191952 1.0908887 0 63
-1.315326 2.0862129 -0.73522067 0 0
-1.3586771 2.1549714 -0.73400789 0 1
-1.4074088 2.2322638 -0.73411679 0 2
-1.4543312 2.3066864 -0.73163819 0 3
-1.5204685 2.4115853 -0.73686963 0 4
-1.5765868 2.5005939 -0.73512888 0 5
-1.6474029 2.6129138 -0.73804951 0 6
-1.7049482 2.704185 -0.73281598 0 7
-1.7851845 2.8314464 -0.73496586 0 8
-1.8673359 2.9617453 -0.73509902 0 9
-1.9523134 3.0965261 -0.73346519 0 10
-1.972023 3.1277874 -0.70555991 0 11
-1.9741991 3.1312387 -0.67111337 0 12
-1.9772481 3.1360748 -0.63698786 0 13
-1.9775702 3.1365855 -0.60203481 0 14
-1.975394 3.1331339 -0.56645858 0 15
-1.9727694 3.1289711 -0.53093654 0 16
-1.9673696 3.1204066 -0.49490047 0 17
-1.9757726 3.1337345 -0.46236935 0 18
-1.9821129 3.1437907 -0.42917672 0 19
-1.9783871 3.1378813 -0.39383227 0 20
-1.9675658 3.1207178 -0.35739627 0 21
-1.9838175 3.1464942 -0.32584485 0 22
-1.9794024 3.1394916 -0.29074845 0 23
-1.9850607 3.1484661 -0.25715977 0 24
-1.9806691 3.1415007 -0.22229078 0 25
-1.9740752 3.1310422 -0.1874025 0 26
-1.9710304 3.1262128 -0.15304962 0 27
-1.9799998 3.140439 -0.1195533 0 28
-1.9759799 3.1340632 -0.085207418 0 29
-1.9734989 3.1301281 -0.0510545 0 30
-1.9761363 3.1343114 -0.017039949 0 31
-1.9831362 3.1454136 0.017100308 0 32
-1.9696522 3.124027 0.050954986 0 33
-1.9741559 3.1311703 0.085128762 0 34
-1.9731213 3.1295292 0.11913797 0 35
-1.9700178 3.1246068 0.152971 0 36
-1.9710875 3.1263037 0.18711887 0 37
-1.970812 3.1258664 0.22118451 0 38
-1.9681886 3.1217055 0.25497401 0 39
-1.9709982 3.1261618 0.28951398 0 40
-1.979926 3.1403222 0.32520568 0 41
-1.9827933 3.14487 0.36016226 0 42
-1.9724661 3.1284902 0.39265358 0 43
-1.9743003 3.1313992 0.42748511 0 44
-1.9723138 3.1282485 0.46155992 0 45
-1.9750237 3.1325467 0.4968259 0 46
-1.9822656 3.144033 0.53349227 0 47
-1.9719554 3.1276803 0.56547254 0 48
-1.9718412 3.1274991 0.60029078 0 49
-1.9778252 3.1369901 0.63717377 0 50
-1.9768372 3.1354229 0.67201018 0 51
-1.9725935 3.1286922 0.70576406 0 52
-1.980234 3.1408107 0.74395472 0 53
-1.9758532 3.1338623 0.77781808 0 54
-1.978753 3.1384616 0.81465858 0 55
-1.9817408 3.1432006 0.85178626 0 56
-1.9780538 3.1373527 0.88618368 0 57
-1.9756037 3.1334665 0.92118192 0 58
-1.9715414 3.1270235 0.95547462 0 59
-1.9791791 3.1391375 0.99567634 0 60
-1.9776196 3.1366639 1.0315436 0 61
-1.9770736 3.135798 1.0680887 0 62
-1.9667529 3.1194286 1.0993452 0 63
-1.3430483 2.0732334 -0.73641086 0 0
-1.372584 2.1188269 -0.72739053 0 1
-1.4339136 2.2135 -0.73368913 0 2
-1.4854031 2.2929831 -0.73302978 0 3
-1.5427692 2.3815382 -0.73342967 0 4
-1.6036283 2.4754848 -0.73348886 0 5
-1.6850486 2.6011715 -0.74052942 0 6
-1.7381437 2.6831331 -0.73284757 0 7
-1.8204199 2.8101411 -0.73519045 0 8
-1.9042509 2.939549 -0.73534602 0 9
-1.9921452 3.0752294 -0.73416758 0 10
-2.0351646 3.1416376 -0.71427536 0 11
-2.0391655 3.1478136 -0.67998862 0 12
-2.0418925 3.1520233 -0.64527839 0 13
-2.0365586 3.1437895 -0.60817826 0 14
-2.0340269 3.1398816 -0.5721572 0 15
-2.0317311 3.1363375 -0.53638518 0 16
-2.040709 3.1501966 -0.50356698 0 17
-2.0405588 3.1499648 -0.46843085 0 18
-2.0337026 3.1393809 -0.43195596 0 19
-2.0434804 3.1544747 -0.39903846 0 20
-2.0345786 3.140733 -0.36252624 0 21
-2.0362597 3.1433282 -0.32808515 0 22
-2.0400965 3.149251 -0.29395327 0 23
-2.0358462 3.1426899 -0.25871313 0 24
-2.0353422 3.1419117 -0.22407387 0 25
-2.0379446 3.1459291 -0.18977907 0 26
-2.031584 3.1361105 -0.15474547 0 27
-2.0417979 3.1518772 -0.12093539 0 28
-2.0413811 3.1512339 -0.086350173 0 29
-2.0397794 3.1487615 -0.051763613 0 30
-2.0406091 3.1500423 -0.017260583 0 31
-2.0382528 3.146405 0.017240653 0 32
-2.0269499 3.128957 0.051438041 0 33
-2.0351291 3.1415827 0.086085714 0 34
-2.0385723 3.146898 0.12074434 0 35
-2.0358927 3.1427615 0.15507367 0 36
-2.0338037 3.1395369 0.18939345 0 37
-2.0280674 3.1306818 0.22327296 0 38
-2.0365658 3.1438007 0.25880456 0 39
-2.0404339 3.1497717 0.29400188 0 40
-2.0381525 3.14625 0.32839012 0 41
-2.0384238 3.1466689 0.36321142 0 42
-2.0377297 3.1455975 0.39791548 0 43
-2.0308793 3.1350226 0.43135631 0 44
-2.0298426 3.1334224 0.46597081 0 45
-2.0387769 3.1472139 0.5030902 0 46
-2.0379133 3.1458807 0.53801727 0 47
-2.0333931 3.1389029 0.57197893 0 48
-2.034734 3.1409729 0.60763335 0 49
-2.0288823 3.1319396 0.64116687 0 50
-2.0350344 3.1414366 0.6786111 0 51
-2.038667 3.1470439 0.71550459 0 52
-2.0324738 3.1374841 0.74902993 0 53
-2.038903 3.1474085 0.78734338 0 54
-2.0336213 3.1392553 0.82129347 0 55
-2.0356863 3.1424429 0.85829949 0 56
-2.0416217 3.1516054 0.89723289 0 57
-2.0371792 3.1447475 0.9317922 0 58
-2.0430608 3.1538267 0.97126734 0 59
-2.0334511 3.1389925 1.0034853 0 60
-2.0416718 3.1516826 1.0446601 0 61
-2.0405388 3.1499338 1.0813681 0 62
-2.0403085 3.1495783 1.1187277 0 63
-1.3687592 2.0570455 -0.73658347 0 0
-1.4065418 2.113827 -0.7315563 0 1
-1.461998 2.1971695 -0.73417956 0 2
-1.5281351 2.2965641 -0.74012566 0 3
-1.5759417 2.3684103 -0.73529911 0 4
-1.6375713 2.4610307 -0.73511696 0 5
-1.707846 2.5666435 -0.73662257 0 6
-1.7792078 2.6738899 -0.73624283 0 7
-1.8532774 2.7852056 -0.7345733 0 8
-1.9422365 2.9188981 -0.73609883 0 9
-2.0275481 3.0471089 -0.73335087 0 10
-2.0942616 3.1473696 -0.72137904 0 11
-2.1006389 3.1569538 -0.687491 0 12
-2.1022575 3.1593864 -0.65202844 0 13
-2.1047444 3.1631236 -0.61687863 0 14
-2.1029315 3.1603992 -0.58056414 0 15
-2.1079862 3.1679957 -0.54619122 0 16
-2.0999231 3.1558781 -0.50856441 0 17
-2.1015813 3.15837 -0.47348797 0 18
-2.0980155 3.1530113 -0.43734801 0 19
-2.1059325 3.1649091 -0.40360364 0 20
-2.093842 3.146739 -0.3661637 0 21
-2.0988491 3.1542637 -0.33189523 0 22
-2.0944052 3.1475854 -0.29617929 0 23
-2.098793 3.1541798 -0.26176375 0 24
-2.1007304 3.1570914 -0.22698152 0 25
-2.0971494 3.1517096 -0.19166893 0 26
-2.1043265 3.1624959 -0.15731232 0 27
-2.0957022 3.1495345 -0.12182505 0 28
-2.0993283 3.154984 -0.08715371 0 29
-2.0940754 3.14709 -0.052155502 0 30
-2.0957797 3.1496511 -0.017398335 0 31
-2.0997834 3.1556683 0.017431572 0 32
-2.1082721 3.1684253 0.052509084 0 33
-2.1014407 3.1581588 0.087241411 0 34
-2.0974677 3.1521881 0.12192769 0 35
-2.1029305 3.160398 0.15720795 0 36
-2.1007943 3.1571872 0.19200204 0 37
-2.0983818 3.1535616 0.22672775 0 38
-2.0981138 3.1531591 0.26167902 0 39
-2.0985472 3.1538103 0.29676503 0 40
-2.103152 3.1607308 0.33257568 0 41
-2.0961306 3.1501784 0.36656395 0 42
-2.1004505 3.1566708 0.40255305 0 43
-2.1003537 3.1565251 0.4378354 0 44
-2.102916 3.1603758 0.47378865 0 45
-2.1076858 3.1675444 0.5104444 0 46
-2.096704 3.1510403 0.54326797 0 47
-2.1017745 3.1586604 0.58024472 0 48
-2.0981882 3.153271 0.61495709 0 49
-2.099097 3.1546364 0.65104818 0 50
-2.0896437 3.1404297 0.68389255 0 51
-2.1065664 3.1658618 0.72561747 0 52
-2.1045609 3.1628478 0.76120579 0 53
-2.095237 3.1488357 0.79408538 0 54
-2.1033952 3.1610961 0.83371109 0 55
-2.0994637 3.1551878 0.86876601 0 56
-2.0986643 3.1539862 0.90518904 0 57
-2.1010776 3.157613 0.94318813 0 58
-2.0975397 3.1522963 0.97866511 0 59
-2.1017706 3.1586547 1.0179561 0 60
-2.1013513 3.1580243 1.0552471 0 61
-2.0978267 3.1527276 1.0911005 0 62
-2.0950651 3.1485775 1.1274376 0 63
-1.3955581 2.0424163 -0.73743421 0 0
-1.444739 2.1143932 -0.73784459 0 1
-1.4892819 2.1795821 -0.73436642 0 2
-1.5428444 2.2579718 -0.73374689 0 3
-1.6073759 2.3524144 -0.7364136 0 4
-1.6665502 2.4390166 -0.73460692 0 5
-1.736446 2.5413101 -0.73542434 0 6
-1.8036926 2.6397262 -0.73288757 0 7
-1.8917723 2.7686319 -0.73628163 0 8
-1.9812891 2.8996408 -0.73733068 0 9
-2.063205 3.0195258 -0.73276281 0 10
-2.1637704 3.1667044 -0.73185349 0 11
-2.1686006 3.1737733 -0.69690824 0 12
-2.1691024 3.1745081 -0.66060388 0 13
-2.1672339 3.1717732 -0.62371552 0 14
-2.1595061 3.1604633 -0.5854097 0 15
-2.1626227 3.1650248 -0.55022222 0 16
-2.167937 3.1728024 -0.51554865 0 17
-2.1671519 3.1716533 -0.47943807 0 18
-2.1670263 3.1714694 -0.44357088 0 19
-2.1632133 3.165889 -0.40708998 0 20
-2.1669726 3.1713908 -0.37210476 0 21
-2.1704662 3.1765039 -0.33701813 0 22
-2.1669044 3.1712911 -0.30089441 0 23
-2.1565742 3.1561728 -0.26410991 0 24
-2.1688502 3.1741388 -0.23010716 0 25
-2.1680388 3.1729512 -0.19456728 0 26
-2.1658208 3.1697052 -0.15898366 0 27
-2.1654258 3.169127 -0.12360351 0 28
-2.1665032 3.1707039 -0.088317201 0 29
-2.1762943 3.1850336 -0.053223796 0 30
-2.1666083 3.1708579 -0.017661309 0 31
-2.1644461 3.1676934 0.017643683 0 32
-2.164237 3.1673872 0.052928921 0 33
-2.1674254 3.1720536 0.088354789 0 34
-2.1688981 3.1742089 0.12380172 0 35
-2.1656981 3.1695256 0.15897466 0 36
-2.1565413 3.1561246 0.19353546 0 37
-2.1614878 3.1633637 0.22932604 0 38
-2.1620412 3.1641738 0.26477945 0 39
-2.1558905 3.1551721 0.29936504 0 40
-2.1679349 3.1727991 0.33662504 0 41
-2.1635919 3.1664431 0.37152424 0 42
-2.1611452 3.1628625 0.40670082 0 43
-2.1619747 3.1640761 0.44253683 0 44
-2.1602468 3.1615477 0.47791049 0 45
-2.1616311 3.1635737 0.51404905 0 46
-2.1696246 3.175272 0.55200362 0 47
-2.16294 3.1654892 0.58634061 0 48
-2.1671066 3.171587 0.62367892 0 49
-2.1600909 3.1613193 0.65785939 0 50
-2.1641979 3.1673303 0.6954934 0 51
-2.1690855 3.1744831 0.73365122 0 52
-2.1648211 3.1682422 0.76885253 0 53
-2.1665244 3.1707349 0.80626541 0 54
-2.1718216 3.1784873 0.84527737 0 55
-2.1607101 3.1622255 0.87795311 0 56
-2.1674752 3.1721265 0.91797501 0 57
