# .PCD v0.7 - Point Cloud Data file format
VERSION 0.7
FIELDS x y z intensity ring
SIZE 4 4 4 4 2
TYPE F F F F U
COUNT 1 1 1 1 1
WIDTH 1287
HEIGHT 1
VIEWPOINT 0 0 0 1 0 0 0
POINTS 1287
DATA ascii
0.86813432 2.9535284 -0.26967543 0 22
0.86762774 2.9518051 -0.241025 0 23
0.8671881 2.9503093 -0.21246523 0 24
0.86555535 2.9447546 -0.18371716 0 25
0.86600918 2.9462984 -0.15548179 0 26
0.86574608 2.9454036 -0.12713784 0 27
0.86792934 2.952831 -0.099111974 0 28
0.86541158 2.9442654 -0.070576958 0 29
0.86415136 2.9399779 -0.042279739 0 30
0.86798501 2.9530206 -0.01415497 0 31
0.86523277 2.9436572 0.014110087 0 32
0.86852551 2.9548595 0.042493749 0 33
0.86787695 2.9526529 0.070778012 0 34
0.86723065 2.950454 0.099032186 0 35
0.86804426 2.9532223 0.12747534 0 36
0.86980551 2.9592142 0.15616338 0 37
0.87121087 2.9639955 0.18491757 0 38
0.87110001 2.9636183 0.21342365 0 39
0.86705375 2.9498522 0.24086554 0 40
0.86860919 2.9551442 0.26982296 0 41
0.86325037 2.9369125 0.29655337 0 42
0.86758548 2.9516613 0.32663116 0 43
0.86407644 2.939723 0.35383865 0 44
0.86543077 2.9443307 0.38302734 0 45
0.87030542 2.9609151 0.41404632 0 46
0.8686797 2.955384 0.44215173 0 47
0.86671442 2.9486978 0.47004104 0 48
0.86615747 2.9468031 0.49869144 0 49
0.86962986 2.9586167 0.52984613 0 50
0.86746925 2.9512661 0.55770481 0 51
0.86572742 2.9453399 0.58579874 0 52
0.86675185 2.9488251 0.61584312 0 53
0.86974978 2.9590247 0.64753467 0 54
0.86515057 2.9433775 0.67362952 0 55
0.86738855 2.9509914 0.70508713 0 56
0.86982816 2.9592915 0.73699486 0 57
0.86992127 2.9596081 0.76713336 0 58
0.867212 2.9503908 0.79484761 0 59
0.86617488 2.9468622 0.82410777 0 60
0.86619866 2.946943 0.85449141 0 61
0.86950684 2.9581981 0.88838822 0 62
0.86843586 2.9545546 0.9180522 0 63
0.66395772 2.366034 -0.73259234 0 0
0.68744648 2.4497368 -0.73309618 0 1
0.71264356 2.5395277 -0.73376137 0 2
0.73992735 2.6367543 -0.73478419 0 3
0.76623595 2.7305059 -0.73301601 0 4
0.8002075 2.8515644 -0.7365222 0 5
0.8320334 2.964977 -0.73580724 0 6
0.83551222 2.9773738 -0.70888245 0 7
0.83695525 2.9825163 -0.68018013 0 8
0.83316296 2.9690025 -0.64742726 0 9
0.83664382 2.9814065 -0.62045205 0 10
0.83409929 2.9723389 -0.58908409 0 11
0.83659655 2.9812381 -0.56138223 0 12
0.83844465 2.9878237 -0.53319001 0 13
0.83586973 2.9786479 -0.50230318 0 14
0.83673704 2.9817386 -0.47363204 0 15
0.83606184 2.9793324 -0.44416296 0 16
0.83722866 2.9834907 -0.41573218 0 17
0.83562285 2.9777682 -0.38601133 0 18
0.83417583 2.9726117 -0.3565357 0 19
0.83470809 2.9745085 -0.32799882 0 20
0.83793026 2.9859908 -0.30044591 0 21
0.83700895 2.9827077 -0.27137941 0 22
0.83925056 2.9906955 -0.24333949 0 23
0.83564132 2.977834 -0.21369126 0 24
0.83534843 2.9767902 -0.18506096 0 25
0.83594841 2.9789283 -0.15664944 0 26
0.83292729 2.9681625 -0.12766847 0 27
0.83787638 2.9857986 -0.099865161 0 28
0.83371478 2.9709687 -0.070965953 0 29
0.83729237 2.9837177 -0.042757463 0 30
0.83734983 2.9839222 -0.014252662 0 31
0.83433813 2.9731901 0.014201399 0 32
0.84085971 2.9964299 0.042939633 0 33
0.83562815 2.977787 0.071128815 0 34
0.83525032 2.9764407 0.099552169 0 35
0.83603364 2.9792321 0.12814461 0 36
0.83757323 2.9847186 0.15695392 0 37
0.83549678 2.977319 0.18509385 0 38
0.83524913 2.9764364 0.21359098 0 39
0.83384633 2.9714377 0.24177256 0 40
0.8360976 2.97946 0.27108395 0 41
0.83923447 2.9906383 0.30091354 0 42
0.83731079 2.9837832 0.32902154 0 43
0.83737886 2.9840257 0.35790473 0 44
0.84003359 2.9934859 0.38804883 0 45
0.83581263 2.9784446 0.41502905 0 46
0.83829331 2.9872844 0.44534844 0 47
0.83591306 2.9788024 0.47316563 0 48
0.83456129 2.9739852 0.50151694 0 49
0.83619922 2.9798222 0.53176212 0 50
0.83602607 2.9792049 0.56099945 0 51
0.83242011 2.9663551 0.58789819 0 52
0.83389801 2.9716218 0.61841577 0 53
0.83295935 2.9682767 0.64726901 0 54
0.83443278 2.9735272 0.67813015 0 55
0.83484632 2.9750009 0.70831746 0 56
0.83460939 2.9741566 0.73808533 0 57
0.83510458 2.9759214 0.76864201 0 58
0.83830631 2.9873307 0.80196172 0 59
0.83301681 2.9684815 0.82722664 0 60
0.83696246 2.982542 0.86176425 0 61
0.838871 2.9893432 0.89457607 0 62
0.83356786 2.9704452 0.91973543 0 63
0.63521677 2.3755183 -0.733055 0 0
0.65638566 2.4546835 -0.73210579 0 1
0.68737483 2.5705736 -0.7402336 0 2
0.70883441 2.650826 -0.73622096 0 3
0.73674673 2.7552094 -0.73716003 0 4
0.76055056 2.8442287 -0.73215657 0 5
0.79245591 2.9635451 -0.73297822 0 6
0.80597675 3.0141087 -0.71521491 0 7
0.8026557 3.0016892 -0.6822502 0 8
0.80495501 3.0102878 -0.65422219 0 9
0.81005061 3.0293438 -0.62830776 0 10
0.80618823 3.0148997 -0.59550947 0 11
0.80323792 3.0038664 -0.56374079 0 12
0.80791831 3.0213697 -0.53736299 0 13
0.80462718 3.0090618 -0.50572532 0 14
0.80878752 3.0246203 -0.4788276 0 15
0.80531204 3.0116229 -0.44746676 0 16
0.80650115 3.0160701 -0.41885838 0 17
0.80729747 3.019048 -0.39004615 0 18
0.80533195 3.0116975 -0.36000872 0 19
0.80469364 3.0093105 -0.33072034 0 20
0.80253363 3.0012326 -0.30096382 0 21
0.80587173 3.013716 -0.27327845 0 22
0.80720025 3.0186844 -0.2447907 0 23
0.80648839 3.0160222 -0.21570373 0 24
0.80685318 3.0173864 -0.18695383 0 25
0.80536234 3.0118113 -0.15784591 0 26
0.80062956 2.994112 -0.12835146 0 27
0.80557752 3.0126157 -0.1004232 0 28
0.80341882 3.0045431 -0.071526535 0 29
0.80365354 3.0054207 -0.042923614 0 30
0.80620122 3.0149484 -0.01435242 0 31
0.80440009 3.0082128 0.014320356 0 32
0.8085345 3.023674 0.04318431 0 33
0.80805272 3.0218723 0.071939081 0 34
0.80473375 3.0094604 0.10031802 0 35
0.80735278 3.0192547 0.1294293 0 36
0.80476815 3.009589 0.15772945 0 37
0.80176449 2.9983563 0.18577473 0 38
0.8079502 3.0214889 0.2160947 0 39
0.80749696 3.019794 0.24488069 0 40
0.8047381 3.0094767 0.27289402 0 41
0.80866361 3.024157 0.30326268 0 42
0.80971885 3.0281031 0.33278564 0 43
0.80196321 2.9990995 0.35850278 0 44
0.8058778 3.0137386 0.38936022 0 45
0.80496228 3.0103149 0.41805917 0 46
0.80567932 3.0129967 0.44767085 0 47
0.80852586 3.0236416 0.47867268 0 48
0.80516988 3.0110915 0.50606644 0 49
0.81313097 3.0408635 0.54083002 0 50
0.80172396 2.9982047 0.56267828 0 51
0.80982769 3.0285101 0.59819782 0 52
0.80443394 3.0083394 0.62395132 0 53
0.80310076 3.0033534 0.65271515 0 54
0.80740362 3.0194449 0.68628585 0 55
0.80479735 3.0096982 0.71416837 0 56
0.80593687 3.0139596 0.74544734 0 57
0.80580014 3.0134485 0.7757169 0 58
0.80423927 3.007611 0.80469042 0 59
0.80525863 3.0114233 0.83637065 0 60
0.80329823 3.004092 0.86507142 0 61
0.80530983 3.0116148 0.89820975 0 62
0.80445898 3.0084329 0.92836446 0 63
0.60493666 2.3791225 -0.73181641 0 0
0.62618554 2.4626911 -0.73214221 0 1
0.65173054 2.5631557 -0.73573411 0 2
0.67281932 2.6460946 -0.73255378 0 3
0.70542985 2.7743466 -0.73990345 0 4
0.72914451 2.8676128 -0.73581249 0 5
0.75996196 2.9888132 -0.73686081 0 6
0.77491802 3.0476329 -0.72085428 0 7
0.77150887 3.0342255 -0.68743706 0 8
0.77405381 3.0442343 -0.65948129 0 9
0.77187854 3.0356791 -0.62760574 0 10
0.77127141 3.0332913 -0.59722382 0 11
0.77342081 3.0417447 -0.56902164 0 12
0.77447414 3.0458872 -0.53998893 0 13
0.77384293 3.0434048 -0.5098595 0 14
0.77288646 3.0396433 -0.47966507 0 15
0.77424669 3.0449927 -0.45097619 0 16
0.77423239 3.0449364 -0.42151323 0 17
0.77107853 3.0325329 -0.39053383 0 18
0.77245671 3.0379531 -0.36198443 0 19
0.77212363 3.036643 -0.33265558 0 20
0.77712202 3.0563011 -0.30550474 0 21
0.77497149 3.0478432 -0.27548811 0 22
0.77413064 3.0445364 -0.24609657 0 23
0.77473783 3.0469244 -0.21721607 0 24
0.77886087 3.0631397 -0.18918094 0 25
0.77248728 3.0380733 -0.15871246 0 26
0.77244973 3.0379255 -0.12981267 0 27
0.76812637 3.0209224 -0.10037766 0 28
0.77720881 3.0566423 -0.072533824 0 29
0.77240574 3.0377526 -0.043246463 0 30
0.77104372 3.0323961 -0.014389257 0 31
0.77529478 3.0491147 0.01446859 0 32
0.77570468 3.0507269 0.04343117 0 33
0.77157909 3.0345013 0.072008424 0 34
0.77604443 3.052063 0.10141238 0 35
0.77417457 3.0447092 0.13010255 0 36
0.77405709 3.0442472 0.15903498 0 37
0.77492154 3.0476468 0.18822409 0 38
0.76882482 3.0236695 0.21555822 0 39
0.77512103 3.0484314 0.24641141 0 40
0.7735607 3.042295 0.27498659 0 41
0.77629161 3.053035 0.30517828 0 42
0.77231497 3.0373957 0.33273804 0 43
0.77566648 3.0505764 0.36348858 0 44
0.77650273 3.0538652 0.39328104 0 45
0.77222103 3.0370262 0.4204182 0 46
0.77601105 3.0519319 0.4520039 0 47
0.77547979 3.0498424 0.48127452 0 48
0.77476752 3.0470412 0.51046866 0 49
0.77217364 3.0368397 0.53838497 0 50
0.77306956 3.0403633 0.5687632 0 51
0.77614802 3.0524704 0.60099995 0 52
0.77659708 3.0542364 0.63144231 0 53
0.77294523 3.0398743 0.65853685 0 54
0.7723856 3.0376735 0.68821824 0 55
0.77620524 3.0526955 0.72205174 0 56
0.77432978 3.0453196 0.75079191 0 57
0.77291441 3.039753 0.77998263 0 58
0.7739048 3.0436482 0.81172472 0 59
0.77244049 3.0378892 0.84101951 0 60
0.77245486 3.0379457 0.87201899 0 61
0.77382553 3.0433364 0.90476429 0 62
0.77501005 3.0479951 0.93756115 0 63
0.57758522 2.3944519 -0.73429155 0 0
0.59734911 2.4763854 -0.73397428 0 1
0.61907411 2.5664492 -0.73443884 0 2
0.64261258 2.6640308 -0.7352761 0 3
0.66580474 2.7601767 -0.73388547 0 4
0.68943888 2.8581553 -0.73115516 0 5
0.71958399 2.9831254 -0.73322171 0 6
0.74600977 3.0926769 -0.72928357 0 7
0.74383122 3.0836453 -0.69650882 0 8
0.74163485 3.0745399 -0.66402078 0 9
0.74224615 3.0770743 -0.634229 0 10
0.74298042 3.0801182 -0.60459906 0 11
0.74295682 3.0800204 -0.57442945 0 12
0.74286878 3.0796554 -0.54431492 0 13
0.74339753 3.0818477 -0.51472944 0 14
0.73757213 3.0576975 -0.48104653 0 15
0.74315232 3.0808311 -0.45489621 0 16
0.74145174 3.073781 -0.42421201 0 17
0.74370128 3.0831068 -0.39583918 0 18
0.7441082 3.0847936 -0.36644772 0 19
0.73869979 3.0623724 -0.33445382 0 20
0.74364561 3.082876 -0.30722386 0 21
0.73770499 3.0582483 -0.27558783 0 22
0.74185902 3.0754695 -0.24784084 0 23
0.74457067 3.0867109 -0.21938318 0 24
0.74496132 3.0883303 -0.19015661 0 25
0.74038631 3.0693641 -0.15985942 0 26
0.74359024 3.0826464 -0.13132299 0 27
0.7429902 3.0801589 -0.10203465 0 28
0.74111068 3.072367 -0.072685219 0 29
0.74108535 3.072262 -0.043604724 0 30
0.7424162 3.0777793 -0.014560189 0 31
0.74304134 3.0803707 0.014572448 0 32
0.74066931 3.0705373 0.043580245 0 33
0.74129909 3.073148 0.072703697 0 34
0.74301976 3.0802815 0.10203871 0 35
0.7427963 3.079355 0.13118277 0 36
0.74229008 3.0772562 0.16027047 0 37
0.74186754 3.0755048 0.18936689 0 38
0.74314511 3.080801 0.21896315 0 39
0.7427429 3.0791335 0.24813612 0 40
0.74269038 3.0789158 0.27745023 0 41
0.73999757 3.0677524 0.30571672 0 42
0.74253666 3.0782785 0.336191 0 43
0.74228215 3.0772235 0.36554846 0 44
0.7445935 3.0868056 0.39631408 0 45
0.74204183 3.0762272 0.42454961 0 46
0.74141294 3.0736201 0.45383149 0 47
0.74680406 3.0959694 0.48706761 0 48
0.74155158 3.0741949 0.51345128 0 49
0.7433216 3.0815327 0.54464674 0 50
0.7430771 3.0805192 0.5745225 0 51
0.74075925 3.0709102 0.60279161 0 52
0.74629557 3.0938618 0.63768911 0 53
0.74509627 3.0888898 0.66711998 0 54
0.74210185 3.0764759 0.69488943 0 55
0.743613 3.0827408 0.72694057 0 56
0.74282628 3.0794795 0.75690448 0 57
0.74045968 3.0696683 0.78526306 0 58
0.74169302 3.0747812 0.81753361 0 59
0.74157357 3.074286 0.84850711 0 60
0.74028641 3.0689499 0.87823915 0 61
0.74275488 3.0791833 0.91263717 0 62
0.74692661 3.0964777 0.94957745 0 63
0.54637569 2.3938158 -0.73198086 0 0
0.56790292 2.4881322 -0.73533052 0 1
0.58819681 2.5770452 -0.73534572 0 2
0.61096019 2.6767774 -0.73666501 0 3
0.63253301 2.7712939 -0.73471779 0 4
0.65557444 2.8722444 -0.73264176 0 5
0.6848771 3.000627 -0.73539788 0 6
0.71089655 3.114625 -0.73234248 0 7
0.71072203 3.1138601 -0.70130652 0 8
0.7077083 3.1006563 -0.66773129 0 9
0.70891207 3.1059306 -0.63833171 0 10
0.70839334 3.1036577 -0.6074639 0 11
0.71232563 3.1208861 -0.58037353 0 12
0.71008068 3.1110504 -0.54827917 0 13
0.71020031 3.1115746 -0.5181967 0 14
0.71303719 3.1240036 -0.49006158 0 15
0.71214038 3.1200745 -0.45936292 0 16
0.70941257 3.1081233 -0.42771536 0 17
0.70983821 3.109988 -0.39813972 0 18
0.71016395 3.1114154 -0.36854497 0 19
0.70957923 3.1088536 -0.33855167 0 20
0.70855194 3.1043527 -0.30847254 0 21
0.71209407 3.1198716 -0.28033066 0 22
0.71168017 3.1180582 -0.25054875 0 23
0.71041083 3.1124971 -0.22057834 0 24
0.7081356 3.1025283 -0.19048028 0 25
0.71088779 3.1145866 -0.16174722 0 26
0.7117703 3.118453 -0.13246551 0 27
0.71329802 3.1251466 -0.10322657 0 28
0.71372068 3.1269982 -0.073764473 0 29
0.70985359 3.1100554 -0.044013914 0 30
0.71400738 3.1282544 -0.014756323 0 31
0.71046859 3.1127498 0.014683187 0 32
0.70948684 3.1084485 0.043991171 0 33
0.71104366 3.1152697 0.073487796 0 34
0.71316701 3.1245725 0.10320762 0 35
0.70785314 3.1012912 0.13173652 0 36
0.70938808 3.108016 0.16140598 0 37
0.71026534 3.1118596 0.19105315 0 38
0.70943469 3.1082201 0.22027525 0 39
0.70958436 3.1088758 0.2498109 0 40
0.71022666 3.11169 0.27959549 0 41
0.71212631 3.1200128 0.31002864 0 42
0.70503348 3.0889373 0.33638284 0 43
0.71048975 3.1128428 0.36871403 0 44
0.70956099 3.1087735 0.39798424 0 45
0.70890725 3.1059093 0.42741069 0 46
0.70855504 3.1043663 0.45705023 0 47
0.70782459 3.1011658 0.48647901 0 48
0.70860016 3.104564 0.51702911 0 49
0.71070379 3.1137805 0.54876029 0 50
0.71098363 3.1150064 0.57928008 0 51
0.70821965 3.1028967 0.60731494 0 52
0.70979798 3.1098118 0.6391294 0 53
0.70897931 3.106225 0.66893047 0 54
0.71395624 3.1280301 0.70449787 0 55
0.71032691 3.1121292 0.73175561 0 56
0.70747143 3.0996187 0.75965887 0 57
0.70990968 3.1103013 0.79336447 0 58
0.71009237 3.1111016 0.82480663 0 59
0.7077226 3.1007192 0.85333627 0 60
0.70902681 3.1064332 0.88640374 0 61
0.70869082 3.1049612 0.91762519 0 62
0.70977539 3.1097128 0.9508878 0 63
0.51944149 2.4121494 -0.73557824 0 0
0.53420204 2.4806938 -0.73113561 0 1
0.55495906 2.5770838 -0.73335415 0 2
0.57812381 2.684655 -0.73682082 0 3
0.59632421 2.7691727 -0.73215604 0 4
0.62262505 2.8913069 -0.73549563 0 5
0.64728141 3.0058045 -0.73466057 0 6
0.67506683 3.1348329 -0.73508656 0 7
0.67809409 3.1488903 -0.70726466 0 8
0.67632031 3.1406536 -0.67450279 0 9
0.6743508 3.1315076 -0.64183563 0 10
0.67569816 3.1377645 -0.61246687 0 11
0.67865402 3.1514907 -0.58446878 0 12
0.67481565 3.1336665 -0.55076087 0 13
0.67493665 3.1342282 -0.52054787 0 14
0.67704183 3.1440041 -0.49185589 0 15
0.67492414 3.1341701 -0.46018156 0 16
0.67826551 3.1496866 -0.43225458 0 17
0.67734748 3.1454234 -0.40157953 0 18
0.67578363 3.1381612 -0.37070069 0 19
0.67814755 3.1491387 -0.34200478 0 20
0.67707616 3.1441634 -0.31157759 0 21
0.67686319 3.1431744 -0.28165534 0 22
0.67207396 3.1209345 -0.25009692 0 23
0.67577082 3.1381018 -0.22178726 0 24
0.67982376 3.1569226 -0.19329196 0 25
0.67752314 3.146239 -0.16294603 0 26
0.6772173 3.144819 -0.13322169 0 27
0.67747211 3.1460021 -0.10363246 0 28
0.67540002 3.13638 -0.073784292 0 29
0.67716908 3.1445951 -0.044381525 0 30
0.67720318 3.1447535 -0.014793752 0 31
0.67541939 3.1364698 0.014754783 0 32
0.67720151 3.1447456 0.044383649 0 33
0.67870289 3.1517177 0.074145116 0 34
0.6765964 3.1419356 0.1034985 0 35
0.67622524 3.1402121 0.13302653 0 36
0.67511183 3.1350415 0.16236609 0 37
0.67825657 3.1496451 0.19284639 0 38
0.68014926 3.1584344 0.22322427 0 39
0.67609668 3.1396151 0.25159389 0 40
0.67927492 3.1543739 0.2826589 0 41
0.67603487 3.139328 0.31109843 0 42
0.68048388 3.1599882 0.34318304 0 43
0.67624849 3.1403201 0.37095571 0 44
0.67833465 3.1500075 0.40216479 0 45
0.67779779 3.1475146 0.4319565 0 46
0.6762771 3.1404529 0.46110401 0 47
0.67708796 3.1442184 0.49188942 0 48
0.67781329 3.1475866 0.52276653 0 49
0.67643845 3.1412022 0.55208534 0 50
0.67602617 3.1392875 0.58220559 0 51
0.67576903 3.1380935 0.61253107 0 52
0.67928439 3.1544178 0.64653128 0 53
0.67535919 3.1361902 0.67354423 0 54
0.67301798 3.1253183 0.70197016 0 55
0.6777975 3.1475132 0.73806 0 56
0.67965049 3.1561179 0.77139926 0 57
0.67634666 3.1407757 0.79895598 0 58
0.67305785 3.1255035 0.82636821 0 59
0.67672533 3.1425343 0.86248881 0 60
0.67537463 3.1362619 0.89247805 0 61
0.67569721 3.1377602 0.924793 0 62
0.67691696 3.1434243 0.95857841 0 63
0.49119201 2.4255066 -0.73775375 0 0
0.50912118 2.5140407 -0.73906302 0 1
0.52390856 2.5870609 -0.73430449 0 2
0.54407018 2.6866193 -0.73546821 0 3
0.56679273 2.7988229 -0.73809689 0 4
0.58975405 2.9122062 -0.73891145 0 5
0.61361414 3.0300272 -0.7386809 0 6
0.63367701 3.1290975 -0.73185921 0 7
0.64011043 3.160866 -0.70813298 0 8
0.64498025 3.1849129 -0.6822533 0 9
0.6426214 3.1732652 -0.64872563 0 10
0.64470237 3.1835408 -0.61980784 0 11
0.64820373 3.2008307 -0.59209633 0 12
0.64348996 3.1775539 -0.55704159 0 13
0.64258993 3.1731095 -0.52565342 0 14
0.64347965 3.1775031 -0.49582124 0 15
0.64224041 3.1713836 -0.46445087 0 16
0.64272666 3.1737847 -0.43444428 0 17
0.64322948 3.1762679 -0.40447706 0 18
0.64481908 3.1841173 -0.37516433 0 19
0.64260644 3.1731913 -0.34373277 0 20
0.64355493 3.1778748 -0.31411034 0 21
0.64335144 3.1768699 -0.2839444 0 22
0.64149857 3.1677206 -0.25319487 0 23
0.64380229 3.1790962 -0.22410813 0 24
0.64172357 3.1688313 -0.19352335 0 25
0.64189172 3.169662 -0.16373795 0 26
0.64362371 3.1782143 -0.13429096 0 27
0.64317477 3.1759977 -0.10435212 0 28
0.64374906 3.1788335 -0.07459116 0 29
0.64748842 3.1972983 -0.045009587 0 30
0.64377552 3.1789641 -0.01491632 0 31
0.64216644 3.1710184 0.014879038 0 32
0.64308345 3.1755466 0.044703376 0 33
0.6444208 3.1821504 0.074668989 0 34
0.64402759 3.1802089 0.10449049 0 35
0.64090234 3.1647763 0.13372317 0 36
0.64102894 3.1654015 0.16351786 0 37
0.64260554 3.1731865 0.19378932 0 38
0.63924128 3.156574 0.22252044 0 39
0.64234376 3.1718941 0.25352845 0 40
0.64190757 3.1697402 0.28330714 0 41
0.64330041 3.1766181 0.31398612 0 42
0.64288789 3.1745811 0.34388334 0 43
0.64553994 3.1876769 0.37558374 0 44
0.64276183 3.1739585 0.404183 0 45
0.64382845 3.1792254 0.43518901 0 46
0.64414561 3.1807916 0.46582869 0 47
0.64496517 3.1848388 0.49696589 0 48
0.64323854 3.1763124 0.52618402 0 49
0.64374143 3.1787956 0.55725926 0 50
0.64400953 3.1801195 0.58826512 0 51
0.64282835 3.1742871 0.61800617 0 52
0.64448714 3.182478 0.65060902 0 53
0.64436001 3.1818504 0.68159723 0 54
0.64363301 3.1782606 0.71202993 0 55
0.64173192 3.1688726 0.74116218 0 56
0.64458328 3.1829529 0.77596217 0 57
0.64178294 3.1691246 0.80409914 0 58
0.64224589 3.1714108 0.83635461 0 59
0.64365697 3.1783788 0.87008852 0 60
0.64407986 3.1804669 0.90273535 0 61
0.64257747 3.1730483 0.93279421 0 62
0.64562148 3.1880794 0.96970159 0 63
0.4594411 2.4213972 -0.73472995 0 0
0.47301945 2.4929595 -0.7311005 0 1
0.49223873 2.5942509 -0.73457181 0 2
0.51264846 2.7018166 -0.73784709 0 3
0.52768511 2.7810643 -0.73164713 0 4
0.55060732 2.9018717 -0.73451591 0 5
0.57379341 3.0240695 -0.73545283 0 6
0.59614533 3.1418712 -0.73307693 0 7
0.61151743 3.2228868 -0.72028857 0 8
0.60801739 3.2044404 -0.68478298 0 9
0.61010933 3.2154655 -0.65576959 0 10
0.60559869 3.1916933 -0.61989832 0 11
0.61017233 3.2157977 -0.59343213 0 12
0.61058611 3.2179782 -0.56276941 0 13
0.61268157 3.229022 -0.53362739 0 14
0.60873854 3.2082412 -0.49941185 0 15
0.61055648 3.2178223 -0.47011679 0 16
0.60922855 3.2108235 -0.43845573 0 17
0.60859847 3.2075031 -0.40747088 0 18
0.61052144 3.2176375 -0.37820071 0 19
0.60965341 3.2130628 -0.34721351 0 20
0.61000866 3.2149351 -0.31700811 0 21
0.6083532 3.2062101 -0.28587657 0 22
0.6100738 3.2152784 -0.25637716 0 23
0.6118753 3.2247727 -0.22678052 0 24
0.60776961 3.2031345 -0.1951471 0 25
0.60814023 3.2050879 -0.16516919 0 26
0.60886228 3.2088933 -0.13526069 0 27
0.61057186 3.2179031 -0.10547434 0 28
0.60933352 3.2113767 -0.075173289 0 29
0.60875458 3.2083256 -0.045056038 0 30
0.60890973 3.2091434 -0.01502166 0 31
0.61000687 3.2149258 0.015048726 0 32
0.60993665 3.2145557 0.045143526 0 33
0.6093989 3.2117214 0.075181358 0 34
0.60864007 3.2077222 0.10514063 0 35
0.60958153 3.2126839 0.13542047 0 36
0.61124992 3.221477 0.16601378 0 37
0.61105639 3.2204571 0.19620246 0 38
0.61067557 3.2184501 0.22633588 0 39
0.61268151 3.2290218 0.25747302 0 40
0.60874736 3.2082875 0.28606179 0 41
0.60835212 3.2062047 0.31614724 0 42
0.60637522 3.1957858 0.34534651 0 43
0.60836309 3.2062624 0.37686366 0 44
0.60964251 3.2130053 0.40816987 0 45
0.60833627 3.2061212 0.43781358 0 46
0.60881019 3.2086186 0.46877214 0 47
0.61137593 3.2221413 0.50157559 0 48
0.61016101 3.2157378 0.53143209 0 49
0.6102854 3.2163935 0.56249225 0 50
0.61057436 3.2179165 0.59382313 0 51
0.60863507 3.207696 0.6230064 0 52
0.61248451 3.2279835 0.65832251 0 53
0.61040956 3.2170479 0.68747723 0 54
0.60966736 3.2131364 0.71810943 0 55
0.60908192 3.2100511 0.74898499 0 56
0.60788578 3.203747 0.77915031 0 57
0.61133677 3.2219346 0.81552958 0 58
0.60911661 3.2102339 0.84455383 0 59
0.60976517 3.2136517 0.87762564 0 60
0.61025417 3.2162292 0.91068721 0 61
0.60834366 3.2061601 0.94025803 0 62
0.61151713 3.2228851 0.97792721 0 63
0.43052071 2.4318721 -0.73624641 0 0
0.4451049 2.5142536 -0.73568457 0 1
0.46176168 2.6083424 -0.73689836 0 2
0.47769228 2.698329 -0.73523492 0 3
0.4934572 2.78738 -0.73165709 0 4
0.51476985 2.9077682 -0.73435068 0 5
0.53445679 3.0189736 -0.7325598 0 6
0.55632055 3.1424747 -0.73156625 0 7
0.57620054 3.2547703 -0.7257759 0 8
0.57502931 3.2481546 -0.69256127 0 9
0.57424313 3.2437139 -0.66004062 0 10
0.57577407 3.2523615 -0.63025874 0 11
0.57377934 3.2410939 -0.59675312 0 12
0.57930118 3.2722847 -0.57097781 0 13
0.57321918 3.2379296 -0.53389424 0 14
0.57546335 3.2506063 -0.50486696 0 15
0.57430947 3.2440884 -0.47288671 0 16
0.57803237 3.2651176 -0.44486567 0 17
0.57389402 3.2417414 -0.41089287 0 18
0.57601875 3.2537436 -0.38158321 0 19
0.5728476 3.2358308 -0.34888631 0 20
0.57426143 3.2438171 -0.31913561 0 21
0.57279855 3.2355535 -0.28784314 0 22
0.57265747 3.2347567 -0.25734937 0 23
0.57543999 3.2504745 -0.22807312 0 24
0.57640564 3.255929 -0.19791676 0 25
0.57348669 3.2394407 -0.16656351 0 26
0.57696468 3.2590866 -0.13706702 0 27
0.57585597 3.2528238 -0.10637881 0 28
0.5751844 3.2490306 -0.075883411 0 29
0.57443398 3.2447915 -0.04546551 0 30
0.57618284 3.2546704 -0.015200453 0 31
0.57676208 3.2579424 0.015215735 0 32
0.57655883 3.2567942 0.045633692 0 33
0.57561922 3.2514868 0.075940773 0 34
0.57554621 3.2510743 0.10632159 0 35
0.57327765 3.2382598 0.13619111 0 36
0.57386583 3.2415824 0.16667363 0 37
0.57484227 3.247098 0.19737996 0 38
0.57478333 3.2467649 0.22781284 0 39
0.57325518 3.238133 0.25761798 0 40
0.57551605 3.2509038 0.28920874 0 41
0.57563078 3.2515521 0.31989661 0 42
0.57654303 3.256705 0.35113698 0 43
0.57288927 3.2360661 0.37951007 0 44
0.57584983 3.2527895 0.4122932 0 45
0.57327753 3.2382593 0.44120625 0 46
0.57267982 3.2348831 0.47154486 0 47
0.57640678 3.2559354 0.50569463 0 48
0.57596093 3.253417 0.53644794 0 49
0.57569468 3.2519128 0.56742311 0 50
0.57674748 3.2578597 0.5998401 0 51
0.57421553 3.2435577 0.62855268 0 52
0.57396197 3.2421253 0.65971738 0 53
0.57315588 3.237572 0.69030488 0 54
0.57285243 3.235858 0.72155863 0 55
0.57573158 3.2521212 0.75709194 0 56
0.57679105 3.258106 0.79058576 0 57
0.57613021 3.2543733 0.82188505 0 58
0.57595062 3.2533586 0.85397142 0 59
0.57560539 3.2514086 0.88593686 0 60
0.57440907 3.2446508 0.91666567 0 61
0.5755499 3.2510951 0.95128852 0 62
0.57596475 3.2534382 0.98497456 0 63
0.40008739 2.4339426 -0.7353282 0 0
0.41511464 2.5253611 -0.73738539 0 1
0.42589313 2.5909324 -0.73044503 0 2
0.44286177 2.6941617 -0.73256022 0 3
0.45727506 2.7818453 -0.72867328 0 4
0.47997352 2.9199319 -0.73587644 0 5
0.49636799 3.0196681 -0.73119205 0 6
0.52137351 3.1717901 -0.73684269 0 7
0.54188406 3.2965665 -0.73355472 0 8
0.54077071 3.2897935 -0.6999687 0 9
0.53949535 3.2820346 -0.66643798 0 10
0.53641987 3.263325 -0.63105738 0 11
0.54022694 3.2864852 -0.6038419 0 12
0.53979033 3.2838292 -0.57179075 0 13
0.54056293 3.2885294 -0.54110062 0 14
0.53875434 3.2775266 -0.50798076 0 15
0.5406999 3.2893627 -0.47848094 0 16
0.54181689 3.2961578 -0.4481532 0 17
0.53861964 3.2767072 -0.41445398 0 18
0.53971624 3.2833786 -0.3842513 0 19
0.54010743 3.285758 -0.35352668 0 20
0.54153341 3.2944331 -0.32343575 0 21
0.53971547 3.2833738 -0.29148492 0 22
0.5398137 3.2839713 -0.26071694 0 23
0.54009581 3.2856874 -0.2300605 0 24
0.53826338 3.2745399 -0.19863072 0 25
0.53891212 3.2784865 -0.1682177 0 26
0.53966999 3.283097 -0.13778731 0 27
0.54224843 3.2987831 -0.10765564 0 28
0.5401057 3.2857478 -0.076580055 0 29
0.53910309 3.2796483 -0.045857567 0 30
0.53819603 3.2741303 -0.015259276 0 31
0.53901398 3.2791064 0.015282468 0 32
0.53974533 3.2835555 0.045912199 0 33
0.54225373 3.2988153 0.07688462 0 34
0.5441308 3.3102348 0.10802936 0 35
0.53967118 3.2831044 0.13778763 0 36
0.54422575 3.3108122 0.16987631 0 37
0.54090214 3.2905931 0.19960448 0 38
0.54105616 3.2915299 0.23046958 0 39
0.54027617 3.2867846 0.26094031 0 40
0.54058653 3.2886729 0.29195535 0 41
0.53766274 3.2708859 0.32112399 0 42
0.5392825 3.28074 0.35298675 0 43
0.5384962 3.2759564 0.38338268 0 44
0.54010779 3.2857604 0.41559908 0 45
0.5376448 3.270777 0.44470236 0 46
0.53924477 3.2805102 0.47719321 0 47
0.53844345 3.2756355 0.50768763 0 48
0.54195315 3.2969866 0.54249221 0 49
0.53993225 3.2846928 0.57194114 0 50
0.53716671 3.2678685 0.60042131 0 51
0.54091495 3.2906709 0.63634551 0 52
0.53864688 3.2768729 0.66538984 0 53
0.54399943 3.3094354 0.70414782 0 54
0.53975934 3.2836406 0.73067838 0 55
0.53979224 3.2838409 0.76287341 0 56
0.54062712 3.2889199 0.79638952 0 57
0.53924417 3.2805064 0.82674783 0 58
0.53927869 3.2807167 0.85934705 0 59
0.53739244 3.2692413 0.88892817 0 60
0.54112452 3.2919457 0.92807722 0 61
0.53939211 3.2814069 0.95814472 0 62
0.54078305 3.2898684 0.99391538 0 63
0.37000272 2.4378359 -0.73507428 0 0
0.38290447 2.5228417 -0.73521936 0 1
0.39780292 2.6210029 -0.73748785 0 2
0.41194353 2.7141712 -0.73656791 0 3
0.42670724 2.8114448 -0.73499656 0 4
0.44523755 2.9335353 -0.7378692 0 5
0.46250227 3.0472875 -0.7364471 0 6
0.48307452 3.1828318 -0.73797208 0 7
0.50169331 3.3055055 -0.73411554 0 8
0.50423133 3.3222277 -0.70549715 0 9
0.50592393 3.3333797 -0.67554963 0 10
0.50488013 3.3265021 -0.64202541 0 11
0.50516492 3.3283787 -0.61035174 0 12
0.50343525 3.3169823 -0.576442 0 13
0.50537324 3.3297513 -0.54681951 0 14
0.50482666 3.3261502 -0.51451588 0 15
0.50490379 3.3266582 -0.48296642 0 16
0.50571245 3.3319864 -0.45214486 0 17
0.50663811 3.3380852 -0.42139751 0 18
0.5046708 3.3251233 -0.38838103 0 19
0.50370318 3.3187475 -0.35638279 0 20
0.50214249 3.3084648 -0.32418263 0 21
0.50560999 3.331311 -0.29516634 0 22
0.5051012 3.3279588 -0.26369613 0 23
0.50436938 3.3231373 -0.23223089 0 24
0.50341976 3.3168805 -0.20080838 0 25
0.5031957 3.3154039 -0.16978161 0 26
0.5046556 3.3250229 -0.13927592 0 27
0.50483048 3.326175 -0.1083388 0 28
0.5039345 3.320272 -0.077234447 0 29
0.5021407 3.3084528 -0.046170499 0 30
0.50478107 3.3258498 -0.015470221 0 31
0.50533152 3.3294764 0.015487089 0 32
0.50332004 3.3162234 0.046278939 0 33
0.50386429 3.3198092 0.077223681 0 34
0.504502 3.3240111 0.10826831 0 35
0.50451648 3.3241062 0.13923754 0 36
0.50381845 3.3195074 0.16999175 0 37
0.50506568 3.3277249 0.20146492 0 38
0.50291198 3.3135347 0.23155983 0 39
0.50441587 3.3234434 0.26333833 0 40
0.50167441 3.3053808 0.29286882 0 41
0.50466734 3.3251004 0.3258127 0 42
0.50336516 3.3165207 0.35614365 0 43
0.50211042 3.3082535 0.38641062 0 44
0.5046199 3.3247876 0.41971886 0 45
0.50076991 3.2994215 0.44772586 0 46
0.50360268 3.3180854 0.48172185 0 47
0.50275522 3.3125021 0.51240468 0 48
0.50423115 3.3222263 0.54558372 0 49
0.50307655 3.3146191 0.57603133 0 50
0.50552171 3.3307295 0.6107828 0 51
0.50538772 3.3298469 0.64267093 0 52
0.50407356 3.3211882 0.67307884 0 53
0.50165087 3.3052256 0.70188665 0 54
0.50367832 3.3185842 0.73702013 0 55
0.50364238 3.318347 0.76939267 0 56
0.50392199 3.3201895 0.80240017 0 57
0.50329864 3.3160822 0.83409083 0 58
0.50265104 3.3118155 0.86580855 0 59
0.50466877 3.32511 0.9023636 0 60
0.50542283 3.3300779 0.93700463 0 61
0.50310981 3.3148382 0.96602702 0 62
0.50549799 3.3305731 1.004259 0 63
0.33805305 2.4282146 -0.73086452 0 0
0.35123348 2.5228889 -0.73391896 0 1
0.36153439 2.5968795 -0.72939402 0 2
0.37669739 2.7057946 -0.73298222 0 3
0.39130226 2.8107002 -0.73348856 0 4
0.40815583 2.9317584 -0.73610425 0 5
0.42239833 3.0340614 -0.73194015 0 6
0.44390595 3.1885493 -0.73797637 0 7
0.46224943 3.3203094 -0.73608536 0 8
0.46756518 3.3584921 -0.71192336 0 9
0.46930727 3.3710055 -0.68195385 0 10
0.46663481 3.3518095 -0.64575356 0 11
0.46944326 3.3719826 -0.61724252 0 12
0.46848333 3.3650873 -0.58375669 0 13
0.46884781 3.3677053 -0.55206388 0 14
0.4670442 3.3547499 -0.5180124 0 15
0.46908894 3.3694372 -0.4883028 0 16
0.46697545 3.3542562 -0.4543533 0 17
0.46904922 3.3691521 -0.42455921 0 18
0.46928969 3.3708794 -0.3930217 0 19
0.46856561 3.3656783 -0.36077642 0 20
0.46831492 3.3638775 -0.32902315 0 21
0.46906447 3.3692617 -0.29799533 0 22
0.46675378 3.352664 -0.26517886 0 23
0.4678053 3.3602169 -0.23440242 0 24
0.46732441 3.3567629 -0.20285968 0 25
0.46744508 3.3576295 -0.17163664 0 26
0.46859488 3.3658884 -0.14073567 0 27
0.46885729 3.3677735 -0.10949766 0 28
0.46867216 3.3664436 -0.078168496 0 29
0.46738973 3.3572321 -0.046767488 0 30
0.46768486 3.3593519 -0.015598127 0 31
0.46892408 3.3682532 0.015639456 0 32
0.46821275 3.3631437 0.046849839 0 33
0.46884277 3.3676691 0.07819695 0 34
0.46807379 3.3621454 0.10931468 0 35
0.46823496 3.3633032 0.14062758 0 36
0.46619341 3.3486388 0.17117706 0 37
0.46823469 3.3633013 0.20325482 0 38
0.46831739 3.3638954 0.23465902 0 39
0.46733406 3.356832 0.26550853 0 40
0.46578208 3.3456845 0.29591003 0 41
0.46790257 3.3609157 0.32873347 0 42
0.467457 3.3577151 0.35992286 0 43
0.46800533 3.3616538 0.39194608 0 44
0.46780697 3.360229 0.42343476 0 45
0.46872804 3.3668449 0.4560585 0 46
0.47125 3.3849602 0.49055237 0 47
0.46773231 3.3596926 0.51877558 0 48
0.46734861 3.3569367 0.55029863 0 49
0.46831477 3.3638766 0.58354664 0 50
0.46652523 3.3510222 0.6134057 0 51
0.46690211 3.3537295 0.64612347 0 52
0.46702468 3.35461 0.67863703 0 53
0.46818274 3.3629282 0.71286368 0 54
0.46618557 3.3485827 0.74235326 0 55
0.46657509 3.3513806 0.77566296 0 56
0.46628127 3.3492701 0.80798137 0 57
0.46579704 3.3457916 0.84005946 0 58
0.47023261 3.3776522 0.88144195 0 59
0.46767747 3.3592987 0.9100123 0 60
0.46701354 3.3545296 0.94219774 0 61
0.46758381 3.3586261 0.97703844 0 62
0.4690277 3.3689973 1.0140294 0 63
0.30978191 2.4448991 -0.73468435 0 0
0.32186246 2.5402427 -0.73776019 0 1
0.33179113 2.618603 -0.73429412 0 2
0.34525034 2.7248275 -0.7369324 0 3
0.35765979 2.8227668 -0.73543417 0 4
0.3715404 2.932317 -0.73504186 0 5
0.38569474 3.0440278 -0.73314488 0 6
0.40331224 3.1830707 -0.73550493 0 7
0.41830954 3.3014343 -0.73070526 0 8
0.43105584 3.4020321 -0.71997482 0 9
0.43033391 3.3963344 -0.68595558 0 10
0.43046176 3.3973436 -0.65345687 0 11
0.4305957 3.3984005 -0.62106216 0 12
0.43094957 3.4011934 -0.58905637 0 13
0.42993757 3.3932064 -0.55533564 0 14
0.43190411 3.4087269 -0.52548724 0 15
0.42766973 3.3753078 -0.48835453 0 16
0.4306868 3.3991196 -0.45967817 0 17
0.42959222 3.3904808 -0.42654899 0 18
0.4302502 3.3956738 -0.39526582 0 19
0.42998034 3.393544 -0.36316922 0 20
0.42931148 3.3882651 -0.33086717 0 21
0.43041748 3.3969941 -0.29995733 0 22
0.43094662 3.40117 -0.26857603 0 23
0.42846969 3.3816214 -0.23551022 0 24
0.43199721 3.4094617 -0.20570786 0 25
0.43134788 3.4043372 -0.17373998 0 26
0.4299452 3.3932667 -0.14164865 0 27
0.43073148 3.3994722 -0.11034774 0 28
0.42982885 3.3923483 -0.078641333 0 29
0.43114504 3.4027362 -0.047323946 0 30
0.43055719 3.3980966 -0.015752252 0 31
0.43062353 3.3986204 0.015754679 0 32
0.43078673 3.3999081 0.047284618 0 33
0.43123159 3.4034193 0.078897975 0 34
0.43118078 3.4030182 0.11046285 0 35
0.43214312 3.4106133 0.14237277 0 36
0.43086892 3.400557 0.17354707 0 37
0.4296574 3.390995 0.20459369 0 38
0.43179405 3.4078581 0.23733746 0 39
0.43108487 3.4022613 0.26866218 0 40
0.43044409 3.3972039 0.29997587 0 41
0.43129653 3.4039316 0.33239701 0 42
0.43015763 3.3949432 0.36331898 0 43
0.43009388 3.3944402 0.39512226 0 44
0.43015859 3.3949506 0.42711133 0 45
0.43154028 3.4058557 0.46058911 0 46
0.43145826 3.4052083 0.49268067 0 47
0.42925307 3.3878043 0.5222618 0 48
0.43137825 3.4045765 0.5571965 0 49
0.42889491 3.3849773 0.58624792 0 50
0.43009514 3.3944502 0.62034023 0 51
0.42980012 3.3921218 0.65245247 0 52
0.43061832 3.3985791 0.68640888 0 53
0.43035647 3.3965125 0.71880668 0 54
0.42998576 3.3935866 0.75110137 0 55
0.4306649 3.3989465 0.78538692 0 56
0.42983395 3.3923886 0.81704652 0 57
0.43037558 3.3966632 0.85143918 0 58
0.43103418 3.4018612 0.88630944 0 59
0.43004712 3.3940711 0.91793001 0 60
0.42967612 3.3911428 0.95092547 0 61
0.43177024 3.4076705 0.98968637 0 62
0.42941067 3.3890479 1.018398 0 63
0.27884883 2.441097 -0.73245609 0 0
0.28869623 2.527303 -0.7329157 0 1
0.29805854 2.6092625 -0.73059195 0 2
0.30963686 2.7106216 -0.7320053 0 3
0.32279596 2.8258185 -0.73513955 0 4
0.33524942 2.9348388 -0.73458505 0 5
0.34914961 3.0565238 -0.73506486 0 6
0.36196405 3.1687038 -0.73110145 0 7
0.37898871 3.3177409 -0.73322755 0 8
0.39307234 3.4410319 -0.7271505 0 9
0.39146802 3.4269872 -0.691122 0 10
0.39315885 3.4417892 -0.66102588 0 11
0.39253852 3.4363587 -0.62706953 0 12
0.39338109 3.4437344 -0.59554136 0 13
0.39405632 3.4496458 -0.56373692 0 14
0.39257231 3.4366543 -0.52900839 0 15
0.39343563 3.444212 -0.49758631 0 16
0.39157435 3.4279182 -0.4628866 0 17
0.39163864 3.4284809 -0.4306913 0 18
0.39088225 3.4218593 -0.39772436 0 19
0.39384925 3.4478331 -0.36843297 0 20
0.39281866 3.4388111 -0.33530599 0 21
0.39287028 3.4392629 -0.30324021 0 22
0.39204422 3.4320314 -0.27061188 0 23
0.39431533 3.4519134 -0.24004981 0 24
0.39170706 3.42908 -0.2065853 0 25
0.3926371 3.4372218 -0.17515862 0 26
0.39302289 3.440599 -0.14341192 0 27
0.39326233 3.4426949 -0.11158536 0 28
0.39357269 3.4454119 -0.079753235 0 29
0.39433861 3.452117 -0.047939654 0 30
0.39232242 3.4344668 -0.015897285 0 31
0.39423123 3.4511769 0.015974633 0 32
0.39195463 3.4312472 0.047649838 0 33
0.39194891 3.4311972 0.079424195 0 34
0.39217961 3.4332166 0.11127815 0 35
0.39354393 3.4451602 0.14360204 0 36
0.3938224 3.447598 0.17568737 0 37
0.39209315 3.4324598 0.20678891 0 38
0.39263609 3.4372127 0.23902752 0 39
0.39290386 3.4395571 0.27120525 0 40
0.39312062 3.4414544 0.30343342 0 41
0.39179495 3.4298494 0.33443218 0 42
0.39404687 3.449563 0.36861786 0 43
0.39217082 3.4331396 0.39903548 0 44
0.39268592 3.437649 0.43184301 0 45
0.39204097 3.432003 0.46343821 0 46
0.39369109 3.4464483 0.4979094 0 47
0.39210922 3.4326005 0.52838433 0 48
0.3930406 3.4407539 0.56228381 0 49
0.3919692 3.4313745 0.59340388 0 50
0.39247781 3.435827 0.62697256 0 51
0.39366487 3.446219 0.66187662 0 52
0.39153925 3.4276109 0.69124776 0 53
0.39342374 3.444108 0.72780055 0 54
0.39239192 3.435075 0.75915867 0 55
0.39169309 3.4289577 0.79114872 0 56
0.39218661 3.4332778 0.82567066 0 57
0.39427465 3.4515572 0.86391878 0 58
0.3920947 3.4324734 0.89296144 0 59
0.39173314 3.4293082 0.92608714 0 60
0.39293307 3.4398127 0.96314549 0 61
0.39273679 3.4380944 0.99704444 0 62
0.39147225 3.4270244 1.0282856 0 63
0.2495338 2.4514208 -0.73457754 0 0
0.25693473 2.5241275 -0.73102337 0 1
0.26683241 2.6213624 -0.73300582 0 2
0.27735558 2.7247422 -0.734842 0 3
0.28917977 2.8409028 -0.73808289 0 4
0.2990804 2.9381666 -0.734442 0 5
0.31158879 3.0610492 -0.73517621 0 6
0.32512257 3.194005 -0.73596108 0 7
0.33829674 3.3234284 -0.73350972 0 8
0.35442284 3.4818509 -0.7347998 0 9
0.35250187 3.4629793 -0.69745368 0 10
0.35376248 3.4753635 -0.66658825 0 11
0.35602155 3.4975567 -0.63738996 0 12
0.35423902 3.4800451 -0.60102195 0 13
0.35446686 3.4822834 -0.56831527 0 14
0.35427815 3.4804296 -0.53503573 0 15
0.35344663 3.4722607 -0.50097275 0 16
0.35449174 3.4825277 -0.46963665 0 17
0.35304594 3.4683242 -0.43511823 0 18
0.35572061 3.4946003 -0.40564001 0 19
0.35303307 3.4681978 -0.37011728 0 20
0.35315531 3.4693987 -0.33783954 0 21
0.3540543 3.4782307 -0.30626899 0 22
0.35487032 3.4862471 -0.27452189 0 23
0.35342485 3.4720466 -0.24112944 0 24
0.35237914 3.4617739 -0.20827815 0 25
0.35411215 3.4787989 -0.17704208 0 26
0.35467985 3.484376 -0.14504389 0 27
0.35413882 3.4790609 -0.11261441 0 28
0.35361716 3.4739358 -0.080306776 0 29
0.35385859 3.4763079 -0.048211526 0 30
0.35451603 3.4827666 -0.016099459 0 31
0.35352033 3.4729848 0.016054241 0 32
0.35526603 3.4901347 0.048403282 0 33
0.35415375 3.4792075 0.080428638 0 34
0.35452074 3.4828126 0.11273585 0 35
0.35363817 3.4741426 0.1446179 0 36
0.354141 3.4790823 0.17705651 0 37
0.35486841 3.4862285 0.20974946 0 38
0.35410509 3.4787292 0.24159355 0 39
0.35489702 3.4865093 0.27454254 0 40
0.35412434 3.4789186 0.30632955 0 41
0.35348019 3.4725902 0.33815032 0 42
0.3521243 3.4592702 0.36916456 0 43
0.35444701 3.4820883 0.40418768 0 44
0.35549068 3.4923415 0.4381313 0 45
0.35525793 3.4900548 0.47065172 0 46
0.35585544 3.4959247 0.50438696 0 47
0.3543745 3.4813762 0.53518122 0 48
0.35460487 3.4836392 0.56853652 0 49
0.35436672 3.4812996 0.60123867 0 50
0.35450312 3.4826396 0.63467151 0 51
0.35481501 3.4857037 0.66857153 0 52
0.35421163 3.4797761 0.7008366 0 53
0.35409471 3.4786277 0.73411953 0 54
0.35337517 3.4715586 0.76620334 0 55
0.354505 3.4826579 0.80247235 0 56
0.35342702 3.4720681 0.83389115 0 57
0.3540259 3.4779513 0.86936986 0 58
0.35361224 3.4738877 0.90253603 0 59
0.35463333 3.4839189 0.93958616 0 60
0.35467836 3.4843614 0.97432429 0 61
0.3538515 3.4762383 1.0067681 0 62
0.3537904 3.4756377 1.0414881 0 63
0.2201799 2.4633267 -0.73727816 0 0
0.22746126 2.5447891 -0.7361415 0 1
0.23608319 2.6412494 -0.73769921 0 2
0.24406774 2.7305787 -0.73555112 0 3
0.252639 2.8264723 -0.73347121 0 4
0.26306036 2.9430642 -0.73480207 0 5
0.27173421 3.0401053 -0.72928846 0 6
0.28485888 3.1869414 -0.73347092 0 7
0.29788047 3.3326244 -0.73467541 0 8
0.31022489 3.4707313 -0.73159277 0 9
0.31482443 3.5221899 -0.70854563 0 10
0.31415457 3.5146954 -0.67334044 0 11
0.31313172 3.503252 -0.63767797 0 12
0.31512353 3.5255361 -0.6081633 0 13
0.3130649 3.5025048 -0.57094401 0 14
0.31527758 3.5272593 -0.54159778 0 15
0.31528455 3.5273376 -0.5083214 0 16
0.31492314 3.5232942 -0.47457612 0 17
0.31410271 3.5141153 -0.44034511 0 18
0.31441325 3.5175898 -0.40782896 0 19
0.31413269 3.5144508 -0.37461275 0 20
0.31498465 3.5239825 -0.34275165 0 21
0.31474215 3.5212693 -0.30969447 0 22
0.31387258 3.5115407 -0.27618882 0 23
0.31501549 3.5243275 -0.2444728 0 24
0.31479195 3.5218265 -0.21164234 0 25
0.31453452 3.5189462 -0.17887489 0 26
0.31521982 3.5266135 -0.14662968 0 27
0.31563491 3.5312572 -0.11416969 0 28
0.31390491 3.5119026 -0.081089087 0 29
0.31373131 3.5099602 -0.048621058 0 30
0.31569293 3.5319064 -0.016307434 0 31
0.31401056 3.5130844 0.01622053 0 32
0.31404778 3.5135009 0.048670102 0 33
0.31411961 3.5143044 0.081144549 0 34
0.31372681 3.5099099 0.11347951 0 35
0.31468987 3.5206845 0.14638315 0 36
0.31438896 3.5173178 0.17879212 0 37
0.31457481 3.5193973 0.21149635 0 38
0.31560498 3.5309227 0.24493028 0 39
0.31528968 3.527395 0.27743581 0 40
0.31635296 3.5392909 0.31127948 0 41
0.31429499 3.5162666 0.34200117 0 42
0.31459168 3.5195858 0.3751601 0 43
0.31506622 3.524895 0.40867591 0 44
0.31510043 3.5252776 0.44174382 0 45
0.31440821 3.5175333 0.47380015 0 46
0.31487811 3.5227904 0.50766611 0 47
0.31584415 3.5335982 0.54257113 0 48
0.31505638 3.524785 0.5745759 0 49
0.31482503 3.5221965 0.60758722 0 50
0.31493452 3.5234218 0.64134932 0 51
0.31492925 3.5233626 0.67500085 0 52
0.31412685 3.5143855 0.70697564 0 53
0.31507927 3.5250409 0.74304068 0 54
0.31401157 3.5130956 0.7744602 0 55
0.31349653 3.5073338 0.80720884 0 56
0.31416398 3.514801 0.84316283 0 57
0.31496343 3.5237451 0.87978208 0 58
0.31437799 3.5171952 0.91271418 0 59
0.31559387 3.5307982 0.95111066 0 60
0.31483856 3.5223479 0.98378944 0 61
0.31498414 3.5239768 1.0193951 0 62
0.31486684 3.5226643 1.0543399 0 63
0.18890741 2.4532778 -0.73351979 0 0
0.19629416 2.549207 -0.73666561 0 1
0.20279251 2.633599 -0.73481047 0 2
0.21067283 2.7359378 -0.73624122 0 3
0.218621 2.8391583 -0.73600996 0 4
0.2271345 2.9497201 -0.73571092 0 5
0.23643862 3.0705497 -0.73583865 0 6
0.24603704 3.1952012 -0.73462009 0 7
0.2569747 3.337245 -0.73494184 0 8
0.27051342 3.5130677 -0.7397598 0 9
0.27362469 3.5534728 -0.71410781 0 10
0.27468446 3.5672359 -0.68270737 0 11
0.27358401 3.5529447 -0.64606202 0 12
0.27433103 3.5626459 -0.61393654 0 13
0.27498728 3.5711682 -0.58154172 0 14
0.27422804 3.5613084 -0.54626679 0 15
0.2741062 3.5597262 -0.5124644 0 16
0.27396229 3.557857 -0.47874165 0 17
0.27416688 3.560514 -0.44570306 0 18
0.2734845 3.5516524 -0.41135716 0 19
0.27422106 3.5612178 -0.37920964 0 20
0.27376291 3.5552678 -0.34544101 0 21
0.27349621 3.5518043 -0.31206065 0 22
0.27486926 3.5696356 -0.28047106 0 23
0.27456307 3.5656593 -0.247087 0 24
0.2725966 3.5401213 -0.21252427 0 25
0.27357233 3.5527928 -0.18041074 0 26
0.27509785 3.5726042 -0.14839001 0 27
0.27423719 3.5614274 -0.11502741 0 28
0.27352113 3.5521278 -0.081934027 0 29
0.27495384 3.5707343 -0.049412347 0 30
0.2743814 3.5633001 -0.016435565 0 31
0.27449736 3.564806 0.016442509 0 32
0.27534106 3.5757627 0.049481932 0 33
0.27377802 3.555464 0.082010977 0 34
0.27386186 3.5565526 0.11486997 0 35
0.27403152 3.5587561 0.14781483 0 36
0.27413791 3.560138 0.18078373 0 37
0.27546173 3.5773299 0.21475801 0 38
0.27493995 3.5705538 0.24742617 0 39
0.27271974 3.5417204 0.27827772 0 40
0.27340573 3.5506294 0.31195742 0 41
0.27388242 3.5568199 0.34559181 0 42
0.27484742 3.5693521 0.38007581 0 43
0.27409163 3.5595369 0.41227034 0 44
0.27494928 3.5706749 0.44697499 0 45
0.27450451 3.564899 0.47968921 0 46
0.27414045 3.5601711 0.51252848 0 47
0.2743234 3.562547 0.54645681 0 48
0.27385747 3.5564961 0.57915246 0 49
0.27493209 3.5704515 0.61528164 0 50
0.27426496 3.5617878 0.64767009 0 51
0.27393174 3.5574603 0.6808365 0 52
0.27462119 3.5664139 0.71670848 0 53
0.27491254 3.5701978 0.75178987 0 54
0.27379754 3.5557175 0.78305477 0 55
0.27452037 3.5651047 0.81966597 0 56
0.27405536 3.5590661 0.85290867 0 57
0.27389857 3.5570297 0.88718438 0 58
0.27420089 3.5609558 0.92312539 0 59
0.27483228 3.5691552 0.96046013 0 60
0.27461928 3.5663891 0.99507177 0 61
0.27379352 3.5556655 1.0275103 0 62
0.27420437 3.5610011 1.0647244 0 63
0.15816167 2.4466426 -0.73089921 0 0
0.16410182 2.5385323 -0.73294234 0 1
0.17012915 2.6317706 -0.73366117 0 2
0.17642614 2.7291803 -0.73378354 0 3
0.1821561 2.8178186 -0.72984213 0 4
0.18923329 2.9272974 -0.72948283 0 5
0.19865575 3.0730557 -0.73579824 0 6
0.2066592 3.1968632 -0.73436242 0 7
0.21678369 3.3534813 -0.73787463 0 8
0.22697259 3.5110962 -0.73870111 0 9
0.23232645 3.5939162 -0.72160673 0 10
0.23244481 3.5957472 -0.68756491 0 11
0.23233116 3.5939891 -0.65295666 0 12
0.23260231 3.5981836 -0.6195209 0 13
0.23247372 3.5961943 -0.58510727 0 14
0.23383892 3.6173131 -0.5543744 0 15
0.23255874 3.5975099 -0.51745301 0 16
0.23250479 3.5966752 -0.48354372 0 17
0.23257384 3.597743 -0.44997138 0 18
0.23269731 3.5996532 -0.4165538 0 19
0.23238823 3.594872 -0.38246006 0 20
0.23240422 3.5951192 -0.34900907 0 21
0.23239648 3.5949996 -0.31558084 0 22
0.23204024 3.5894887 -0.28178546 0 23
0.23235033 3.5942857 -0.24885391 0 24
0.23319 3.6072748 -0.21636719 0 25
0.23295105 3.6035783 -0.18283035 0 26
0.23214476 3.5911057 -0.14902864 0 27
0.23318344 3.6071732 -0.11640351 0 28
0.23249277 3.5964892 -0.082885064 0 29
0.23322053 3.6077471 -0.049881082 0 30
0.23225471 3.5928066 -0.016557237 0 31
0.23241666 3.5953119 0.016568782 0 32
0.23248522 3.5963724 0.049723815 0 33
0.23155333 3.5819569 0.082550146 0 34
0.23295376 3.6036203 0.11628886 0 35
0.23180757 3.5858898 0.14881219 0 36
0.23261684 3.5984085 0.18256806 0 37
0.23337589 3.6101503 0.21653967 0 38
0.23239371 3.5949569 0.24890037 0 39
0.23317342 3.6070182 0.28316158 0 40
0.23278309 3.6009803 0.31610584 0 41
0.23404296 3.6204693 0.35147002 0 42
0.23261447 3.598372 0.38283241 0 43
0.23194395 3.5879993 0.41520521 0 44
0.23222087 3.5922832 0.44928849 0 45
0.23252282 3.5969541 0.48358122 0 46
0.23336107 3.609921 0.51923817 0 47
0.2341924 3.6227813 0.55521244 0 48
0.23345071 3.6113079 0.58756632 0 49
0.23312359 3.6062474 0.62090927 0 50
0.23193479 3.5878577 0.65184271 0 51
0.23309782 3.605849 0.68949652 0 52
0.23346028 3.6114557 0.72512841 0 53
0.23236957 3.5945835 0.756266 0 54
0.23330241 3.6090138 0.79410005 0 55
0.23340215 3.6105566 0.82939339 0 56
0.23217177 3.5915236 0.85993773 0 57
0.23388566 3.618036 0.90161496 0 58
0.23323222 3.6079278 0.934488 0 59
0.2330177 3.6046095 0.96915656 0 60
0.23305616 3.6052043 1.0050262 0 61
0.23306188 3.605293 1.0409447 0 62
0.23294178 3.6034348 1.0764742 0 63
0.12874031 2.4612765 -0.7347424 0 0
0.13321096 2.546747 -0.73478562 0 1
0.13825803 2.6432376 -0.73632824 0 2
0.14321873 2.7380769 -0.73564637 0 3
0.14965717 2.8611681 -0.74053746 0 4
0.15456969 2.9550865 -0.73587853 0 5
0.1606662 3.0716403 -0.73493069 0 6
0.16716409 3.1958678 -0.73360616 0 7
0.17477748 3.3414218 -0.73469275 0 8
0.18310283 3.5005872 -0.73596078 0 9
0.19071935 3.6462011 -0.73157859 0 10
0.1896866 3.6264565 -0.69293863 0 11
0.19112997 3.6540513 -0.66339165 0 12
0.19055833 3.6431224 -0.62680745 0 13
0.19048151 3.641654 -0.59207779 0 14
0.19058895 3.643708 -0.55801821 0 15
0.19093908 3.6504018 -0.52468342 0 16
0.19077465 3.6472583 -0.48999178 0 17
0.19089906 3.6496367 -0.45613366 0 18
0.19048324 3.6416872 -0.4211151 0 19
0.19048513 3.6417232 -0.38716611 0 20
0.19033518 3.6388564 -0.35300109 0 21
0.19098197 3.6512218 -0.32028586 0 22
0.1912695 3.656719 -0.28685689 0 23
0.19049992 3.6420059 -0.25197661 0 24
0.19045389 3.6411259 -0.21824063 0 25
0.19069442 3.6457243 -0.18483572 0 26
0.19150253 3.6611738 -0.15182723 0 27
0.19047245 3.6414807 -0.11742615 0 28
0.19027364 3.6376798 -0.083774097 0 29
0.19018251 3.6359375 -0.050234713 0 30
0.19144721 3.6601164 -0.016855307 0 31
0.19097415 3.6510723 0.016813658 0 32
0.19150361 3.6611946 0.050583672 0 33
0.19058362 3.6436059 0.08391057 0 34
0.19061288 3.6441655 0.11751273 0 35
0.18976259 3.6279097 0.15044777 0 36
0.19119982 3.6553867 0.18532559 0 37
0.19096389 3.6508763 0.21882504 0 38
0.19177368 3.666358 0.25366145 0 39
0.19073631 3.6465251 0.28605723 0 40
0.19079889 3.6477215 0.3199788 0 41
0.19040413 3.6401744 0.35312897 0 42
0.19131435 3.6575763 0.38885149 0 43
0.19085599 3.6488132 0.42193913 0 44
0.19037481 3.6396139 0.45488098 0 45
0.19037713 3.6396585 0.48897079 0 46
0.19102779 3.6520977 0.5249272 0 47
0.19046715 3.6413794 0.55766159 0 48
0.19033256 3.6388063 0.59161478 0 49
0.18994141 3.6313281 0.62477821 0 50
0.19130434 3.6573849 0.66399682 0 51
0.19012034 3.6347489 0.69452316 0 52
0.19021742 3.636605 0.72965324 0 53
0.19063355 3.6445606 0.76622963 0 54
0.19103533 3.6522419 0.80303407 0 55
0.19170727 3.6650879 0.84131485 0 56
0.1901903 3.6360865 0.86998188 0 57
0.19075565 3.6468949 0.90815341 0 58
0.19094658 3.6505454 0.94484675 0 59
0.19116455 3.6547124 0.98192132 0 60
0.19140893 3.6593845 1.0193968 0 61
0.19040641 3.640218 1.0502731 0 62
0.18999611 3.632374 1.0843394 0 63
0.098614603 2.4663436 -0.73583734 0 0
0.10231102 2.5587904 -0.73784167 0 1
0.10438336 2.6106198 -0.72682929 0 2
0.10978335 2.7456729 -0.73726881 0 3
0.11339374 2.8359685 -0.73359883 0 4
0.11766241 2.9427276 -0.73238534 0 5
0.12316072 3.08024 -0.7365703 0 6
0.12806056 3.2027848 -0.73477691 0 7
0.13352086 3.3393462 -0.7338199 0 8
0.13921222 3.4816868 -0.73157197 0 9
0.14656439 3.6655641 -0.73504645 0 10
0.14735737 3.6853964 -0.70380139 0 11
0.14736481 3.6855826 -0.66873658 0 12
0.14703821 3.6774142 -0.63234854 0 13
0.14749327 3.6887951 -0.59940207 0 14
0.14767183 3.6932609 -0.56528622 0 15
0.14779188 3.6962633 -0.53097391 0 16
0.14755037 3.6902232 -0.49548274 0 17
0.14785531 3.6978498 -0.46189719 0 18
0.14755018 3.6902187 -0.42648509 0 19
0.1470979 3.6789072 -0.39089742 0 20
0.14753915 3.6899426 -0.35775387 0 21
0.14741477 3.6868322 -0.32322615 0 22
0.14796652 3.7006311 -0.29013699 0 23
0.14706253 3.6780221 -0.25432411 0 24
0.14791682 3.699388 -0.22160695 0 25
0.14721654 3.6818745 -0.18656263 0 26
0.14798975 3.7012122 -0.15340054 0 27
0.14703473 3.6773272 -0.11851482 0 28
