# .PCD v0.7 - Point Cloud Data file format
VERSION 0.7
FIELDS x y z intensity ring
SIZE 4 4 4 4 2
TYPE F F F F U
COUNT 1 1 1 1 1
WIDTH 1262
HEIGHT 1
VIEWPOINT 0 0 0 1 0 0 0
POINTS 1262
DATA ascii
-4.2563257 -2.7018936 0.30176219 0 38
-4.2516842 -2.6989472 0.34794503 0 39
-4.259923 -2.7041771 0.39528063 0 40
-4.2433195 -2.6936374 0.44028646 0 41
-4.2434964 -2.6937497 0.48692831 0 42
-4.2387695 -2.6907489 0.53304052 0 43
-4.2345948 -2.6880989 0.57921541 0 44
-4.2449031 -2.6946425 0.62753838 0 45
-4.2421904 -2.6929207 0.67412817 0 46
-4.2495332 -2.6975818 0.72248358 0 47
-4.2459555 -2.6953106 0.76914871 0 48
-4.2353048 -2.6885495 0.81450701 0 49
-4.2411184 -2.6922402 0.8631193 0 50
-4.2364631 -2.689285 0.90976417 0 51
-4.2331901 -2.6872072 0.95677567 0 52
-4.2425036 -2.6931193 1.0068681 0 53
-4.2429557 -2.6934063 1.0551454 0 54
-4.2384291 -2.6905329 1.1023244 0 55
-4.2341542 -2.6878192 1.1496638 0 56
-4.241621 -2.6925592 1.200433 0 57
-4.2406058 -2.6919148 1.2490906 0 58
-4.2458181 -2.6952236 1.2998556 0 59
-4.2492404 -2.6973958 1.3504074 0 60
-4.2411318 -2.6922486 1.3974848 0 61
-4.2418118 -2.6926801 1.4476256 0 62
-4.2539659 -2.7003956 1.5020995 0 63
-2.0548098 -1.3401101 -0.73132843 0 0
-2.1422622 -1.397145 -0.73690861 0 1
-2.224884 -1.4510295 -0.73893934 0 2
-2.2889504 -1.4928124 -0.73320603 0 3
-2.3911483 -1.5594641 -0.73786402 0 4
-2.4780996 -1.6161722 -0.73573416 0 5
-2.589642 -1.6889182 -0.73872358 0 6
-2.6802428 -1.7480062 -0.7335242 0 7
-2.7877212 -1.8181018 -0.73078549 0 8
-2.9287763 -1.9100953 -0.7341184 0 9
-3.0792451 -2.0082285 -0.73659843 0 10
-3.2398741 -2.1129878 -0.73808539 0 11
-3.4020503 -2.2187562 -0.7363804 0 12
-3.5830088 -2.3367741 -0.73497808 0 13
-3.78262 -2.4669569 -0.73322791 0 14
-4.0179448 -2.6204314 -0.73362637 0 15
-4.1904535 -2.7329388 -0.71809828 0 16
-4.2039933 -2.7417691 -0.67336488 0 17
-4.1932688 -2.7347748 -0.62482929 0 18
-4.1983714 -2.7381027 -0.5788222 0 19
-4.1980362 -2.7378838 -0.53211159 0 20
-4.1943326 -2.7354684 -0.48510993 0 21
-4.1757579 -2.7233543 -0.43671793 0 22
-4.1915932 -2.7336819 -0.3920297 0 23
-4.2087784 -2.7448897 -0.3471697 0 24
-4.1955323 -2.7362509 -0.29981485 0 25
-4.2001128 -2.7392383 -0.25388041 0 26
-4.2031198 -2.7411995 -0.20781039 0 27
-4.20051 -2.7394974 -0.16149348 0 28
-4.19241 -2.7342145 -0.11511056 0 29
-4.204052 -2.7418072 -0.069250315 0 30
-4.204917 -2.7423716 -0.023086887 0 31
-4.188014 -2.7313476 0.022994081 0 32
-4.1938429 -2.7351489 0.069082148 0 33
-4.1800966 -2.7261841 0.11477248 0 34
-4.2011433 -2.7399101 0.16151781 0 35
-4.1875234 -2.7310278 0.20703928 0 36
-4.1823354 -2.727644 0.25280583 0 37
-4.1966052 -2.7369506 0.29989153 0 38
-4.2100282 -2.7457049 0.34727281 0 39
-4.207768 -2.7442307 0.39354253 0 40
-4.1990366 -2.7385364 0.43915248 0 41
-4.1855645 -2.7297502 0.48409581 0 42
-4.1851611 -2.7294869 0.53047967 0 43
-4.1984825 -2.7381749 0.57883751 0 44
-4.1960425 -2.7365839 0.62524259 0 45
-4.211359 -2.7465727 0.67454469 0 46
-4.1839561 -2.7287011 0.71698481 0 47
-4.1855159 -2.7297184 0.7642228 0 48
-4.1828871 -2.7280037 0.81081617 0 49
-4.1944041 -2.7355154 0.86039293 0 50
-4.186645 -2.7304549 0.9062075 0 51
-4.1836762 -2.7285187 0.95309579 0 52
-4.1970887 -2.7372661 1.0040022 0 53
-4.1997137 -2.7389779 1.0526878 0 54
-4.1983652 -2.7380984 1.100578 0 55
-4.1927514 -2.7344372 1.147465 0 56
-4.1954169 -2.7361755 1.1967882 0 57
-4.1952152 -2.7360442 1.2455363 0 58
-4.196095 -2.7366178 1.294837 0 59
-4.1871281 -2.7307699 1.3412381 0 60
-4.1937237 -2.7350714 1.39284 0 61
-4.1997747 -2.739018 1.4446646 0 62
-4.1943951 -2.7355094 1.4928294 0 63
-2.0564067 -1.3774849 -0.7378695 0 0
-2.1053607 -1.4102769 -0.73012507 0 1
-2.1926486 -1.4687467 -0.73417598 0 2
-2.2725508 -1.5222691 -0.73389333 0 3
-2.3720589 -1.5889246 -0.73794669 0 4
-2.4552929 -1.6446791 -0.73491174 0 5
-2.5649827 -1.7181548 -0.73766023 0 6
-2.6625521 -1.7835116 -0.73462909 0 7
-2.7693951 -1.8550805 -0.73190588 0 8
-2.9116929 -1.9503987 -0.73579222 0 9
-3.0486805 -2.04216 -0.73523837 0 10
-3.2054675 -2.1471837 -0.73620635 0 11
-3.3862486 -2.26828 -0.73894155 0 12
-3.566843 -2.3892512 -0.73763281 0 13
-3.7706063 -2.5257423 -0.73686373 0 14
-3.9816067 -2.6670811 -0.73292422 0 15
-4.1459422 -2.7771611 -0.71626842 0 16
-4.1330299 -2.768512 -0.66740084 0 17
-4.1458936 -2.7771285 -0.62281132 0 18
-4.1379824 -2.7718294 -0.5751521 0 19
-4.1554403 -2.7835236 -0.53101081 0 20
-4.149406 -2.7794814 -0.48383015 0 21
-4.1414361 -2.774143 -0.436663 0 22
-4.1384764 -2.7721603 -0.39022049 0 23
-4.1426864 -2.7749803 -0.34450659 0 24
-4.1439924 -2.7758551 -0.2985484 0 25
-4.1481886 -2.778666 -0.25278801 0 26
-4.148026 -2.7785571 -0.20676008 0 27
-4.1474524 -2.7781727 -0.16075486 0 28
-4.1453891 -2.7767906 -0.11474835 0 29
-4.1254416 -2.7634289 -0.068509981 0 30
-4.146976 -2.7778535 -0.02295457 0 31
-4.1525273 -2.7815723 0.0229853 0 32
-4.1498637 -2.779788 0.068915553 0 33
-4.1349216 -2.769779 0.1144586 0 34
-4.1411123 -2.773926 0.16050911 0 35
-4.1485176 -2.7788863 0.20678458 0 36
-4.1482482 -2.7787058 0.25279164 0 37
-4.1477871 -2.7783968 0.29882178 0 38
-4.1391654 -2.7726216 0.34421378 0 39
-4.1557631 -2.7837398 0.3918505 0 40
-4.1447296 -2.7763488 0.43701023 0 41
-4.1464529 -2.7775035 0.48348585 0 42
-4.142446 -2.7748194 0.52935028 0 43
-4.1452193 -2.7766771 0.57615799 0 44
-4.1480141 -2.778549 0.62312984 0 45
-4.1350112 -2.7698393 0.66772074 0 46
-4.1467457 -2.7776992 0.71640718 0 47
-4.1507478 -2.7803802 0.76405925 0 48
-4.1440864 -2.775918 0.80985039 0 49
-4.1457062 -2.777003 0.85734332 0 50
-4.1307378 -2.7669766 0.90140271 0 51
-4.1436586 -2.7756317 0.95168269 0 52
-4.1370158 -2.7711818 0.99770796 0 53
-4.1298027 -2.7663503 1.0436118 0 54
-4.1440763 -2.7759113 1.0952116 0 55
-4.1521435 -2.7813153 1.1456248 0 56
-4.144249 -2.7760272 1.1918395 0 57
-4.1464567 -2.7775059 1.2411064 0 58
-4.1440554 -2.7758975 1.2892143 0 59
-4.1406903 -2.7736433 1.3371868 0 60
-4.1479473 -2.7785044 1.3888788 0 61
-4.1324873 -2.7681484 1.4331191 0 62
-4.1415758 -2.7742364 1.4860594 0 63
-2.0274169 -1.3944823 -0.73356479 0 0
-2.1010315 -1.4451152 -0.7347306 0 1
-2.1743958 -1.4955761 -0.7341665 0 2
-2.2579806 -1.5530667 -0.73529965 0 3
-2.3475087 -1.6146452 -0.73643017 0 4
-2.4326038 -1.6731747 -0.73422313 0 5
-2.5381916 -1.7457993 -0.73607343 0 6
-2.6352863 -1.8125823 -0.73320037 0 7
-2.7571661 -1.8964128 -0.73478132 0 8
-2.8715262 -1.9750711 -0.73172396 0 9
-3.0267739 -2.0818522 -0.73607332 0 10
-3.1673744 -2.1785591 -0.7335546 0 11
-3.3377383 -2.2957373 -0.73446035 0 12
-3.5045302 -2.4104588 -0.73082078 0 13
-3.7381132 -2.57112 -0.73663652 0 14
-3.9758425 -2.7346332 -0.73799717 0 15
-4.0846033 -2.8094401 -0.71158582 0 16
-4.1001005 -2.8200994 -0.66763252 0 17
-4.0945086 -2.8162532 -0.62024742 0 18
-4.0880771 -2.8118298 -0.57297802 0 19
-4.1003871 -2.8202968 -0.52836734 0 20
-4.0996928 -2.819819 -0.48204011 0 21
-4.0881419 -2.8118742 -0.43465653 0 22
-4.086555 -2.8107829 -0.38855436 0 23
-4.0867014 -2.8108833 -0.34269932 0 24
-4.0803657 -2.8065255 -0.29642832 0 25
-4.084146 -2.8091257 -0.25097129 0 26
-4.0957317 -2.8170948 -0.20586455 0 27
-4.0996203 -2.8197691 -0.16023269 0 28
-4.0973244 -2.8181901 -0.11436848 0 29
-4.0883217 -2.8119979 -0.068462588 0 30
-4.1048613 -2.8233738 -0.022911891 0 31
-4.0804238 -2.8065655 0.022775492 0 32
-4.1046181 -2.8232067 0.068735488 0 33
-4.083209 -2.8084812 0.11397447 0 34
-4.097415 -2.8182523 0.1601465 0 35
-4.098803 -2.8192072 0.20601892 0 36
-4.0964122 -2.8175626 0.25172505 0 37
-4.0914874 -2.8141751 0.29723629 0 38
-4.0964646 -2.8175986 0.34351802 0 39
-4.0933437 -2.8154519 0.38919982 0 40
-4.0983839 -2.8189187 0.43574545 0 41
-4.1020627 -2.821449 0.48231873 0 42
-4.0976295 -2.8183999 0.52801204 0 43
-4.09484 -2.8164814 0.57392591 0 44
-4.0832348 -2.8084991 0.61853963 0 45
-4.0905118 -2.8135045 0.66607124 0 46
-4.0969453 -2.8179293 0.71373594 0 47
-4.0956998 -2.8170726 0.76024514 0 48
-4.0962315 -2.8174381 0.8072077 0 49
-4.0868235 -2.8109672 0.85224992 0 50
-4.0937381 -2.8157234 0.90081608 0 51
-4.0916719 -2.8143022 0.94761914 0 52
-4.091145 -2.8139398 0.99491495 0 53
-4.0930886 -2.8152766 1.0430032 0 54
-4.0939679 -2.8158815 1.0910373 0 55
-4.0923929 -2.8147981 1.1386026 0 56
-4.0892882 -2.8126626 1.1858902 0 57
-4.0885863 -2.81218 1.2340418 0 58
-4.1000085 -2.8200359 1.2862017 0 59
-4.0925622 -2.8149145 1.3327216 0 60
-4.0894451 -2.8127706 1.3807669 0 61
-4.0897017 -2.812947 1.4301684 0 62
-4.0971766 -2.8180883 1.4824501 0 63
-2.0056629 -1.4161596 -0.73193908 0 0
-2.0761533 -1.4659315 -0.732279 0 1
-2.1590755 -1.5244812 -0.73526746 0 2
-2.2334821 -1.5770183 -0.7335813 0 3
-2.3331473 -1.64739 -0.73822391 0 4
-2.3998232 -1.6944684 -0.73056269 0 5
-2.5028634 -1.7672231 -0.7320748 0 6
-2.6254485 -1.8537781 -0.73674965 0 7
-2.7342265 -1.9305842 -0.73493886 0 8
-2.8582811 -2.0181768 -0.73461699 0 9
-3.0088181 -2.1244678 -0.73800379 0 10
-3.1415181 -2.2181649 -0.73382783 0 11
-3.3164394 -2.3416734 -0.736054 0 12
-3.4784815 -2.4560881 -0.7316314 0 13
-3.6817052 -2.5995805 -0.73176461 0 14
-3.9056027 -2.7576702 -0.73119831 0 15
-4.0412354 -2.8534379 -0.71008956 0 16
-4.0487185 -2.8587215 -0.66493958 0 17
-4.0514874 -2.8606765 -0.6190123 0 18
-4.0394073 -2.8521469 -0.57102889 0 19
-4.0466685 -2.8572738 -0.52593285 0 20
-4.028132 -2.8441856 -0.47770205 0 21
-4.0443444 -2.855633 -0.43370056 0 22
-4.0339484 -2.8482924 -0.38685334 0 23
-4.033803 -2.8481898 -0.34117451 0 24
-4.0487943 -2.8587747 -0.29666609 0 25
-4.0517197 -2.8608403 -0.2511214 0 26
-4.0502524 -2.8598044 -0.2053306 0 27
-4.0447497 -2.8559191 -0.15944862 0 28
-4.0512347 -2.8604982 -0.11405517 0 29
-4.0500097 -2.859633 -0.068404689 0 30
-4.0332689 -2.8478127 -0.022706032 0 31
-4.055851 -2.8637574 0.022833161 0 32
-4.0439701 -2.8553689 0.068302684 0 33
-4.041121 -2.8533568 0.11377043 0 34
-4.0419788 -2.8539624 0.15933938 0 35
-4.0482521 -2.858392 0.20522921 0 36
-4.0554814 -2.8634968 0.25135458 0 37
-4.0379672 -2.85113 0.29587278 0 38
-4.0402765 -2.8527608 0.34172204 0 39
-4.0440907 -2.8554537 0.38782597 0 40
-4.0411954 -2.8534095 0.43336287 0 41
-4.052104 -2.8611116 0.48054492 0 42
-4.0545735 -2.8628557 0.52696031 0 43
-4.0434065 -2.8549705 0.57159424 0 44
-4.0445085 -2.8557489 0.61794603 0 45
-4.0436988 -2.8551772 0.66411519 0 46
-4.0454268 -2.8563972 0.71082598 0 47
-4.0456381 -2.8565464 0.75741541 0 48
-4.0593681 -2.8662407 0.80682772 0 49
-4.0479202 -2.8581579 0.85140193 0 50
-4.047163 -2.8576231 0.89823157 0 51
-4.0456419 -2.856549 0.94502223 0 52
-4.0426517 -2.8544378 0.99158281 0 53
-4.0420961 -2.8540454 1.0388736 0 54
-4.0590787 -2.8660364 1.0910488 0 55
-4.0387239 -2.8516643 1.133341 0 56
-4.0399523 -2.8525317 1.1816654 0 57
-4.0330405 -2.8476512 1.2277524 0 58
-4.04774 -2.8580306 1.2807329 0 59
-4.0375509 -2.8508363 1.3261229 0 60
-4.0572629 -2.8647544 1.3816901 0 61
-4.043386 -2.8549564 1.4261407 0 62
-4.0477881 -2.8580644 1.4771844 0 63
-1.9968969 -1.447089 -0.73517811 0 0
-2.0483379 -1.4843667 -0.7288509 0 1
-2.1438782 -1.5536017 -0.73654217 0 2
-2.212081 -1.603026 -0.73297089 0 3
-2.3105738 -1.6744008 -0.7375403 0 4
-2.3959916 -1.7363003 -0.7358402 0 5
-2.4933527 -1.806855 -0.73573601 0 6
-2.6075206 -1.8895888 -0.7381832 0 7
-2.7212875 -1.9720321 -0.73792309 0 8
-2.8307159 -2.0513315 -0.73395979 0 9
-2.9633334 -2.1474354 -0.73326868 0 10
-3.11134 -2.2546911 -0.7331993 0 11
-3.2911358 -2.3849833 -0.73689121 0 12
-3.4728427 -2.5166609 -0.73689866 0 13
-3.6604273 -2.6525974 -0.73396301 0 14
-3.8928771 -2.8210466 -0.73525459 0 15
-4.006496 -2.9033825 -0.71020484 0 16
-3.9984519 -2.8975534 -0.6624856 0 17
-3.998328 -2.8974636 -0.61628723 0 18
-3.9830737 -2.8864093 -0.56803983 0 19
-3.9997308 -2.8984802 -0.52442503 0 20
-3.9916403 -2.8926172 -0.47755653 0 21
-4.0055599 -2.9027042 -0.43333623 0 22
-3.9944596 -2.8946602 -0.38645062 0 23
-3.9976342 -2.8969607 -0.34110251 0 24
-3.9905555 -2.8918309 -0.29498202 0 25
-4.002933 -2.9008007 -0.2502895 0 26
-3.9886775 -2.89047 -0.20399545 0 27
-3.9966474 -2.8962457 -0.15894428 0 28
-4.003437 -2.901166 -0.11370526 0 29
-3.9999635 -2.8986487 -0.068156272 0 30
-4.0067306 -2.9035525 -0.022755908 0 31
-4.0025969 -2.900557 0.022732431 0 32
-4.0002408 -2.8988497 0.068160996 0 33
-3.9971039 -2.8965764 0.11352538 0 34
-3.9971626 -2.8966191 0.15896477 0 35
-3.9954181 -2.8953547 0.20434019 0 36
-3.9935808 -2.8940234 0.24970475 0 37
-3.9911449 -2.8922582 0.29502559 0 38
-4.0060611 -2.9030674 0.34182152 0 39
-3.9906485 -2.8918984 0.3860819 0 40
-3.9955423 -2.8954449 0.4322525 0 41
-4.0036163 -2.9012957 0.47898933 0 42
-4.0012751 -2.8995993 0.52462751 0 43
-4.0036507 -2.9013209 0.57097435 0 44
-3.9981267 -2.8973176 0.61625618 0 45
-3.9964967 -2.8961365 0.66216165 0 46
-3.9986103 -2.8976681 0.70880699 0 47
-3.9920373 -2.8929048 0.7539832 0 48
-3.9993961 -2.8982377 0.80193061 0 49
-3.9877248 -2.8897798 0.84615088 0 50
-3.9774919 -2.8823643 0.8905676 0 51
-4.0044188 -2.9018774 0.9436568 0 52
-3.9977562 -2.8970492 0.98923379 0 53
-4.0035939 -2.9012794 1.0380685 0 54
-3.9957857 -2.8956213 1.0835249 0 55
-3.9873898 -2.8895369 1.128821 0 56
-4.0036135 -2.9012938 1.1813822 0 57
-4.0010209 -2.899415 1.2287656 0 58
-3.9949753 -2.8950341 1.275205 0 59
-3.996547 -2.896173 1.324252 0 60
-4.0004668 -2.8990133 1.3743842 0 61
-3.9930272 -2.8936222 1.420821 0 62
-3.9935598 -2.8940084 1.4702702 0 63
-1.9853688 -1.476303 -0.73756152 0 0
-2.0355899 -1.513647 -0.73088235 0 1
-2.1163836 -1.5737244 -0.73368895 0 2
-2.2078898 -1.6417676 -0.73821563 0 3
-2.2946391 -1.7062737 -0.73909527 0 4
-2.3836377 -1.7724524 -0.73868382 0 5
-2.4791946 -1.8435075 -0.73819149 0 6
-2.5533071 -1.8986169 -0.72938961 0 7
-2.6863272 -1.9975296 -0.73504806 0 8
-2.818573 -2.0958664 -0.73743784 0 9
-2.9375315 -2.1843231 -0.73347497 0 10
-3.084765 -2.2938044 -0.73352814 0 11
-3.2379808 -2.4077344 -0.73156345 0 12
-3.4202096 -2.5432382 -0.73231089 0 13
-3.6084695 -2.6832266 -0.73010534 0 14
-3.885242 -2.8890324 -0.74046624 0 15
-3.94134 -2.9307463 -0.70498997 0 16
-3.9402652 -2.9299471 -0.65876442 0 17
-3.9535275 -2.9398088 -0.61490726 0 18
-3.9382823 -2.9284725 -0.56674457 0 19
-3.9432695 -2.9321811 -0.5217101 0 20
-3.9538951 -2.9400821 -0.47732994 0 21
-3.9399066 -2.9296803 -0.43009841 0 22
-3.9456787 -2.9339724 -0.38519248 0 23
-3.9464982 -2.9345818 -0.33979258 0 24
-3.9381325 -2.9283612 -0.29374644 0 25
-3.9472837 -2.9351659 -0.24904786 0 26
-3.9575682 -2.9428134 -0.20423967 0 27
-3.9458637 -2.9341099 -0.15834752 0 28
-3.9517283 -2.9384708 -0.11325431 0 29
-3.944412 -2.9330304 -0.067819118 0 30
-3.952188 -2.9388127 -0.022649663 0 31
-3.9449356 -2.9334197 0.0226081 0 32
-3.9497468 -2.9369974 0.06791085 0 33
-3.9463758 -2.9344907 0.1131009 0 34
-3.9375625 -2.9279373 0.15801439 0 35
-3.9476159 -2.9354129 0.20372605 0 36
-3.9376791 -2.9280241 0.24844186 0 37
-3.9556229 -2.9413669 0.29505107 0 38
-3.9441457 -2.9328325 0.33959004 0 39
-3.9571278 -2.9424858 0.38631019 0 40
-3.9435935 -2.9324219 0.43050089 0 41
-3.9539704 -2.9401381 0.477339 0 42
-3.9503953 -2.9374797 0.52265286 0 43
-3.9484444 -2.936029 0.56820697 0 44
-3.9457593 -2.9340324 0.61369902 0 45
-3.9571266 -2.9424851 0.66158342 0 46
-3.9534678 -2.9397643 0.70715928 0 47
-3.9485004 -2.9360707 0.75252229 0 48
-3.946568 -2.9346337 0.79851317 0 49
-3.9447463 -2.933279 0.84462088 0 50
-3.9464188 -2.9345226 0.89162225 0 51
-3.9552331 -2.941077 0.94051725 0 52
-3.9416728 -2.9309938 0.98419988 0 53
-3.9324152 -2.9241099 1.0288582 0 54
-3.9479856 -2.935688 1.0802702 0 55
-3.9416862 -2.9310036 1.1260004 0 56
-3.9500568 -2.937228 1.1761475 0 57
-3.9407651 -2.9303188 1.2212341 0 58
-3.9312696 -2.9232581 1.2662482 0 59
-3.955374 -2.9411817 1.3224931 0 60
-3.9408123 -2.9303539 1.3661656 0 61
-3.9468665 -2.9348557 1.4171299 0 62
-3.9416144 -2.9309502 1.4643039 0 63
-1.9565322 -1.4925662 -0.73361152 0 0
-2.0225537 -1.5429316 -0.7329585 0 1
-2.096601 -1.5994196 -0.73359358 0 2
-2.1749239 -1.6591692 -0.73395938 0 3
-2.2536223 -1.7192053 -0.7326377 0 4
-2.3590903 -1.7996628 -0.73787874 0 5
-2.4495659 -1.8686833 -0.73615563 0 6
-2.5466599 -1.9427528 -0.73425955 0 7
-2.655843 -2.0260446 -0.73346823 0 8
-2.774967 -2.1169198 -0.73278409 0 9
-2.9338076 -2.2380936 -0.73936087 0 10
-3.0608718 -2.3350263 -0.7346186 0 11
-3.2252138 -2.4603965 -0.73545873 0 12
-3.4032793 -2.5962362 -0.73546571 0 13
-3.5921285 -2.7403023 -0.73356134 0 14
-3.8220866 -2.9157286 -0.73520726 0 15
-3.8912909 -2.9685221 -0.70251375 0 16
-3.8951721 -2.971483 -0.6572845 0 17
-3.8838193 -2.9628222 -0.60968566 0 18
-3.8973813 -2.9731681 -0.56607699 0 19
-3.906287 -2.9799621 -0.52162576 0 20
-3.8905754 -2.9679763 -0.47405577 0 21
-3.894165 -2.9707146 -0.42906031 0 22
-3.8946221 -2.9710634 -0.3837457 0 23
-3.8956382 -2.9718385 -0.3385343 0 24
-3.8901439 -2.9676471 -0.29286674 0 25
-3.9073737 -2.9807911 -0.24882355 0 26
-3.9001782 -2.975302 -0.20315066 0 27
-3.9035993 -2.9779117 -0.15810896 0 28
-3.9047229 -2.9787688 -0.11294837 0 29
-3.8996389 -2.9748905 -0.067673147 0 30
-3.8971677 -2.9730053 -0.022542149 0 31
-3.8931575 -2.9699459 0.022518953 0 32
-3.8889506 -2.9667368 0.067487672 0 33
-3.8927712 -2.9696515 0.11260265 0 34
-3.9042854 -2.978435 0.15813676 0 35
-3.9038041 -2.9780679 0.20333952 0 36
-3.8916888 -2.9688256 0.24782474 0 37
-3.9022915 -2.9769142 0.29378125 0 38
-3.9016964 -2.9764602 0.33906078 0 39
-3.9065204 -2.9801402 0.38491803 0 40
-3.8909357 -2.968251 0.4287045 0 41
-3.9036508 -2.977951 0.47564897 0 42
-3.8921425 -2.9691718 0.51973695 0 43
-3.8977807 -2.9734731 0.56613505 0 44
-3.8865454 -2.9649019 0.61011356 0 45
-3.9019866 -2.9766815 0.65843439 0 46
-3.901875 -2.9765964 0.70442456 0 47
-3.9007466 -2.9757354 0.75033814 0 48
-3.9009728 -2.975908 0.79663152 0 49
-3.8996537 -2.9749017 0.84273469 0 50
-3.9025114 -2.9770818 0.88990569 0 51
-3.8979347 -2.9735904 0.93551624 0 52
-3.8890126 -2.966784 0.98008597 0 53
-3.8987103 -2.9741819 1.0295304 0 54
-3.9031453 -2.9775653 1.0779376 0 55
-3.8991241 -2.9744978 1.1242054 0 56
-3.8963749 -2.9724004 1.1709578 0 57
-3.9003367 -2.9754229 1.2199514 0 58
-3.9027886 -2.9772933 1.2687707 0 59
-3.9078772 -2.9811752 1.3187693 0 60
-3.8950658 -2.9714019 1.3628702 0 61
-3.8997118 -2.974946 1.4132266 0 62
-3.8984377 -2.9739742 1.4617387 0 63
-1.9394101 -1.517588 -0.73413301 0 0
-2.0127301 -1.5749608 -0.73636103 0 1
-2.0722508 -1.6215358 -0.73199481 0 2
-2.1717396 -1.6993859 -0.73988062 0 3
-2.2284317 -1.7437474 -0.73136371 0 4
-2.3230062 -1.8177519 -0.73352814 0 5
-2.431185 -1.9024018 -0.73760605 0 6
-2.5363381 -1.9846841 -0.73826408 0 7
-2.6393387 -2.0652821 -0.73586816 0 8
-2.7562842 -2.1567919 -0.73479843 0 9
-2.8924336 -2.2633288 -0.73589224 0 10
-3.0346324 -2.3745992 -0.73527336 0 11
-3.1764441 -2.4855669 -0.7312519 0 12
-3.3510094 -2.622164 -0.73108256 0 13
-3.5761623 -2.7983463 -0.73727202 0 14
-3.8067265 -2.9787626 -0.73924249 0 15
-3.8508897 -3.0133204 -0.70185632 0 16
-3.8525348 -3.0146077 -0.6562953 0 17
-3.8533921 -3.0152786 -0.61068338 0 18
-3.8507917 -3.0132437 -0.56464911 0 19
-3.8431604 -3.0072722 -0.5180949 0 20
-3.8505189 -3.0130303 -0.47365358 0 21
-3.8393116 -3.0042605 -0.42705452 0 22
-3.8370914 -3.0025234 -0.38168606 0 23
-3.8406126 -3.0052786 -0.33693841 0 24
-3.8459318 -3.0094409 -0.2923021 0 25
-3.8558977 -3.0172391 -0.24788943 0 26
-3.85689 -3.0180156 -0.20281357 0 27
-3.8508639 -3.0133004 -0.15746188 0 28
-3.85272 -3.0147526 -0.11250794 0 29
-3.8450673 -3.0087643 -0.067363076 0 30
-3.8383584 -3.0035145 -0.022413915 0 31
-3.855082 -3.0166011 0.022511574 0 32
-3.8523998 -3.014502 0.067491539 0 33
-3.8447642 -3.0085273 0.11227561 0 34
-3.8461845 -3.0096385 0.15727054 0 35
-3.8464532 -3.0098488 0.20226474 0 36
-3.8476346 -3.0107732 0.24735822 0 37
-3.847563 -3.0107172 0.29242608 0 38
-3.8490973 -3.0119178 0.33768278 0 39
-3.8352203 -3.0010591 0.38149992 0 40
-3.8446324 -3.008424 0.4276464 0 41
-3.8574591 -3.0184608 0.4745073 0 42
-3.8523357 -3.014452 0.51933187 0 43
-3.8596773 -3.0201967 0.565952 0 44
-3.8506677 -3.0131466 0.61025161 0 45
-3.8581488 -3.0190008 0.65725172 0 46
-3.8507605 -3.0132194 0.70183271 0 47
-3.8491042 -3.0119233 0.74747199 0 48
-3.8481634 -3.0111871 0.79334855 0 49
-3.8522708 -3.0144012 0.84044176 0 50
-3.8402488 -3.0049939 0.88406688 0 51
-3.8424411 -3.0067093 0.93100059 0 52
-3.8464217 -3.0098243 0.97860557 0 53
-3.845005 -3.0087156 1.0250406 0 54
-3.8455949 -3.0091772 1.0721817 0 55
-3.8484049 -3.0113759 1.1201736 0 56
-3.8428786 -3.0070517 1.1659049 0 57
-3.8598068 -3.020298 1.2187986 0 58
-3.8424783 -3.0067387 1.2610884 0 59
-3.8481147 -3.0111489 1.3109976 0 60
-3.8459148 -3.0094275 1.3585178 0 61
-3.855314 -3.0167823 1.4104738 0 62
-3.8478034 -3.0109053 1.4565251 0 63
-1.9372573 -1.554684 -0.7404986 0 0
-1.9868609 -1.5944917 -0.73401439 0 1
-2.07459 -1.664896 -0.73999673 0 2
-2.1373641 -1.7152734 -0.73529953 0 3
-2.2131283 -1.7760755 -0.73345339 0 4
-2.3071914 -1.8515627 -0.73566794 0 5
-2.4043615 -1.9295436 -0.73661077 0 6
-2.5100002 -2.0143206 -0.73775166 0 7
-2.6239171 -2.105741 -0.73873186 0 8
-2.729398 -2.1903913 -0.73475558 0 9
-2.8639572 -2.2983773 -0.73578197 0 10
-3.0072865 -2.4134018 -0.73578238 0 11
-3.1692762 -2.5434015 -0.73674589 0 12
-3.3266621 -2.6697066 -0.73287737 0 13
-3.5281012 -2.8313649 -0.73448581 0 14
-3.7494838 -3.0090287 -0.73525602 0 15
-3.8072758 -3.0554078 -0.70070189 0 16
-3.7943041 -3.0449977 -0.65270466 0 17
-3.8005116 -3.0499792 -0.60820055 0 18
-3.790868 -3.0422401 -0.56130522 0 19
-3.7914538 -3.0427103 -0.51612926 0 20
-3.7915559 -3.0427921 -0.47096741 0 21
-3.7944651 -3.0451267 -0.42619893 0 22
-3.7940111 -3.0447624 -0.38109615 0 23
-3.7949715 -3.0455332 -0.33619434 0 24
-3.796314 -3.0466106 -0.29135624 0 25
-3.7926292 -3.0436535 -0.24620946 0 26
-3.7985206 -3.0483813 -0.20170008 0 27
-3.7935658 -3.0444052 -0.15663785 0 28
-3.7910178 -3.0423603 -0.11179011 0 29
-3.7992682 -3.0489814 -0.067212455 0 30
-3.8045559 -3.0532248 -0.022434067 0 31
-3.8048806 -3.0534856 0.022435982 0 32
-3.8029408 -3.0519288 0.067277424 0 33
-3.8088241 -3.0566502 0.11231518 0 34
-3.7986202 -3.0484614 0.15684654 0 35
-3.8029981 -3.0519748 0.20193782 0 36
-3.8024151 -3.0515068 0.24684474 0 37
-3.8017387 -3.0509641 0.29177257 0 38
-3.7931755 -3.0440919 0.33603522 0 39
-3.8046155 -3.0532727 0.38216135 0 40
-3.7970717 -3.0472188 0.42649174 0 41
-3.8010066 -3.0503764 0.47214133 0 42
-3.7919891 -3.0431399 0.51620209 0 43
-3.7985432 -3.0483994 0.56244171 0 44
-3.7972784 -3.0473845 0.60768312 0 45
-3.7985213 -3.048382 0.65343004 0 46
-3.802664 -3.0517068 0.69985312 0 47
-3.7970324 -3.0471871 0.74458003 0 48
-3.8063142 -3.054636 0.79240465 0 49
-3.8094227 -3.0571306 0.83923155 0 50
-3.7967067 -3.0469258 0.8826015 0 51
-3.8020086 -3.0511808 0.9302243 0 52
-3.8067284 -3.0549684 0.97799021 0 53
-3.8001695 -3.0497048 1.023008 0 54
-3.8038833 -3.052685 1.0709369 0 55
-3.7991045 -3.0488501 1.1166515 0 56
-3.7987266 -3.0485468 1.1637946 0 57
-3.8035388 -3.0524087 1.2127913 0 58
-3.807189 -3.0553379 1.2617414 0 59
-3.8053603 -3.0538704 1.3091263 0 60
-3.7935281 -3.0443747 1.353134 0 61
-3.7973225 -3.04742 1.4028609 0 62
-3.8039691 -3.0527542 1.4540319 0 63
-1.910886 -1.5725358 -0.73775393 0 0
-1.9695554 -1.6208168 -0.73492855 0 1
-2.0209718 -1.6631291 -0.72811091 0 2
-2.1190422 -1.7438349 -0.73631757 0 3
-2.2061183 -1.815493 -0.73847288 0 4
-2.2907283 -1.8851213 -0.73775405 0 5
-2.3712857 -1.9514149 -0.73377341 0 6
-2.4703593 -2.0329461 -0.7333923 0 7
-2.5768433 -2.1205757 -0.73276466 0 8
-2.6879427 -2.2120032 -0.7308628 0 9
-2.8099918 -2.3124416 -0.72916782 0 10
-2.9811809 -2.4533193 -0.73672038 0 11
-3.1437428 -2.5870972 -0.73814964 0 12
-3.3237472 -2.7352293 -0.73958898 0 13
-3.4837272 -2.8668823 -0.73253149 0 14
-3.7007852 -3.045507 -0.73299456 0 15
-3.7538879 -3.0892072 -0.69781458 0 16
-3.7693872 -3.1019623 -0.65493035 0 17
-3.747467 -3.0839233 -0.60573459 0 18
-3.7628422 -3.096576 -0.562751 0 19
-3.7456501 -3.082428 -0.51501477 0 20
-3.7401228 -3.0778794 -0.46924439 0 21
-3.7582073 -3.092762 -0.42636579 0 22
-3.7599261 -3.0941763 -0.38146535 0 23
-3.7411587 -3.0787318 -0.33475557 0 24
-3.7519603 -3.0876207 -0.29084405 0 25
-3.7631009 -3.0967889 -0.24674593 0 26
-3.7527852 -3.0882998 -0.2012728 0 27
-3.7594433 -3.0937788 -0.15678786 0 28
-3.7520866 -3.0877249 -0.11175326 0 29
-3.7636838 -3.0972686 -0.067251615 0 30
-3.7545571 -3.0897579 -0.022361584 0 31
-3.7592053 -3.0935831 0.022389269 0 32
-3.7558162 -3.0907941 0.06711103 0 33
-3.7598872 -3.0941443 0.11198559 0 34
-3.7661257 -3.099278 0.15706654 0 35
-3.7582557 -3.0928018 0.2015662 0 36
-3.7479172 -3.0842936 0.24575034 0 37
-3.7498298 -3.0858676 0.29067892 0 38
-3.7557693 -3.0907555 0.33606291 0 39
-3.7449667 -3.0818658 0.37994763 0 40
-3.751848 -3.0875285 0.42564431 0 41
-3.7522976 -3.0878985 0.47077185 0 42
-3.7426989 -3.0799994 0.51460898 0 43
-3.7607677 -3.0948689 0.56244069 0 44
-3.7462575 -3.0829279 0.60553908 0 45
-3.7503831 -3.086323 0.65162838 0 46
-3.7435455 -3.0806961 0.69589204 0 47
-3.761744 -3.0956721 0.74506831 0 48
-3.7463264 -3.0829847 0.78774887 0 49
-3.7386818 -3.0766935 0.83191878 0 50
-3.7466297 -3.0832341 0.87970728 0 51
-3.7574832 -3.0921659 0.92856312 0 52
-3.7427647 -3.0800536 0.97121406 0 53
-3.7584906 -3.0929949 1.0219492 0 54
-3.7489412 -3.0851364 1.0660685 0 55
-3.759582 -3.0938931 1.1161326 0 56
-3.7529461 -3.0884323 1.161316 0 57
-3.7628758 -3.0966036 1.2118752 0 58
-3.7441659 -3.0812066 1.2533166 0 59
-3.7524519 -3.0880256 1.3038892 0 60
-3.755022 -3.0901406 1.3528504 0 61
-3.7575514 -3.0922222 1.4021093 0 62
-3.7509723 -3.086808 1.4481735 0 63
-1.8958083 -1.5996264 -0.7394709 0 0
-1.9478067 -1.6435012 -0.73429859 0 1
-2.0096402 -1.6956745 -0.73148525 0 2
-2.0902112 -1.7636577 -0.73377955 0 3
-2.1790986 -1.8386583 -0.73694068 0 4
-2.2675798 -1.9133161 -0.73782021 0 5
-2.358228 -1.9898025 -0.73724836 0 6
-2.450093 -2.0673153 -0.73486698 0 7
-2.5508099 -2.1522973 -0.73283219 0 8
-2.6743512 -2.2565377 -0.73465627 0 9
-2.8070927 -2.368541 -0.73591751 0 10
-2.9376917 -2.4787366 -0.73345 0 11
-3.094667 -2.6111877 -0.73411024 0 12
-3.2727165 -2.7614205 -0.73573387 0 13
-3.463284 -2.9222157 -0.73573297 0 14
-3.6845334 -3.1088994 -0.73729163 0 15
-3.7196159 -3.1385009 -0.69856495 0 16
-3.6975772 -3.1199055 -0.64907002 0 17
-3.6973352 -3.1197011 -0.60378641 0 18
-3.7113068 -3.13149 -0.56076002 0 19
-3.709048 -3.1295841 -0.51523441 0 20
-3.7153425 -3.1348951 -0.47093612 0 21
-3.7143228 -3.1340349 -0.42572701 0 22
-3.7031481 -3.1246059 -0.3795743 0 23
-3.7040219 -3.1253431 -0.33484605 0 24
-3.7063663 -3.1273212 -0.29026872 0 25
-3.6998491 -3.1218224 -0.24509706 0 26
-3.7089407 -3.1294935 -0.20096999 0 27
-3.6877975 -3.1116533 -0.15538386 0 28
-3.7067873 -3.1276765 -0.1115411 0 29
-3.7118051 -3.1319103 -0.067007698 0 30
-3.6830301 -3.107631 -0.022161495 0 31
-3.7042952 -3.1255736 0.022289451 0 32
-3.6866162 -3.1106567 0.066552974 0 33
-3.689239 -3.1128697 0.11101305 0 34
-3.7061491 -3.1271381 0.15615709 0 35
-3.705209 -3.1263447 0.20076779 0 36
-3.7054851 -3.1265776 0.2454704 0 37
-3.7006207 -3.1224732 0.28981876 0 38
-3.7005441 -3.1224086 0.33453164 0 39
-3.7022107 -3.1238148 0.37947819 0 40
-3.7111282 -3.1313391 0.42536083 0 41
-3.7043774 -3.125643 0.46954623 0 42
-3.7202485 -3.1390345 0.51679027 0 43
-3.7087271 -3.1293132 0.56037021 0 44
-3.7064855 -3.1274219 0.60528064 0 45
-3.7056496 -3.1267166 0.65048707 0 46
-3.7076275 -3.1283855 0.69631344 0 47
-3.7018514 -3.1235118 0.74075705 0 48
-3.6980133 -3.1202731 0.78559834 0 49
-3.714884 -3.1345081 0.83513683 0 50
-3.7073901 -3.128185 0.87945908 0 51
-3.7092993 -3.129796 0.92609644 0 52
-3.6989033 -3.1210241 0.96971774 0 53
-3.7016883 -3.1233742 1.0168704 0 54
-3.6998107 -3.1217899 1.0629332 0 55
-3.7052693 -3.1263957 1.1113374 0 56
-3.7044117 -3.1256719 1.1581032 0 57
-3.698179 -3.1204131 1.2033055 0 58
-3.7093823 -3.1298661 1.2544613 0 59
-3.712446 -3.1324511 1.3032736 0 60
-3.7012343 -3.1229911 1.3472054 0 61
-3.707988 -3.1286895 1.3978648 0 62
-3.7088125 -3.1293852 1.4466436 0 63
-1.8557616 -1.6053113 -0.73149478 0 0
-1.93759 -1.6760962 -0.73816097 0 1
-1.9988656 -1.7291023 -0.7352469 0 2
-2.0704715 -1.7910444 -0.73452586 0 3
-2.1461024 -1.8564682 -0.73344648 0 4
-2.2256517 -1.9252818 -0.73182553 0 5
-2.3177664 -2.0049648 -0.73225117 0 6
-2.431849 -2.103651 -0.7370978 0 7
-2.5331919 -2.1913168 -0.73545635 0 8
-2.6586785 -2.2998681 -0.73806387 0 9
-2.7780046 -2.40309 -0.73598284 0 10
-2.9135549 -2.5203466 -0.73510581 0 11
-3.0745056 -2.6595757 -0.73702967 0 12
-3.2173667 -2.7831564 -0.73092914 0 13
-3.4159977 -2.9549806 -0.73335123 0 14
-3.6206346 -3.1320002 -0.7321564 0 15
-3.6556187 -3.1622627 -0.69379616 0 16
-3.6664457 -3.1716287 -0.65040207 0 17
-3.6722519 -3.1766512 -0.60602325 0 18
-3.66098 -3.1669006 -0.55899751 0 19
-3.6664872 -3.1716645 -0.51470089 0 20
-3.6579165 -3.1642506 -0.4685536 0 21
-3.663049 -3.1686904 -0.42428398 0 22
-3.6641071 -3.1696057 -0.37953883 0 23
-3.6634088 -3.1690016 -0.33467194 0 24
-3.6496415 -3.1570923 -0.28884476 0 25
-3.652349 -3.1594346 -0.24450554 0 26
-3.6464221 -3.1543074 -0.19966899 0 27
-3.6682107 -3.1731555 -0.1561908 0 28
-3.6576231 -3.1639967 -0.11122402 0 29
-3.6565592 -3.1630764 -0.06670747 0 30
-3.6456664 -3.1536536 -0.022168333 0 31
-3.6565511 -3.1630695 0.022234522 0 32
-3.6641083 -3.1696067 0.066845186 0 33
-3.6604881 -3.1664751 0.11131114 0 34
-3.6560247 -3.1626141 0.15567191 0 35
-3.6608717 -3.1668069 0.20046021 0 36
-3.6581264 -3.164432 0.2448923 0 37
-3.6472802 -3.1550498 0.28865787 0 38
-3.659842 -3.1659162 0.33434612 0 39
-3.650084 -3.1574752 0.3780863 0 40
-3.6623769 -3.1681089 0.42420611 0 41
-3.6557503 -3.1623766 0.46827611 0 42
-3.6619542 -3.1677434 0.51406455 0 43
-3.6501422 -3.1575255 0.55734271 0 44
-3.65481 -3.1615632 0.60314482 0 45
-3.6669869 -3.1720967 0.65049803 0 46
-3.6578417 -3.1641858 0.6942181 0 47
-3.6514184 -3.1586294 0.73838145 0 48
-3.6647072 -3.1701248 0.78674453 0 49
-3.6656787 -3.1709652 0.83277774 0 50
-3.663038 -3.1686809 0.8781144 0 51
-3.6459465 -3.1538959 0.91989219 0 52
-3.6486416 -3.1562274 0.96664262 0 53
-3.6548035 -3.1615577 1.0145937 0 54
-3.64905 -3.1565807 1.0594211 0 55
-3.6544149 -3.1612215 1.1076597 0 56
-3.661634 -3.1674664 1.1568187 0 57
-3.6676116 -3.1726372 1.2059621 0 58
-3.6565342 -3.1630547 1.2496479 0 59
-3.661001 -3.1669188 1.2987862 0 60
-3.6651454 -3.1705039 1.348158 0 61
-3.6592078 -3.1653676 1.3940433 0 62
-3.6484399 -3.1560531 1.4381237 0 63
-1.838239 -1.6300966 -0.73243338 0 0
-1.8961502 -1.6814506 -0.7301954 0 1
-1.9839344 -1.7592951 -0.7376563 0 2
-2.0480328 -1.8161356 -0.73443246 0 3
-2.1323011 -1.8908622 -0.73662025 0 4
-2.2084684 -1.9584053 -0.73403817 0 5
-2.3019109 -2.0412672 -0.73511624 0 6
-2.3991802 -2.1275229 -0.73506969 0 7
-2.5032644 -2.2198217 -0.73463678 0 8
-2.6335635 -2.3353672 -0.73900783 0 9
-2.751096 -2.4395916 -0.73674572 0 10
-2.8834982 -2.5570018 -0.73539978 0 11
-3.0315354 -2.688277 -0.73459756 0 12
-3.2020507 -2.8394849 -0.73532623 0 13
-3.3943429 -3.010004 -0.73659253 0 14
-3.6189091 -3.2091429 -0.73973131 0 15
-3.6015935 -3.1937881 -0.69094402 0 16
-3.6054981 -3.1972504 -0.64651567 0 17
-3.6108527 -3.2019987 -0.60234284 0 18
-3.6000481 -3.1924174 -0.5556457 0 19
-3.6096573 -3.2009385 -0.51220977 0 20
-3.6077042 -3.1992066 -0.46712545 0 21
-3.6032104 -3.1952217 -0.42187196 0 22
-3.6083694 -3.1997964 -0.37781239 0 23
-3.6043315 -3.1962159 -0.33284026 0 24
-3.6167166 -3.2071986 -0.28933826 0 25
-3.6160638 -3.2066197 -0.24469759 0 26
-3.6084559 -3.1998732 -0.1997295 0 27
-3.6042857 -3.1961751 -0.15513061 0 28
-3.6078155 -3.1993055 -0.11089733 0 29
-3.6156468 -3.20625 -0.066675305 0 30
-3.6028178 -3.1948736 -0.022144994 0 31
-3.6164172 -3.2069333 0.022228584 0 32
-3.6099617 -3.2012086 0.066570468 0 33
-3.6129978 -3.2039008 0.11105662 0 34
-3.610178 -3.2014005 0.15538423 0 35
-3.6169147 -3.2073743 0.2001977 0 36
-3.6157613 -3.2063515 0.2446771 0 37
-3.6153579 -3.2059937 0.28922957 0 38
-3.6160674 -3.2066228 0.333924 0 39
-3.6043966 -3.1962736 0.37739643 0 40
-3.6227555 -3.2125537 0.42416033 0 41
-3.6105678 -3.201746 0.46749625 0 42
-3.6178303 -3.2081861 0.5133695 0 43
-3.6000896 -3.1924541 0.55565208 0 44
-3.6007462 -3.1930363 0.60065687 0 45
-3.6053727 -3.1971393 0.6464932 0 46
-3.6115892 -3.2026517 0.69286162 0 47
-3.6141336 -3.2049081 0.73875511 0 48
-3.6090825 -3.200429 0.78319228 0 49
-3.6194334 -3.2096078 0.83117497 0 50
-3.6083477 -3.1997771 0.87436992 0 51
-3.6000574 -3.1924257 0.91814911 0 52
-3.6090016 -3.2003572 0.96649349 0 53
-3.6080143 -3.1994817 1.0124499 0 54
-3.6097198 -3.200994 1.0593499 0 55
-3.6190233 -3.209244 1.1088097 0 56
-3.6029522 -3.1949928 1.1506044 0 57
-3.6120086 -3.2030237 1.2005389 0 58
-3.6145627 -3.2052886 1.2486793 0 59
-3.614922 -3.2056072 1.296325 0 60
-3.6157663 -3.2063558 1.3443956 0 61
-3.6109834 -3.2021146 1.3905667 0 62
-3.6247594 -3.2143309 1.44426 0 63
-1.834433 -1.6674608 -0.73903066 0 0
-1.8883017 -1.7164264 -0.73524517 0 1
-1.94037 -1.7637553 -0.72946715 0 2
-2.0223615 -1.838284 -0.73327726 0 3
-2.11502 -1.9225086 -0.73876125 0 4
-2.1924314 -1.9928739 -0.73679715 0 5
-2.2821035 -2.074384 -0.73688096 0 6
-2.3892698 -2.1717958 -0.74015945 0 7
-2.4772167 -2.2517378 -0.73506272 0 8
-2.5918193 -2.3559091 -0.73536748 0 9
-2.7267599 -2.4785671 -0.7383346 0 10
-2.8518569 -2.5922778 -0.73540401 0 11
-2.9756086 -2.7047656 -0.72904962 0 12
-3.1484525 -2.861877 -0.73104393 0 13
-3.3395369 -3.0355687 -0.73274404 0 14
-3.5614247 -3.2372599 -0.73606223 0 15
-3.5705683 -3.2455711 -0.69259596 0 16
-3.552918 -3.2295275 -0.6441595 0 17
-3.5662937 -3.2416856 -0.60151368 0 18
-3.5659969 -3.241416 -0.5564999 0 19
-3.5508256 -3.2276254 -0.50945485 0 20
-3.5668676 -3.2422073 -0.46696472 0 21
-3.5629938 -3.2386861 -0.42179415 0 22
-3.5647335 -3.2402675 -0.37738681 0 23
-3.553148 -3.2297366 -0.33175606 0 24
-3.5566721 -3.23294 -0.28769326 0 25
-3.5652292 -3.2407181 -0.24393576 0 26
-3.5561409 -3.2324569 -0.19901885 0 27
-3.5563135 -3.2326138 -0.15476501 0 28
-3.555676 -3.2320344 -0.11050792 0 29
-3.5491161 -3.2260718 -0.066174962 0 30
-3.5547099 -3.2311563 -0.022091839 0 31
-3.5563519 -3.2326488 0.022102045 0 32
-3.5641246 -3.2397141 0.066454798 0 33
-3.5548143 -3.2312512 0.11048114 0 34
-3.5501437 -3.2270057 0.15449652 0 35
-3.5582654 -3.2343884 0.19913776 0 36
-3.5542216 -3.2307124 0.24318261 0 37
-3.5662899 -3.2416823 0.28847125 0 38
-3.5609627 -3.23684 0.33248571 0 39
-3.5627615 -3.2384751 0.37717804 0 40
-3.5584931 -3.2345951 0.42126134 0 41
-3.5571163 -3.2333436 0.46568811 0 42
-3.5618258 -3.2376244 0.51103312 0 43
-3.5658646 -3.2412956 0.55647922 0 44
-3.5654223 -3.2408938 0.60136676 0 45
-3.5638745 -3.2394867 0.646146 0 46
-3.5701847 -3.2452226 0.69252157 0 47
-3.5623083 -3.2380631 0.7362448 0 48
-3.5710862 -3.246042 0.78354937 0 49
-3.5623956 -3.2381425 0.82715797 0 50
-3.5698624 -3.2449296 0.8746469 0 51
-3.5628064 -3.2385159 0.91873544 0 52
-3.5568655 -3.2331157 0.96310526 0 53
-3.5629625 -3.2386577 1.0109065 0 54
-3.5537305 -3.2302661 1.0544958 0 55
-3.5604239 -3.2363501 1.1029651 0 56
-3.5608635 -3.2367499 1.1497868 0 57
-3.5674264 -3.2427154 1.1988834 0 58
-3.550406 -3.2272441 1.2401311 0 59
-3.5646491 -3.2401907 1.292487 0 60
-3.5565042 -3.2327874 1.3370404 0 61
-3.5697091 -3.2447903 1.3899323 0 62
-3.5684106 -3.2436101 1.4375914 0 63
-1.8135135 -1.6896307 -0.73891723 0 0
-1.8809582 -1.7524681 -0.74072039 0 1
-1.9223503 -1.7910328 -0.73091704 0 2
-2.0049653 -1.8680042 -0.73524255 0 3
-2.0716438 -1.9301279 -0.7318449 0 4
-2.1578538 -2.0104487 -0.73342937 0 5
-2.2424586 -2.0892742 -0.73231983 0 6
-2.3436847 -2.1835854 -0.7343002 0 7
-2.4463172 -2.279207 -0.73415458 0 8
-2.5526414 -2.378268 -0.7324937 0 9
-2.6818457 -2.4986463 -0.73443687 0 10
-2.8186162 -2.6260738 -0.73510367 0 11
-2.9643168 -2.7618215 -0.73454815 0 12
-3.1454751 -2.9306047 -0.73866403 0 13
-3.3303187 -3.1028214 -0.73903704 0 14
-3.4980917 -3.2591338 -0.73120022 0 15
-3.520807 -3.2802973 -0.69071549 0 16
-3.52144 -3.2808874 -0.64571804 0 17
-3.5117865 -3.271893 -0.59906077 0 18
-3.5268891 -3.285964 -0.55666035 0 19
-3.5120065 -3.2720981 -0.50961947 0 20
-3.5089109 -3.2692139 -0.46460491 0 21
-3.527035 -3.2860999 -0.42228886 0 22
-3.5226097 -3.2819772 -0.37717125 0 23
-3.5183983 -3.2780533 -0.33224997 0 24
-3.5133536 -3.2733531 -0.28742337 0 25
-3.5146761 -3.2745855 -0.24321352 0 26
-3.5114987 -3.271625 -0.19875687 0 27
-3.5141366 -3.2740827 -0.15466988 0 28
-3.5112758 -3.2714174 -0.11036987 0 29
-3.5107853 -3.2709603 -0.066205204 0 30
-3.5096974 -3.2699468 -0.022060318 0 31
-3.5106699 -3.2708528 0.022066431 0 32
-3.5252755 -3.2844608 0.066478454 0 33
-3.5163791 -3.2761719 0.11053029 0 34
-3.5153587 -3.2752213 0.15472367 0 35
-3.5203185 -3.2798424 0.19925609 0 36
-3.5282307 -3.287214 0.24415149 0 37
-3.5032983 -3.2639849 0.28660077 0 38
-3.5172672 -3.2769995 0.33214316 0 39
-3.5112154 -3.2713611 0.37595123 0 40
-3.5106959 -3.2708769 0.42033258 0 41
-3.5242448 -3.2835004 0.46663523 0 42
-3.5046976 -3.2652886 0.50855893 0 43
-3.5160651 -3.2758796 0.55495197 0 44
-3.5044966 -3.2651012 0.59781724 0 45
-3.520319 -3.2798429 0.64551246 0 46
-3.5194466 -3.2790301 0.69044864 0 47
-3.5206995 -3.2801974 0.73592591 0 48
-3.5152464 -3.2751167 0.78007472 0 49
-3.5229299 -3.2822752 0.82730317 0 50
-3.5234802 -3.282788 0.87310708 0 51
-3.5138524 -3.273818 0.91642338 0 52
-3.5192623 -3.2788584 0.96376765 0 53
-3.5173762 -3.277101 1.0093293 0 54
-3.5156987 -3.2755382 1.0550824 0 55
-3.5120308 -3.2721207 1.1003549 0 56
-3.5144324 -3.2743583 1.1477084 0 57
-3.5184855 -3.2781346 1.1958923 0 58
-3.5064139 -3.2668874 1.2387029 0 59
-3.5161397 -3.275949 1.2894067 0 60
-3.5159755 -3.2757959 1.3368461 0 61
-3.512907 -3.2729371 1.383381 0 62
-3.5200083 -3.2795534 1.4342296 0 63
-1.7842613 -1.7038369 -0.73547941 0 0
-1.8509041 -1.7674758 -0.73738807 0 1
-1.913916 -1.8276474 -0.73619938 0 2
-1.986583 -1.8970389 -0.73700005 0 3
-2.056967 -1.9642507 -0.7351371 0 4
-2.1389802 -2.042567 -0.73549557 0 5
-2.2314003 -2.1308212 -0.73720944 0 6
-2.3310356 -2.2259655 -0.73885703 0 7
-2.4226491 -2.3134496 -0.73553324 0 8
-2.5381835 -2.4237766 -0.73684162 0 9
-2.6671813 -2.5469596 -0.73894185 0 10
-2.7716138 -2.6466851 -0.73127776 0 11
-2.9212923 -2.7896168 -0.73233151 0 12
-3.0847008 -2.9456599 -0.73284268 0 13
-3.2768908 -3.1291871 -0.73566389 0 14
-3.4730656 -3.3165193 -0.734438 0 15
-3.4675438 -3.3112466 -0.68820208 0 16
-3.4708998 -3.3144512 -0.64387524 0 17
-3.4688308 -3.3124757 -0.59863621 0 18
-3.4679377 -3.3116226 -0.55374116 0 19
-3.4615812 -3.3055527 -0.50816214 0 20
-3.4752388 -3.3185947 -0.46551445 0 21
-3.4659448 -3.3097196 -0.41981557 0 22
-3.4721799 -3.3156736 -0.37610862 0 23
-3.4686222 -3.3122761 -0.33137059 0 24
-3.4588349 -3.3029301 -0.28626424 0 25
-3.4761429 -3.319458 -0.2433532 0 26
-3.4674473 -3.3111544 -0.19855304 0 27
-3.4645834 -3.3084197 -0.15426777 0 28
-3.4786663 -3.3218677 -0.11062045 0 29
-3.4774234 -3.3206806 -0.066341065 0 30
-3.4691036 -3.3127358 -0.022059537 0 31
-3.4747484 -3.3181262 0.022095433 0 32
-3.4591761 -3.3032558 0.065992951 0 33
-3.4701183 -3.3137047 0.11034862 0 34
-3.4774907 -3.320745 0.1548425 0 35
-3.4679585 -3.3116424 0.19858231 0 36
-3.469543 -3.3131557 0.24289116 0 37
-3.4721348 -3.3156304 0.28736499 0 38
-3.4659832 -3.3097563 0.33111849 0 39
-3.4754426 -3.3187892 0.37646204 0 40
-3.4709575 -3.3145063 0.42042273 0 41
-3.4693508 -3.3129721 0.46472573 0 42
-3.4618914 -3.3058491 0.50820768 0 43
-3.4647069 -3.3085375 0.55322534 0 44
-3.4666657 -3.3104081 0.59826255 0 45
-3.4676726 -3.3113694 0.64327657 0 46
-3.4684229 -3.3120861 0.68837661 0 47
-3.4739606 -3.317374 0.73462731 0 48
-3.4671173 -3.3108392 0.77836984 0 49
-3.4704852 -3.3140554 0.82449484 0 50
-3.4744854 -3.3178751 0.87101012 0 51
-3.4679244 -3.3116097 0.91499615 0 52
-3.4676459 -3.3113441 0.96071035 0 53
-3.4613609 -3.3053422 1.0048425 0 54
-3.465091 -3.3089042 1.0520259 0 55
-3.462899 -3.3068111 1.0976183 0 56
-3.4652274 -3.3090346 1.1448408 0 57
-3.4753218 -3.3186738 1.1950012 0 58
-3.4665072 -3.3102567 1.2388911 0 59
-3.4634919 -3.3073771 1.2849168 0 60
-3.4720626 -3.3155615 1.33555 0 61
-3.4712408 -3.3147769 1.3829197 0 62
-3.4724412 -3.315923 1.4313536 0 63
-1.7548611 -1.7175078 -0.7320106 0 0
-1.8310983 -1.7921222 -0.73822105 0 1
-1.8833424 -1.8432543 -0.73310208 0 2
-1.9432338 -1.901871 -0.72953898 0 3
-2.0393238 -1.9959157 -0.73754716 0 4
-2.1058984 -2.0610731 -0.7327795 0 5
-2.1885319 -2.1419475 -0.73169291 0 6
-2.2881093 -2.2394056 -0.73392367 0 7
-2.3817711 -2.3310738 -0.73176968 0 8
-2.4933214 -2.4402497 -0.73247361 0 9
-2.6165922 -2.5608964 -0.73359495 0 10
-2.7569823 -2.6982985 -0.73611599 0 11
-2.9024663 -2.8406854 -0.73631299 0 12
-3.0711215 -3.0057507 -0.73834151 0 13
-3.218379 -3.1498737 -0.73116809 0 14
-3.422915 -3.3500562 -0.73248857 0 15
-3.4253855 -3.352474 -0.68796456 0 16
-3.4190197 -3.3462436 -0.64183563 0 17
-3.4278383 -3.3548746 -0.59863591 0 18
-3.4218097 -3.3489742 -0.55290937 0 19
-3.4227843 -3.3499281 -0.5084753 0 20
-3.4079671 -3.3354266 -0.46196225 0 21
-3.4306269 -3.3576038 -0.42050675 0 22
-3.4185183 -3.345753 -0.37472403 0 23
-3.4245114 -3.3516185 -0.33106875 0 24
-3.419626 -3.346837 -0.2864036 0 25
-3.4275563 -3.3545985 -0.2428212 0 26
-3.4203136 -3.3475101 -0.19819613 0 27
-3.424372 -3.3514819 -0.15430063 0 28
-3.4218676 -3.3490312 -0.11011549 0 29
-3.4248962 -3.3519952 -0.066120312 0 30
-3.4159648 -3.3432539 -0.021981388 0 31
-3.4224849 -3.3496351 0.022023344 0 32
-3.4219651 -3.3491266 0.066063724 0 33
-3.4261637 -3.3532355 0.11025374 0 34
-3.4238441 -3.3509655 0.15427685 0 35
-3.4286408 -3.3556602 0.19867867 0 36
-3.426393 -3.3534603 0.24273881 0 37
-3.4206171 -3.3478072 0.28648663 0 38
-3.4256399 -3.3527231 0.33117783 0 39
-3.4248705 -3.35197 0.37542036 0 40
-3.424787 -3.3518884 0.41979095 0 41
-3.4350545 -3.3619373 0.46563402 0 42
-3.4212401 -3.348417 0.50824594 0 43
-3.4152219 -3.3425269 0.55184489 0 44
-3.4319782 -3.3589265 0.59935892 0 45
-3.4152117 -3.3425169 0.64112079 0 46
-3.4274466 -3.3544912 0.68837851 0 47
-3.4239569 -3.3510756 0.73271155 0 48
-3.4295053 -3.3565061 0.7791329 0 49
-3.4066904 -3.334177 0.81901711 0 50
-3.4092164 -3.3366492 0.8648681 0 51
-3.421351 -3.3485253 0.91350275 0 52
-3.420145 -3.3473451 0.95888132 0 53
-3.425127 -3.352221 1.006214 0 54
-3.4246387 -3.3517432 1.0521779 0 55
-3.4235344 -3.3506622 1.0981175 0 56
-3.4242876 -3.3513994 1.1448437 0 57
-3.4129186 -3.3402724 1.1875771 0 58
-3.4187949 -3.3460236 1.2364502 0 59
-3.4162514 -3.3435345 1.2825469 0 60
-3.4128726 -3.3402274 1.3284807 0 61
-3.419754 -3.3469625 1.3786997 0 62
-3.4190946 -3.3463171 1.4262174 0 63
-1.7471211 -1.752507 -0.7377153 0 0
-1.801895 -1.8074497 -0.73535222 0 1
-1.8615388 -1.8672773 -0.73349714 0 2
-1.9426912 -1.9486799 -0.73827535 0 3
-2.0086582 -2.0148504 -0.73536134 0 4
-2.0788651 -2.0852735 -0.73223984 0 5
-2.1728988 -2.1795971 -0.73537123 0 6
-2.2578013 -2.2647614 -0.73307937 0 7
-2.3686869 -2.3759887 -0.73667037 0 8
-2.4848626 -2.4925225 -0.73893666 0 9
-2.5839212 -2.5918865 -0.73331529 0 10
-2.7128737 -2.7212367 -0.73321778 0 11
-2.8511078 -2.8598969 -0.73215002 0 12
-3.0314293 -3.0407743 -0.73773253 0 13
-3.2165489 -3.2264645 -0.73970979 0 14
-3.3782411 -3.3886549 -0.73179013 0 15
-3.3785949 -3.38901 -0.68688476 0 16
-3.3701038 -3.3804927 -0.64040786 0 17
-3.3772573 -3.3876684 -0.59703219 0 18
-3.3814161 -3.39184 -0.5530799 0 19
-3.3742635 -3.3846653 -0.50741172 0 20
-3.3809714 -3.3913939 -0.46392071 0 21
-3.3800268 -3.3904464 -0.41938296 0 22
-3.3730023 -3.3834002 -0.37426692 0 23
-3.3853085 -3.3957443 -0.33129048 0 24
-3.3757098 -3.386116 -0.28619111 0 25
-3.3765707 -3.3869796 -0.24214138 0 26
-3.3787251 -3.3891406 -0.19818613 0 27
-3.3759198 -3.3863266 -0.15398203 0 28
-3.3666146 -3.3769929 -0.10966544 0 29
-3.3804424 -3.3908634 -0.06606207 0 30
-3.3736589 -3.3840587 -0.02197526 0 31
-3.3819714 -3.3923969 0.022029407 0 32
-3.3849089 -3.3953435 0.066149354 0 33
-3.3755112 -3.3859167 0.10995524 0 34
-3.3800254 -3.390445 0.15416929 0 35
-3.3716211 -3.3820148 0.19776943 0 36
-3.3815176 -3.3919418 0.24249615 0 37
-3.3813899 -3.3918138 0.28667265 0 38
-3.3662167 -3.3765938 0.32942215 0 39
-3.3632989 -3.373667 0.37319025 0 40
-3.3853836 -3.3958197 0.42004761 0 41
-3.3765399 -3.3869488 0.46331263 0 42
-3.3819728 -3.3923984 0.50857103 0 43
-3.3705614 -3.3809519 0.55130446 0 44
-3.379663 -3.3900814 0.59745741 0 45
-3.372025 -3.3824201 0.640773 0 46
-3.3734837 -3.383883 0.68584561 0 47
-3.3808749 -3.3912971 0.73236066 0 48
-3.3802369 -3.3906569 0.77735311 0 49
-3.3730724 -3.3834705 0.82087517 0 50
-3.3740909 -3.3844922 0.86644942 0 51
-3.3696439 -3.3800316 0.91072536 0 52
-3.3681736 -3.3785565 0.95588565 0 53
-3.3722272 -3.3826227 1.002817 0 54
-3.3653572 -3.3757315 1.0466385 0 55
-3.3743651 -3.3847673 1.0956134 0 56
-3.3713336 -3.3817263 1.1409559 0 57
-3.3744929 -3.3848953 1.1885996 0 58
-3.3725677 -3.3829644 1.2346829 0 59
-3.3667915 -3.3771703 1.279472 0 60
-3.3729515 -3.3833494 1.3290352 0 61
-3.3752117 -3.3856163 1.3774217 0 62
-3.3756335 -3.3860395 1.4253485 0 63
-1.7148234 -1.7629406 -0.73317569 0 0
-1.7752354 -1.825048 -0.73357546 0 1
-1.8379643 -1.8895369 -0.73330778 0 2
-1.9194428 -1.9733016 -0.73860568 0 3
-1.9787518 -2.0342748 -0.7335149 0 4
-2.0507255 -2.108268 -0.73140424 0 5
-2.1400402 -2.200089 -0.73335111 0 6
-2.2306156 -2.2932057 -0.73335266 0 7
-2.3214726 -2.3866124 -0.7310583 0 8
-2.4389894 -2.5074267 -0.7344085 0 9
-2.568418 -2.6404867 -0.73807424 0 10
-2.6824996 -2.7577696 -0.73411816 0 11
-2.8191714 -2.8982763 -0.73304534 0 12
-2.978245 -3.0618136 -0.73389649 0 13
-3.1585443 -3.2471719 -0.73549724 0 14
-3.3248363 -3.4181299 -0.72927123 0 15
-3.321964 -3.4151771 -0.68385744 0 16
-3.3379037 -3.4315641 -0.64225888 0 17
-3.3287485 -3.4221518 -0.59585071 0 18
-3.329607 -3.4230344 -0.5514487 0 19
-3.3265193 -3.4198601 -0.50651747 0 20
-3.339937 -3.4336543 -0.4640485 0 21
-3.3335228 -3.4270601 -0.41880992 0 22
-3.324018 -3.4172885 -0.37346599 0 23
-3.3271303 -3.4204884 -0.32968822 0 24
-3.3316362 -3.4251206 -0.28600359 0 25
-3.3370099 -3.4306452 -0.24231125 0 26
-3.3362725 -3.4298871 -0.19815491 0 27
-3.3307586 -3.4242184 -0.15383103 0 28
-3.316381 -3.4094374 -0.10938649 0 29
-3.3274422 -3.420809 -0.065843366 0 30
-3.3302286 -3.4236736 -0.02196493 0 31
-3.3250058 -3.4183042 0.021930482 0 32
-3.3341455 -3.4277005 0.065976016 0 33
-3.3258045 -3.4191253 0.10969731 0 34
-3.3315585 -3.4250407 0.15386797 0 35
-3.3407278 -3.4344676 0.19841953 0 36
-3.3186312 -3.4117508 0.24097671 0 37
-3.3224311 -3.4156573 0.28521338 0 38
-3.3422849 -3.4360681 0.33118987 0 39
-3.3319054 -3.4253974 0.37435219 0 40
-3.3274848 -3.4208529 0.41805133 0 41
-3.3303082 -3.4237554 0.46271071 0 42
-3.3348305 -3.4284046 0.507783 0 43
-3.3216264 -3.41483 0.55012697 0 44
-3.3242424 -3.4175193 0.59504408 0 45
-3.3206303 -3.413806 0.63893521 0 46
-3.3251946 -3.4184985 0.68452251 0 47
-3.3324938 -3.4260023 0.73095083 0 48
-3.3253067 -3.4186134 0.77432948 0 49
-3.3245881 -3.4178748 0.819242 0 50
-3.3260283 -3.4193554 0.86483902 0 51
-3.3292091 -3.4226253 0.91110277 0 52
-3.3326094 -3.4261212 0.95767641 0 53
-3.3364315 -3.4300506 1.0046389 0 54
-3.3295672 -3.4229937 1.0485188 0 55
-3.330529 -3.4239824 1.0949678 0 56
-3.333777 -3.4273214 1.142422 0 57
-3.3315115 -3.4249926 1.1882048 0 58
-3.3288639 -3.4222705 1.2339958 0 59
-3.3322482 -3.4257498 1.2822561 0 60
-3.3336065 -3.4271464 1.3300365 0 61
-3.3280983 -3.4214835 1.3752605 0 62
-3.3236327 -3.4168925 1.4210249 0 63
-1.7033191 -1.7947468 -0.73763692 0 0
-1.7476808 -1.8414896 -0.73149085 0 1
-1.8177996 -1.915372 -0.73460382 0 2
-1.8706094 -1.9710165 -0.72908562 0 3
-1.9632063 -2.0685835 -0.73712569 0 4
-2.0366182 -2.145936 -0.73572844 0 5
-2.1168678 -2.2304931 -0.73475361 0 6
-2.2053957 -2.3237729 -0.73439997 0 7
-2.2909832 -2.4139543 -0.73074913 0 8
-2.4053626 -2.5344734 -0.73361176 0 9
-2.5193512 -2.6545801 -0.7332989 0 10
-2.644794 -2.7867565 -0.73312181 0 11
-2.7981894 -2.9483855 -0.73696089 0 12
-2.9592416 -3.1180825 -0.73860592 0 13
-3.1061959 -3.2729247 -0.73262364 0 14
-3.2843139 -3.4606032 -0.72966146 0 15
-3.2841363 -3.4604161 -0.68477803 0 16
-3.2813931 -3.4575257 -0.63951761 0 17
-3.2780163 -3.4539676 -0.59432709 0 18
-3.2912517 -3.4679134 -0.55211711 0 19
