# .PCD v0.7 - Point Cloud Data file format
VERSION 0.7
FIELDS x y z intensity ring
SIZE 4 4 4 4 2
TYPE F F F F U
COUNT 1 1 1 1 1
WIDTH 1289
HEIGHT 1
VIEWPOINT 0 0 0 1 0 0 0
POINTS 1289
DATA ascii
-1.9508357 2.6404665 0.53303081 0 49
-1.9450192 2.6325939 0.5623877 0 50
-1.9416218 2.6279953 0.59239519 0 51
-1.9433244 2.6302998 0.6240353 0 52
-1.9449471 2.6324964 0.6558125 0 53
-1.9439027 2.6310825 0.68681508 0 54
-1.9518301 2.6418123 0.72122037 0 55
-1.9515115 2.641381 0.75282979 0 56
-1.9441911 2.6314728 0.78174752 0 57
-1.9451506 2.6327715 0.81403059 0 58
-1.9409835 2.6271315 0.84426159 0 59
-1.950407 2.6398861 0.88064373 0 60
-1.95082 2.640445 0.91328001 0 61
-1.9472156 2.6355665 0.94414872 0 62
-1.9449775 2.6325374 0.97575504 0 63
-1.487558 1.9624639 -0.73411536 0 0
-1.5367448 2.0273538 -0.73298037 0 1
-1.5949138 2.1040933 -0.73449391 0 2
-1.6519662 2.1793597 -0.73373687 0 3
-1.7120552 2.2586322 -0.73254979 0 4
-1.7848588 2.3546786 -0.73477709 0 5
-1.8656644 2.4612815 -0.73794723 0 6
-1.9243751 2.5387359 -0.73026353 0 7
-1.9965278 2.6339233 -0.72571403 0 8
-1.9970806 2.6346526 -0.69410485 0 9
-1.9964327 2.6337979 -0.66220242 0 10
-2.0040979 2.6439104 -0.63306314 0 11
-1.9978986 2.6357317 -0.59963161 0 12
-1.996575 2.6339855 -0.56788677 0 13
-2.0014203 2.6403778 -0.53794038 0 14
-1.9976718 2.6354327 -0.50576025 0 15
-1.9907261 2.6262696 -0.47302482 0 16
-2.0031135 2.6426115 -0.44488069 0 17
-1.9962678 2.6335802 -0.41245541 0 18
-2.0016122 2.640631 -0.38264307 0 19
-1.9996817 2.6380842 -0.35145283 0 20
-2.0056353 2.6459386 -0.32164651 0 21
-1.9964546 2.6338267 -0.28951743 0 22
-1.9958323 2.6330059 -0.25882933 0 23
-1.9968485 2.6343465 -0.22839178 0 24
-1.999081 2.6372917 -0.19808248 0 25
-1.993633 2.6301045 -0.16709484 0 26
-1.9980793 2.6359701 -0.13698019 0 27
-1.9927251 2.6289067 -0.10623068 0 28
-1.9999878 2.6384881 -0.076142713 0 29
-2.000679 2.6394 -0.045696266 0 30
-1.9909852 2.6266112 -0.015157429 0 31
-2.0006886 2.6394124 0.015231301 0 32
-1.9954863 2.6325493 0.045577656 0 33
-1.9939201 2.6304832 0.075911708 0 34
-2.0017376 2.6407964 0.10671112 0 35
-2.0026636 2.6420181 0.13729447 0 36
-1.9964204 2.6337817 0.16732846 0 37
-1.9922591 2.6282921 0.19740652 0 38
-1.9869602 2.6213012 0.22726078 0 39
-1.9886625 2.6235471 0.25789952 0 40
-1.9895625 2.6247344 0.28851798 0 41
-2.0055227 2.6457899 0.32162845 0 42
-1.9943328 2.6310277 0.35051271 0 43
-1.9947908 2.6316319 0.38133904 0 44
-2.0025196 2.6418281 0.41374713 0 45
-2.0014098 2.6403639 0.44450232 0 46
-1.9964927 2.633877 0.47439504 0 47
-1.9992855 2.6375613 0.50616878 0 48
-1.998248 2.6361928 0.53708774 0 49
-2.0031276 2.6426301 0.56975049 0 50
-2.0015185 2.6405072 0.60071802 0 51
-1.9962857 2.6336038 0.63059533 0 52
-1.9910597 2.6267095 0.66042024 0 53
-1.9905353 2.6260176 0.69182998 0 54
-1.9975282 2.6352432 0.72607768 0 55
-1.9999737 2.6384692 0.75895172 0 56
-2.0005915 2.6392846 0.79131645 0 57
-1.9839497 2.6173296 0.81673723 0 58
-1.9927802 2.6289792 0.85266566 0 59
-2.0023131 2.6415555 0.8893469 0 60
-1.9968379 2.6343324 0.91958904 0 61
-2.0078249 2.6488271 0.95767117 0 62
-1.9956814 2.6328068 0.98487616 0 63
-1.5144047 1.9476643 -0.73548961 0 0
-1.5668354 2.015095 -0.73545843 0 1
-1.6237088 2.0882394 -0.73587376 0 2
-1.6813486 2.1623697 -0.73492181 0 3
-1.7512813 2.2523096 -0.73742771 0 4
-1.8236942 2.3454392 -0.73883575 0 5
-1.8889383 2.4293492 -0.73528165 0 6
-1.962624 2.5241158 -0.73294461 0 7
-2.0565777 2.644949 -0.73566395 0 8
-2.0534608 2.6409404 -0.70236057 0 9
-2.0525579 2.6397791 -0.67000139 0 10
-2.0465848 2.6320972 -0.63621217 0 11
-2.0548413 2.6427157 -0.60692292 0 12
-2.0546639 2.6424875 -0.57512343 0 13
-2.0518672 2.6388907 -0.54273683 0 14
-2.0447011 2.6296744 -0.50944173 0 15
-2.0503807 2.6369791 -0.47945857 0 16
-2.0420017 2.6262028 -0.44631171 0 17
-2.0537062 2.6412556 -0.41758096 0 18
-2.0575123 2.6461511 -0.38707983 0 19
-2.0465117 2.6320033 -0.35396844 0 20
-2.0460689 2.6314337 -0.32291731 0 21
-2.0558889 2.644063 -0.29339933 0 22
-2.0461409 2.6315262 -0.26113746 0 23
-2.0493238 2.6356196 -0.23066945 0 24
-2.0442758 2.6291275 -0.19934222 0 25
-2.0558717 2.6440411 -0.16957352 0 26
-2.0589795 2.6480377 -0.13891247 0 27
-2.0407834 2.6246362 -0.10706405 0 28
-2.0393391 2.6227787 -0.076407261 0 29
-2.0521853 2.6392999 -0.046127934 0 30
-2.0564015 2.6447222 -0.015406699 0 31
-2.0348277 2.6169763 0.015245066 0 32
-2.0451245 2.6302192 0.045969229 0 33
-2.0437417 2.6284406 0.07657221 0 34
-2.0509529 2.6377149 0.10759756 0 35
-2.0482917 2.6342924 0.13819142 0 36
-2.0544984 2.6422749 0.16946025 0 37
-2.0484538 2.634501 0.19974965 0 38
-2.0518706 2.6388953 0.23095614 0 39
-2.0546341 2.6424491 0.2622214 0 40
-2.0429657 2.6274426 0.29155502 0 41
-2.0393598 2.6228051 0.32185844 0 42
-2.042989 2.6274726 0.35335916 0 43
-2.0386813 2.6219323 0.38353711 0 44
-2.0387378 2.6220052 0.41453746 0 45
-2.0509756 2.6377442 0.44827315 0 46
-2.0408835 2.6247649 0.47723779 0 47
-2.0454049 2.6305797 0.50961715 0 48
-2.0456564 2.6309032 0.54109401 0 49
-2.0547822 2.6426396 0.57515651 0 50
-2.0551755 2.6431458 0.60702169 0 51
-2.042578 2.6269441 0.63496661 0 52
-2.0475006 2.6332748 0.66835058 0 53
-2.0455575 2.6307759 0.69965732 0 54
-2.0484097 2.6344442 0.73274219 0 55
-2.046397 2.6318557 0.76422983 0 56
-2.0443063 2.6291666 0.79575962 0 57
-2.0490406 2.6352553 0.83013064 0 58
-2.0500252 2.6365218 0.86322254 0 59
-2.0509181 2.6376703 0.89646167 0 60
-2.0502846 2.6368554 0.92920023 0 61
-2.0385036 2.6217041 0.9568553 0 62
-2.0496812 2.6360793 0.99545336 0 63
-1.5309105 1.9197085 -0.73198617 0 0
-1.5883958 1.991793 -0.73402685 0 1
-1.6460997 2.0641518 -0.73446274 0 2
-1.7197522 2.1565094 -0.74006134 0 3
-1.7680609 2.2170868 -0.73295826 0 4
-1.8404901 2.3079107 -0.73408753 0 5
-1.9125456 2.3982656 -0.73293626 0 6
-2.0112102 2.5219877 -0.739452 0 7
-2.0900691 2.6208739 -0.73606038 0 8
-2.0964994 2.6289372 -0.70597106 0 9
-2.1011708 2.6347952 -0.67524308 0 10
-2.0988498 2.6318846 -0.64235049 0 11
-2.1026511 2.6366513 -0.61142182 0 12
-2.1012912 2.6349459 -0.57906187 0 13
-2.0949106 2.626945 -0.5455367 0 14
-2.0920272 2.6233294 -0.51315731 0 15
-2.1017799 2.6355588 -0.48386288 0 16
-2.0993872 2.6325586 -0.45174485 0 17
-2.1060908 2.6409645 -0.42159739 0 18
-2.0993919 2.6325645 -0.38883924 0 19
-2.1094418 2.6451666 -0.3592 0 20
-2.1062477 2.6411614 -0.32726455 0 21
-2.0957425 2.6279881 -0.29445291 0 22
-2.1049428 2.6395252 -0.26447973 0 23
-2.1013005 2.6349576 -0.23285531 0 24
-2.1055288 2.6402597 -0.20213404 0 25
-2.1063542 2.641295 -0.17104559 0 26
-2.104151 2.6385324 -0.13976055 0 27
-2.1006055 2.6340861 -0.10849499 0 28
-2.1060262 2.6408834 -0.077683255 0 29
-2.1004338 2.6338711 -0.046480943 0 30
-2.1052678 2.6399324 -0.015528427 0 31
-2.0975397 2.6302419 0.015471427 0 32
-2.1011806 2.6348071 0.046497464 0 33
-2.105623 2.640378 0.077668384 0 34
-2.1034832 2.6376948 0.10864363 0 35
-2.0938942 2.6256707 0.13907929 0 36
-2.099575 2.6327939 0.17049508 0 37
-2.1012189 2.6348555 0.2017203 0 38
-2.1032732 2.6374314 0.23307392 0 39
-2.1011641 2.6347866 0.26400495 0 40
-2.0949597 2.6270065 0.29434294 0 41
-2.1067007 2.6417291 0.32733491 0 42
-2.1009037 2.6344602 0.35774612 0 43
-2.0988085 2.6318328 0.38873118 0 44
-2.1082861 2.6437175 0.42203692 0 45
-2.1038885 2.6382029 0.45271343 0 46
-2.0958688 2.6281466 0.48250204 0 47
-2.1011422 2.6347592 0.51539314 0 48
-2.0987716 2.6317866 0.54654217 0 49
-2.0999403 2.6332521 0.57868963 0 50
-2.1095889 2.6453509 0.6134392 0 51
-2.1139677 2.650842 0.64697731 0 52
-2.1069937 2.6420965 0.67711425 0 53
-2.1002555 2.6336474 0.70723587 0 54
-2.0937204 2.6254528 0.73734635 0 55
-2.0979459 2.6307511 0.77134168 0 56
-2.1138718 2.6507215 0.81008959 0 57
-2.1001709 2.6335411 0.83766228 0 58
-2.095958 2.6282585 0.86888963 0 59
-2.1031201 2.6372392 0.90503609 0 60
-2.09618 2.6285367 0.93528122 0 61
-2.1012802 2.634932 0.97104013 0 62
-2.1017008 2.6354597 1.0049025 0 63
-1.5486143 1.8936667 -0.72926217 0 0
-1.6211324 1.982343 -0.73783475 0 1
-1.6610394 2.0311418 -0.72992951 0 2
-1.7365216 2.1234424 -0.73598582 0 3
-1.7957187 2.1958294 -0.73317516 0 4
-1.8756549 2.2935767 -0.7368086 0 5
-1.9402419 2.3725545 -0.73231459 0 6
-2.0323069 2.4851327 -0.73591763 0 7
-2.1109383 2.5812845 -0.73217648 0 8
-2.1515799 2.6309814 -0.71357071 0 9
-2.1622508 2.6440301 -0.68437195 0 10
-2.1640368 2.6462138 -0.65229303 0 11
-2.1533003 2.6330853 -0.61668837 0 12
-2.1603651 2.6417241 -0.58634514 0 13
-2.1528876 2.6325805 -0.55216289 0 14
-2.1582971 2.6391952 -0.52141297 0 15
-2.154757 2.6348665 -0.48856321 0 16
-2.1633649 2.6453922 -0.45847729 0 17
-2.1583662 2.6392798 -0.42553315 0 18
-2.149025 2.6278574 -0.39201748 0 19
-2.1525452 2.6321619 -0.36100104 0 20
-2.1574965 2.6382163 -0.33016193 0 21
-2.150738 2.629952 -0.29761362 0 22
-2.1521623 2.6316938 -0.26632658 0 23
-2.147661 2.6261895 -0.2343965 0 24
-2.1530256 2.6327493 -0.20357051 0 25
-2.1534314 2.6332455 -0.17222607 0 26
-2.1450775 2.6230302 -0.14032598 0 27
-2.1514938 2.6308761 -0.10944418 0 28
-2.1500518 2.629113 -0.078108802 0 29
-2.1548772 2.6350133 -0.046965159 0 30
-2.1580563 2.6389008 -0.015677266 0 31
-2.1566434 2.6371732 0.015667001 0 32
-2.1735198 2.65781 0.047371473 0 33
-2.1548233 2.6349475 0.07828214 0 34
-2.1588936 2.639925 0.10982061 0 35
-2.1502969 2.6294127 0.14066742 0 36
-2.1519456 2.6314285 0.17210723 0 37
-2.15258 2.6322045 0.2035284 0 38
-2.1617396 2.643405 0.23593304 0 39
-2.1530061 2.6327255 0.266431 0 40
-2.1497369 2.6287279 0.29747513 0 41
-2.1501462 2.6292284 0.32903713 0 42
-2.1531503 2.6329019 0.36110252 0 43
-2.1542954 2.6343021 0.39297891 0 44
-2.1550622 2.6352396 0.42488173 0 45
-2.1526029 2.6322324 0.45619658 0 46
-2.159718 2.6409328 0.48968807 0 47
-2.1584904 2.6394317 0.52145964 0 48
-2.1487758 2.6275527 0.55110836 0 49
-2.1575978 2.6383402 0.58559406 0 50
-2.1598816 2.6411328 0.61857313 0 51
-2.1466901 2.6250021 0.64706433 0 52
-2.1573551 2.6380434 0.68282241 0 53
-2.1525147 2.6321247 0.71388078 0 54
-2.1550074 2.6351726 0.74746174 0 55
-2.1538739 2.6337867 0.77993822 0 56
-2.1443734 2.6221693 0.80936086 0 57
-2.1620302 2.6437604 0.84930468 0 58
-2.1517458 2.6311843 0.87853765 0 59
-2.1577876 2.6385722 0.91452992 0 60
-2.1508298 2.6300645 0.94516385 0 61
-2.1569371 2.6375325 0.98169845 0 62
-2.1580739 2.6389225 1.0162646 0 63
-1.5849292 1.8901632 -0.73536271 0 0
-1.6373405 1.9526682 -0.73422796 0 1
-1.6950221 2.0214584 -0.73388439 0 2
-1.7677562 2.1081998 -0.73818099 0 3
-1.8288316 2.1810374 -0.73568922 0 4
-1.8980139 2.2635434 -0.73460251 0 5
-1.9744711 2.3547251 -0.73424983 0 6
-2.0569856 2.4531307 -0.73387557 0 7
-2.1386731 2.5505497 -0.73086286 0 8
-2.2063296 2.6312361 -0.72094345 0 9
-2.2048392 2.6294587 -0.68756586 0 10
-2.2110076 2.6368151 -0.65662831 0 11
-2.2066045 2.6315639 -0.62263978 0 12
-2.2149489 2.6415153 -0.59229916 0 13
-2.216717 2.6436241 -0.56015396 0 14
-2.2095206 2.6350415 -0.52592027 0 15
-2.2099369 2.6355381 -0.49368915 0 16
-2.2074311 2.6325495 -0.46092099 0 17
-2.2234497 2.6516533 -0.43190363 0 18
-2.2130852 2.6392927 -0.39775291 0 19
-2.2096894 2.6352427 -0.36512256 0 20
-2.2159729 2.6427367 -0.33411244 0 21
-2.2202497 2.6478369 -0.30270416 0 22
-2.2071776 2.6322474 -0.26910889 0 23
-2.2161019 2.6428905 -0.23830129 0 24
-2.2142005 2.6406226 -0.20626897 0 25
-2.2109647 2.6367636 -0.17422116 0 26
-2.2111957 2.6370392 -0.14251925 0 27
-2.2168152 2.6437411 -0.11110494 0 28
-2.2144532 2.6409242 -0.079262696 0 29
-2.199959 2.6236386 -0.047241006 0 30
-2.2188764 2.6461992 -0.015881516 0 31
-2.2189584 2.6462967 0.015882101 0 32
-2.208797 2.6341786 0.047430791 0 33
-2.2114413 2.6373322 0.079154886 0 34
-2.2108612 2.6366405 0.11080652 0 35
-2.2088068 2.6341901 0.14236528 0 36
-2.2137942 2.6401384 0.17444414 0 37
-2.2153563 2.6420014 0.20637666 0 38
-2.2173822 2.6444173 0.23843896 0 39
-2.2229965 2.6511126 0.27103758 0 40
-2.2005227 2.6243107 0.30001462 0 41
-2.2129803 2.6391675 0.33366123 0 42
-2.2100546 2.6356785 0.36518294 0 43
-2.2113235 2.6371918 0.39743626 0 44
-2.2203608 2.6479692 0.43130356 0 45
-2.2049711 2.6296158 0.46040732 0 46
-2.2036788 2.6280749 0.49229115 0 47
-2.2050409 2.6296992 0.524854 0 48
-2.2097075 2.6352644 0.55838263 0 49
-2.2137344 2.6400669 0.59197444 0 50
-2.2013233 2.6252656 0.6211496 0 51
-2.2146351 2.6411412 0.65770561 0 52
-2.2077587 2.6329405 0.68847632 0 53
-2.2189083 2.6462374 0.72505367 0 54
-2.217206 2.6442072 0.75770044 0 55
-2.2094257 2.6349282 0.78826195 0 56
-2.2120547 2.6380637 0.82260042 0 57
-2.2101865 2.6358356 0.85542494 0 58
-2.2009962 2.6248753 0.88540089 0 59
-2.2120683 2.6380801 0.92371726 0 60
-2.2169721 2.6439283 0.95987028 0 61
-2.2060339 2.6308835 0.98924547 0 62
-2.2152157 2.6418335 1.0277979 0 63
-1.602106 1.8636185 -0.7326445 0 0
-1.6675968 1.9397994 -0.7370438 0 1
-1.7215296 2.0025356 -0.73464429 0 2
-1.7825022 2.0734608 -0.73363644 0 3
-1.8533467 2.1558692 -0.73483139 0 4
-1.9184803 2.2316346 -0.73184764 0 5
-2.0014453 2.3281422 -0.7335794 0 6
-2.0872722 2.4279788 -0.73397392 0 7
-2.1866078 2.5435288 -0.73649997 0 8
-2.2657013 2.6355326 -0.72969902 0 9
-2.2619562 2.6311765 -0.69523549 0 10
-2.2620671 2.6313055 -0.66213292 0 11
-2.2680759 2.6382949 -0.63078344 0 12
-2.2583888 2.6270266 -0.59523225 0 13
-2.270797 2.6414602 -0.56556922 0 14
-2.2596073 2.628444 -0.53010899 0 15
-2.2660785 2.6359715 -0.49895224 0 16
-2.2596765 2.6285243 -0.46504599 0 17
-2.2659488 2.6358206 -0.43383035 0 18
-2.2643471 2.6339574 -0.40111467 0 19
-2.2640355 2.633595 -0.36872366 0 20
-2.2556682 2.6238618 -0.33520749 0 21
-2.2646489 2.6343086 -0.3043181 0 22
-2.2652204 2.6349733 -0.27221468 0 23
-2.263793 2.6333129 -0.23992951 0 24
-2.2638147 2.6333382 -0.20785867 0 25
-2.2581635 2.6267645 -0.17538193 0 26
-2.2677104 2.6378698 -0.14406028 0 27
-2.2665884 2.6365647 -0.11196618 0 28
-2.2662771 2.6362026 -0.079951324 0 29
-2.272315 2.6432261 -0.048093177 0 30
-2.2666976 2.6366918 -0.015990525 0 31
-2.265532 2.6353357 0.015982302 0 32
-2.2737188 2.6448591 0.048122887 0 33
-2.2650712 2.6348 0.079908781 0 34
-2.2632403 2.6326699 0.11180078 0 35
-2.2674356 2.6375499 0.14404282 0 36
-2.2681611 2.6383939 0.17615838 0 37
-2.2622406 2.6315072 0.20771416 0 38
-2.2622814 2.6315546 0.23976931 0 39
-2.2519073 2.619487 0.27061483 0 40
-2.2636583 2.6331563 0.304185 0 41
-2.2596548 2.6284993 0.33579993 0 42
-2.2676909 2.6378472 0.36931899 0 43
-2.2665567 2.6365278 0.40150607 0 44
-2.2779353 2.6497636 0.43612522 0 45
-2.2673738 2.6374784 0.46663013 0 46
-2.2624516 2.6317527 0.49815369 0 47
-2.272933 2.6439447 0.53323519 0 48
-2.2710459 2.6417499 0.56563127 0 49
-2.2706995 2.6413467 0.59847689 0 50
-2.2680824 2.6383026 0.63078529 0 51
-2.2772632 2.6489818 0.66658092 0 52
-2.2635329 2.6330104 0.69572008 0 53
-2.2567208 2.6250863 0.7268067 0 54
-2.2644522 2.6340797 0.76271969 0 55
-2.2651834 2.6349304 0.79653507 0 56
-2.2687562 2.6390862 0.83155549 0 57
-2.2716498 2.6424522 0.86657214 0 58
-2.264719 2.6343899 0.89793587 0 59
-2.2672403 2.6373229 0.93314338 0 60
-2.2590809 2.6278317 0.96403855 0 61
-2.2644591 2.6340878 1.0008447 0 62
-2.2739763 2.6451585 1.0398914 0 63
-1.6211222 1.8394933 -0.73094159 0 0
-1.6834235 1.9101868 -0.73360193 0 1
-1.7440931 1.9790287 -0.73383284 0 2
-1.8060694 2.0493536 -0.73290914 0 3
-1.8747663 2.1273041 -0.7328971 0 4
-1.9608566 2.2249911 -0.7375204 0 5
-2.0372086 2.3116279 -0.73621339 0 6
-2.1320724 2.4192703 -0.73921084 0 7
-2.2272694 2.5272908 -0.73967242 0 8
-2.2980351 2.6075888 -0.72973078 0 9
-2.3262343 2.6395867 -0.70496261 0 10
-2.3215959 2.6343231 -0.67002523 0 11
-2.3323002 2.6464694 -0.63954633 0 12
-2.329062 2.6427948 -0.60524839 0 13
-2.3193207 2.6317415 -0.56955165 0 14
-2.3234828 2.6364641 -0.53744805 0 15
-2.3232398 2.6361885 -0.50436264 0 16
-2.3169785 2.6290839 -0.47015008 0 17
-2.328203 2.6418204 -0.43949664 0 18
-2.3318012 2.6459033 -0.40726954 0 19
-2.3216314 2.6343637 -0.37279999 0 20
-2.3243275 2.6374228 -0.34056553 0 21
-2.3228939 2.6357961 -0.30776635 0 22
-2.3198562 2.6323493 -0.2748698 0 23
-2.3346474 2.6491327 -0.24396814 0 24
-2.3239028 2.6369407 -0.21038273 0 25
-2.323679 2.6366868 -0.1779387 0 26
-2.3278677 2.6414397 -0.14580749 0 27
-2.3252273 2.6384437 -0.11325163 0 28
-2.3233771 2.6363444 -0.080815978 0 29
-2.3217328 2.6344786 -0.048449799 0 30
-2.3388 2.6538448 -0.016267736 0 31
-2.3179185 2.6301506 0.016122492 0 32
-2.3292358 2.6429923 0.048606373 0 33
-2.3173273 2.6294794 0.080605529 0 34
-2.3252301 2.638447 0.11325176 0 35
-2.3256874 2.6389658 0.14567092 0 36
-2.3229177 2.635823 0.17788041 0 37
-2.325069 2.6382639 0.2104883 0 38
-2.3212185 2.6338952 0.24256486 0 39
-2.3266275 2.6400328 0.27567208 0 40
-2.3251507 2.6383567 0.30806535 0 41
-2.3278944 2.6414702 0.34108815 0 42
-2.3207929 2.6334121 0.37266535 0 43
-2.3253469 2.6385796 0.40614223 0 44
-2.3267617 2.6401849 0.43922454 0 45
-2.3248026 2.6379619 0.47173771 0 46
-2.334981 2.6495113 0.50691164 0 47
-2.3143296 2.6260781 0.53533077 0 48
-2.3229635 2.6358752 0.57044625 0 49
-2.3352838 2.6498549 0.60686523 0 50
-2.3248334 2.6379967 0.63749886 0 51
-2.3324263 2.6466126 0.67315096 0 52
-2.3153636 2.6272514 0.7016682 0 53
-2.3249528 2.6381323 0.73827833 0 54
-2.322207 2.6350164 0.77120095 0 55
-2.3159978 2.6279712 0.80297965 0 56
-2.3237927 2.636816 0.83978021 0 57
-2.3288846 2.6425939 0.87594366 0 58
-2.3279798 2.641567 0.91007054 0 59
-2.3246624 2.6378028 0.94335592 0 60
-2.3147819 2.6265912 0.97395194 0 61
-2.3228188 2.635711 1.0122374 0 62
-2.328701 2.6423855 1.0499791 0 63
-1.6513278 1.8279569 -0.73437059 0 0
-1.7147775 1.8981934 -0.73703808 0 1
-1.7703 1.9596546 -0.7346651 0 2
-1.8366119 2.0330591 -0.73510289 0 3
-1.9121348 2.1166604 -0.73727489 0 4
-1.981068 2.1929667 -0.73492432 0 5
-2.0712876 2.2928364 -0.73828453 0 6
-2.1392066 2.3680201 -0.73153341 0 7
-2.245115 2.4852567 -0.73539442 0 8
-2.3508182 2.6022661 -0.73627502 0 9
-2.3689108 2.6222939 -0.70807028 0 10
-2.391717 2.6475394 -0.6808154 0 11
-2.3809814 2.6356556 -0.64395964 0 12
-2.375356 2.6294286 -0.60883045 0 13
-2.381175 2.63587 -0.57673824 0 14
-2.3750865 2.6291301 -0.54186553 0 15
-2.3803113 2.6349139 -0.50968015 0 16
-2.3792658 2.6337564 -0.47618151 0 17
-2.3808091 2.6354647 -0.44327611 0 18
-2.3775759 2.6318858 -0.40958104 0 19
-2.3861692 2.6413982 -0.37791917 0 20
-2.377373 2.6316612 -0.34357041 0 21
-2.3732071 2.6270499 -0.31012908 0 22
-2.3847551 2.639833 -0.27869219 0 23
-2.3795917 2.6341174 -0.24526148 0 24
-2.3796623 2.6341956 -0.2124822 0 25
-2.3780949 2.6324604 -0.17961334 0 26
-2.378669 2.633096 -0.14695035 0 27
-2.3771565 2.6314216 -0.11419626 0 28
-2.3757787 2.6298964 -0.081507683 0 29
-2.3813396 2.6360521 -0.049013551 0 30
-2.3762381 2.6304049 -0.01630193 0 31
-2.3859947 2.6412051 0.016368864 0 32
-2.3772881 2.6315672 0.048930161 0 33
-2.3720586 2.6257782 0.081380054 0 34
-2.3765807 2.630784 0.11416859 0 35
-2.3783052 2.6326933 0.14692788 0 36
-2.3913255 2.6471059 0.18061259 0 37
-2.3845348 2.6395891 0.21291725 0 38
-2.3828869 2.6377647 0.2456011 0 39
-2.3722427 2.6259823 0.27722993 0 40
-2.3825605 2.6374037 0.31135139 0 41
-2.3702333 2.6237578 0.3425386 0 42
-2.3855515 2.6407144 0.37782133 0 43
-2.3871384 2.6424711 0.41122836 0 44
-2.3794036 2.633909 0.44301441 0 45
-2.3781283 2.6324971 0.47595385 0 46
-2.379909 2.6344686 0.50959402 0 47
-2.3840559 2.6390591 0.54391187 0 48
-2.3685627 2.6219087 0.57368338 0 49
-2.3858235 2.6410155 0.61151338 0 50
-2.3860724 2.6412911 0.64533657 0 51
-2.3825305 2.6373703 0.67820042 0 52
-2.389185 2.6447368 0.71413028 0 53
-2.387892 2.6433053 0.74788654 0 54
-2.3787665 2.6332037 0.77917236 0 55
-2.3745978 2.6285892 0.81202894 0 56
-2.3769362 2.6311777 0.84722906 0 57
-2.3790283 2.6334937 0.88255727 0 58
-2.380796 2.6354504 0.91797984 0 59
-2.381191 2.6358876 0.9530704 0 60
-2.3793671 2.6338687 0.98742467 0 61
-2.3838527 2.638834 1.024617 0 62
-2.3825138 2.637352 1.05954 0 63
-1.6715326 1.805197 -0.7334289 0 0
-1.7233452 1.8611528 -0.7308287 0 1
-1.7857343 1.9285309 -0.73117369 0 2
-1.8597277 2.0084412 -0.73441464 0 3
-1.9289954 2.0832479 -0.73384333 0 4
-2.0116339 2.1724946 -0.73629761 0 5
-2.0915165 2.2587652 -0.73553926 0 6
-2.1791177 2.3533714 -0.73523021 0 7
-2.2725666 2.4542928 -0.73444545 0 8
-2.3837306 2.5743463 -0.73661309 0 9
-2.4350407 2.6297591 -0.71811682 0 10
-2.4418495 2.6371124 -0.68580347 0 11
-2.4439681 2.6394002 -0.6521678 0 12
-2.440413 2.6355612 -0.61715209 0 13
-2.438709 2.6337209 -0.58278531 0 14
-2.4524648 2.6485767 -0.55204707 0 15
-2.4373779 2.6322832 -0.51492983 0 16
-2.4354129 2.630161 -0.48090953 0 17
-2.4425228 2.6378396 -0.44869331 0 18
-2.434505 2.6291807 -0.41378748 0 19
-2.4389274 2.6339567 -0.38111651 0 20
-2.4340608 2.628701 -0.34706518 0 21
-2.4441545 2.6396017 -0.31513503 0 22
-2.4381309 2.6330965 -0.28112483 0 23
-2.4347959 2.6294947 -0.2476 0 24
-2.4484267 2.6442156 -0.21570267 0 25
-2.4483037 2.6440828 -0.18244663 0 26
-2.442765 2.6381013 -0.1488948 0 27
-2.4332139 2.6277864 -0.11532823 0 28
-2.4493885 2.6452544 -0.082910866 0 29
-2.4400542 2.6351736 -0.049551349 0 30
-2.4431081 2.6384718 -0.016536856 0 31
-2.4365745 2.6314158 0.016492633 0 32
-2.4365084 2.6313443 0.049479347 0 33
-2.43911 2.6341541 0.082562946 0 34
-2.4312136 2.6256261 0.11523341 0 35
-2.4336257 2.628231 0.14833772 0 36
-2.4513509 2.6473739 0.18267372 0 37
-2.4436662 2.6390746 0.21528327 0 38
-2.4404397 2.6355901 0.24817395 0 39
-2.4346459 2.6293328 0.28072301 0 40
-2.4376504 2.6325777 0.31429645 0 41
-2.4360051 2.6308007 0.34734243 0 42
-2.4392715 2.6343284 0.38117027 0 43
-2.4436934 2.6391037 0.41534919 0 44
-2.4430702 2.6384308 0.44879389 0 45
-2.4487512 2.6445661 0.4835434 0 46
-2.4416518 2.636899 0.51583278 0 47
-2.4467475 2.6424024 0.55076015 0 48
-2.4460745 2.6416755 0.58454543 0 49
-2.4398518 2.6349552 0.61701018 0 50
-2.4430788 2.6384401 0.65193051 0 51
-2.4323564 2.6268601 0.6831373 0 52
-2.4414215 2.6366503 0.7199986 0 53
-2.4402864 2.6354244 0.75408977 0 54
-2.4427805 2.6381178 0.789455 0 55
-2.4447322 2.6402256 0.824848 0 56
-2.4468107 2.6424704 0.86048818 0 57
-2.4445021 2.639977 0.89473587 0 58
-2.4437275 2.6391406 0.92966169 0 59
-2.438355 2.6333385 0.96291709 0 60
-2.4550126 2.6513281 1.0052115 0 61
-2.4472108 2.6429026 1.0378025 0 62
-2.4424031 2.6377103 1.0716686 0 63
-1.6898608 1.7805661 -0.73180872 0 0
-1.7581576 1.8525287 -0.7358759 0 1
-1.8131031 1.9104235 -0.73270595 0 2
-1.8732353 1.9737834 -0.7301091 0 3
-1.9575444 2.062618 -0.73499984 0 4
-2.0396552 2.1491361 -0.73682559 0 5
-2.1151197 2.2286513 -0.73414689 0 6
-2.199636 2.317704 -0.73248196 0 7
-2.2919478 2.4149709 -0.73105687 0 8
-2.3956325 2.5242209 -0.73064417 0 9
-2.5013466 2.6356091 -0.72805834 0 10
-2.4917681 2.6255167 -0.69070387 0 11
-2.4945815 2.6284811 -0.65699947 0 12
-2.5028014 2.6371422 -0.62468159 0 13
-2.4979634 2.6320446 -0.58916664 0 14
-2.49788 2.6319566 -0.55494297 0 15
-2.5015755 2.6358504 -0.52160561 0 16
-2.4968753 2.630898 -0.48662126 0 17
-2.4999716 2.6341605 -0.45326221 0 18
-2.510319 2.6450634 -0.42111337 0 19
-2.4988749 2.6330051 -0.38539574 0 20
-2.4905684 2.6242526 -0.3504948 0 21
-2.4988186 2.6329455 -0.3179847 0 22
-2.4991705 2.6333165 -0.28440785 0 23
-2.4953985 2.6293418 -0.25045601 0 24
-2.495481 2.6294289 -0.21698321 0 25
-2.498019 2.632103 -0.18372564 0 26
-2.4976399 2.6317036 -0.15025575 0 27
-2.4997785 2.6339569 -0.11693925 0 28
-2.4921424 2.625911 -0.083258785 0 29
-2.4931822 2.6270068 -0.049970478 0 30
-2.4998066 2.6339865 -0.016700141 0 31
-2.5020301 2.6363294 0.016714996 0 32
-2.4958072 2.6297724 0.05002309 0 33
-2.5055637 2.6400528 0.083707176 0 34
-2.5052614 2.6397343 0.11719574 0 35
-2.4962122 2.6301994 0.15016986 0 36
-2.5029638 2.6373131 0.18408932 0 37
-2.4969523 2.6309793 0.21711116 0 38
-2.4978409 2.6319153 0.25070116 0 39
-2.4994023 2.6335607 0.28443423 0 40
-2.4981983 2.632292 0.31790578 0 41
-2.4991999 2.6333473 0.35170949 0 42
-2.5019681 2.6362643 0.38587278 0 43
-2.5027535 2.6370916 0.41984424 0 44
-2.4940341 2.6279042 0.45218569 0 45
-2.4954946 2.6294432 0.48635221 0 46
-2.5024896 2.6368134 0.52179617 0 47
-2.4954424 2.6293881 0.5544014 0 48
-2.4990809 2.6332219 0.58943021 0 49
-2.5012314 2.6354878 0.62428975 0 50
-2.4928982 2.6267076 0.65655613 0 51
-2.4982386 2.6323345 0.69249743 0 52
-2.4952314 2.6291659 0.72627842 0 53
-2.4960091 2.6299853 0.76125801 0 54
-2.5062127 2.6407366 0.79940033 0 55
-2.4997909 2.6339703 0.832434 0 56
-2.5020823 2.6363847 0.86845958 0 57
-2.4972699 2.6313138 0.90213889 0 58
-2.4997237 2.6338992 0.93857205 0 59
-2.4953847 2.6293273 0.972597 0 60
-2.5004165 2.6346292 1.010461 0 61
-2.5041611 2.6385748 1.0481154 0 62
-2.5075672 2.6421638 1.0859234 0 63
-1.7122258 1.7602702 -0.73206514 0 0
-1.7817197 1.831714 -0.73625493 0 1
-1.8296677 1.8810074 -0.72999763 0 2
-1.9059354 1.9594152 -0.73340797 0 3
-1.969349 2.0246081 -0.7300294 0 4
-2.0468097 2.1042423 -0.73000765 0 5
-2.1324499 2.1922855 -0.73075002 0 6
-2.2349765 2.2976892 -0.73478639 0 7
-2.331145 2.3965561 -0.73410428 0 8
-2.4217694 2.4897232 -0.72922331 0 9
-2.5659299 2.637929 -0.73735923 0 10
-2.5634806 2.6354108 -0.70154631 0 11
-2.5670488 2.6390793 -0.66748804 0 12
-2.5684488 2.6405184 -0.63291478 0 13
-2.5488493 2.620369 -0.59352392 0 14
-2.5567851 2.6285276 -0.56080651 0 15
-2.5612712 2.6331396 -0.52726173 0 16
-2.5634394 2.6353686 -0.49324116 0 17
-2.5599847 2.6318171 -0.4582409 0 18
-2.5622625 2.6341586 -0.42436132 0 19
-2.5647635 2.63673 -0.39052761 0 20
-2.5609896 2.6328502 -0.35582215 0 21
-2.5575836 2.6293485 -0.32132417 0 22
-2.5654025 2.6373868 -0.28823268 0 23
-2.557538 2.6293015 -0.25342864 0 24
-2.5607243 2.6325772 -0.21982482 0 25
-2.5679932 2.6400502 -0.18647042 0 26
-2.5682907 2.6403561 -0.15254132 0 27
-2.5764029 2.6486957 -0.11899112 0 28
-2.5636687 2.6356044 -0.084559262 0 29
-2.5690567 2.6411436 -0.050836451 0 30
-2.5588584 2.6306589 -0.016877262 0 31
-2.5546484 2.6263309 0.016849495 0 32
-2.5616884 2.6335685 0.050690647 0 33
-2.5516865 2.623286 0.084164046 0 34
-2.5653067 2.6372881 0.11847865 0 35
-2.5628297 2.6347418 0.15221697 0 36
-2.5562305 2.6279576 0.1856163 0 37
-2.5667012 2.6387219 0.22033791 0 38
-2.5607309 2.6325841 0.25374502 0 39
-2.5615983 2.6334758 0.28780526 0 40
-2.5620987 2.6339903 0.3218914 0 41
-2.5683224 2.6403887 0.35684097 0 42
-2.5594087 2.6312249 0.38971224 0 43
-2.5623393 2.6342378 0.42437404 0 44
-2.5552635 2.6269634 0.45739579 0 45
-2.5627167 2.6346257 0.49310216 0 46
-2.5648036 2.6367712 0.52798891 0 47
-2.5583165 2.6301019 0.56114239 0 48
-2.5689447 2.6410284 0.59820336 0 49
-2.5665948 2.6386127 0.63245803 0 50
-2.5712159 2.6433632 0.66857153 0 51
-2.5477626 2.619252 0.69724476 0 52
-2.5569715 2.6287193 0.73478496 0 53
-2.5674322 2.6394732 0.77308404 0 54
-2.5626748 2.6345825 0.8070156 0 55
-2.5519905 2.6235983 0.83901012 0 56
-2.5564461 2.6281791 0.87604553 0 57
-2.559916 2.6317465 0.91301036 0 58
-2.5615284 2.633404 0.94954783 0 59
-2.5542088 2.625879 0.98286498 0 60
-2.5665088 2.6385241 1.0239812 0 61
-2.5673509 2.6393898 1.060899 0 62
-2.5601366 2.6319733 1.0945909 0 63
-1.7451674 1.7505472 -0.73689032 0 0
-1.7983057 1.8038493 -0.73388749 0 1
-1.8544168 1.8601334 -0.7306909 0 2
-1.9412359 1.9472201 -0.73772228 0 3
-2.0095313 2.0157259 -0.73568094 0 4
-2.0844324 2.0908582 -0.73420089 0 5
-2.1706305 2.1773217 -0.73460352 0 6
-2.2733505 2.2803586 -0.73812795 0 7
-2.3655856 2.3728778 -0.73570585 0 8
-2.4814618 2.4891114 -0.73792535 0 9
-2.5775557 2.5855014 -0.73150879 0 10
-2.6317863 2.6398993 -0.71130198 0 11
-2.6238661 2.6319547 -0.67379552 0 12
-2.6266181 2.6347151 -0.63921714 0 13
-2.6287656 2.6368694 -0.60453725 0 14
-2.6262078 2.6343036 -0.56888568 0 15
-2.6418371 2.649981 -0.53709835 0 16
-2.6289091 2.6370132 -0.49956149 0 17
-2.6192548 2.6273293 -0.46303236 0 18
-2.6217453 2.6298273 -0.42882469 0 19
-2.6281257 2.6362274 -0.3952097 0 20
-2.6314862 2.6395981 -0.3610799 0 21
-2.632622 2.6407375 -0.32664737 0 22
-2.6238425 2.6319308 -0.29114047 0 23
-2.6281655 2.6362674 -0.25719553 0 24
-2.6214216 2.6295025 -0.22224289 0 25
-2.6299598 2.638067 -0.18860026 0 26
-2.629051 2.6371555 -0.15421245 0 27
-2.6249959 2.6330879 -0.11973098 0 28
-2.6300545 2.6381621 -0.085672438 0 29
-2.6317589 2.6398718 -0.051430974 0 30
-2.6203949 2.6284728 -0.017068669 0 31
-2.6173983 2.6254671 0.017049149 0 32
-2.6212387 2.6293192 0.051225383 0 33
-2.6256263 2.6337204 0.085528195 0 34
-2.629529 2.637635 0.11993774 0 35
-2.6198099 2.6278858 0.15367039 0 36
-2.6339507 2.6420703 0.18888646 0 37
-2.6343572 2.642478 0.22333957 0 38
-2.634352 2.6424727 0.25780094 0 39
-2.6277199 2.6358204 0.29157069 0 40
-2.6242352 2.6323249 0.32560676 0 41
-2.6229522 2.631038 0.35990891 0 42
-2.6302238 2.6383319 0.39552522 0 43
-2.6260271 2.6341221 0.42952502 0 44
-2.6189325 2.6270058 0.46297535 0 45
-2.6243396 2.6324296 0.49869317 0 46
-2.6163232 2.6243885 0.53191125 0 47
-2.6275308 2.6356306 0.56917226 0 48
-2.6280699 2.6361713 0.60437727 0 49
-2.6279843 2.6360855 0.63954961 0 50
-2.6365461 2.6446738 0.67705172 0 51
-2.6304359 2.6385448 0.71093702 0 52
-2.6255021 2.6335957 0.74511594 0 53
-2.6332507 2.6413684 0.78306371 0 54
-2.6250989 2.6331911 0.81641543 0 55
-2.6264319 2.6345284 0.85276902 0 56
-2.6252959 2.6333888 0.88847536 0 57
-2.6281996 2.6363015 0.92573225 0 58
-2.6251571 2.6332498 0.96105903 0 59
-2.6292577 2.637363 0.9991892 0 60
-2.6190324 2.627106 1.0319704 0 61
-2.6202652 2.6283426 1.0693285 0 62
-2.6244349 2.6325252 1.1081578 0 63
-1.7688932 1.7312412 -0.7378639 0 0
-1.8177098 1.7790188 -0.73282343 0 1
-1.8813744 1.8413281 -0.73233604 0 2
-1.9599842 1.9182646 -0.73582745 0 3
-2.0273721 1.9842182 -0.73322463 0 4
-2.1121318 2.067174 -0.73494858 0 5
-2.1915574 2.1449089 -0.73270446 0 6
-2.2823176 2.233737 -0.73206586 0 7
-2.3906083 2.3397229 -0.73448479 0 8
-2.5004811 2.447257 -0.73457694 0 9
-2.6203461 2.5645704 -0.73464745 0 10
-2.6955636 2.6381869 -0.71971714 0 11
-2.6961343 2.6387455 -0.68396968 0 12
-2.6878443 2.6306317 -0.64619619 0 13
-2.6895308 2.6322825 -0.61102158 0 14
-2.7003438 2.6428654 -0.57786161 0 15
-2.6908784 2.6336014 -0.54044402 0 16
-2.6988125 2.6413667 -0.50663471 0 17
-2.7016432 2.6441369 -0.47181353 0 18
-2.6956823 2.638303 -0.43557888 0 19
-2.6845579 2.6274157 -0.39880735 0 20
-2.6920576 2.6347556 -0.36491814 0 21
-2.6935861 2.6362514 -0.33016449 0 22
-2.6850069 2.6278548 -0.29431951 0 23
-2.6986394 2.6411972 -0.26089418 0 24
-2.688127 2.6309085 -0.22513843 0 25
-2.6841013 2.6269686 -0.190152 0 26
-2.6873457 2.6301439 -0.15572302 0 27
-2.6976588 2.6402376 -0.12155527 0 28
-2.6867254 2.6295366 -0.086458653 0 29
-2.6954479 2.6380737 -0.052037742 0 30
-2.6835535 2.6264324 -0.017268395 0 31
-2.692513 2.6352012 0.017326048 0 32
-2.6941381 2.6367917 0.052012451 0 33
-2.690275 2.6330109 0.086572886 0 34
-2.7008173 2.6433289 0.12169759 0 35
-2.691608 2.6343155 0.15596999 0 36
-2.6914027 2.6341147 0.19066928 0 37
-2.6978033 2.6403787 0.22594884 0 38
-2.708652 2.6509967 0.26186219 0 39
-2.6894591 2.6322124 0.29480755 0 40
-2.7009521 2.6434605 0.33106735 0 41
-2.7010369 2.6435437 0.3661353 0 42
-2.6897693 2.6325159 0.39958149 0 43
-2.6893132 2.6320696 0.43454975 0 44
-2.6940944 2.636749 0.47049525 0 45
-2.6953409 2.6379688 0.505983 0 46
-2.6878107 2.630599 0.53982788 0 47
-2.6955597 2.6381831 0.57683784 0 48
-2.6908236 2.6335478 0.61131531 0 49
-2.6983588 2.6409225 0.64872402 0 50
-2.6904578 2.6331899 0.68252963 0 51
-2.6860068 2.6288335 0.71716547 0 52
-2.7102799 2.6525898 0.75986153 0 53
-2.7004805 2.6429992 0.79333156 0 54
-2.7005918 2.6431081 0.82972336 0 55
-2.6889458 2.6317101 0.86249411 0 56
-2.6867652 2.6295757 0.89826751 0 57
-2.6867239 2.6295354 0.93488663 0 58
-2.7019608 2.6444478 0.97719812 0 59
-2.6893778 2.6321328 1.0096602 0 60
-2.6877625 2.6305518 1.0462273 0 61
-2.6887448 2.6315134 1.0839877 0 62
-2.6874135 2.6302102 1.121009 0 63
-1.7840375 1.7036231 -0.73538709 0 0
-1.84962 1.7662497 -0.73687655 0 1
-1.9115441 1.8253824 -0.73528701 0 2
-1.9785079 1.8893279 -0.73400432 0 3
-2.0500486 1.957644 -0.73266453 0 4
-2.1367939 2.0404792 -0.73474377 0 5
-2.2220554 2.1218977 -0.7341221 0 6
-2.3231654 2.2184501 -0.73636246 0 7
-2.4261663 2.3168085 -0.73660111 0 8
-2.5386374 2.4242098 -0.73697335 0 9
-2.6650827 2.5449557 -0.7383604 0 10
-2.7603655 2.6359439 -0.72830999 0 11
-2.7624791 2.6379621 -0.69251901 0 12
-2.7670691 2.6423452 -0.65738189 0 13
-2.7593303 2.6349552 -0.61947125 0 14
-2.752548 2.6284788 -0.5820725 0 15
-2.7605512 2.636121 -0.54788554 0 16
-2.7631545 2.6386073 -0.51258373 0 17
-2.7602918 2.6358736 -0.47635952 0 18
-2.7630191 2.6384778 -0.44118366 0 19
-2.7637918 2.6392155 -0.40572622 0 20
-2.7581434 2.633822 -0.36945823 0 21
-2.7598078 2.6354113 -0.33428413 0 22
-2.7555096 2.6313066 -0.29847845 0 23
-2.757206 2.6329267 -0.26340631 0 24
-2.7567391 2.6324809 -0.22815657 0 25
-2.7667205 2.6420124 -0.1936889 0 26
-2.771277 2.6463635 -0.15868892 0 27
-2.7535965 2.6294799 -0.1226096 0 28
-2.7634783 2.6389163 -0.087877706 0 29
-2.7656925 2.6410308 -0.052762914 0 30
-2.7666395 2.6419349 -0.017592667 0 31
-2.754941 2.6307638 0.017518278 0 32
-2.7585223 2.6341836 0.052626126 0 33
-2.7611158 2.6366603 0.087802574 0 34
-2.7554913 2.6312892 0.12269396 0 35
-2.7516277 2.6276 0.15756376 0 36
-2.7651069 2.6404715 0.19357593 0 37
-2.7545841 2.6304228 0.22797818 0 38
-2.7691369 2.6443198 0.26454613 0 39
-2.7708998 2.6460032 0.30014554 0 40
-2.757551 2.6332562 0.33401075 0 41
-2.7512398 2.6272295 0.36853346 0 42
-2.7612143 2.6367545 0.40534785 0 43
-2.7524412 2.6283767 0.43949464 0 44
-2.7521796 2.6281269 0.47495952 0 45
-2.7642937 2.6396949 0.51279503 0 46
-2.7642739 2.6396761 0.5486244 0 47
-2.7533813 2.6292744 0.58224869 0 48
-2.7673044 2.64257 0.62126148 0 49
-2.7653823 2.6407344 0.65698111 0 50
-2.7652514 2.6406095 0.69321406 0 51
-2.7555423 2.6313381 0.72703743 0 52
-2.7592342 2.6348634 0.76444507 0 53
-2.7704413 2.6455655 0.80426669 0 54
-2.7584271 2.6340928 0.8374778 0 55
-2.7714601 2.6465383 0.87845623 0 56
-2.7609198 2.6364732 0.91215199 0 57
-2.7585235 2.6341848 0.94852769 0 58
-2.7681785 2.6434045 0.98931611 0 59
-2.7548704 2.6306963 1.0220261 0 60
-2.7668173 2.6421049 1.0642731 0 61
-2.7659009 2.6412296 1.1019168 0 62
-2.763952 2.6393685 1.1393116 0 63
-1.8030294 1.6798627 -0.73464549 0 0
-1.8708743 1.7430731 -0.73674935 0 1
-1.9313706 1.7994369 -0.73434675 0 2
-2.0024974 1.8657049 -0.73433757 0 3
-2.0761752 1.9343499 -0.73344576 0 4
-2.1723454 2.0239503 -0.73835492 0 5
-2.2442353 2.0909295 -0.73290002 0 6
-2.340035 2.1801848 -0.73315668 0 7
-2.4411752 2.2744162 -0.73261148 0 8
-2.5546374 2.3801279 -0.7330665 0 9
-2.6818228 2.4986248 -0.73443055 0 10
-2.8134339 2.6212456 -0.73375207 0 11
-2.8326659 2.6391637 -0.70192552 0 12
-2.8227208 2.6298981 -0.66287041 0 13
-2.8137791 2.6215672 -0.62441081 0 14
-2.8200729 2.6274312 -0.5894751 0 15
-2.8416212 2.6475074 -0.55747211 0 16
-2.8348134 2.6411645 -0.51981294 0 17
-2.8217809 2.6290224 -0.48135567 0 18
-2.8356855 2.6419771 -0.44756544 0 19
-2.8323951 2.6389115 -0.41100258 0 20
-2.8350022 2.6413405 -0.37537459 0 21
-2.8288519 2.6356103 -0.338696 0 22
-2.8263493 2.6332788 -0.30262154 0 23
-2.8193405 2.6267488 -0.26623642 0 24
-2.8350275 2.6413641 -0.23193032 0 25
-2.8249106 2.6319385 -0.19548215 0 26
-2.8239052 2.6310017 -0.15983789 0 27
-2.8347101 2.6410685 -0.12476587 0 28
-2.8284106 2.6351993 -0.088905379 0 29
-2.8349752 2.6413155 -0.053461004 0 30
-2.829437 2.6361556 -0.017784519 0 31
-2.8201189 2.6274741 0.01772595 0 32
-2.8235297 2.6306517 0.053245168 0 33
-2.8199944 2.6273582 0.088640839 0 34
-2.8256378 2.6326158 0.12436656 0 35
-2.8317523 2.6383126 0.16028205 0 36
-2.8255479 2.6325321 0.19552626 0 37
-2.8305883 2.6372283 0.23156714 0 38
-2.8225973 2.6297829 0.26654395 0 39
-2.8196728 2.6270585 0.3019067 0 40
-2.8321803 2.6387115 0.33909449 0 41
-2.8299699 2.636652 0.37470827 0 42
-2.8223364 2.62954 0.40954298 0 43
-2.8241789 2.6312566 0.44574931 0 44
-2.828685 2.6354551 0.48253343 0 45
-2.8369119 2.6431198 0.52019775 0 46
-2.8289459 2.6356981 0.55498552 0 47
-2.8279114 2.6347339 0.59111357 0 48
-2.8272481 2.6341162 0.62739974 0 49
-2.8272948 2.6341598 0.66394454 0 50
-2.8236969 2.6308076 0.69970304 0 51
-2.8270814 2.633961 0.73731142 0 52
-2.8356535 2.6419475 0.77655792 0 53
-2.824096 2.6311793 0.81038898 0 54
-2.8305631 2.6372046 0.84946913 0 55
-2.8338292 2.6402476 0.88786745 0 56
-2.8405023 2.6464651 0.92762297 0 57
-2.8239033 2.6309998 0.95981187 0 58
-2.8266938 2.6335998 0.99857974 0 59
-2.8265421 2.6334586 1.0365238 0 60
-2.8278503 2.6346772 1.0752068 0 61
-2.8355346 2.6418366 1.1166321 0 62
-2.8320799 2.6386178 1.1539327 0 63
-1.8309568 1.6643012 -0.73763031 0 0
-1.885187 1.7135953 -0.73403239 0 1
-1.957157 1.7790145 -0.73577809 0 2
-2.0227759 1.8386605 -0.73342746 0 3
-2.1071599 1.9153638 -0.73601568 0 4
-2.1906064 1.991215 -0.73618382 0 5
-2.2815869 2.0739143 -0.73671412 0 6
-2.3827193 2.1658416 -0.73813021 0 7
-2.475265 2.2499638 -0.7344836 0 8
-2.6022441 2.3653851 -0.7383253 0 9
-2.7228937 2.4750528 -0.7372877 0 10
-2.8644505 2.603725 -0.73865145 0 11
-2.8948171 2.6313276 -0.70925504 0 12
-2.9066317 2.6420667 -0.67489517 0 13
-2.9059842 2.6414783 -0.6376161 0 14
-2.9032056 2.6389525 -0.60002387 0 15
-2.9001923 2.6362135 -0.56256074 0 16
-2.8941746 2.6307435 -0.52472645 0 17
-2.8979125 2.6341412 -0.48878029 0 18
-2.9047518 2.640358 -0.45330775 0 19
-2.90662 2.6420562 -0.41702741 0 20
-2.8893714 2.6263776 -0.37826875 0 21
-2.8919132 2.6286879 -0.3423503 0 22
-2.8958852 2.6322985 -0.30657801 0 23
-2.9058614 2.6413667 -0.27131915 0 24
-2.8984563 2.6346357 -0.23445129 0 25
-2.9020748 2.6379249 -0.19856223 0 26
-2.9105251 2.645606 -0.16288708 0 27
-2.8996515 2.6357219 -0.12618814 0 28
-2.9047544 2.6403604 -0.090277731 0 29
-2.8945675 2.6311007 -0.053970587 0 30
-2.9018905 2.6377571 -0.018034693 0 31
-2.8933995 2.630039 0.017981922 0 32
-2.9058948 2.641397 0.054181792 0 33
-2.9028466 2.6386261 0.090218432 0 34
-2.8963535 2.632724 0.12604462 0 35
-2.9025714 2.6383762 0.16244195 0 36
-2.9127452 2.647624 0.1992923 0 37
-2.9007673 2.6367364 0.23463823 0 38
-2.8975401 2.6338029 0.2705422 0 39
-2.8986557 2.6348169 0.30687132 0 40
-2.901546 2.637444 0.34349066 0 41
-2.9063444 2.6418056 0.38049081 0 42
-2.9101253 2.6452425 0.41753033 0 43
-2.9033601 2.6390932 0.45309058 0 44
-2.9002318 2.6362495 0.4891715 0 45
-2.9044609 2.6400936 0.52659142 0 46
-2.9007883 2.6367555 0.56267637 0 47
-2.8971457 2.6334443 0.59877145 0 48
-2.8987281 2.6348827 0.63602406 0 49
-2.8958032 2.6322241 0.67238086 0 50
-2.8981342 2.6343427 0.71006775 0 51
-2.8971615 2.6334586 0.74708658 0 52
-2.8950608 2.6315491 0.78390604 0 53
-2.8911846 2.6280258 0.82030535 0 54
-2.8946357 2.6311626 0.85892308 0 55
-2.8977294 2.6339748 0.89767247 0 56
-2.9014692 2.6373742 0.93687129 0 57
-2.9053204 2.6408751 0.97637343 0 58
-2.9025819 2.6383858 1.0138508 0 59
-2.8975751 2.6338346 1.0506163 0 60
-2.9072821 2.642658 1.0929703 0 61
-2.897445 2.6337163 1.1281737 0 62
-2.8973992 2.6336746 1.1672636 0 63
-1.8267727 1.6199287 -0.72786474 0 0
-1.8942313 1.679749 -0.72945642 0 1
-1.9775553 1.7536383 -0.73528445 0 2
-2.0555518 1.8228033 -0.73712879 0 3
-2.1328795 1.8913752 -0.7368201 0 4
-2.2117929 1.9613534 -0.73514318 0 5
-2.3050435 2.0440452 -0.73611665 0 6
-2.404156 2.1319351 -0.73659414 0 7
-2.5040743 2.2205398 -0.73487443 0 8
-2.6166058 2.3203297 -0.73424935 0 9
-2.7298582 2.4207585 -0.73105824 0 10
-2.8782091 2.5523117 -0.73405087 0 11
-2.9864893 2.6483316 -0.72368211 0 12
-2.9749665 2.6381135 -0.68317813 0 13
-2.9679012 2.6318481 -0.64405215 0 14
-2.965529 2.6297443 -0.6061756 0 15
-2.9611492 2.6258605 -0.56807864 0 16
-2.9863915 2.6482449 -0.5355013 0 17
-2.9817088 2.6440921 -0.49739245 0 18
-2.9734416 2.6367612 -0.45893279 0 19
-2.9721494 2.6356153 -0.42174751 0 20
-2.9665623 2.6306608 -0.38411045 0 21
-2.9779139 2.640727 -0.34866083 0 22
-2.9796741 2.6422877 -0.31198516 0 23
-2.9745831 2.6377733 -0.27468643 0 24
-2.9745066 2.6377056 -0.23796131 0 25
-2.9682195 2.6321304 -0.20085821 0 26
-2.9721241 2.6355927 -0.16450827 0 27
-2.970856 2.6344683 -0.12786742 0 28
-2.9794054 2.6420496 -0.091581203 0 29
-2.9785292 2.6412728 -0.054926369 0 30
-2.9705367 2.6341853 -0.018258631 0 31
-2.9715757 2.6351066 0.018265016 0 32
-2.9643893 2.6287339 0.054665618 0 33
-2.974052 2.6373024 0.091416657 0 34
-2.965055 2.6293242 0.12761775 0 35
-2.9729483 2.6363237 0.1645539 0 36
-2.9721067 2.6355774 0.20112126 0 37
-2.9695721 2.6333299 0.23756655 0 38
-2.9744174 2.6376264 0.27467114 0 39
-2.969033 2.6328516 0.31087101 0 40
-2.9736595 2.6369543 0.34816271 0 41
-2.9835904 2.6457608 0.38631523 0 42
-2.9714239 2.6349719 0.42164457 0 43
-2.9686506 2.6325126 0.4581933 0 44
-2.9763584 2.6393478 0.49649996 0 45
-2.9665093 2.6306138 0.53193611 0 46
-2.966737 2.6308157 0.56915063 0 47
-2.960901 2.6256406 0.60522968 0 48
-2.9640081 2.6283958 0.64320737 0 49
-2.9727294 2.6361296 0.68266439 0 50
-2.9596305 2.6245139 0.71717364 0 51
-2.9744306 2.6376381 0.75859088 0 52
-2.9671044 2.6311414 0.79459292 0 53
-2.9829121 2.6451595 0.83703905 0 54
-2.9791985 2.6418662 0.8743099 0 55
-2.9692216 2.633019 0.90972102 0 56
-2.9700127 2.6337204 0.94847488 0 57
-2.9825385 2.6448278 0.99131918 0 58
-2.9782171 2.640996 1.0288486 0 59
-2.9806595 2.6431618 1.0688759 0 60
-2.9700162 2.6337235 1.1042961 0 61
-2.9795053 2.6421382 1.1473886 0 62
-2.9648163 2.6291125 1.1813103 0 63
-1.8537723 1.6035905 -0.73071063 0 0
-1.9443222 1.6819199 -0.7407257 0 1
-2.00278 1.7324883 -0.73668665 0 2
-2.0666261 1.7877179 -0.73316163 0 3
-2.1584589 1.8671571 -0.73766941 0 4
-2.227061 1.9265008 -0.7322889 0 5
-2.3181095 2.0052614 -0.73235947 0 6
-2.4212384 2.0944724 -0.73388165 0 7
-2.5342109 2.1921983 -0.73575217 0 8
-2.6486225 2.2911692 -0.73527223 0 9
-2.7739861 2.3996139 -0.73491818 0 10
-2.9232278 2.5287142 -0.73754638 0 11
-3.0519471 2.6400616 -0.73162186 0 12
-3.0558662 2.6434519 -0.69423908 0 13
-3.0467474 2.6355639 -0.65408003 0 14
-3.0542262 2.6420333 -0.61761862 0 15
-3.0359554 2.6262283 -0.57619095 0 16
-3.0475039 2.6362183 -0.54060608 0 17
-3.0455298 2.6345105 -0.5025968 0 18
-3.0457165 2.6346719 -0.46505249 0 19
-3.0437315 2.6329548 -0.42727852 0 20
-3.0309575 2.6219046 -0.38824451 0 21
-3.0507882 2.6390591 -0.35336694 0 22
-3.0470002 2.6357825 -0.31561711 0 23
-3.0483508 2.6369507 -0.27848312 0 24
-3.0496058 2.6380365 -0.24135594 0 25
-3.0518267 2.6399577 -0.20430373 0 26
-3.0435789 2.6328228 -0.16665879 0 27
-3.0508776 2.6391366 -0.12990503 0 28
-3.0413034 2.6308546 -0.092482463 0 29
-3.0492949 2.6377676 -0.055629008 0 30
-3.0492642 2.6377409 -0.01854177 0 31
-3.0497749 2.6381826 0.018544875 0 32
-3.0536354 2.6415222 0.055708189 0 33
-3.0543678 2.6421556 0.092879735 0 34
-3.0516722 2.6398239 0.12993886 0 35
-3.0494993 2.6379442 0.16698296 0 36
-3.0542035 2.6420135 0.20446284 0 37
-3.0467083 2.63553 0.24112661 0 38
-3.0388236 2.6287093 0.27761278 0 39
-3.0510092 2.6392505 0.31603238 0 40
-3.0385764 2.6284955 0.35195249 0 41
-3.0588019 2.6459913 0.39181119 0 42
-3.0504506 2.6387672 0.42822176 0 43
-3.0480561 2.6366959 0.46540976 0 44
-3.0431454 2.6324477 0.50220323 0 45
-3.0427661 2.6321197 0.5397656 0 46
-3.041672 2.6311734 0.57727587 0 47
-3.0609419 2.6478426 0.61897665 0 48
-3.041034 2.6306214 0.65285349 0 49
-3.04809 2.6367252 0.69247246 0 50
-3.0412257 2.6307874 0.72905177 0 51
-3.0593405 2.6464574 0.77188832 0 52
-3.0545814 2.6423404 0.80925691 0 53
-3.0490098 2.6375208 0.84642196 0 54
-3.0445781 2.6336873 0.88392597 0 55
-3.0483541 2.6369536 0.92396158 0 56
-3.0517707 2.639909 0.96414477 0 57
-3.0463507 2.6352205 1.0016828 0 58
-3.0473447 2.6360805 1.0414528 0 59
-3.0452652 2.6342816 1.0803461 0 60
-3.0553484 2.6430039 1.1238551 0 61
-3.046602 2.635438 1.1606597 0 62
-3.0566549 2.644134 1.2048568 0 63
-1.8878511 1.5929124 -0.73636717 0 0
-1.945308 1.6413928 -0.7333566 0 1
-2.0305891 1.7133505 -0.73911041 0 2
-2.1002665 1.7721422 -0.73730958 0 3
-2.1696172 1.8306582 -0.73373419 0 4
-2.2673821 1.9131492 -0.73775589 0 5
-2.346611 1.9800003 -0.73361653 0 6
-2.4472423 2.0649099 -0.73401189 0 7
-2.5650289 2.1642947 -0.7369172 0 8
-2.6771233 2.2588766 -0.73541778 0 9
-2.7994542 2.3620958 -0.73391497 0 10
-2.938539 2.4794514 -0.73366159 0 11
-3.0981615 2.6141362 -0.73493916 0 12
-3.1198611 2.6324456 -0.70137072 0 13
-3.1200213 2.632581 -0.66281092 0 14
-3.1154325 2.6287088 -0.62341201 0 15
-3.1212702 2.6336346 -0.58619219 0 16
-3.1091282 2.6233897 -0.5457741 0 17
-3.1149306 2.6282854 -0.5086779 0 18
-3.1142328 2.6276965 -0.47054508 0 19
-3.1188216 2.6315687 -0.43324438 0 20
-3.1173227 2.6303039 -0.39513445 0 21
-3.1100826 2.6241949 -0.35647041 0 22
-3.1184494 2.6312547 -0.31964242 0 23
-3.1270461 2.6385081 -0.28268704 0 24
-3.1225474 2.6347122 -0.24454622 0 25
-3.1216865 2.6339858 -0.20679659 0 26
-3.1244001 2.6362755 -0.16929649 0 27
-3.1221256 2.6343565 -0.13154949 0 28
-3.1211617 2.6335433 -0.093919016 0 29
-3.1162522 2.6294005 -0.056256425 0 30
-3.1167483 2.6298194 -0.018754069 0 31
-3.1165586 2.6296592 0.018752927 0 32
-3.1225348 2.6347015 0.056369837 0 33
-3.1180122 2.6308856 0.093824245 0 34
-3.1233459 2.635386 0.1316009 0 35
-3.1330583 2.6435809 0.16976564 0 36
-3.1131353 2.6267705 0.2062301 0 37
-3.1207151 2.6331663 0.24440272 0 38
-3.1337411 2.6441574 0.28329229 0 39
-3.1249871 2.6367707 0.32031253 0 40
-3.1357906 2.6458864 0.35941699 0 41
-3.1164584 2.6295745 0.3950249 0 42
-3.1143017 2.6277547 0.43261647 0 43
-3.1254187 2.637135 0.47223523 0 44
-3.1129999 2.6266563 0.50836259 0 45
-3.1252372 2.636982 0.54860187 0 46
-3.1184547 2.631259 0.58566344 0 47
-3.1139479 2.6274562 0.62311494 0 48
-3.1127434 2.62644 0.66126484 0 49
-3.1337147 2.6441348 0.70448512 0 50
-3.1276574 2.639024 0.74193615 0 51
-3.1088269 2.6231353 0.77617717 0 52
-3.1167645 2.629833 0.81710219 0 53
-3.1095405 2.6237373 0.85420471 0 54
-3.1247418 2.6365638 0.89771932 0 55
-3.11601 2.6291962 0.93459833 0 56
-3.1200714 2.6326232 0.97542202 0 57
-3.1278813 2.6392128 1.0177432 0 58
-3.121532 2.6338553 1.0556585 0 59
-3.1175277 2.630477 1.0944245 0 60
-3.1146836 2.628077 1.133708 0 61
-3.1266375 2.6381633 1.178703 0 62
-3.1210489 2.6334479 1.217383 0 63
-1.9093883 1.5713032 -0.7371757 0 0
-1.9667447 1.6185038 -0.73387975 0 1
-2.0246971 1.6661949 -0.72945309 0 2
-2.1173582 1.742449 -0.73573244 0 3
-2.1971445 1.8081079 -0.73546892 0 4
-2.288487 1.8832771 -0.73703223 0 5
-2.3699419 1.950309 -0.73335761 0 6
-2.468513 2.0314267 -0.73284417 0 7
-2.586035 2.1281397 -0.7353785 0 8
-2.6875207 2.2116561 -0.73074806 0 9
-2.8179657 2.3190038 -0.73123699 0 10
-2.983119 2.4549143 -0.73719943 0 11
-3.1228092 2.5698702 -0.73323447 0 12
-3.1286242 2.5746555 -0.69617087 0 13
-3.1212463 2.5685842 -0.65631181 0 14
-3.1204827 2.5679557 -0.61805719 0 15
-3.1228867 2.5699339 -0.58051699 0 16
-3.1293163 2.5752254 -0.54371816 0 17
-3.1214995 2.5687926 -0.50455421 0 18
-3.1166067 2.5647659 -0.46610335 0 19
-3.1166437 2.5647964 -0.42852843 0 20
-3.1197355 2.5673406 -0.39140916 0 21
-3.1395214 2.5836232 -0.35617632 0 22
-3.1180992 2.5659943 -0.31634846 0 23
-3.1234727 2.5704162 -0.27948555 0 24
-3.1212778 2.56861 -0.24195489 0 25
-3.1152308 2.5636337 -0.20426521 0 26
-3.1161304 2.564374 -0.16712715 0 27
-3.1114769 2.5605445 -0.12976438 0 28
-3.1217861 2.5690284 -0.092980206 0 29
-3.1116736 2.5607064 -0.055601135 0 30
-3.1228347 2.5698912 -0.018599138 0 31
-3.1182644 2.5661302 0.018571919 0 32
-3.1144741 2.5630109 0.055651169 0 33
-3.1145122 2.5630422 0.092763551 0 34
-3.1384742 2.5827615 0.13089029 0 35
-3.1233752 2.5703361 0.16751571 0 36
-3.1250799 2.5717387 0.20491099 0 37
-3.1248758 2.5715709 0.24223381 0 38
-3.1182537 2.5661213 0.27901858 0 39
-3.135143 2.5800202 0.31807765 0 40
-3.1140094 2.5626285 0.353282 0 41
-3.1283903 2.5744631 0.39249501 0 42
-3.1203301 2.5678301 0.42903528 0 43
-3.1144536 2.562994 0.46578136 0 44
-3.1219473 2.5691609 0.50462657 0 45
-3.1228902 2.569937 0.54260164 0 46
-3.1190941 2.566813 0.57981205 0 47
-3.1315558 2.5770681 0.62025034 0 48
-3.1212687 2.5686026 0.65631652 0 49
-3.1255708 2.5721428 0.69549143 0 50
-3.1181397 2.5660276 0.73213804 0 51
-3.1218197 2.5690558 0.77147561 0 52
-3.1110077 2.5601585 0.80727875 0 53
-3.1153829 2.5637589 0.84708554 0 54
-3.123404 2.5703597 0.88818753 0 55
-3.1208773 2.5682805 0.926516 0 56
-3.1232526 2.570235 0.96646297 0 57
