# .PCD v0.7 - Point Cloud Data file format
VERSION 0.7
FIELDS x y z intensity ring
SIZE 4 4 4 4 2
TYPE F F F F U
COUNT 1 1 1 1 1
WIDTH 1292
HEIGHT 1
VIEWPOINT 0 0 0 1 0 0 0
POINTS 1292
DATA ascii
1.15819 -5.0743351 1.3964871 0 60
1.1556273 -5.0631075 1.44473 0 61
1.1543081 -5.0573273 1.4946181 0 62
1.1566409 -5.0675483 1.5495546 0 63
0.57995653 -2.4042823 -0.73730618 0 0
0.59641099 -2.4724963 -0.73282158 0 1
0.61979711 -2.5694463 -0.73529661 0 2
0.64441073 -2.6714852 -0.73733354 0 3
0.66924036 -2.7744198 -0.73767245 0 4
0.6955086 -2.8833179 -0.7375921 0 5
0.71926105 -2.9817867 -0.73289263 0 6
0.75241309 -3.1192226 -0.73554337 0 7
0.78480202 -3.253495 -0.73487306 0 8
0.82330465 -3.4131124 -0.73714358 0 9
0.86534482 -3.5873952 -0.73941344 0 10
0.89878488 -3.7260253 -0.73138469 0 11
0.95068806 -3.9411962 -0.73504031 0 12
1.0049007 -4.1659417 -0.73631102 0 13
1.0662595 -4.4203124 -0.73827952 0 14
1.1257031 -4.6667428 -0.73418659 0 15
1.2010874 -4.9792576 -0.73520601 0 16
1.2197973 -5.0568223 -0.69789118 0 17
1.2239591 -5.0740752 -0.6514591 0 18
1.21934 -5.0549264 -0.60048306 0 19
1.2208455 -5.0611672 -0.55275011 0 20
1.219936 -5.0573974 -0.5039947 0 21
1.2174313 -5.0470138 -0.45480138 0 22
1.2242658 -5.0753474 -0.4090037 0 23
1.22183 -5.0652494 -0.36000472 0 24
1.2224332 -5.06775 -0.31203467 0 25
1.2249507 -5.078186 -0.26448342 0 26
1.2230816 -5.0704379 -0.21600437 0 27
1.2202574 -5.0587296 -0.16757764 0 28
1.2178041 -5.0485592 -0.11943744 0 29
1.2240726 -5.0745459 -0.072023205 0 30
1.2200961 -5.0580611 -0.023928396 0 31
1.2244867 -5.076263 0.024014505 0 32
1.2207856 -5.0609193 0.071829803 0 33
1.2222677 -5.0670638 0.11987521 0 34
1.2184839 -5.0513773 0.16733408 0 35
1.2205186 -5.0598125 0.21555173 0 36
1.2234318 -5.0718899 0.26415551 0 37
1.2171395 -5.045804 0.3106834 0 38
1.2230293 -5.0702209 0.36035806 0 39
1.2217364 -5.0648613 0.40815869 0 40
1.2261635 -5.0832143 0.45806354 0 41
1.2222264 -5.0668921 0.50494093 0 42
1.225999 -5.0825319 0.55508345 0 43
1.2230455 -5.0702882 0.60230792 0 44
1.2242604 -5.075325 0.65161949 0 45
1.2253726 -5.0799351 0.70108104 0 46
1.2193841 -5.055109 0.74640572 0 47
1.2220043 -5.0659719 0.79699451 0 48
1.2234516 -5.0719714 0.84711951 0 49
1.2239021 -5.0738397 0.89677781 0 50
1.2230119 -5.0701485 0.94559199 0 51
1.2204218 -5.0594115 0.9931162 0 52
1.2215393 -5.064044 1.0437719 0 53
1.222482 -5.0679522 1.094546 0 54
1.2234995 -5.0721707 1.1456608 0 55
1.2207546 -5.060791 1.1933843 0 56
1.2215264 -5.0639906 1.2446771 0 57
1.2241307 -5.0747871 1.2981999 0 58
1.22463 -5.0768571 1.3498526 0 59
1.2210174 -5.0618801 1.3970858 0 60
1.22173 -5.0648346 1.4494001 0 61
1.2212744 -5.0629458 1.5006032 0 62
1.2212224 -5.0627303 1.5525558 0 63
0.60951954 -2.3971462 -0.73736054 0 0
0.63038605 -2.4792111 -0.73705351 0 1
0.65034431 -2.557704 -0.73416924 0 2
0.67071021 -2.6377997 -0.73025739 0 3
0.70360625 -2.7671747 -0.73799074 0 4
0.72802252 -2.8632002 -0.73468024 0 5
0.75963694 -2.9875348 -0.73654568 0 6
0.78962505 -3.1054735 -0.73453522 0 7
0.82387698 -3.240181 -0.73409855 0 8
0.86580539 -3.4050789 -0.73765218 0 9
0.90838492 -3.5725379 -0.73859757 0 10
0.94585872 -3.7199163 -0.73241317 0 11
0.99786168 -3.9244361 -0.73414743 0 12
1.0522996 -4.1385322 -0.73369807 0 13
1.1147442 -4.3841166 -0.73446798 0 14
1.1848394 -4.65979 -0.73532927 0 15
1.2546568 -4.9343715 -0.73080111 0 16
1.2865527 -5.059813 -0.70043439 0 17
1.2879723 -5.0653963 -0.65232885 0 18
1.2911264 -5.0778008 -0.60504055 0 19
1.2869027 -5.0611897 -0.55443889 0 20
1.2876803 -5.0642481 -0.50621706 0 21
1.2863494 -5.0590138 -0.45727354 0 22
1.2917231 -5.0801477 -0.41063949 0 23
1.2883606 -5.0669236 -0.36122236 0 24
1.2875315 -5.0636625 -0.31273419 0 25
1.2888802 -5.0689669 -0.26480868 0 26
1.2873425 -5.0629196 -0.21634208 0 27
1.2888316 -5.0687761 -0.16842268 0 28
1.2888013 -5.0686569 -0.12027872 0 29
1.2895857 -5.0717416 -0.07220301 0 30
1.2892817 -5.0705457 -0.024060639 0 31
1.2888542 -5.0688653 0.024052665 0 32
1.2892803 -5.0705404 0.072185911 0 33
1.2886389 -5.0680184 0.12026358 0 34
1.2881323 -5.0660253 0.1683313 0 35
1.287334 -5.0628858 0.21634065 0 36
1.2893677 -5.0708842 0.26490885 0 37
1.2842761 -5.0508599 0.31194347 0 38
1.2892144 -5.070281 0.36146173 0 39
1.2871084 -5.0619988 0.40917248 0 40
1.2891265 -5.0699353 0.45826074 0 41
1.288648 -5.0680537 0.50659746 0 42
1.2879573 -5.0653377 0.55489326 0 43
1.2828658 -5.0453134 0.60116953 0 44
1.2844034 -5.0513606 0.65052128 0 45
1.2869641 -5.0614309 0.70065832 0 46
1.2883627 -5.0669317 0.75043386 0 47
1.2869775 -5.0614839 0.7987178 0 48
1.2887769 -5.0685606 0.84913242 0 49
1.2867299 -5.0605106 0.89715064 0 50
1.2896801 -5.072113 0.94884425 0 51
1.2900349 -5.0735083 0.99892145 0 52
1.2865806 -5.0599232 1.0461042 0 53
1.2863921 -5.0591817 1.0959852 0 54
1.2895714 -5.0716858 1.1490461 0 55
1.2851884 -5.0544481 1.1955247 0 56
1.2883277 -5.0667939 1.2491654 0 57
1.2891432 -5.0700011 1.3009323 0 58
1.290311 -5.074594 1.3533671 0 59
1.2894211 -5.071094 1.4038988 0 60
1.2893901 -5.070972 1.4555836 0 61
1.2888086 -5.0686855 1.5068876 0 62
1.2876914 -5.0642915 1.5577725 0 63
0.63627434 -2.3794732 -0.7342754 0 0
0.66026384 -2.4691868 -0.73643136 0 1
0.68376595 -2.5570774 -0.73634714 0 2
0.70764869 -2.6463916 -0.7349894 0 3
0.73335177 -2.7425134 -0.73376316 0 4
0.76399481 -2.8571091 -0.73547226 0 5
0.79579574 -2.9760349 -0.73606735 0 6
0.82259667 -3.0762622 -0.72996324 0 7
0.86491919 -3.2345357 -0.73517358 0 8
0.90277183 -3.3760931 -0.73372221 0 9
0.94937587 -3.5503781 -0.73637402 0 10
1.0004005 -3.741195 -0.73896885 0 11
1.0433952 -3.9019818 -0.73229164 0 12
1.1013178 -4.1185951 -0.73250896 0 13
1.1652764 -4.3577809 -0.73240107 0 14
1.2327393 -4.6100717 -0.72982037 0 15
1.3202345 -4.9372773 -0.73358035 0 16
1.3536233 -5.0621409 -0.70300764 0 17
1.3529714 -5.0597034 -0.65368879 0 18
1.3595207 -5.0841956 -0.60774851 0 19
1.3557464 -5.0700808 -0.55719697 0 20
1.3516419 -5.0547314 -0.50688881 0 21
1.3542202 -5.064373 -0.45922837 0 22
1.3533304 -5.0610456 -0.41040957 0 23
1.3557316 -5.0700254 -0.36260453 0 24
1.3525637 -5.0581789 -0.31339899 0 25
1.3514324 -5.0539479 -0.26487219 0 26
1.3543309 -5.0647874 -0.2171171 0 27
1.3570833 -5.0750804 -0.16917385 0 28
1.3599448 -5.0857816 -0.12107278 0 29
1.3566377 -5.0734143 -0.072458833 0 30
1.3538237 -5.0628905 -0.024101485 0 31
1.3565283 -5.0730047 0.024149634 0 32
1.3542678 -5.0645514 0.072332256 0 33
1.3571488 -5.075325 0.12082384 0 34
1.3515931 -5.0545487 0.16848944 0 35
1.353173 -5.0604568 0.21693146 0 36
1.3542538 -5.0644989 0.26542515 0 37
1.3538911 -5.0631423 0.31370655 0 38
1.3516024 -5.0545835 0.36150014 0 39
1.3528533 -5.0592618 0.41026488 0 40
1.3553518 -5.0686049 0.45961213 0 41
1.3548076 -5.0665698 0.50807601 0 42
1.3556234 -5.0696206 0.55714643 0 43
1.3559601 -5.0708799 0.60615683 0 44
1.3570729 -5.0750418 0.6556704 0 45
1.3536161 -5.0621142 0.70300394 0 46
1.3507569 -5.0514212 0.7505399 0 47
1.3557104 -5.0699458 0.80262309 0 48
1.3559488 -5.070838 0.85224277 0 49
1.3566735 -5.0735478 0.90235126 0 50
1.3567841 -5.0739617 0.9522391 0 51
1.3525198 -5.0580139 0.99906981 0 52
1.3530722 -5.0600796 1.0494971 0 53
1.3580941 -5.0788603 1.1037825 0 54
1.3547362 -5.0663028 1.1515137 0 55
1.3555359 -5.0692935 1.2028878 0 56
1.353914 -5.0632281 1.2522961 0 57
1.354087 -5.0638752 1.3035343 0 58
1.3535281 -5.0617852 1.3542875 0 59
1.35281 -5.0590997 1.4050772 0 60
1.350992 -5.0523009 1.4548826 0 61
1.3529531 -5.0596347 1.5090287 0 62
1.355152 -5.0678582 1.5638771 0 63
0.66485959 -2.3692479 -0.73358738 0 0
0.6879636 -2.4515798 -0.7336477 0 1
0.71344346 -2.5423782 -0.73458505 0 2
0.73838001 -2.6312404 -0.73324764 0 3
0.76652139 -2.731523 -0.73328906 0 4
0.80133086 -2.8555677 -0.73755616 0 5
0.83141011 -2.9627559 -0.73525602 0 6
0.86700255 -3.0895908 -0.73560011 0 7
0.90402579 -3.2215242 -0.73468727 0 8
0.94097501 -3.3531938 -0.73120493 0 9
0.98943233 -3.5258729 -0.73375946 0 10
1.0442549 -3.721235 -0.73750693 0 11
1.1005547 -3.9218612 -0.73850638 0 12
1.1579105 -4.1262503 -0.7363472 0 13
1.2239456 -4.3615685 -0.73551154 0 14
1.3034756 -4.6449761 -0.73782778 0 15
1.3821084 -4.9251866 -0.73425353 0 16
1.4223258 -5.0685029 -0.70626658 0 17
1.4221516 -5.0678816 -0.656955 0 18
1.4227569 -5.0700388 -0.60810161 0 19
1.4241118 -5.0748672 -0.55960524 0 20
1.4225824 -5.069417 -0.51007712 0 21
1.4206585 -5.0625606 -0.46061328 0 22
1.4210277 -5.0638766 -0.41202495 0 23
1.4228421 -5.0703425 -0.36385101 0 24
1.4227065 -5.069859 -0.31518278 0 25
1.4214052 -5.0652218 -0.26635891 0 26
1.4174544 -5.0511427 -0.21726294 0 27
1.4205801 -5.0622821 -0.16931671 0 28
1.4243054 -5.0755572 -0.12123714 0 29
1.4206462 -5.0625172 -0.072547212 0 30
1.4219031 -5.0669966 -0.024202434 0 31
1.4177499 -5.052196 0.024131741 0 32
1.4222623 -5.0682764 0.072629742 0 33
1.4235142 -5.0727377 0.12116979 0 34
1.4221696 -5.067946 0.16950615 0 35
1.4212092 -5.0645237 0.21783848 0 36
1.4217714 -5.0665269 0.26642755 0 37
1.4218174 -5.0666909 0.31498581 0 38
1.424819 -5.0773873 0.36435655 0 39
1.4222506 -5.0682344 0.41237953 0 40
1.4222599 -5.0682678 0.46113253 0 41
1.4232856 -5.0719228 0.51032925 0 42
1.4185157 -5.054925 0.55740619 0 43
1.4196794 -5.059072 0.60678625 0 44
1.4213437 -5.0650024 0.65658182 0 45
1.4180576 -5.0532923 0.7041471 0 46
1.4200697 -5.060463 0.7544207 0 47
1.4177773 -5.0522938 0.80252784 0 48
1.4194763 -5.0583482 0.85301274 0 49
1.4196023 -5.0587969 0.90276414 0 50
1.4217989 -5.0666251 0.95407122 0 51
1.418368 -5.0543985 1.001725 0 52
1.4203868 -5.0615926 1.0533538 0 53
1.421001 -5.0637813 1.1042194 0 54
1.4209332 -5.0635405 1.1547698 0 55
1.4197478 -5.0593157 1.2045716 0 56
1.4187301 -5.0556889 1.2546514 0 57
1.4188573 -5.0561428 1.3059362 0 58
1.4221865 -5.068006 1.360528 0 59
1.4169508 -5.0493484 1.4071018 0 60
1.421286 -5.0647969 1.4634031 0 61
1.4213722 -5.065104 1.5157582 0 62
1.4231784 -5.0715408 1.5702952 0 63
0.69674122 -2.3704226 -0.73654819 0 0
0.7210722 -2.4532001 -0.73673028 0 1
0.74624115 -2.5388291 -0.73615521 0 2
0.77334547 -2.6310422 -0.7357868 0 3
0.79878116 -2.7175784 -0.73212701 0 4
0.83443147 -2.8388662 -0.73583692 0 5
0.86855996 -2.9549766 -0.73592031 0 6
0.90766484 -3.0880175 -0.73782712 0 7
0.9437477 -3.2107773 -0.73482734 0 8
0.98985922 -3.3676555 -0.73695695 0 9
1.036034 -3.5247495 -0.73612124 0 10
1.0824445 -3.6826456 -0.73244148 0 11
1.1470671 -3.9025013 -0.73746109 0 12
1.2057037 -4.1019926 -0.73460847 0 13
1.278006 -4.3479757 -0.7358138 0 14
1.3563101 -4.6143789 -0.73556113 0 15
1.4467392 -4.9220328 -0.7363798 0 16
1.4910468 -5.0727744 -0.70936298 0 17
1.4915476 -5.0744777 -0.66013771 0 18
1.4931264 -5.0798492 -0.61143416 0 19
1.4885684 -5.064342 -0.56042069 0 20
1.4889792 -5.0657401 -0.51151073 0 21
1.488862 -5.065341 -0.46249703 0 22
1.4866357 -5.0577669 -0.41298401 0 23
1.4905939 -5.0712333 -0.36520264 0 24
1.4877927 -5.0617037 -0.31578922 0 25
1.4892874 -5.0667882 -0.26738408 0 26
1.4882908 -5.0633979 -0.2185607 0 27
1.4886332 -5.0645623 -0.16999237 0 28
1.4897665 -5.068418 -0.121495 0 29
1.4890485 -5.0659752 -0.072853647 0 30
1.4933667 -5.080667 -0.024353601 0 31
1.4867353 -5.0581059 0.024245458 0 32
1.4850432 -5.0523486 0.072657682 0 33
1.4873598 -5.0602303 0.12129872 0 34
1.4912485 -5.0734606 0.17029104 0 35
1.4907202 -5.0716629 0.21891744 0 36
1.4902642 -5.0701118 0.26755947 0 37
1.4866909 -5.0579548 0.31555536 0 38
1.4916674 -5.0748854 0.36546564 0 39
1.4923857 -5.0773292 0.41458133 0 40
1.4895426 -5.0676565 0.46270841 0 41
1.488014 -5.0624561 0.51117915 0 42
1.4902884 -5.0701938 0.56106818 0 43
1.4851242 -5.0526247 0.60815728 0 44
1.4890549 -5.0659976 0.65903449 0 45
1.4892634 -5.0667067 0.70851451 0 46
1.4897085 -5.0682211 0.75825089 0 47
1.4928325 -5.0788498 0.80960065 0 48
1.4860965 -5.0559325 0.85562223 0 49
1.4910038 -5.0726275 0.9084354 0 50
1.4866563 -5.057837 0.95578647 0 51
1.4872255 -5.0597734 1.0063385 0 52
1.488804 -5.0651436 1.0578226 0 53
1.4898525 -5.0687108 1.1092055 0 54
1.4909655 -5.0724974 1.1609058 0 55
1.4894305 -5.0672755 1.2107358 0 56
1.4898584 -5.0687308 1.262339 0 57
1.490808 -5.0719619 1.3146576 0 58
1.4881285 -5.0628457 1.3639519 0 59
1.4867564 -5.0581775 1.4145498 0 60
1.491244 -5.0734448 1.4710888 0 61
1.4878076 -5.0617537 1.5201154 0 62
1.4885067 -5.0641322 1.5735495 0 63
0.72536784 -2.3601592 -0.73607492 0 0
0.74976099 -2.4395282 -0.73533756 0 1
0.76846963 -2.5004013 -0.72769767 0 2
0.80373555 -2.6151474 -0.7340501 0 3
0.83630949 -2.7211344 -0.73579985 0 4
0.86757874 -2.8228767 -0.73440212 0 5
0.90502316 -2.944711 -0.73607957 0 6
0.94097692 -3.0616953 -0.73424697 0 7
0.97967988 -3.1876247 -0.73223025 0 8
1.0296745 -3.3502944 -0.73587286 0 9
1.080758 -3.5165064 -0.73711944 0 10
1.1258502 -3.6632252 -0.73127711 0 11
1.1955832 -3.8901181 -0.73784339 0 12
1.2546053 -4.0821605 -0.73376417 0 13
1.3282459 -4.3217678 -0.73408711 0 14
1.4072447 -4.5788097 -0.73259419 0 15
1.4971244 -4.8712554 -0.73148197 0 16
1.5531824 -5.0536532 -0.70930624 0 17
1.5531502 -5.0535488 -0.65984964 0 18
1.5601708 -5.0763917 -0.61328077 0 19
1.5581043 -5.0696678 -0.56308758 0 20
1.5576187 -5.0680881 -0.51364297 0 21
1.5586762 -5.0715289 -0.46477684 0 22
1.5548109 -5.0589523 -0.41461053 0 23
1.5609182 -5.078824 -0.36710376 0 24
1.5540655 -5.0565267 -0.31663454 0 25
1.5566548 -5.0649519 -0.26827702 0 26
1.5558748 -5.0624137 -0.21932746 0 27
1.5550865 -5.0598488 -0.17046311 0 28
1.5572511 -5.0668917 -0.12190821 0 29
1.5559968 -5.0628104 -0.073077768 0 30
1.5594146 -5.0739317 -0.024411386 0 31
1.5562779 -5.0637255 0.024362281 0 32
1.5539411 -5.0561218 0.072981223 0 33
1.5557972 -5.0621614 0.1217944 0 34
1.5560374 -5.062943 0.17056735 0 35
1.555446 -5.0610185 0.21926701 0 36
1.5558902 -5.0624638 0.2681452 0 37
1.5553575 -5.0607305 0.31689775 0 38
1.5557116 -5.0618825 0.36587921 0 39
1.5552622 -5.0604205 0.41473088 0 40
1.5564235 -5.0641994 0.46410513 0 41
1.5592798 -5.073493 0.51419073 0 42
1.5574899 -5.0676689 0.56286556 0 43
1.5530539 -5.0532351 0.61048323 0 44
1.5580791 -5.0695858 0.66194361 0 45
1.5596107 -5.0745697 0.71224195 0 46
1.5562947 -5.0637798 0.76039201 0 47
1.5552224 -5.0602908 0.80962956 0 48
1.558648 -5.0714374 0.86142445 0 49
1.5557612 -5.0620441 0.90989721 0 50
1.5574136 -5.0674205 0.96114373 0 51
1.5536011 -5.0550156 1.0091155 0 52
1.553839 -5.0557895 1.0597793 0 53
1.5560646 -5.0630317 1.1120657 0 54
1.5581876 -5.0699391 1.1646173 0 55
1.5587323 -5.0717111 1.2162832 0 56
1.5566807 -5.0650358 1.2660902 0 57
1.5573577 -5.0672388 1.3182974 0 58
1.5582433 -5.0701203 1.37097 0 59
1.5563929 -5.0640993 1.4214505 0 60
1.5651346 -5.0925431 1.4820949 0 61
1.5597017 -5.0748653 1.5296971 0 62
1.557528 -5.0677929 1.5805185 0 63
0.75428277 -2.3509071 -0.73602647 0 0
0.7759254 -2.4183617 -0.73177803 0 1
0.80603039 -2.5121913 -0.73395801 0 2
0.83638746 -2.6068065 -0.73454016 0 3
0.87058866 -2.7134027 -0.73654824 0 4
0.90272319 -2.8135581 -0.73481011 0 5
0.93813646 -2.9239321 -0.73371363 0 6
0.97797048 -3.0480847 -0.73381138 0 7
1.0201403 -3.1795173 -0.73319399 0 8
1.0671767 -3.3261175 -0.73338938 0 9
1.1196991 -3.4898167 -0.73435533 0 10
1.1737554 -3.6582961 -0.73311895 0 11
1.2328238 -3.8423977 -0.73161215 0 12
1.3104839 -4.084444 -0.73701549 0 13
1.3844026 -4.3148298 -0.73574454 0 14
1.4650689 -4.5662465 -0.73341101 0 15
1.5664061 -4.8820887 -0.7359454 0 16
1.6243691 -5.0627446 -0.71333176 0 17
1.625016 -5.0647607 -0.66387248 0 18
1.6270529 -5.0711088 -0.61501312 0 19
1.6242454 -5.0623589 -0.56445146 0 20
1.6271751 -5.0714903 -0.51597661 0 21
1.6230769 -5.0587173 -0.46539658 0 22
1.6300415 -5.0804238 -0.41798136 0 23
1.6306746 -5.082397 -0.3687835 0 24
1.6232531 -5.0592661 -0.31803191 0 25
1.6266634 -5.0698953 -0.26957795 0 26
1.6250573 -5.0648894 -0.22028379 0 27
1.6224809 -5.0568595 -0.1710216 0 28
1.6223016 -5.0563006 -0.12212411 0 29
1.6217771 -5.0546656 -0.073242508 0 30
1.6267787 -5.0702543 -0.024488084 0 31
1.6293128 -5.0781527 0.024526231 0 32
1.6271536 -5.0714231 0.07348533 0 33
1.6212211 -5.0529327 0.12204278 0 34
1.6245331 -5.0632553 0.1712379 0 35
1.6230869 -5.0587482 0.2200167 0 36
1.6229434 -5.058301 0.26896143 0 37
1.6205561 -5.0508599 0.31750351 0 38
1.6274629 -5.0723867 0.36805713 0 39
1.6275152 -5.0725498 0.41733357 0 40
1.6267583 -5.0701914 0.46645221 0 41
1.6249377 -5.0645161 0.51526707 0 42
1.6304375 -5.0816579 0.5666033 0 43
1.6224233 -5.0566797 0.61326319 0 44
1.6228359 -5.0579658 0.66298181 0 45
1.6259623 -5.0677099 0.7140314 0 46
1.6268475 -5.0704689 0.76434261 0 47
1.6301569 -5.0807834 0.81605375 0 48
1.6230465 -5.0586224 0.86257255 0 49
1.6265752 -5.0696201 0.91478509 0 50
1.6263593 -5.0689478 0.96515357 0 51
1.6231195 -5.0588493 1.0137885 0 52
1.6242673 -5.062427 1.0652767 0 53
1.6276573 -5.0729928 1.1185651 0 54
1.6246991 -5.0637732 1.1677018 0 55
1.6199569 -5.0489926 1.2155201 0 56
1.6260917 -5.0681133 1.2717613 0 57
1.6247933 -5.0640664 1.3225698 0 58
1.6238722 -5.0611954 1.3738523 0 59
1.6197295 -5.0482841 1.4224943 0 60
1.6265286 -5.0694752 1.4810902 0 61
1.6229268 -5.058249 1.5305882 0 62
1.6221375 -5.055789 1.5828761 0 63
0.78088051 -2.3347251 -0.73391092 0 0
0.80943751 -2.4201066 -0.73526222 0 1
0.84162992 -2.5163574 -0.73814297 0 2
0.87324804 -2.6108913 -0.73866099 0 3
0.90240097 -2.6980546 -0.73533845 0 4
0.93705916 -2.8016779 -0.73466116 0 5
0.97142392 -2.9044237 -0.73176044 0 6
1.0168947 -3.040375 -0.73491013 0 7
1.0643266 -3.1821902 -0.7367726 0 8
1.1115048 -3.3232462 -0.73571432 0 9
1.1623347 -3.4752204 -0.73423594 0 10
1.2250224 -3.6626484 -0.73695409 0 11
1.2811961 -3.8305998 -0.73231012 0 12
1.3598835 -4.0658646 -0.73662454 0 13
1.4398984 -4.3050981 -0.73704845 0 14
1.5269146 -4.5652642 -0.73621327 0 15
1.6209714 -4.8464813 -0.73352706 0 16
1.6945232 -5.066391 -0.7167272 0 17
1.6962472 -5.0715451 -0.6674453 0 18
1.6954677 -5.0692148 -0.61726516 0 19
1.6936414 -5.0637546 -0.56688631 0 20
1.6946 -5.0666208 -0.51756203 0 21
1.6925416 -5.0604663 -0.46743688 0 22
1.6933068 -5.0627542 -0.41820908 0 23
1.6963745 -5.0719261 -0.36950937 0 24
1.6934863 -5.0632906 -0.31956977 0 25
1.6927601 -5.0611196 -0.27019766 0 26
1.6977142 -5.0759315 -0.22165523 0 27
1.6956419 -5.0697355 -0.17214921 0 28
1.6930758 -5.0620632 -0.12275685 0 29
1.6944448 -5.0661564 -0.073705353 0 30
1.6936718 -5.0638456 -0.02455586 0 31
1.6926613 -5.0608239 0.024541207 0 32
1.6946563 -5.0667887 0.073714554 0 33
1.6967922 -5.073175 0.12302632 0 34
1.6951704 -5.068326 0.17210133 0 35
1.6953566 -5.0688829 0.22134742 0 36
1.7012328 -5.0864515 0.27155006 0 37
1.6969304 -5.0735884 0.3202197 0 38
1.6969614 -5.0736809 0.36963719 0 39
1.6931047 -5.06215 0.41815919 0 40
1.6905959 -5.0546489 0.46689954 0 41
1.6863372 -5.0419164 0.51503849 0 42
1.69379 -5.0641985 0.56693602 0 43
1.6959317 -5.0706019 0.61743408 0 44
1.6963949 -5.0719872 0.66750348 0 45
1.6913997 -5.0570521 0.71540606 0 46
1.6973248 -5.0747671 0.76807868 0 47
1.6912338 -5.0565562 0.81544101 0 48
1.6922444 -5.0595779 0.86621815 0 49
1.6927686 -5.0611448 0.91694242 0 50
1.6931132 -5.0621753 0.96775502 0 51
1.6955328 -5.0694094 1.0200057 0 52
1.6946918 -5.066895 1.070521 0 53
1.6951524 -5.0682721 1.1220355 0 54
1.6899805 -5.0528092 1.1698771 0 55
1.6919409 -5.05867 1.2227662 0 56
1.6939356 -5.0646343 1.2760186 0 57
1.6940899 -5.0650954 1.3281788 0 58
1.6942664 -5.0656233 1.380605 0 59
1.6911463 -5.0562944 1.4305029 0 60
1.694133 -5.0652246 1.4858222 0 61
1.6999552 -5.0826321 1.5441747 0 62
1.6944478 -5.066165 1.5925275 0 63
0.81095254 -2.3290381 -0.73520225 0 0
0.836236 -2.4016516 -0.73272395 0 1
0.86747235 -2.4913619 -0.73388427 0 2
0.89905715 -2.5820725 -0.73357993 0 3
0.93222558 -2.6773314 -0.7327593 0 4
0.96942544 -2.7841687 -0.73314029 0 5
1.0131241 -2.9096701 -0.73616534 0 6
1.0534568 -3.0255048 -0.73439133 0 7
1.1021528 -3.165359 -0.73595792 0 8
1.1497169 -3.3019617 -0.7340765 0 9
1.2043134 -3.4587619 -0.73383194 0 10
1.2631521 -3.6277454 -0.73300117 0 11
1.3301835 -3.8202581 -0.73340458 0 12
1.4125232 -4.056736 -0.73806167 0 13
1.48593 -4.2675586 -0.73369431 0 14
1.5795845 -4.5365319 -0.73465657 0 15
1.6821055 -4.8309703 -0.73425448 0 16
1.7638768 -5.0658154 -0.71965981 0 17
1.764118 -5.0665083 -0.66958666 0 18
1.7616273 -5.0593553 -0.61865556 0 19
1.7609501 -5.0574102 -0.56855714 0 20
1.7614959 -5.0589781 -0.51895475 0 21
1.7673229 -5.0757127 -0.470817 0 22
1.7616038 -5.0592875 -0.41968036 0 23
1.7581807 -5.0494571 -0.36941952 0 24
1.7627424 -5.0625577 -0.3208673 0 25
1.7710325 -5.0863667 -0.27268752 0 26
1.7686186 -5.0794339 -0.22274101 0 27
1.7616091 -5.0593028 -0.17251745 0 28
1.7591491 -5.052238 -0.12303385 0 29
1.762531 -5.0619507 -0.073953889 0 30
1.762598 -5.0621433 -0.024650842 0 31
1.7640536 -5.0663233 0.024671197 0 32
1.7611192 -5.0578961 0.07389465 0 33
1.7638677 -5.0657897 0.12336387 0 34
1.7642747 -5.0669589 0.17277852 0 35
1.7634575 -5.0646114 0.22209102 0 36
1.7663417 -5.0728946 0.2719653 0 37
1.7665457 -5.0734806 0.32155958 0 38
1.7620798 -5.0606546 0.37023875 0 39
1.760522 -5.056181 0.41942263 0 40
1.7613401 -5.0585303 0.46922317 0 41
1.7652129 -5.069653 0.52004981 0 42
1.7658806 -5.0715704 0.57014906 0 43
1.7624884 -5.0618281 0.61895794 0 44
1.7614022 -5.0587087 0.66855592 0 45
1.7603501 -5.055687 0.71822089 0 46
1.7638708 -5.0657988 0.7699458 0 47
1.7627324 -5.0625291 0.81983775 0 48
1.7653055 -5.0699191 0.87163907 0 49
1.7606827 -5.0566425 0.91997957 0 50
1.7676303 -5.0765958 0.9745934 0 51
1.7622621 -5.0611782 1.0226324 0 52
1.767414 -5.0759745 1.0769496 0 53
1.7622807 -5.0612316 1.1251892 0 54
1.7644168 -5.0673666 1.1781818 0 55
1.7654997 -5.070477 1.2307745 0 56
1.7617389 -5.0596757 1.2801305 0 57
1.7602687 -5.0554533 1.3312255 0 58
1.7613946 -5.0586872 1.3845129 0 59
1.7677681 -5.0769916 1.4423993 0 60
1.7644854 -5.0675635 1.4927599 0 61
1.7608902 -5.0572381 1.5429214 0 62
1.7631186 -5.0636382 1.5984274 0 63
0.83759755 -2.3135586 -0.73351163 0 0
0.86842752 -2.3987153 -0.73503047 0 1
0.89929777 -2.483983 -0.73491257 0 2
0.93301153 -2.577105 -0.73537254 0 3
0.96340281 -2.6610501 -0.73149019 0 4
1.007565 -2.7830319 -0.73604774 0 5
1.0464435 -2.8904195 -0.73449481 0 6
1.0888053 -3.0074286 -0.73319805 0 7
1.1368958 -3.1402612 -0.73331749 0 8
1.1889052 -3.2839184 -0.73325992 0 9
1.2427107 -3.4325364 -0.73145455 0 10
1.3128427 -3.6262505 -0.73590529 0 11
1.3839433 -3.8226402 -0.73707312 0 12
1.4541929 -4.0166793 -0.73397171 0 13
1.5425696 -4.2607875 -0.73573565 0 14
1.6410117 -4.5326982 -0.73724771 0 15
1.738413 -4.801734 -0.73300439 0 16
1.8312021 -5.0580301 -0.72169805 0 17
1.8355244 -5.0699687 -0.67297602 0 18
1.8390378 -5.0796733 -0.62385803 0 19
1.8371398 -5.0744305 -0.57296693 0 20
1.8329653 -5.0629001 -0.52162969 0 21
1.8335507 -5.064517 -0.47183418 0 22
1.8376077 -5.0757232 -0.42288613 0 23
1.8368176 -5.0735407 -0.37280571 0 24
1.8300859 -5.0549469 -0.32178688 0 25
1.8328942 -5.0627036 -0.27260661 0 26
1.8342129 -5.0663462 -0.22313926 0 27
1.8385365 -5.0782886 -0.1739226 0 28
1.8308066 -5.0569372 -0.12368718 0 29
1.8311661 -5.0579305 -0.074218504 0 30
1.8318005 -5.0596824 -0.024746675 0 31
1.8359725 -5.0712066 0.024803039 0 32
1.8257929 -5.0430889 0.074000724 0 33
1.8380423 -5.0769234 0.124176 0 34
1.8305985 -5.0563626 0.17317167 0 35
1.8361552 -5.0717111 0.22337554 0 36
1.8292366 -5.0526009 0.27206263 0 37
1.8343011 -5.0665898 0.32252803 0 38
1.8303442 -5.0556602 0.37149185 0 39
1.8295282 -5.0534062 0.42102683 0 40
1.8332586 -5.0637102 0.47175902 0 41
1.8328989 -5.0627165 0.5216108 0 42
1.8353304 -5.0694327 0.5724026 0 43
1.8323908 -5.0613132 0.62160319 0 44
1.830819 -5.0569715 0.67125082 0 45
1.8362565 -5.071991 0.72369003 0 46
1.832047 -5.0603633 0.77248526 0 47
1.8364133 -5.0724235 0.82503462 0 48
1.8344592 -5.0670266 0.87495375 0 49
1.8336416 -5.0647683 0.92549008 0 50
1.83176 -5.0595713 0.97557545 0 51
1.836904 -5.0737796 1.0296645 0 52
1.8331635 -5.0634475 1.0789927 0 53
1.8365219 -5.0727239 1.1326789 0 54
1.8341169 -5.066081 1.1830372 0 55
1.8333398 -5.0639348 1.2345653 0 56
1.8332286 -5.0636272 1.2867365 0 57
1.8336827 -5.0648813 1.3395443 0 58
1.8339329 -5.0655727 1.3924642 0 59
1.8381301 -5.0771661 1.4487607 0 60
1.8332102 -5.0635767 1.4981126 0 61
1.8288908 -5.0516458 1.5479593 0 62
1.8308511 -5.0570602 1.6033363 0 63
0.86796963 -2.3083746 -0.73519635 0 0
0.90140629 -2.3972998 -0.73793745 0 1
0.92940903 -2.4717734 -0.73462594 0 2
0.96005088 -2.5532656 -0.73188329 0 3
0.99749053 -2.6528368 -0.73254877 0 4
1.0377787 -2.759984 -0.7332716 0 5
1.0793077 -2.8704305 -0.73273247 0 6
1.1252608 -2.9926436 -0.73291141 0 7
1.171512 -3.115649 -0.73087871 0 8
1.2286305 -3.2675562 -0.7329244 0 9
1.2843022 -3.4156156 -0.73115879 0 10
1.3527455 -3.5976412 -0.73341966 0 11
1.4255645 -3.7913041 -0.73435545 0 12
1.5054603 -4.003788 -0.73494321 0 13
1.5992609 -4.2532516 -0.73777437 0 14
1.6995099 -4.519865 -0.73850363 0 15
1.7975756 -4.7806721 -0.73310804 0 16
1.9059612 -5.0689244 -0.72654158 0 17
1.9040914 -5.0639515 -0.67523414 0 18
1.9047575 -5.0657234 -0.62497407 0 19
1.9014466 -5.0569177 -0.57358617 0 20
1.9072417 -5.07233 -0.52497786 0 21
1.9080518 -5.0744843 -0.47491276 0 22
1.9023348 -5.0592799 -0.4234331 0 23
1.9042281 -5.0643153 -0.37382016 0 24
1.904277 -5.0644455 -0.32385764 0 25
1.9053174 -5.0672126 -0.27409023 0 26
1.8980342 -5.0478425 -0.22333536 0 27
1.9069308 -5.0715032 -0.17448008 0 28
1.9070634 -5.0718555 -0.12461621 0 29
1.9063534 -5.0699673 -0.074733458 0 30
1.9059302 -5.0688419 -0.024904218 0 31
1.902881 -5.0607328 0.024864374 0 32
1.90364 -5.0627513 0.074627087 0 33
1.9032068 -5.0615993 0.1243642 0 34
1.9028286 -5.0605931 0.17410475 0 35
1.8986191 -5.0493979 0.22340417 0 36
1.9034944 -5.0623636 0.27382797 0 37
1.9062673 -5.0697384 0.32419613 0 38
1.9049784 -5.0663109 0.37396744 0 39
1.9006845 -5.0548911 0.42306575 0 40
1.9061848 -5.069519 0.47444803 0 41
1.9066039 -5.0706339 0.52480233 0 42
1.9064715 -5.0702815 0.57510197 0 43
1.9055603 -5.0678582 0.62523746 0 44
1.905477 -5.067637 0.67572552 0 45
1.9036074 -5.0626645 0.72564429 0 46
1.9024943 -5.0597043 0.7758972 0 47
1.9032354 -5.0616751 0.82703036 0 48
1.9058286 -5.068572 0.87920082 0 49
1.9090819 -5.0772243 0.93198532 0 50
1.9039048 -5.0634556 0.98076439 0 51
1.9049714 -5.0662923 1.0328206 0 52
1.9071401 -5.0720596 1.0857431 0 53
1.8985502 -5.0492148 1.1325567 0 54
1.9083118 -5.0751762 1.1905508 0 55
1.9051726 -5.0668273 1.2408881 0 56
1.9083601 -5.0753045 1.2955688 0 57
1.9047207 -5.0656252 1.3458337 0 58
1.8954546 -5.0409822 1.3920062 0 59
1.9048477 -5.0659633 1.4521379 0 60
1.9063298 -5.0699048 1.5068063 0 61
1.9067791 -5.0710998 1.5609872 0 62
1.9034878 -5.0623465 1.6123112 0 63
0.89413673 -2.2920167 -0.73343271 0 0
0.92656285 -2.3751373 -0.73456699 0 1
0.95781094 -2.4552383 -0.73315656 0 2
0.9979496 -2.5581291 -0.73673916 0 3
1.0367498 -2.657589 -0.73732555 0 4
1.0763304 -2.7590492 -0.73648393 0 5
1.1196296 -2.8700418 -0.73609197 0 6
1.1598529 -2.9731495 -0.73157483 0 7
1.2146093 -3.1135111 -0.73382533 0 8
1.2681255 -3.2506938 -0.73258442 0 9
1.3209896 -3.386205 -0.72828519 0 10
1.4049097 -3.6013246 -0.73763657 0 11
1.4799736 -3.7937422 -0.73829681 0 12
1.5495782 -3.9721656 -0.73258084 0 13
1.6444503 -4.2153592 -0.73465347 0 14
1.7453885 -4.4741025 -0.7344777 0 15
1.8559502 -4.757515 -0.73300117 0 16
1.9810729 -5.0782528 -0.73131496 0 17
1.9750962 -5.062932 -0.6782853 0 18
1.9761405 -5.065609 -0.62791044 0 19
1.9773765 -5.0687771 -0.5776456 0 20
1.9784139 -5.0714364 -0.52736342 0 21
1.9764287 -5.0663481 -0.47638974 0 22
1.9742692 -5.060812 -0.42556092 0 23
1.9779158 -5.0701594 -0.37601838 0 24
1.9788898 -5.0726562 -0.32591414 0 25
1.9718865 -5.0547047 -0.27470446 0 26
1.9751881 -5.0631676 -0.22507095 0 27
1.9747735 -5.0621047 -0.17497894 0 28
1.9784356 -5.0714922 -0.12519555 0 29
1.9759638 -5.065156 -0.075015016 0 30
1.9754608 -5.0638666 -0.024997229 0 31
1.9815565 -5.0794921 0.025074365 0 32
1.9798961 -5.0752358 0.075164303 0 33
1.9737977 -5.0596032 0.12490205 0 34
1.9779519 -5.0702519 0.17526057 0 35
1.9710498 -5.0525594 0.22459941 0 36
1.9765364 -5.0666237 0.27535224 0 37
1.975636 -5.0643158 0.32537827 0 38
1.9759387 -5.0650916 0.37564254 0 39
1.9786845 -5.0721302 0.42651269 0 40
1.9737495 -5.0594802 0.47574395 0 41
1.9772406 -5.068429 0.52705061 0 42
1.9765255 -5.066596 0.57739699 0 43
1.9762127 -5.065794 0.62793338 0 44
1.9747559 -5.0620599 0.67816848 0 45
1.9755388 -5.0640664 0.72927201 0 46
1.9840661 -5.0859256 0.78360015 0 47
1.9738913 -5.0598435 0.83063406 0 48
1.9744465 -5.0612664 0.88207835 0 49
1.9773557 -5.0687242 0.93481755 0 50
1.9798976 -5.0752401 0.987688 0 51
1.9739985 -5.0601182 1.036432 0 52
1.9751376 -5.0630383 1.0889286 0 53
1.9788212 -5.0724807 1.1431468 0 54
1.9751321 -5.063024 1.1933073 0 55
1.977282 -5.0685353 1.2471665 0 56
1.9764651 -5.0664411 1.299412 0 57
1.9794987 -5.0742173 1.3544809 0 58
1.9760629 -5.0654101 1.4053552 0 59
1.9720356 -5.0550866 1.455861 0 60
1.9771748 -5.0682602 1.5134288 0 61
1.9801784 -5.0759597 1.5698597 0 62
1.9802954 -5.0762596 1.6243752 0 63
0.92606127 -2.2902737 -0.73646313 0 0
0.95815897 -2.3696554 -0.73645979 0 1
0.98485315 -2.4356737 -0.73087537 0 2
1.0215997 -2.5265527 -0.73120779 0 3
1.0682846 -2.6420109 -0.73659241 0 4
1.1068075 -2.7372832 -0.7342512 0 5
1.1523485 -2.8499122 -0.73450792 0 6
1.208289 -2.9882605 -0.73889309 0 7
1.2555816 -3.1052215 -0.73545486 0 8
1.3115503 -3.2436395 -0.7345736 0 9
1.3785795 -3.4094117 -0.73686647 0 10
1.4491596 -3.5839658 -0.73767513 0 11
1.5204949 -3.7603877 -0.7353887 0 12
1.6091917 -3.9797463 -0.73757255 0 13
1.6929145 -4.1868043 -0.73324943 0 14
1.799139 -4.4495115 -0.73401707 0 15
1.9205019 -4.7496586 -0.73537362 0 16
2.0470459 -5.0626187 -0.73263305 0 17
2.0505767 -5.0713506 -0.68273962 0 18
2.0416415 -5.049253 -0.62894738 0 19
2.0564897 -5.0859742 -0.58244318 0 20
2.048516 -5.0662541 -0.52940387 0 21
2.0499156 -5.0697155 -0.47904038 0 22
2.0482023 -5.0654783 -0.42803884 0 23
2.0419455 -5.0500045 -0.37635732 0 24
2.0489852 -5.0674148 -0.32717142 0 25
2.0465727 -5.0614481 -0.2764177 0 26
2.042882 -5.052321 -0.2256884 0 27
2.0461175 -5.0603223 -0.17577374 0 28
2.0503428 -5.0707726 -0.12579066 0 29
2.0462461 -5.0606403 -0.075315088 0 30
2.0456312 -5.0591197 -0.025096072 0 31
2.051501 -5.0736365 0.025168082 0 32
2.0529454 -5.077209 0.075561665 0 33
2.0490806 -5.0676508 0.12571321 0 34
2.0510495 -5.0725198 0.17619742 0 35
2.0430388 -5.0527086 0.22570573 0 36
2.0539215 -5.0796232 0.27741027 0 37
2.0451622 -5.05796 0.32656097 0 38
2.0473757 -5.0634341 0.37735817 0 39
2.0468147 -5.062047 0.42774886 0 40
2.0480323 -5.0650582 0.47860032 0 41
2.0542934 -5.0805426 0.5308969 0 42
2.0490553 -5.0675883 0.58033758 0 43
2.0495987 -5.0689321 0.63139862 0 44
2.0504103 -5.0709391 0.68268424 0 45
2.0533271 -5.0781527 0.73488098 0 46
2.0487406 -5.0668097 0.78447711 0 47
2.0410438 -5.0477748 0.83270997 0 48
2.04948 -5.0686383 0.8876881 0 49
2.0454669 -5.0587134 0.93753922 0 50
2.0483398 -5.0658188 0.99068129 0 51
2.0525937 -5.0763392 1.0448452 0 52
2.0474808 -5.063694 1.0944018 0 53
2.0455868 -5.05901 1.1456931 0 54
2.0451803 -5.0580044 1.1979609 0 55
2.0508492 -5.0720248 1.2541356 0 56
2.0453303 -5.0583758 1.3036953 0 57
2.0433593 -5.0535011 1.3555557 0 58
2.0427923 -5.0520988 1.4085248 0 59
2.0493319 -5.0682721 1.4668051 0 60
2.0461988 -5.0605235 1.5185171 0 61
2.0502715 -5.0705962 1.5758789 0 62
2.0500686 -5.0700941 1.6303456 0 63
0.95016259 -2.2691877 -0.73338437 0 0
0.98661429 -2.3562422 -0.73600584 0 1
1.018697 -2.4328623 -0.73373508 0 2
1.0583287 -2.5275111 -0.73519588 0 3
1.0987252 -2.6239865 -0.73527831 0 4
1.1373601 -2.7162547 -0.73230666 0 5
1.1926559 -2.8483126 -0.73781967 0 6
1.2305197 -2.9387393 -0.73033434 0 7
1.2893295 -3.0791898 -0.73298889 0 8
1.3504325 -3.2251163 -0.73408383 0 9
1.419329 -3.3896558 -0.73631305 0 10
1.4870235 -3.5513244 -0.73466474 0 11
1.5637853 -3.7346478 -0.73405993 0 12
1.6455579 -3.9299378 -0.73203623 0 13
1.7487546 -4.176393 -0.73513651 0 14
1.8621413 -4.4471846 -0.73735476 0 15
1.9773493 -4.7223253 -0.7348507 0 16
2.113714 -5.0479932 -0.73422229 0 17
2.1270173 -5.0797639 -0.68734145 0 18
2.1232696 -5.0708137 -0.63483715 0 19
2.1187358 -5.0599861 -0.58240652 0 20
2.1243834 -5.0734739 -0.5328477 0 21
2.1187394 -5.0599947 -0.48054731 0 22
2.1215189 -5.0666327 -0.43030825 0 23
2.1140497 -5.0487943 -0.37817588 0 24
2.1244171 -5.073554 -0.32922947 0 25
2.1236773 -5.0717874 -0.27838743 0 26
2.1177924 -5.0577331 -0.22707628 0 27
2.1197889 -5.062501 -0.17674147 0 28
2.1190484 -5.0607328 -0.12617846 0 29
2.1177354 -5.0575972 -0.075651631 0 30
2.1233044 -5.0708966 -0.025282096 0 31
2.1208589 -5.0650563 0.025252977 0 32
2.1222613 -5.0684052 0.075813301 0 33
2.1188438 -5.0602441 0.12616627 0 34
2.1149454 -5.0509338 0.17633763 0 35
2.1159904 -5.0534296 0.22688305 0 36
2.1175785 -5.0572224 0.27758798 0 37
2.1240475 -5.0726719 0.32917222 0 38
2.1169407 -5.0556989 0.37869304 0 39
2.1178823 -5.0579476 0.42957062 0 40
2.121521 -5.0666375 0.48117816 0 41
2.1229904 -5.070147 0.5324983 0 42
2.1200068 -5.0630212 0.58275592 0 43
2.1216853 -5.06703 0.63436347 0 44
2.1239843 -5.0725203 0.68636131 0 45
2.1243694 -5.0734401 0.73792356 0 46
2.1153924 -5.0520015 0.7861523 0 47
2.1227338 -5.0695343 0.84054196 0 48
2.1181633 -5.058619 0.89042759 0 49
2.1208189 -5.0649605 0.94345886 0 50
2.1155853 -5.0524621 0.99308163 0 51
2.1194108 -5.0615978 1.0470959 0 52
2.1204193 -5.0640063 1.1000215 0 53
2.1190867 -5.0608244 1.1519179 0 54
2.1149969 -5.0510569 1.2023841 0 55
2.120573 -5.0643735 1.2585962 0 56
2.1197519 -5.0624127 1.3113545 0 57
2.1199095 -5.062789 1.3649361 0 58
2.1207983 -5.0649118 1.4192603 0 59
2.1166127 -5.0549154 1.4703608 0 60
2.1205182 -5.0642428 1.527342 0 61
2.1241305 -5.0728698 1.5845834 0 62
2.1205785 -5.0643868 1.6367717 0 63
0.97939974 -2.2605836 -0.73444027 0 0
1.012341 -2.3366165 -0.73370844 0 1
1.0534179 -2.4314272 -0.73715323 0 2
1.0937617 -2.5245459 -0.7381897 0 3
1.1298652 -2.6078775 -0.73460197 0 4
1.1703448 -2.7013099 -0.73210204 0 5
1.2231405 -2.8231692 -0.735147 0 6
1.2762721 -2.9458041 -0.73593462 0 7
1.3268797 -3.062613 -0.73287147 0 8
1.3879728 -3.2036242 -0.7330212 0 9
1.4648823 -3.3811409 -0.73832047 0 10
1.5344387 -3.5416865 -0.7365185 0 11
1.6136645 -3.7245502 -0.73591965 0 12
1.7054646 -3.9364369 -0.73709744 0 13
1.8066125 -4.1698995 -0.73784804 0 14
1.910013 -4.4085617 -0.73478949 0 15
2.0422978 -4.7138925 -0.73739052 0 16
2.177561 -5.0260973 -0.73487663 0 17
2.2027137 -5.0841532 -0.69154799 0 18
2.1930592 -5.0618696 -0.63704532 0 19
2.1976943 -5.0725679 -0.5869208 0 20
2.1938443 -5.0636811 -0.53461206 0 21
2.1953642 -5.0671897 -0.48375776 0 22
2.1973009 -5.07166 -0.4329972 0 23
2.1962292 -5.0691862 -0.3816973 0 24
2.1961281 -5.068953 -0.33065829 0 25
2.1916671 -5.0586557 -0.27912483 0 26
2.1873806 -5.0487623 -0.22786389 0 27
2.197094 -5.0711823 -0.17797428 0 28
2.1936929 -5.0633321 -0.12690623 0 29
2.1886673 -5.0517325 -0.075960726 0 30
2.1953375 -5.0671282 -0.025395976 0 31
2.1931217 -5.0620136 0.025370343 0 32
2.1916862 -5.0587001 0.076065496 0 33
2.1921391 -5.0597458 0.12681635 0 34
2.1961386 -5.0689769 0.1778969 0 35
2.1906211 -5.056242 0.22820145 0 36
2.1981623 -5.073648 0.27995205 0 37
2.1922212 -5.0599351 0.33007002 0 38
2.1906221 -5.0562444 0.38072282 0 39
2.196018 -5.0686989 0.43274435 0 40
2.1915085 -5.0582905 0.48290816 0 41
2.1906607 -5.0563331 0.53383625 0 42
2.1968579 -5.0706372 0.5866974 0 43
2.1924338 -5.0604262 0.63686371 0 44
2.1929407 -5.0615959 0.68847978 0 45
2.1948097 -5.0659099 0.74069768 0 46
2.198652 -5.0747781 0.79384363 0 47
2.1905007 -5.0559645 0.84269428 0 48
2.1954014 -5.0672755 0.89663541 0 49
2.1951137 -5.0666113 0.94872248 0 50
2.1931248 -5.0620208 1.0001854 0 51
2.1955719 -5.0676689 1.0538572 0 52
2.1906011 -5.0561962 1.1040926 0 53
2.1901636 -5.0551858 1.156677 0 54
2.1960883 -5.068861 1.2129588 0 55
2.1900859 -5.0550065 1.2628654 0 56
2.1980996 -5.0735035 1.321129 0 57
2.1869719 -5.0478191 1.3680469 0 58
2.1876142 -5.0493016 1.4223163 0 59
2.199352 -5.0763941 1.4843627 0 60
2.1939216 -5.0638599 1.5352467 0 61
2.1933391 -5.0625153 1.5896534 0 62
2.1952584 -5.0669456 1.6461983 0 63
1.0078908 -2.2500894 -0.73500174 0 0
1.0431709 -2.3288512 -0.73524237 0 1
1.0797617 -2.4105392 -0.73479027 0 2
1.1195788 -2.4994299 -0.7348156 0 3
1.1580613 -2.585341 -0.73220956 0 4
1.21155 -2.7047532 -0.7370171 0 5
1.2586331 -2.809865 -0.7356571 0 6
1.3089048 -2.9220951 -0.73397696 0 7
1.3675487 -3.0530162 -0.73454344 0 8
1.4290528 -3.1903224 -0.73394293 0 9
1.4972199 -3.3425038 -0.73384815 0 10
1.5749859 -3.516114 -0.73517239 0 11
1.6568468 -3.6988664 -0.73481488 0 12
1.7506043 -3.9081774 -0.73578101 0 13
1.8513533 -4.1330967 -0.73530859 0 14
1.9645439 -4.3857923 -0.73496521 0 15
2.0956643 -4.6785145 -0.73583192 0 16
2.2435093 -5.008575 -0.73629254 0 17
2.2673972 -5.061904 -0.6922617 0 18
2.2665162 -5.059937 -0.64026129 0 19
2.268734 -5.0648885 -0.58921558 0 20
2.2725976 -5.0735135 -0.53855979 0 21
2.2709277 -5.0697861 -0.48663473 0 22
2.2703569 -5.068511 -0.43507895 0 23
2.2688313 -5.0651054 -0.38346171 0 24
2.267642 -5.0624509 -0.33202797 0 25
2.2717872 -5.0717044 -0.28136492 0 26
2.2695806 -5.0667787 -0.22991917 0 27
2.2730701 -5.0745683 -0.17906052 0 28
2.2753098 -5.0795684 -0.12800473 0 29
2.2675788 -5.0623097 -0.076533251 0 30
2.2736359 -5.0758314 -0.025577784 0 31
2.2650502 -5.0566645 0.025481198 0 32
2.2708519 -5.0696163 0.07664372 0 33
2.2676239 -5.0624099 0.12757234 0 34
2.267092 -5.061223 0.17858961 0 35
2.2672493 -5.061574 0.22968298 0 36
2.2716088 -5.0713062 0.28134283 0 37
2.2714059 -5.0708532 0.33257905 0 38
2.2645321 -5.0555077 0.38273513 0 39
2.2689955 -5.0654721 0.43481806 0 40
2.2691989 -5.0659266 0.48626426 0 41
2.2646062 -5.0556731 0.53666598 0 42
2.2690651 -5.0656281 0.58930159 0 43
2.2683454 -5.0640206 0.64077795 0 44
2.267781 -5.0627608 0.69237894 0 45
2.2737284 -5.0760379 0.74621004 0 46
2.2700155 -5.067749 0.7970503 0 47
2.2668231 -5.0606222 0.84805232 0 48
2.2681913 -5.0636768 0.90086561 0 49
2.2607975 -5.0471702 0.95021582 0 50
2.2656398 -5.0579805 1.0048157 0 51
2.2648823 -5.0562897 1.0572025 0 52
2.2672102 -5.0614862 1.1112516 0 53
2.2719986 -5.0721765 1.1668689 0 54
2.2743447 -5.077414 1.2216054 0 55
2.2733464 -5.0751853 1.274794 0 56
2.2675576 -5.0622621 1.3253622 0 57
2.2671044 -5.0612502 1.379138 0 58
2.2717109 -5.0715342 1.436339 0 59
2.2709785 -5.0698991 1.4905162 0 60
2.2673686 -5.0618401 1.5429704 0 61
2.2632792 -5.052711 1.5951929 0 62
2.2682309 -5.063765 1.6541015 0 63
1.0298115 -2.2252765 -0.73097771 0 0
1.0710526 -2.3143926 -0.73478001 0 1
1.1079825 -2.3941929 -0.73390502 0 2
1.1534567 -2.4924562 -0.73687953 0 3
1.1950309 -2.5822921 -0.73545229 0 4
1.2400373 -2.6795444 -0.73424739 0 5
1.2927284 -2.7934024 -0.73545319 0 6
1.3509586 -2.9192297 -0.73737419 0 7
1.4057657 -3.0376601 -0.73495215 0 8
1.4673184 -3.1706667 -0.7335164 0 9
1.5352871 -3.3175375 -0.73245627 0 10
1.6119326 -3.4831576 -0.73237062 0 11
1.7022611 -3.6783447 -0.73484075 0 12
1.7982255 -3.88571 -0.73565847 0 13
1.8983561 -4.102078 -0.73388749 0 14
2.0225699 -4.3704863 -0.73651236 0 15
2.1503959 -4.6467004 -0.73493147 0 16
2.2974737 -4.9645143 -0.73391294 0 17
2.3451803 -5.0676017 -0.69693202 0 18
2.3425145 -5.0618415 -0.64409834 0 19
2.3458276 -5.0690007 -0.59300482 0 20
2.340168 -5.0567708 -0.53979629 0 21
2.3423793 -5.0615492 -0.48857191 0 22
2.3424244 -5.0616469 -0.43692917 0 23
2.3397384 -5.0558424 -0.38490951 0 24
2.3412015 -5.0590038 -0.3336648 0 25
2.3440979 -5.0652628 -0.28258526 0 26
2.3366814 -5.0492368 -0.23040956 0 27
2.3369639 -5.0498476 -0.17918867 0 28
2.3486166 -5.0750275 -0.12860833 0 29
2.3386977 -5.0535941 -0.076830447 0 30
2.3427491 -5.0623484 -0.025653066 0 31
2.3477483 -5.0731506 0.025707806 0 32
2.3463938 -5.0702243 0.077083275 0 33
2.3491006 -5.0760727 0.12863484 0 34
2.3448203 -5.066824 0.17979106 0 35
2.3437726 -5.0645599 0.23110881 0 36
2.3426354 -5.0621023 0.28240895 0 37
2.3412912 -5.0591979 0.33367762 0 38
2.342947 -5.0627761 0.38543734 0 39
2.3388047 -5.0538249 0.43625396 0 40
2.3444986 -5.0661287 0.48901397 0 41
2.3496392 -5.0772367 0.54198092 0 42
2.3438697 -5.0647697 0.59250987 0 43
2.3460677 -5.0695195 0.64507532 0 44
2.3404601 -5.0574021 0.69552934 0 45
2.3490317 -5.0759239 0.75038284 0 46
2.3381884 -5.0524931 0.79911238 0 47
2.3488779 -5.0755916 0.85533643 0 48
2.3398719 -5.0561309 0.90457362 0 49
2.3457301 -5.0687895 0.9596439 0 50
2.3444409 -5.0660043 1.0120602 0 51
2.3426666 -5.0621705 1.0643747 0 52
2.3493574 -5.0766277 1.1208336 0 53
2.345531 -5.0683599 1.1725373 0 54
2.3406153 -5.0577374 1.2237035 0 55
2.3416266 -5.0599227 1.2780961 0 56
2.3463943 -5.0702252 1.3349 0 57
2.3404584 -5.0573983 1.3858256 0 58
2.3489544 -5.075757 1.445606 0 59
2.3397403 -5.0558462 1.4947302 0 60
2.3421435 -5.0610399 1.5513881 0 61
2.3445961 -5.0663395 1.6084762 0 62
2.3395448 -5.0554237 1.6606486 0 63
1.0614332 -2.2215266 -0.73397779 0 0
1.0936561 -2.2889674 -0.73092228 0 1
1.1422704 -2.3907149 -0.73708874 0 2
1.1871676 -2.4846826 -0.73884118 0 3
1.2231127 -2.5599136 -0.73330683 0 4
1.2742742 -2.6669924 -0.73504591 0 5
1.3219762 -2.7668302 -0.73268157 0 6
1.3755765 -2.8790128 -0.73143286 0 7
1.4445568 -3.0233853 -0.73574048 0 8
1.5080639 -3.1563022 -0.73442775 0 9
1.5842828 -3.3158245 -0.73632348 0 10
1.6679039 -3.4908395 -0.73824227 0 11
1.7566177 -3.6765127 -0.73873413 0 12
1.8368571 -3.84445 -0.73206782 0 13
1.946793 -4.0745401 -0.73318815 0 14
2.065696 -4.3233986 -0.73280227 0 15
2.2000167 -4.6045251 -0.73248422 0 16
2.3621724 -4.9439082 -0.7351051 0 17
2.4227591 -5.0707135 -0.70140409 0 18
2.423594 -5.0724611 -0.64919269 0 19
2.4179168 -5.0605788 -0.59545279 0 20
2.4121146 -5.0484352 -0.54203165 0 21
2.4185448 -5.0618935 -0.4914386 0 22
2.4193306 -5.0635381 -0.43962717 0 23
2.4189537 -5.0627489 -0.38767049 0 24
2.4175291 -5.0597672 -0.33565041 0 25
2.415549 -5.0556235 -0.28368315 0 26
2.4179192 -5.0605836 -0.23226655 0 27
2.4167335 -5.0581021 -0.18052243 0 28
2.4247596 -5.0749006 -0.12935093 0 29
2.4131203 -5.05054 -0.077229291 0 30
2.4193707 -5.063622 -0.025808323 0 31
2.4199605 -5.0648561 0.025814613 0 32
2.4178953 -5.060534 0.077382118 0 33
2.4200037 -5.0649467 0.12909722 0 34
2.4220259 -5.0691791 0.18091775 0 35
2.4176757 -5.0600743 0.23224318 0 36
2.4172211 -5.0591226 0.28387949 0 37
2.4204731 -5.0659289 0.33605918 0 38
2.4245338 -5.0744281 0.3885648 0 39
2.4169686 -5.0585947 0.43919796 0 40
2.4203758 -5.0657253 0.49181065 0 41
2.4181504 -5.0610676 0.54338795 0 42
2.4198625 -5.064651 0.59593195 0 43
2.4190595 -5.0629706 0.64797807 0 44
2.424767 -5.0749164 0.70198542 0 45
2.4228849 -5.0709767 0.75399882 0 46
2.4244547 -5.0742621 0.80720961 0 47
2.425971 -5.077436 0.86060923 0 48
2.4168079 -5.0582581 0.91020209 0 49
2.4246264 -5.0746217 0.96631956 0 50
2.422641 -5.0704665 1.0188259 0 51
2.4173789 -5.059453 1.0699725 0 52
2.4230866 -5.0713992 1.1261724 0 53
2.4190924 -5.0630393 1.178099 0 54
2.4099896 -5.0439878 1.2274539 0 55
2.4232266 -5.071692 1.2884979 0 56
2.425137 -5.0756907 1.3440887 0 57
2.4175863 -5.0598874 1.3945483 0 58
2.4200437 -5.0650306 1.4509166 0 59
2.4148834 -5.0542302 1.5029178 0 60
2.4168544 -5.0583549 1.5595572 0 61
2.4164655 -5.0575414 1.6149944 0 62
2.4157517 -5.0560474 1.6704849 0 63
1.0931987 -2.2174983 -0.73703247 0 0
1.1336172 -2.299485 -0.73867619 0 1
1.1698617 -2.3730054 -0.73600817 0 2
1.2135659 -2.4616573 -0.73637611 0 3
1.2515991 -2.5388055 -0.73161352 0 4
1.3019118 -2.6408625 -0.73220116 0 5
1.3581841 -2.7550077 -0.73391795 0 6
1.4157519 -2.8717813 -0.73396301 0 7
1.477497 -2.9970281 -0.73369223 0 8
1.5521377 -3.148433 -0.73698199 0 9
1.6211754 -3.2884724 -0.73462081 0 10
1.7071059 -3.4627781 -0.73669142 0 11
1.7859858 -3.622782 -0.73229522 0 12
1.885067 -3.8237631 -0.73248714 0 13
1.9989953 -4.0548611 -0.73401463 0 14
2.120142 -4.300601 -0.73330158 0 15
2.2598846 -4.5840621 -0.73359406 0 16
2.4198244 -4.9084916 -0.73420781 0 17
2.4977782 -5.066617 -0.70503259 0 18
2.4991879 -5.0694766 -0.65269452 0 19
2.4921021 -5.0551033 -0.598369 0 20
2.494822 -5.0606203 -0.54659235 0 21
2.4923129 -5.0555305 -0.49375892 0 22
2.4916811 -5.0542493 -0.44144747 0 23
2.4944992 -5.0599656 -0.38977665 0 24
2.4927113 -5.0563393 -0.33743083 0 25
2.4955275 -5.0620518 -0.28574413 0 26
2.5001805 -5.0714898 -0.23416044 0 27
2.4975722 -5.0661988 -0.18189372 0 28
2.4999142 -5.07095 -0.13002391 0 29
2.4918053 -5.0545015 -0.077752523 0 30
2.4990115 -5.069119 -0.025990995 0 31
2.496783 -5.0645981 0.025967816 0 32
2.4984074 -5.067893 0.077958524 0 33
2.5048528 -5.0809669 0.13028076 0 34
2.4916801 -5.0542474 0.18146463 0 35
2.4951429 -5.0612717 0.23368865 0 36
2.4953299 -5.0616508 0.28572148 0 37
2.5020688 -5.0753202 0.33869752 0 38
2.4942405 -5.0594411 0.38973626 0 39
2.498543 -5.0681686 0.44266319 0 40
2.4907017 -5.0522623 0.4934397 0 41
2.4997802 -5.0706778 0.54767865 0 42
2.497216 -5.0654764 0.59959686 0 43
2.5038369 -5.078907 0.65390867 0 44
2.4985068 -5.0680947 0.70523822 0 45
2.4935124 -5.0579643 0.75656575 0 46
2.4954476 -5.0618896 0.81006151 0 47
2.4959455 -5.0628991 0.86328214 0 48
2.4986129 -5.0683103 0.91747016 0 49
2.4989715 -5.0690374 0.97103423 0 50
2.4975035 -5.0660596 1.0240338 0 51
2.4948399 -5.0606565 1.0766335 0 52
2.4976418 -5.0663404 1.1317836 0 53
2.4957488 -5.0625005 1.1850249 0 54
2.4991379 -5.069375 1.2410164 0 55
2.4939611 -5.0588741 1.2929349 0 56
2.4936309 -5.0582047 1.3474761 0 57
2.5009661 -5.0730834 1.4065547 0 58
2.4944019 -5.0597687 1.4580853 0 59
2.4972799 -5.0656061 1.5153171 0 60
2.4974372 -5.0659251 1.5712405 0 61
2.4995699 -5.0702515 1.6287446 0 62
2.4960914 -5.0631952 1.68286 0 63
1.1184871 -2.2001629 -0.73578632 0 0
1.151497 -2.2650964 -0.73212242 0 1
1.1949022 -2.3504784 -0.73352289 0 2
1.2409984 -2.4411535 -0.73475194 0 3
1.2849858 -2.5276806 -0.73290563 0 4
1.3376575 -2.6312904 -0.73405224 0 5
1.3941659 -2.7424476 -0.73508328 0 6
1.4561037 -2.8642848 -0.7365675 0 7
1.5145535 -2.9792607 -0.73384637 0 8
1.5809485 -3.1098654 -0.73244929 0 9
1.6630199 -3.2713072 -0.73529887 0 10
1.7421792 -3.4270205 -0.73358625 0 11
1.8284599 -3.5967422 -0.73152107 0 12
1.938063 -3.8123412 -0.7348088 0 13
2.0503211 -4.0331626 -0.73459512 0 14
2.1729884 -4.2744603 -0.73334497 0 15
2.3150787 -4.5539646 -0.73327774 0 16
2.480938 -4.8802242 -0.73448724 0 17
2.5751824 -5.0656114 -0.70924544 0 18
2.5803063 -5.0756903 -0.65752989 0 19
2.5793562 -5.0738215 -0.60429329 0 20
2.5732837 -5.0618763 -0.55010408 0 21
2.5765407 -5.0682836 -0.49806112 0 22
2.5789361 -5.0729952 -0.44582084 0 23
2.5801229 -5.0753298 -0.39337438 0 24
2.5808666 -5.0767927 -0.34088787 0 25
2.5780816 -5.0713143 -0.28803471 0 26
2.5730109 -5.0613399 -0.23513485 0 27
2.5733685 -5.0620437 -0.1828668 0 28
2.5740182 -5.0633216 -0.13063002 0 29
2.5753489 -5.0659389 -0.078409679 0 30
2.5715528 -5.0584717 -0.026096562 0 31
2.574208 -5.0636945 0.026123507 0 32
2.5782509 -5.0716472 0.078498028 0 33
2.5678613 -5.0512099 0.13031755 0 34
2.573184 -5.0616803 0.1828537 0 35
2.5731764 -5.0616651 0.23514996 0 36
2.5738084 -5.0629086 0.28755727 0 37
2.5712638 -5.0579033 0.33961949 0 38
2.5772822 -5.0697417 0.39294127 0 39
2.5734708 -5.0622444 0.44487604 0 40
2.5738382 -5.0629673 0.49753869 0 41
2.5733099 -5.0619278 0.55010968 0 42
2.5704494 -5.0563011 0.60220665 0 43
2.5766165 -5.0684328 0.65658969 0 44
2.5787439 -5.0726171 0.71022636 0 45
2.5727935 -5.0609121 0.76168132 0 46
2.5715954 -5.0585556 0.81452686 0 47
2.5721893 -5.0597239 0.86806816 0 48
2.5776443 -5.0704546 0.92352611 0 49
2.5737114 -5.0627179 0.97581232 0 50
2.57284 -5.0610037 1.0293289 0 51
2.5745866 -5.0644393 1.0840914 0 52
2.5680487 -5.0515785 1.1354544 0 53
2.5676162 -5.0507278 1.1895698 0 54
2.5692418 -5.0539255 1.2448742 0 55
2.5793958 -5.0738997 1.3047827 0 56
2.5800462 -5.0751786 1.3603466 0 57
2.5775361 -5.0702415 1.4144474 0 58
2.5742326 -5.0637431 1.4682416 0 59
2.5791321 -5.0733805 1.5270144 0 60
2.5715261 -5.0584188 1.5786005 0 61
2.5743451 -5.0639648 1.6367701 0 62
2.5781677 -5.0714841 1.6960237 0 63
1.1423366 -2.1802928 -0.73378342 0 0
1.1846567 -2.2610662 -0.73547256 0 1
1.2269906 -2.3418658 -0.735488 0 2
1.2777224 -2.4386938 -0.73868471 0 3
1.3153331 -2.5104785 -0.73255211 0 4
1.3649321 -2.6051445 -0.73138511 0 5
1.4257797 -2.7212796 -0.73405331 0 6
1.4899161 -2.8436921 -0.73592758 0 7
