# .PCD v0.7 - Point Cloud Data file format
VERSION 0.7
FIELDS x y z intensity ring
SIZE 4 4 4 4 2
TYPE F F F F U
COUNT 1 1 1 1 1
WIDTH 1434
HEIGHT 1
VIEWPOINT 0 0 0 1 0 0 0
POINTS 1434
DATA ascii
7.8669271 -5.0619769 0.9062584 0 42
7.8775225 -5.0687943 0.99452519 0 43
7.8600473 -5.05755 1.079342 0 44
7.8858123 -5.0741282 1.170374 0 45
7.8721418 -5.0653319 1.2558881 0 46
7.8637953 -5.0599618 1.3422229 0 47
7.8688083 -5.0631871 1.4310327 0 48
7.8706875 -5.0643964 1.5195974 0 49
7.870142 -5.0640454 1.6079727 0 50
7.870986 -5.0645885 1.6969156 0 51
0 0 0 0 52
0 0 0 0 53
0 0 0 0 54
0 0 0 0 55
0 0 0 0 56
0 0 0 0 57
0 0 0 0 58
0 0 0 0 59
0 0 0 0 60
0 0 0 0 61
0 0 0 0 62
0 0 0 0 63
2.0972819 -1.3133163 -0.73769593 0 0
2.1535337 -1.3485411 -0.73210335 0 1
2.2353714 -1.3997878 -0.73372078 0 2
2.3185914 -1.4519001 -0.7339958 0 3
2.41202 -1.5104051 -0.73558092 0 4
2.5159559 -1.5754896 -0.73821843 0 5
2.6050937 -1.6313077 -0.73442137 0 6
2.7084377 -1.6960217 -0.73255271 0 7
2.8453155 -1.7817343 -0.73714131 0 8
2.9698226 -1.8597007 -0.73568207 0 9
3.1033201 -1.9432968 -0.73365664 0 10
3.2567472 -2.0393727 -0.73323345 0 11
3.4458613 -2.1577959 -0.73712146 0 12
3.6223192 -2.2682936 -0.73433292 0 13
3.8463447 -2.4085782 -0.73684174 0 14
4.0793047 -2.5544574 -0.73610008 0 15
4.3397121 -2.7175245 -0.73495966 0 16
4.620832 -2.8935616 -0.73145628 0 17
4.9988332 -3.1302655 -0.73613423 0 18
5.3644667 -3.3592248 -0.73092127 0 19
5.8664975 -3.6735961 -0.73487788 0 20
6.3907747 -4.0018983 -0.73048377 0 21
7.1206508 -4.4589462 -0.73597854 0 22
7.9099889 -4.953229 -0.73113149 0 23
8.0713301 -5.0542607 -0.65797687 0 24
8.094717 -5.0689058 -0.57167274 0 25
8.0765934 -5.0575566 -0.48247656 0 26
8.0789309 -5.05902 -0.39475632 0 27
8.0815725 -5.0606747 -0.30706376 0 28
8.0827312 -5.0613999 -0.21932559 0 29
8.0731363 -5.0553918 -0.13142431 0 30
8.0893898 -5.0655694 -0.043893825 0 31
8.0866995 -5.0638852 0.04387923 0 32
8.0791912 -5.0591836 0.13152288 0 33
8.0935831 -5.0681953 0.21962005 0 34
8.0771046 -5.0578771 0.30689403 0 35
8.0844316 -5.0624652 0.3950251 0 36
8.0862303 -5.063591 0.48305219 0 37
8.0836515 -5.0619764 0.57089126 0 38
8.0829 -5.0615058 0.65892005 0 39
8.0943909 -5.0687013 0.74817598 0 40
8.078907 -5.0590057 0.83502227 0 41
8.0846643 -5.0626106 0.9241001 0 42
8.0752029 -5.0566864 1.0115556 0 43
8.08004 -5.0597153 1.1009246 0 44
8.093338 -5.0680418 1.1918347 0 45
8.0995731 -5.0719466 1.2821249 0 46
8.0876617 -5.0644875 1.3697003 0 47
8.0963249 -5.0699129 1.4609611 0 48
8.0837488 -5.0620375 1.5485984 0 49
8.0869541 -5.0640445 1.6394237 0 50
8.0856915 -5.0632544 1.7296509 0 51
0 0 0 0 52
0 0 0 0 53
0 0 0 0 54
0 0 0 0 55
0 0 0 0 56
0 0 0 0 57
0 0 0 0 58
0 0 0 0 59
0 0 0 0 60
0 0 0 0 61
0 0 0 0 62
0 0 0 0 63
2.118314 -1.290502 -0.73945624 0 0
2.1847095 -1.330951 -0.73708236 0 1
2.2565498 -1.3747168 -0.73506814 0 2
2.3246911 -1.4162292 -0.7303586 0 3
2.4379404 -1.4852221 -0.73786032 0 4
2.5350826 -1.5444022 -0.73820257 0 5
2.6369436 -1.6064571 -0.73777562 0 6
2.7246528 -1.6598907 -0.73136264 0 7
2.8688076 -1.7477115 -0.73760408 0 8
3.0044198 -1.830328 -0.73862129 0 9
3.1262455 -1.9045457 -0.73348445 0 10
3.2928281 -2.0060298 -0.73574752 0 11
3.4466507 -2.0997403 -0.7317118 0 12
3.650466 -2.223907 -0.73443967 0 13
3.8813448 -2.3645613 -0.73792088 0 14
4.0982547 -2.4967051 -0.73392421 0 15
4.3982153 -2.6794448 -0.73923177 0 16
4.6655641 -2.8423169 -0.73294926 0 17
5.0539827 -3.0789461 -0.73862445 0 18
5.4386048 -3.3132625 -0.73541611 0 19
5.9497213 -3.6246407 -0.73966402 0 20
6.4860492 -3.9513779 -0.7357645 0 21
7.131485 -4.3445849 -0.73152131 0 22
8.0430613 -4.8999281 -0.73780668 0 23
8.2912798 -5.051146 -0.67079324 0 24
8.3124056 -5.0640159 -0.58260489 0 25
8.306057 -5.0601482 -0.49242994 0 26
8.2933769 -5.0524235 -0.40216863 0 27
8.3093109 -5.0621305 -0.31332803 0 28
8.3055935 -5.059866 -0.22366777 0 29
8.3113146 -5.0633512 -0.13427795 0 30
8.3069534 -5.0606942 -0.044733308 0 31
8.303339 -5.0584922 0.04471384 0 32
8.3055849 -5.0598602 0.13418537 0 33
8.3182745 -5.0675912 0.22400926 0 34
8.307209 -5.0608501 0.31324878 0 35
8.3146753 -5.0653982 0.4032014 0 36
8.3122702 -5.0639334 0.49279827 0 37
8.2971087 -5.0546966 0.58153272 0 38
8.3085556 -5.0616703 0.67219085 0 39
8.3099661 -5.0625296 0.76229036 0 40
8.309042 -5.0619664 0.85231072 0 41
8.3117847 -5.0636377 0.94287235 0 42
8.301754 -5.0575266 1.0320666 0 43
8.3102942 -5.0627294 1.1237301 0 44
8.3268137 -5.0727935 1.216939 0 45
8.3130598 -5.064414 1.3059623 0 46
8.2986736 -5.0556498 1.3948028 0 47
8.309186 -5.0620542 1.4880269 0 48
8.3097486 -5.062397 1.5798485 0 49
8.3032408 -5.0584326 1.6705346 0 50
0 0 0 0 51
0 0 0 0 52
0 0 0 0 53
0 0 0 0 54
0 0 0 0 55
0 0 0 0 56
0 0 0 0 57
0 0 0 0 58
0 0 0 0 59
0 0 0 0 60
0 0 0 0 61
0 0 0 0 62
0 0 0 0 63
2.1232419 -1.2579721 -0.73572111 0 0
2.2042177 -1.3059483 -0.73819035 0 1
2.2674043 -1.343385 -0.73316759 0 2
2.3595226 -1.3979629 -0.73584551 0 3
2.4474049 -1.4500312 -0.73527282 0 4
2.5496342 -1.5105996 -0.73697519 0 5
2.6449838 -1.5670922 -0.73457831 0 6
2.7431676 -1.6252638 -0.73091274 0 7
2.8821797 -1.7076252 -0.73558784 0 8
3.0073004 -1.7817563 -0.73388767 0 9
3.1505699 -1.8666403 -0.7337507 0 10
3.3202107 -1.9671485 -0.73640549 0 11
3.4848278 -2.0646803 -0.7343713 0 12
3.6719918 -2.1755707 -0.73333281 0 13
3.8802309 -2.2989476 -0.73227924 0 14
4.1246076 -2.4437351 -0.73320681 0 15
4.3778191 -2.5937572 -0.73038781 0 16
4.7150545 -2.7935615 -0.73527205 0 17
5.0569611 -2.9961331 -0.73361993 0 18
5.5011387 -3.2592981 -0.73839682 0 19
5.9477987 -3.5239341 -0.7339825 0 20
6.473959 -3.8356719 -0.72898757 0 21
7.2419615 -4.2906957 -0.73738581 0 22
8.0370941 -4.7617936 -0.73183274 0 23
8.5492887 -5.0652571 -0.68657601 0 24
8.5456476 -5.0630994 -0.59454387 0 25
8.5509787 -5.066258 -0.50321889 0 26
8.5449915 -5.0627112 -0.41132015 0 27
8.5439444 -5.0620909 -0.31980428 0 28
8.5342588 -5.0563521 -0.22813407 0 29
8.5401688 -5.0598536 -0.13695976 0 30
8.5443764 -5.0623465 -0.045673173 0 31
8.5427532 -5.0613852 0.0456645 0 32
8.5309906 -5.0544157 0.13681258 0 33
8.5474939 -5.0641937 0.22848785 0 34
8.5485783 -5.064836 0.31997773 0 35
8.5500946 -5.0657344 0.41156581 0 36
8.542347 -5.0611444 0.50271094 0 37
8.5449381 -5.0626793 0.59449452 0 38
8.5254984 -5.0511622 0.6846655 0 39
8.5489645 -5.0650649 0.77844197 0 40
8.5467453 -5.0637503 0.87024063 0 41
8.5419893 -5.0609326 0.96185416 0 42
8.5452738 -5.0628781 1.0545214 0 43
8.5448675 -5.0626378 1.1469449 0 44
8.5402527 -5.0599031 1.2389456 0 45
8.5478153 -5.064384 1.332958 0 46
8.5323687 -5.0552325 1.4235258 0 47
8.5504494 -5.0659447 1.5199623 0 48
8.5468254 -5.0637975 1.6129614 0 49
8.5423594 -5.0611515 1.7059931 0 50
0 0 0 0 51
0 0 0 0 52
0 0 0 0 53
0 0 0 0 54
0 0 0 0 55
0 0 0 0 56
0 0 0 0 57
0 0 0 0 58
0 0 0 0 59
0 0 0 0 60
0 0 0 0 61
0 0 0 0 62
0 0 0 0 63
2.1291413 -1.226352 -0.73248464 0 0
2.1947281 -1.2641289 -0.72975141 0 1
2.2959974 -1.3224584 -0.73709929 0 2
2.3794279 -1.3705131 -0.7367419 0 3
2.4620779 -1.4181181 -0.73438668 0 4
2.5629699 -1.4762304 -0.73552734 0 5
2.6546624 -1.5290438 -0.73198915 0 6
2.7954721 -1.6101481 -0.73951787 0 7
2.8866727 -1.6626781 -0.73146129 0 8
3.0428417 -1.7526289 -0.73724604 0 9
3.1844525 -1.8341947 -0.73633337 0 10
3.3392732 -1.9233689 -0.73533225 0 11
3.5075951 -2.0203197 -0.73387843 0 12
3.7104425 -2.1371565 -0.73570788 0 13
3.8961582 -2.2441258 -0.73002213 0 14
4.1762881 -2.4054763 -0.73707998 0 15
4.4430623 -2.559134 -0.73596716 0 16
4.719883 -2.7185786 -0.73075682 0 17
5.0992632 -2.9370954 -0.73446184 0 18
5.5063372 -3.1715639 -0.73380446 0 19
6.0471988 -3.4830916 -0.74090749 0 20
6.5810785 -3.7905979 -0.73574543 0 21
7.24652 -4.1738815 -0.73256874 0 22
8.1855669 -4.7147579 -0.74001718 0 23
8.7994461 -5.0683422 -0.70160758 0 24
8.7967167 -5.0667701 -0.60763091 0 25
8.7832651 -5.0590229 -0.51318914 0 26
8.8018808 -5.0697451 -0.42065313 0 27
8.7870188 -5.0611849 -0.32654852 0 28
8.7899961 -5.0628996 -0.23328848 0 29
8.7916155 -5.0638323 -0.13998309 0 30
8.8011723 -5.0693369 -0.046709117 0 31
8.7879601 -5.061727 0.046638999 0 32
8.8000031 -5.0686636 0.14011663 0 33
8.7915401 -5.0637889 0.23332946 0 34
8.7990255 -5.0681005 0.32699472 0 35
8.789608 -5.0626764 0.42006662 0 36
8.8035994 -5.070735 0.51437718 0 37
8.7931614 -5.0647225 0.60738534 0 38
8.7874813 -5.061451 0.70065361 0 39
8.7959833 -5.0663481 0.79520202 0 40
8.8024673 -5.0700827 0.88986331 0 41
8.7951851 -5.0658884 0.98327607 0 42
8.7981539 -5.0675983 1.0779567 0 43
8.7882071 -5.0618691 1.1711643 0 44
8.8044233 -5.0712094 1.268127 0 45
8.7987747 -5.067956 1.362272 0 46
8.7792711 -5.0567222 1.4542346 0 47
8.7853184 -5.0602055 1.5505353 0 48
8.7847881 -5.0598998 1.6460034 0 49
8.8063116 -5.0722971 1.7461187 0 50
0 0 0 0 51
0 0 0 0 52
0 0 0 0 53
0 0 0 0 54
0 0 0 0 55
0 0 0 0 56
0 0 0 0 57
0 0 0 0 58
0 0 0 0 59
0 0 0 0 60
0 0 0 0 61
0 0 0 0 62
0 0 0 0 63
2.1550224 -1.2062167 -0.73623008 0 0
2.2355351 -1.2512816 -0.73814797 0 1
2.3182125 -1.2975581 -0.73905295 0 2
2.3875732 -1.336381 -0.73412037 0 3
2.4772301 -1.3865639 -0.73376513 0 4
2.5726154 -1.4399534 -0.73315865 0 5
2.6819808 -1.5011678 -0.73437655 0 6
2.7989836 -1.5666569 -0.73529494 0 7
2.9200456 -1.6344182 -0.73476958 0 8
3.0557396 -1.7103693 -0.73521978 0 9
3.2047811 -1.7937913 -0.73587799 0 10
3.3610654 -1.8812674 -0.73498148 0 11
3.528826 -1.9751669 -0.7331835 0 12
3.7456365 -2.0965209 -0.73751879 0 13
3.9473293 -2.2094131 -0.73446411 0 14
4.1749773 -2.336833 -0.73172188 0 15
4.4822631 -2.5088282 -0.73729473 0 16
4.7728271 -2.6714637 -0.73381251 0 17
5.1083035 -2.8592377 -0.7306447 0 18
5.5607076 -3.1124589 -0.73589414 0 19
6.031611 -3.3760347 -0.73385596 0 20
6.5832877 -3.6848211 -0.73087156 0 21
7.3635321 -4.121542 -0.73921847 0 22
8.1940842 -4.586422 -0.73563308 0 23
9.057621 -5.0697632 -0.71716785 0 24
9.0548382 -5.0682063 -0.62110889 0 25
9.0664148 -5.0746856 -0.52604723 0 26
9.0585213 -5.0702677 -0.42990622 0 27
9.0610685 -5.0716934 -0.33439004 0 28
9.060585 -5.0714226 -0.23879685 0 29
9.0552874 -5.0684576 -0.14317818 0 30
9.063529 -5.0730705 -0.047766805 0 31
9.0654373 -5.0741386 0.047776867 0 32
9.0614204 -5.0718899 0.14327516 0 33
9.0500879 -5.065547 0.23852019 0 34
9.0583639 -5.0701795 0.33429024 0 35
9.048892 -5.0648775 0.4294492 0 36
9.0753384 -5.0796804 0.52656502 0 37
9.052 -5.066617 0.6209141 0 38
9.0533028 -5.067347 0.71682602 0 39
9.0632782 -5.0729303 0.81366593 0 40
9.0785503 -5.0814781 0.91138768 0 41
9.0781717 -5.0812659 1.0078516 0 42
9.0608311 -5.0715604 1.102416 0 43
9.0542412 -5.067872 1.1982222 0 44
9.0561972 -5.0689664 1.2953151 0 45
9.060854 -5.0715733 1.3930879 0 46
9.0659523 -5.0744267 1.4912732 0 47
9.0535431 -5.0674815 1.5867573 0 48
9.0583792 -5.0701876 1.685457 0 49
0 0 0 0 50
0 0 0 0 51
0 0 0 0 52
0 0 0 0 53
0 0 0 0 54
0 0 0 0 55
0 0 0 0 56
0 0 0 0 57
0 0 0 0 58
0 0 0 0 59
0 0 0 0 60
0 0 0 0 61
0 0 0 0 62
0 0 0 0 63
2.1701343 -1.1798697 -0.73638064 0 0
2.2403786 -1.2180604 -0.73474616 0 1
2.3322723 -1.2680217 -0.73850864 0 2
2.3813877 -1.2947249 -0.72726828 0 3
2.5145276 -1.3671111 -0.73977751 0 4
2.5884085 -1.407279 -0.73267245 0 5
2.6887252 -1.4618199 -0.73124611 0 6
2.8147783 -1.530353 -0.73444527 0 7
2.9349511 -1.5956891 -0.73352742 0 8
3.08113 -1.6751645 -0.7363171 0 9
3.2240601 -1.7528733 -0.7353 0 10
3.4008067 -1.8489678 -0.7386443 0 11
3.5670099 -1.9393301 -0.73610663 0 12
3.7428541 -2.034934 -0.73198867 0 13
3.9878578 -2.1681387 -0.73698878 0 14
4.219234 -2.2939346 -0.73447919 0 15
4.4792123 -2.4352808 -0.73181182 0 16
4.8307433 -2.6264029 -0.73769581 0 17
5.1703973 -2.8110678 -0.73452652 0 18
5.5710092 -3.0288746 -0.73227322 0 19
6.1252303 -3.3301964 -0.74020821 0 20
6.6778607 -3.6306531 -0.73635894 0 21
7.3701239 -4.0070262 -0.73487824 0 22
8.1945782 -4.4552698 -0.73070389 0 23
9.3206806 -5.0675149 -0.73300731 0 24
9.3171816 -5.0656123 -0.63478339 0 25
9.3158083 -5.0648661 -0.53686333 0 26
9.3047094 -5.0588317 -0.43860465 0 27
9.3183327 -5.0662384 -0.34155929 0 28
9.3189106 -5.0665526 -0.24394475 0 29
9.3173246 -5.0656905 -0.14632544 0 30
9.3131208 -5.063405 -0.048750389 0 31
9.3139219 -5.0638404 0.04875458 0 32
9.3122902 -5.062953 0.14624637 0 33
9.309267 -5.0613098 0.24369232 0 34
9.3242989 -5.0694823 0.34177801 0 35
9.3065434 -5.0598288 0.43869108 0 36
9.320281 -5.0672979 0.53712106 0 37
9.3184319 -5.0662923 0.63486856 0 38
9.3278122 -5.0713925 0.73356819 0 39
9.3137703 -5.0637579 0.83050132 0 40
9.3245058 -5.0695949 0.92975056 0 41
9.3133545 -5.0635319 1.0269715 0 42
9.3062859 -5.059689 1.1246253 0 43
9.3111715 -5.062345 1.2238933 0 44
9.3153076 -5.0645938 1.3233684 0 45
9.3112078 -5.0623646 1.4219011 0 46
9.3150854 -5.0644727 1.5218946 0 47
9.3209772 -5.0676761 1.6225846 0 48
9.3165636 -5.0652766 1.7217772 0 49
0 0 0 0 50
0 0 0 0 51
0 0 0 0 52
0 0 0 0 53
0 0 0 0 54
0 0 0 0 55
0 0 0 0 56
0 0 0 0 57
0 0 0 0 58
0 0 0 0 59
0 0 0 0 60
0 0 0 0 61
0 0 0 0 62
0 0 0 0 63
2.1859999 -1.1539011 -0.73689389 0 0
2.2474604 -1.1863436 -0.73222911 0 1
2.3269157 -1.228285 -0.73197466 0 2
2.4232621 -1.2791423 -0.73519748 0 3
2.5162981 -1.3282522 -0.73543763 0 4
2.6107419 -1.3781052 -0.73414189 0 5
2.7051511 -1.42794 -0.7308827 0 6
2.8447707 -1.5016396 -0.73739731 0 7
2.963989 -1.5645702 -0.73592097 0 8
3.1101465 -1.6417208 -0.73837119 0 9
3.2436621 -1.7121984 -0.73491329 0 10
3.4011171 -1.7953125 -0.73386139 0 11
3.5831342 -1.891392 -0.73457909 0 12
3.7917662 -2.0015204 -0.7366854 0 13
3.9761431 -2.0988455 -0.72999895 0 14
4.272759 -2.2554171 -0.73891312 0 15
4.5210562 -2.3864832 -0.73379833 0 16
4.8334746 -2.5513961 -0.73326653 0 17
5.2344174 -2.7630379 -0.73873889 0 18
5.6453304 -2.9799423 -0.73717004 0 19
6.1218519 -3.2314787 -0.7349425 0 20
6.687571 -3.5300989 -0.73258781 0 21
7.3727436 -3.8917739 -0.73031265 0 22
8.3660803 -4.4161158 -0.74109834 0 23
9.4455147 -4.9859061 -0.7379474 0 24
9.5850124 -5.0595412 -0.64874303 0 25
9.580821 -5.0573287 -0.54851049 0 26
9.5867071 -5.0604358 -0.44893029 0 27
9.588994 -5.0616426 -0.34917244 0 28
9.5898409 -5.0620899 -0.24938871 0 29
9.5840883 -5.0590539 -0.14952661 0 30
9.5913992 -5.0629129 -0.049877413 0 31
9.5831881 -5.0585785 0.04983471 0 32
9.5618658 -5.0473228 0.14917989 0 33
9.5763102 -5.0549479 0.24903685 0 34
9.5779123 -5.0557938 0.34876895 0 35
9.5791445 -5.0564442 0.44857615 0 36
9.5871935 -5.0606923 0.54887533 0 37
9.5882769 -5.0612645 0.64896405 0 38
9.57479 -5.0541453 0.74804723 0 39
9.5832615 -5.0586171 0.84892082 0 40
9.593049 -5.0637832 0.95024663 0 41
9.5908279 -5.0626111 1.0506241 0 42
9.5804901 -5.0571542 1.15016 0 43
9.5662508 -5.0496378 1.2491658 0 44
9.5809269 -5.057385 1.3521665 0 45
9.5888596 -5.0615721 1.4546865 0 46
9.5794296 -5.0565944 1.5548068 0 47
9.5831289 -5.058547 1.6572663 0 48
0 0 0 0 49
0 0 0 0 50
0 0 0 0 51
0 0 0 0 52
0 0 0 0 53
0 0 0 0 54
0 0 0 0 55
0 0 0 0 56
0 0 0 0 57
0 0 0 0 58
0 0 0 0 59
0 0 0 0 60
0 0 0 0 61
0 0 0 0 62
0 0 0 0 63
2.1991599 -1.1264939 -0.73660493 0 0
2.2765808 -1.166152 -0.73698908 0 1
2.3516531 -1.2046069 -0.73504114 0 2
2.4498889 -1.2549269 -0.73853827 0 3
2.5426946 -1.3024657 -0.73841584 0 4
2.6447332 -1.3547337 -0.73896009 0 5
2.7396932 -1.4033759 -0.7354973 0 6
2.8613203 -1.465678 -0.73695976 0 7
2.9888079 -1.530982 -0.73735327 0 8
3.1254592 -1.6009799 -0.73727709 0 9
3.263953 -1.6719218 -0.73479706 0 10
3.4168696 -1.7502515 -0.73256111 0 11
3.6253912 -1.8570644 -0.73850489 0 12
3.808938 -1.951084 -0.73530483 0 13
4.0143681 -2.056313 -0.73231924 0 14
4.2549438 -2.1795454 -0.73114216 0 15
4.5774031 -2.3447213 -0.73820841 0 16
4.8809237 -2.5001962 -0.73574525 0 17
5.2273326 -2.6776402 -0.73303676 0 18
5.6287036 -2.8832378 -0.73031414 0 19
6.1170111 -3.1333675 -0.7296806 0 20
6.7855277 -3.4758074 -0.73858064 0 21
7.498693 -3.8411179 -0.73805422 0 22
8.3449707 -4.2746139 -0.73451674 0 23
9.4428892 -4.8370099 -0.73303998 0 24
9.900691 -5.0715137 -0.66583806 0 25
9.9030972 -5.0727458 -0.56334734 0 26
9.8880596 -5.0650434 -0.46009082 0 27
9.8965216 -5.0693779 -0.3580738 0 28
9.8921137 -5.0671196 -0.25560981 0 29
9.8977795 -5.0700221 -0.15343642 0 30
9.8979368 -5.0701027 -0.0511434 0 31
9.8999901 -5.0711546 0.05115401 0 32
9.90028 -5.0713029 0.15347518 0 33
9.8925314 -5.0673337 0.2556206 0 34
9.89254 -5.067338 0.35792974 0 35
9.8931236 -5.0676374 0.46032643 0 36
9.901598 -5.0719781 0.5632621 0 37
9.8990011 -5.0706477 0.66572434 0 38
9.8889742 -5.0655117 0.76766902 0 39
9.9076443 -5.0750751 0.87206179 0 40
9.9080696 -5.0752931 0.97519565 0 41
9.8816605 -5.0617652 1.0755837 0 42
9.9084806 -5.0755038 1.1819541 0 43
9.8842316 -5.0630822 1.2824612 0 44
9.901804 -5.0720835 1.388545 0 45
9.9093475 -5.0759478 1.4937246 0 46
9.8976078 -5.0699344 1.5962101 0 47
9.9079981 -5.0752563 1.7025266 0 48
0 0 0 0 49
0 0 0 0 50
0 0 0 0 51
0 0 0 0 52
0 0 0 0 53
0 0 0 0 54
0 0 0 0 55
0 0 0 0 56
0 0 0 0 57
0 0 0 0 58
0 0 0 0 59
0 0 0 0 60
0 0 0 0 61
0 0 0 0 62
0 0 0 0 63
2.1977124 -1.0918511 -0.7315678 0 0
2.2916732 -1.138532 -0.73728698 0 1
2.3596368 -1.1722972 -0.73297554 0 2
2.4416447 -1.2130399 -0.73150116 0 3
2.527225 -1.2555572 -0.72938466 0 4
2.6322162 -1.3077182 -0.73091453 0 5
2.752315 -1.3673847 -0.73431641 0 6
2.8876669 -1.4346292 -0.73914611 0 7
3.0020051 -1.491434 -0.73602903 0 8
3.1218767 -1.5509876 -0.7318778 0 9
3.2962337 -1.6376103 -0.73747522 0 10
3.4379847 -1.708034 -0.73252982 0 11
3.6009099 -1.7889774 -0.72898179 0 12
3.8484385 -1.9119527 -0.73833591 0 13
4.0473237 -2.0107615 -0.73376524 0 14
4.2921448 -2.1323915 -0.73297346 0 15
4.5721269 -2.2714901 -0.7327975 0 16
4.8852396 -2.4270484 -0.7318418 0 17
5.2893028 -2.6277924 -0.73714 0 18
5.7070589 -2.8353388 -0.73590136 0 19
6.2010646 -3.0807669 -0.73513263 0 20
6.8062968 -3.381454 -0.73625982 0 21
7.4885035 -3.7203827 -0.73249328 0 22
8.3497343 -4.148253 -0.73039103 0 23
9.4460793 -4.6929307 -0.72875279 0 24
10.201979 -5.0684714 -0.68185711 0 25
10.19585 -5.0654268 -0.57641411 0 26
10.197361 -5.0661774 -0.47154829 0 27
10.203781 -5.0693669 -0.36690786 0 28
10.206149 -5.0705433 -0.26209348 0 29
10.199122 -5.0670519 -0.15713009 0 30
10.194129 -5.0645719 -0.052348107 0 31
10.216464 -5.0756679 0.052462801 0 32
10.19589 -5.0654469 0.15708031 0 33
10.199662 -5.0673203 0.26192692 0 34
10.218139 -5.0764999 0.36742413 0 35
10.204574 -5.0697603 0.47188181 0 36
10.201183 -5.0680766 0.57671559 0 37
10.210785 -5.0728464 0.6824457 0 38
10.189705 -5.0623736 0.78612262 0 39
10.204557 -5.0697522 0.89264125 0 40
10.20066 -5.0678163 0.99778479 0 41
10.194205 -5.0646095 1.1027411 0 42
10.198215 -5.0666013 1.2089925 0 43
10.198663 -5.066824 1.3150748 0 44
10.208788 -5.0718541 1.4227406 0 45
10.222646 -5.0787387 1.5314212 0 46
10.209517 -5.0722165 1.6363302 0 47
10.198654 -5.0668197 1.7416334 0 48
0 0 0 0 49
0 0 0 0 50
0 0 0 0 51
0 0 0 0 52
0 0 0 0 53
0 0 0 0 54
0 0 0 0 55
0 0 0 0 56
0 0 0 0 57
0 0 0 0 58
0 0 0 0 59
0 0 0 0 60
0 0 0 0 61
0 0 0 0 62
0 0 0 0 63
2.1995449 -1.059244 -0.72778714 0 0
2.2923839 -1.1039528 -0.7330929 0 1
2.3883822 -1.1501832 -0.73745567 0 2
2.4683981 -1.1887168 -0.73508155 0 3
2.5563829 -1.2310879 -0.73337549 0 4
2.6619928 -1.2819469 -0.73475015 0 5
2.7709029 -1.3343952 -0.7348423 0 6
2.8961096 -1.3946916 -0.73686171 0 7
3.0246778 -1.4566066 -0.73714072 0 8
3.1538253 -1.5188007 -0.73493379 0 9
3.3309124 -1.6040813 -0.74076492 0 10
3.4838297 -1.6777225 -0.73784661 0 11
3.6403136 -1.753081 -0.73253942 0 12
3.8394043 -1.8489579 -0.73218542 0 13
4.0585027 -1.9544699 -0.73137951 0 14
4.3385243 -2.0893211 -0.73645073 0 15
4.6112695 -2.2206681 -0.73463905 0 16
4.9250693 -2.3717861 -0.73338407 0 17
5.3055544 -2.5550179 -0.73497081 0 18
5.7190657 -2.7541542 -0.73302722 0 19
6.2079191 -2.9895732 -0.73153192 0 20
6.7954822 -3.2725286 -0.73068178 0 21
7.6214767 -3.6703062 -0.74102956 0 22
8.5115213 -4.0989285 -0.74007839 0 23
9.6347332 -4.6398382 -0.73884976 0 24
10.531016 -5.0714655 -0.69962782 0 25
10.527402 -5.0697246 -0.59158903 0 26
10.53119 -5.0715489 -0.48406491 0 27
10.530491 -5.0712123 -0.37638497 0 28
10.528665 -5.0703325 -0.26875427 0 29
10.530313 -5.0711269 -0.16125964 0 30
10.529943 -5.0709486 -0.053748291 0 31
10.522447 -5.0673385 0.053710025 0 32
10.534246 -5.0730205 0.16131985 0 33
10.522672 -5.0674467 0.26860133 0 34
10.521558 -5.0669103 0.37606567 0 35
10.534886 -5.073329 0.48423481 0 36
10.531099 -5.0715051 0.59179682 0 37
10.528844 -5.0704188 0.69948345 0 38
10.520314 -5.0663114 0.80676144 0 39
10.524001 -5.0680871 0.91506398 0 40
10.533086 -5.0724616 1.0241227 0 41
10.517614 -5.065011 1.1309026 0 42
10.529913 -5.0709338 1.2408292 0 43
10.533175 -5.0725045 1.3500638 0 44
10.528755 -5.0703764 1.4585333 0 45
10.53595 -5.0738411 1.5688913 0 46
10.522159 -5.0671997 1.6763256 0 47
0 0 0 0 48
0 0 0 0 49
0 0 0 0 50
0 0 0 0 51
0 0 0 0 52
0 0 0 0 53
0 0 0 0 54
0 0 0 0 55
0 0 0 0 56
0 0 0 0 57
0 0 0 0 58
0 0 0 0 59
0 0 0 0 60
0 0 0 0 61
0 0 0 0 62
0 0 0 0 63
2.2341256 -1.0422534 -0.73493302 0 0
2.3141997 -1.0796092 -0.73576844 0 1
2.3990927 -1.119213 -0.73645765 0 2
2.4853995 -1.1594765 -0.73584306 0 3
2.5597785 -1.1941754 -0.7300818 0 4
2.6835327 -1.2519087 -0.73639083 0 5
2.789232 -1.301219 -0.73540437 0 6
2.886235 -1.3464724 -0.73008156 0 7
3.0246813 -1.4110596 -0.73285758 0 8
3.1803856 -1.483698 -0.73681599 0 9
3.315737 -1.5468415 -0.73310459 0 10
3.4938998 -1.6299571 -0.73567885 0 11
3.6795287 -1.7165558 -0.73612756 0 12
3.8776953 -1.8090036 -0.73518997 0 13
4.1090245 -1.9169222 -0.7361806 0 14
4.3470726 -2.0279751 -0.73361331 0 15
4.6198106 -2.1552117 -0.73172241 0 16
4.9281812 -2.2990711 -0.72958255 0 17
5.3612089 -2.501085 -0.73836434 0 18
5.7897363 -2.7009997 -0.73777252 0 19
6.2916284 -2.9351399 -0.73708737 0 20
6.9033551 -3.2205198 -0.7379669 0 21
7.6196113 -3.5546639 -0.73654258 0 22
8.5107155 -3.9703777 -0.7357077 0 23
9.652812 -4.5031829 -0.73593414 0 24
10.873557 -5.072679 -0.71818626 0 25
10.84993 -5.0616565 -0.60617012 0 26
10.87619 -5.0739074 -0.49701741 0 27
10.864736 -5.0685635 -0.38607484 0 28
10.872118 -5.0720077 -0.27590841 0 29
10.859373 -5.066062 -0.16533233 0 30
10.876126 -5.0738778 -0.055192687 0 31
10.87575 -5.0737019 0.055190776 0 32
10.8613 -5.0669613 0.16536167 0 33
10.861953 -5.0672655 0.27565044 0 34
10.867928 -5.0700531 0.38618827 0 35
10.890156 -5.0804229 0.49765566 0 36
10.873845 -5.0728135 0.60750622 0 37
10.863661 -5.0680618 0.71753258 0 38
10.87556 -5.0736132 0.82915694 0 39
10.874503 -5.0731201 0.940045 0 40
10.864353 -5.0683851 1.0501926 0 41
10.860624 -5.0666456 1.160998 0 42
10.860567 -5.0666189 1.2723554 0 43
10.870079 -5.0710564 1.3851486 0 44
10.871736 -5.0718293 1.4972932 0 45
10.86372 -5.06809 1.6082975 0 46
10.868915 -5.0705132 1.7215053 0 47
0 0 0 0 48
0 0 0 0 49
0 0 0 0 50
0 0 0 0 51
0 0 0 0 52
0 0 0 0 53
0 0 0 0 54
0 0 0 0 55
0 0 0 0 56
0 0 0 0 57
0 0 0 0 58
0 0 0 0 59
0 0 0 0 60
0 0 0 0 61
0 0 0 0 62
0 0 0 0 63
2.2526026 -1.0173382 -0.73684031 0 0
2.3430209 -1.0581737 -0.74073893 0 1
2.4108491 -1.0888067 -0.73590106 0 2
2.497004 -1.1277167 -0.73511761 0 3
2.5861769 -1.1679897 -0.73345929 0 4
2.7071059 -1.2226045 -0.73867828 0 5
2.8058848 -1.2672158 -0.73563099 0 6
2.9102983 -1.3143719 -0.73202485 0 7
3.0568407 -1.3805546 -0.73648071 0 8
3.2032251 -1.4466659 -0.73793036 0 9
3.3237381 -1.5010929 -0.73073739 0 10
3.4993556 -1.5804067 -0.73268032 0 11
3.6828315 -1.6632695 -0.73264122 0 12
3.9097826 -1.765767 -0.7371012 0 13
4.1404381 -1.8699374 -0.73763335 0 14
4.3960128 -1.9853622 -0.73769683 0 15
4.670228 -2.1092052 -0.73554438 0 16
4.9935746 -2.2552378 -0.73510265 0 17
5.3599181 -2.4206884 -0.73403162 0 18
5.7885361 -2.6142645 -0.73346782 0 19
6.3075662 -2.8486729 -0.73479527 0 20
6.8914213 -3.1123583 -0.7325446 0 21
7.6179214 -3.4404659 -0.73223448 0 22
8.5377312 -3.8558774 -0.73388886 0 23
9.6537933 -4.3599224 -0.73186624 0 24
11.144865 -5.0333323 -0.73196256 0 25
11.189676 -5.0535703 -0.62163258 0 26
11.196244 -5.0565362 -0.50876331 0 27
11.19556 -5.0562272 -0.39559132 0 28
11.201025 -5.0586953 -0.28265533 0 29
11.20113 -5.058743 -0.16957566 0 30
11.18182 -5.0500216 -0.056424588 0 31
11.202846 -5.0595179 0.056530688 0 32
11.186636 -5.052197 0.16935623 0 33
11.190443 -5.0539165 0.2823883 0 34
11.194288 -5.0556531 0.39554641 0 35
11.19813 -5.0573878 0.50884902 0 36
11.190073 -5.0537491 0.62165457 0 37
11.196773 -5.0567751 0.73537171 0 38
11.205284 -5.0606189 0.84948677 0 39
11.193077 -5.0551062 0.962138 0 40
11.198683 -5.0576377 1.0764172 0 41
11.188865 -5.0532031 1.1893544 0 42
11.188456 -5.0530186 1.3033909 0 43
11.201331 -5.0588336 1.4193252 0 44
11.200555 -5.0584831 1.5338969 0 45
11.210709 -5.0630689 1.6503251 0 46
11.193827 -5.0554442 1.7629881 0 47
0 0 0 0 48
0 0 0 0 49
0 0 0 0 50
0 0 0 0 51
0 0 0 0 52
0 0 0 0 53
0 0 0 0 54
0 0 0 0 55
0 0 0 0 56
0 0 0 0 57
0 0 0 0 58
0 0 0 0 59
0 0 0 0 60
0 0 0 0 61
0 0 0 0 62
0 0 0 0 63
2.2541466 -0.98484814 -0.73332864 0 0
2.3338079 -1.0196526 -0.73380685 0 1
2.4347062 -1.0637356 -0.73913479 0 2
2.5060794 -1.094919 -0.73377031 0 3
2.618217 -1.1439124 -0.73850107 0 4
2.7061276 -1.1823211 -0.73438883 0 5
2.8278434 -1.2354993 -0.73734921 0 6
2.9408934 -1.2848914 -0.73569071 0 7
3.0598624 -1.3368696 -0.73319274 0 8
3.2201912 -1.4069179 -0.73779756 0 9
3.3593984 -1.4677383 -0.73455393 0 10
3.5365622 -1.5451422 -0.73643672 0 11
3.7174256 -1.6241623 -0.73549455 0 12
3.9226336 -1.7138187 -0.73549533 0 13
4.1413193 -1.8093636 -0.73377115 0 14
4.389719 -1.9178907 -0.73262775 0 15
4.6818628 -2.0455298 -0.73335993 0 16
4.9952989 -2.1824718 -0.73135054 0 17
5.3479185 -2.3365331 -0.72839856 0 18
5.8026228 -2.5351956 -0.73124743 0 19
6.380538 -2.7876897 -0.7392469 0 20
6.8927484 -3.011477 -0.72869432 0 21
7.6295476 -3.3333883 -0.729357 0 22
8.5120287 -3.7189488 -0.72769368 0 23
9.6519623 -4.2169919 -0.72774136 0 24
11.137783 -4.8661542 -0.72751254 0 25
11.589308 -5.0634279 -0.64032638 0 26
11.576313 -5.0577507 -0.52316827 0 27
11.584257 -5.0612216 -0.407096 0 28
11.584185 -5.0611897 -0.29073182 0 29
11.582713 -5.0605469 -0.17439726 0 30
11.586332 -5.0621281 -0.058147304 0 31
11.588915 -5.0632563 0.058160264 0 32
11.578355 -5.0586424 0.17433164 0 33
11.585382 -5.0617127 0.29076189 0 34
11.587184 -5.0624995 0.40719882 0 35
11.595898 -5.0663071 0.52405334 0 36
11.589234 -5.063396 0.64032233 0 37
11.602365 -5.0691323 0.75785869 0 38
11.583529 -5.0609031 0.8733781 0 39
11.594035 -5.0654931 0.99117452 0 40
11.592031 -5.0646181 1.1081561 0 41
11.586691 -5.0622845 1.2249331 0 42
11.595257 -5.0660267 1.3434223 0 43
11.578357 -5.0586433 1.4591062 0 44
11.59077 -5.0640669 1.578689 0 45
11.583831 -5.0610347 1.6959627 0 46
0 0 0 0 47
0 0 0 0 48
0 0 0 0 49
0 0 0 0 50
0 0 0 0 51
0 0 0 0 52
0 0 0 0 53
0 0 0 0 54
0 0 0 0 55
0 0 0 0 56
0 0 0 0 57
0 0 0 0 58
0 0 0 0 59
0 0 0 0 60
0 0 0 0 61
0 0 0 0 62
0 0 0 0 63
2.2729549 -0.95995903 -0.73555171 0 0
2.354583 -0.99443382 -0.73643863 0 1
2.426187 -1.024675 -0.73266798 0 2
2.5159416 -1.0625819 -0.73277682 0 3
2.6215501 -1.1071845 -0.7355454 0 4
2.709486 -1.1443233 -0.7314263 0 5
2.8469648 -1.2023861 -0.73842406 0 6
2.9621189 -1.2510203 -0.73709643 0 7
3.0800569 -1.3008302 -0.73414332 0 8
3.2216384 -1.3606257 -0.73424035 0 9
3.3595486 -1.4188706 -0.73071659 0 10
3.5643067 -1.5053481 -0.73830378 0 11
3.7481723 -1.5830019 -0.73767078 0 12
3.9527812 -1.6694163 -0.73724329 0 13
4.1774411 -1.764299 -0.73627174 0 14
4.4362249 -1.8735937 -0.73648864 0 15
4.5826111 -1.9354185 -0.71403152 0 16
4.5715861 -1.9307623 -0.66578943 0 17
4.5758305 -1.9325547 -0.61995488 0 18
4.5672526 -1.928932 -0.57253349 0 19
4.5717907 -1.9308486 -0.52689546 0 20
4.5837488 -1.9358989 -0.48203617 0 21
4.5843954 -1.936172 -0.43594259 0 22
4.5812769 -1.9348551 -0.38959014 0 23
4.5818152 -1.9350823 -0.34364092 0 24
4.5801282 -1.9343697 -0.29759473 0 25
4.5773025 -1.9331764 -0.25157031 0 26
4.5785832 -1.9337174 -0.20582975 0 27
4.5857821 -1.9367577 -0.16030532 0 28
4.5899806 -1.9385308 -0.11458923 0 29
4.5841522 -1.9360694 -0.068658493 0 30
4.5872965 -1.9373974 -0.02290057 0 31
4.5740776 -1.9318143 0.022834579 0 32
4.5802159 -1.9344069 0.068599537 0 33
4.5835233 -1.9358038 0.11442803 0 34
4.5739741 -1.9317707 0.15989254 0 35
4.5712075 -1.9306022 0.20549816 0 36
4.5876393 -1.9375421 0.25213844 0 37
4.574152 -1.9318458 0.29720643 0 38
4.5929294 -1.9397762 0.34447446 0 39
4.5863962 -1.9370171 0.3900255 0 40
4.5759649 -1.9326115 0.43514091 0 41
4.5811253 -1.934791 0.48176029 0 42
4.5723767 -1.9310961 0.52696294 0 43
4.5861278 -1.9369036 0.57489961 0 44
4.5797234 -1.9341989 0.62048233 0 45
4.5654678 -1.9281782 0.6648984 0 46
4.5703669 -1.9302473 0.71212369 0 47
4.5796027 -1.934148 0.76029181 0 48
4.5755229 -1.9324247 0.80643338 0 49
4.5760045 -1.9326282 0.85348225 0 50
4.5862808 -1.9369683 0.90261734 0 51
4.5727 -1.9312326 0.94718045 0 52
4.5779591 -1.9334537 0.99572623 0 53
4.5833483 -1.9357297 1.0445863 0 54
4.5699358 -1.9300653 1.0892618 0 55
4.5919852 -1.9393774 1.142674 0 56
4.5734754 -1.9315602 1.1862333 0 57
4.5764475 -1.9328154 1.235413 0 58
4.5760088 -1.9326301 1.2839206 0 59
4.5715361 -1.9307411 1.331476 0 60
4.5742946 -1.931906 1.3813605 0 61
4.580565 -1.9345543 1.4326549 0 62
4.5797281 -1.9342009 1.4820473 0 63
2.2769153 -0.92881006 -0.73308188 0 0
2.3556356 -0.960922 -0.73301673 0 1
2.4380603 -0.9945451 -0.73250508 0 2
2.5330698 -1.0333018 -0.73400933 0 3
2.6254432 -1.0709832 -0.73288733 0 4
2.7356191 -1.1159267 -0.73472118 0 5
2.8422556 -1.1594263 -0.73344934 0 6
2.9654734 -1.2096899 -0.73417419 0 7
3.1124573 -1.2696483 -0.73808908 0 8
3.2436647 -1.323171 -0.73549658 0 9
3.3965476 -1.3855357 -0.73500282 0 10
3.5673876 -1.4552256 -0.73517978 0 11
3.7345669 -1.5234221 -0.73125106 0 12
3.9559455 -1.613728 -0.73407698 0 13
4.1706767 -1.7013222 -0.73133707 0 14
4.4343371 -1.8088758 -0.73242724 0 15
4.5802827 -1.8684106 -0.7100352 0 16
4.5861759 -1.8708146 -0.66451371 0 17
4.5940905 -1.8740432 -0.61925995 0 18
4.5823617 -1.8692588 -0.57150298 0 19
4.5722528 -1.865135 -0.52426589 0 20
4.5707955 -1.8645405 -0.47822675 0 21
4.5727916 -1.8653547 -0.43262526 0 22
4.5937104 -1.873888 -0.38865858 0 23
4.5876231 -1.8714049 -0.34232473 0 24
4.5924721 -1.873383 -0.29687759 0 25
4.5811038 -1.8687454 -0.25049734 0 26
4.5968075 -1.8751515 -0.20559692 0 27
4.566905 -1.8629535 -0.15883264 0 28
4.5757871 -1.8665767 -0.11365329 0 29
4.5825438 -1.8693329 -0.068284966 0 30
4.5878787 -1.8715091 -0.022786869 0 31
4.5876145 -1.8714013 0.022785556 0 32
4.5795064 -1.8680938 0.068239704 0 33
4.5803299 -1.8684298 0.11376613 0 34
4.5807157 -1.8685871 0.15931295 0 35
4.5859852 -1.8707368 0.20511287 0 36
4.5811033 -1.8687453 0.25049734 0 37
4.5872674 -1.8712599 0.29654112 0 38
4.5846477 -1.8701911 0.34210271 0 39
4.5811343 -1.868758 0.38759458 0 40
4.5750208 -1.8662641 0.43283617 0 41
4.579577 -1.8681227 0.47914553 0 42
4.5842957 -1.8700476 0.52564675 0 43
4.578886 -1.8678409 0.57106948 0 44
4.5826645 -1.8693821 0.61771971 0 45
4.5754104 -1.866423 0.66295379 0 46
4.5781598 -1.8675447 0.70970613 0 47
4.5732994 -1.8655618 0.7553798 0 48
4.5638638 -1.8617128 0.80028319 0 49
4.5848427 -1.8702707 0.85077703 0 50
4.5743766 -1.8660014 0.89569098 0 51
4.565599 -1.8624208 0.94089472 0 52
4.578558 -1.8677071 0.99078643 0 53
4.5833325 -1.8696548 1.0392644 0 54
4.5772719 -1.8671825 1.0854557 0 55
4.5831423 -1.8695772 1.134667 0 56
4.5970821 -1.8752635 1.1862855 0 57
4.5777459 -1.8673757 1.2294719 0 58
4.5668101 -1.8629148 1.2748162 0 59
4.5897007 -1.8722525 1.3299607 0 60
4.5899105 -1.8723381 1.3790195 0 61
4.5872579 -1.8712559 1.4274435 0 62
4.5884371 -1.8717369 1.4773058 0 63
2.2917233 -0.90214527 -0.73422241 0 0
2.3642514 -0.93069625 -0.73208123 0 1
2.4614866 -0.96897328 -0.73590797 0 2
2.5370903 -0.99873495 -0.73156035 0 3
2.6468816 -1.0419546 -0.73523968 0 4
2.75629 -1.0850236 -0.73663378 0 5
2.86112 -1.1262904 -0.73468792 0 6
2.9678028 -1.1682864 -0.73113906 0 7
3.096736 -1.2190415 -0.73075098 0 8
3.2733848 -1.2885799 -0.7385869 0 9
3.41729 -1.3452288 -0.73585629 0 10
3.585701 -1.4115243 -0.73532134 0 11
3.7781041 -1.4872645 -0.73613936 0 12
3.9854844 -1.5689006 -0.73592281 0 13
4.2177458 -1.6603312 -0.73595506 0 14
4.4661074 -1.7580997 -0.73404855 0 15
4.5731802 -1.8002492 -0.70544922 0 16
4.5857382 -1.8051926 -0.66118395 0 17
4.5820408 -1.8037372 -0.61459953 0 18
4.5761356 -1.8014127 -0.56792092 0 19
4.5822401 -1.8038156 -0.52282822 0 20
4.5715561 -1.7996099 -0.4759551 0 21
4.5921922 -1.8077333 -0.43232501 0 22
4.5771475 -1.801811 -0.3853536 0 23
4.5721011 -1.7998244 -0.33948937 0 24
4.5862226 -1.8053834 -0.29501617 0 25
4.5903363 -1.8070028 -0.24976833 0 26
4.5853052 -1.8050224 -0.20407432 0 27
4.5750642 -1.8009908 -0.15833421 0 28
4.5799403 -1.8029103 -0.11319724 0 29
4.5742764 -1.8006808 -0.067826703 0 30
4.5731864 -1.8002516 -0.02260224 0 31
4.5764499 -1.8015364 0.02261837 0 32
4.5727596 -1.8000836 0.067804217 0 33
4.5787916 -1.8024582 0.11316886 0 34
4.576293 -1.8014746 0.15837674 0 35
4.5687466 -1.798504 0.20333736 0 36
4.5760827 -1.8013918 0.24899277 0 37
4.5860844 -1.805329 0.29500729 0 38
4.5930076 -1.8080544 0.34104177 0 39
4.5755773 -1.8011928 0.38522139 0 40
4.5644288 -1.7968042 0.42971131 0 41
4.5784426 -1.8023207 0.47667205 0 42
4.5735335 -1.8003883 0.52183485 0 43
4.5775919 -1.801986 0.56810164 0 44
4.5826244 -1.8039669 0.61467779 0 45
4.5794525 -1.8027183 0.66027772 0 46
4.5920997 -1.8076969 0.70836771 0 47
4.5722885 -1.7998981 0.75150043 0 48
4.5838804 -1.8044615 0.79984194 0 49
4.5764771 -1.8015471 0.8450501 0 50
4.5821137 -1.803766 0.8927955 0 51
4.5660458 -1.7974408 0.93636113 0 52
4.5721378 -1.7998389 0.98453349 0 53
4.5790577 -1.802563 1.0331911 0 54
4.5740075 -1.8005748 1.0793495 0 55
4.5722952 -1.7999008 1.126417 0 56
4.5806122 -1.8031749 1.1762248 0 57
4.5801768 -1.8030034 1.2240777 0 58
4.5747948 -1.8008847 1.2707673 0 59
4.5763488 -1.8014965 1.3195728 0 60
4.5711284 -1.7994415 1.3666253 0 61
4.5609002 -1.795415 1.4122649 0 62
4.5765538 -1.8015773 1.4662366 0 63
2.2910869 -0.86951357 -0.73053783 0 0
2.3992257 -0.91055441 -0.73938799 0 1
2.4670956 -0.93631238 -0.73408723 0 2
2.5679686 -0.97459573 -0.73695272 0 3
2.6661015 -1.0118392 -0.73706669 0 4
2.7682586 -1.0506098 -0.73632419 0 5
2.8834221 -1.0943167 -0.73690367 0 6
2.998966 -1.138168 -0.73531288 0 7
3.1322093 -1.1887364 -0.73561686 0 8
3.2763796 -1.243452 -0.73575705 0 9
3.4213748 -1.2984805 -0.73324221 0 10
3.5853379 -1.3607079 -0.73176032 0 11
3.7787759 -1.4341215 -0.73277885 0 12
3.9840617 -1.5120316 -0.7321716 0 13
4.2093816 -1.5975449 -0.73101258 0 14
4.4760108 -1.6987362 -0.73218769 0 15
4.5817704 -1.7388741 -0.70342284 0 16
4.5888696 -1.7415682 -0.65849799 0 17
4.5766873 -1.7369449 -0.61097044 0 18
4.5779557 -1.7374263 -0.56545264 0 19
4.5735292 -1.7357463 -0.51935977 0 20
4.5792975 -1.7379355 -0.47450027 0 21
4.5768199 -1.7369951 -0.42883459 0 22
4.59025 -1.7420921 -0.38462409 0 23
4.5800548 -1.7382228 -0.3384673 0 24
4.5779481 -1.7374233 -0.29308745 0 25
4.5790529 -1.7378426 -0.24797288 0 26
4.5776806 -1.7373219 -0.20276886 0 27
4.5925741 -1.7429742 -0.15818651 0 28
4.5667696 -1.7331809 -0.11233648 0 29
4.587081 -1.7408895 -0.067694038 0 30
4.5743585 -1.7360611 -0.022500824 0 31
4.5804977 -1.738391 0.022531023 0 32
4.5727096 -1.7354354 0.06748195 0 33
4.576674 -1.7369398 0.11258012 0 34
4.5675578 -1.73348 0.15732484 0 35
4.5838652 -1.739669 0.20304281 0 36
4.581851 -1.7389047 0.24812442 0 37
4.5836515 -1.739588 0.29345262 0 38
4.568161 -1.7337091 0.33758837 0 39
4.5825748 -1.7391794 0.38398102 0 40
4.5878253 -1.7411721 0.42986581 0 41
4.5841627 -1.7397819 0.47500437 0 42
4.5752192 -1.7363876 0.51955169 0 43
4.5641985 -1.732205 0.56375337 0 44
4.5681911 -1.7337203 0.60983616 0 45
4.5852761 -1.7402046 0.65798241 0 46
4.573287 -1.7356545 0.70212042 0 47
4.5650406 -1.7325246 0.74675113 0 48
4.5822525 -1.7390571 0.79576641 0 49
4.5896111 -1.7418498 0.84345657 0 50
4.5838504 -1.7396635 0.88889867 0 51
4.5906816 -1.742256 0.93694896 0 52
4.6061049 -1.7481095 0.98714435 0 53
4.5843949 -1.7398702 1.0294904 0 54
4.586329 -1.7406042 1.0771251 0 55
4.5864792 -1.7406611 1.1245533 0 56
4.5818386 -1.7388998 1.1709605 0 57
4.5763083 -1.7368011 1.2172441 0 58
4.5854783 -1.7402812 1.2676948 0 59
4.5760531 -1.7367041 1.3132305 0 60
4.5849128 -1.7400666 1.3642464 0 61
4.5859079 -1.7404444 1.4132749 0 62
4.5711861 -1.7348572 1.4575721 0 63
2.3064573 -0.84305137 -0.73207802 0 0
2.390172 -0.87365055 -0.73323172 0 1
2.4822731 -0.90731514 -0.73522806 0 2
2.5751531 -0.94126445 -0.73563737 0 3
2.6643832 -0.97387964 -0.73322552 0 4
2.7714818 -1.0130261 -0.73381275 0 5
2.888099 -1.0556518 -0.73472595 0 6
3.0268769 -1.1063776 -0.73876476 0 7
3.1577477 -1.1542132 -0.73822564 0 8
3.2861149 -1.2011337 -0.73457098 0 9
3.447247 -1.2600303 -0.73541081 0 10
3.6286163 -1.3263241 -0.73720902 0 11
3.8112986 -1.3930978 -0.73570818 0 12
4.0125589 -1.4666619 -0.73403883 0 13
4.2457099 -1.5518829 -0.73395205 0 14
4.5222678 -1.6529697 -0.73637384 0 15
4.5814743 -1.6746106 -0.70016307 0 16
4.5737643 -1.6717926 -0.65333116 0 17
4.5787296 -1.6736075 -0.60844982 0 18
4.582129 -1.67485 -0.56338173 0 19
4.5865893 -1.6764803 -0.51846272 0 20
4.5813417 -1.6745623 -0.47254273 0 21
4.5836611 -1.6754099 -0.42751297 0 22
4.5974774 -1.6804602 -0.38346928 0 23
4.5812273 -1.6745205 -0.33700684 0 24
4.5907741 -1.6780099 -0.29256549 0 25
4.596971 -1.6802751 -0.2478056 0 26
4.5826793 -1.6750511 -0.20206265 0 27
4.5943904 -1.6793317 -0.1575259 0 28
4.5770283 -1.6729856 -0.11207432 0 29
4.5891685 -1.677423 -0.067415349 0 30
4.5816154 -1.6746622 -0.022433532 0 31
4.592134 -1.678507 0.022485035 0 32
4.5810571 -1.6744583 0.067296192 0 33
4.5740004 -1.6718788 0.11200018 0 34
4.5930781 -1.6788521 0.15748091 0 35
4.5813823 -1.6745771 0.20200546 0 36
4.5826521 -1.6750412 0.24703372 0 37
4.5731864 -1.6715813 0.29144463 0 38
4.5713849 -1.6709228 0.33628279 0 39
4.5695801 -1.6702631 0.38114238 0 40
4.5784702 -1.6735127 0.42702883 0 41
4.5772758 -1.673076 0.47212332 0 42
4.5747151 -1.6721401 0.51712048 0 43
4.5691032 -1.6700888 0.56178015 0 44
4.5801849 -1.6741395 0.60864317 0 45
4.5859981 -1.6762643 0.65507865 0 46
4.5821295 -1.6748502 0.7002632 0 47
4.5775757 -1.6731857 0.74537981 0 48
4.5706968 -1.6706713 0.79013228 0 49
4.5973053 -1.6803973 0.84100962 0 50
4.5764346 -1.6727687 0.88340509 0 51
4.5835724 -1.6753775 0.93122292 0 52
4.576932 -1.6729504 0.97640973 0 53
4.5893044 -1.6774728 1.0258831 0 54
4.5760951 -1.6726445 1.0698102 0 55
4.5829148 -1.6751373 1.1185443 0 56
4.5812631 -1.6745335 1.1654631 0 57
4.589057 -1.6773822 1.215057 0 58
4.5813498 -1.6745653 1.2607657 0 59
4.5847001 -1.6757897 1.3096994 0 60
4.5878038 -1.6769242 1.3588681 0 61
4.57653 -1.6728034 1.4039395 0 62
4.5791612 -1.6737652 1.4534425 0 63
2.3284431 -0.81877583 -0.73580509 0 0
2.4001112 -0.84397727 -0.7330417 0 1
2.4803922 -0.87220734 -0.73143893 0 2
2.5942521 -0.91224521 -0.73783314 0 3
2.6762929 -0.94109404 -0.73326302 0 4
2.7833803 -0.97875035 -0.73372108 0 5
2.8975501 -1.0188972 -0.73388749 0 6
3.0258427 -1.06401 -0.73526347 0 7
3.1509774 -1.1080126 -0.73340219 0 8
3.299376 -1.1601956 -0.73429072 0 9
3.4552226 -1.2149976 -0.73386961 0 10
3.6223202 -1.2737559 -0.7326923 0 11
3.8116221 -1.3403223 -0.73253381 0 12
4.0205293 -1.4137825 -0.7322613 0 13
4.2631297 -1.4990908 -0.73372132 0 14
4.5295014 -1.5927581 -0.73430711 0 15
4.5777893 -1.6097381 -0.69652224 0 16
4.5811281 -1.6109121 -0.65150416 0 17
4.5746045 -1.6086181 -0.60522729 0 18
4.5801892 -1.610582 -0.56066585 0 19
4.5758638 -1.6090609 -0.51497483 0 20
4.5817618 -1.6111349 -0.47050706 0 21
4.5809999 -1.610867 -0.42538515 0 22
4.5912328 -1.6144652 -0.38126373 0 23
4.5683708 -1.6064261 -0.33458269 0 24
4.5764365 -1.6092623 -0.29036874 0 25
4.5712023 -1.6074218 -0.24533245 0 26
4.5704279 -1.6071495 -0.20063592 0 27
4.5726266 -1.6079227 -0.15608999 0 28
4.5906849 -1.6142726 -0.11191421 0 29
4.5668077 -1.6058764 -0.066791743 0 30
4.591085 -1.6144133 -0.022381006 0 31
4.5815606 -1.6110642 0.022334576 0 32
4.5630636 -1.6045598 0.066736974 0 33
4.5868478 -1.6129234 0.11182068 0 34
4.58078 -1.6107897 0.15636832 0 35
4.5702844 -1.6070989 0.20062961 0 36
4.5834427 -1.6117259 0.24598938 0 37
4.5742302 -1.6084865 0.29022875 0 38
4.5789247 -1.6101372 0.33535561 0 39
4.5763636 -1.6092367 0.38002899 0 40
4.575386 -1.608893 0.42486387 0 41
4.5651445 -1.6052916 0.4688006 0 42
4.5679588 -1.6062813 0.51408517 0 43
4.5738144 -1.6083403 0.5598855 0 44
4.5854011 -1.6124146 0.60665572 0 45
4.5792303 -1.6102446 0.65123427 0 46
4.5873709 -1.6131073 0.69798011 0 47
4.5809813 -1.6108603 0.74265277 0 48
4.5701561 -1.6070539 0.78656322 0 49
4.5857844 -1.6125494 0.83521158 0 50
4.5777531 -1.6097252 0.87977213 0 51
4.5828013 -1.6115004 0.9269703 0 52
4.5712714 -1.6074461 0.97091198 0 53
4.585371 -1.6124041 1.0204947 0 54
4.5774179 -1.6096075 1.0654118 0 55
4.5823402 -1.6113383 1.1134839 0 56
4.5754895 -1.6089294 1.1588737 0 57
4.5920711 -1.61476 1.2105063 0 58
4.5932856 -1.615187 1.2584895 0 59
4.5779171 -1.6097829 1.3020086 0 60
4.5757632 -1.6090256 1.3493396 0 61
4.5870652 -1.6129998 1.4009809 0 62
4.5664272 -1.6057427 1.4430246 0 63
2.3262014 -0.78598499 -0.73198724 0 0
2.4155738 -0.81618243 -0.73464352 0 1
2.493094 -0.84237522 -0.73207468 0 2
2.5972137 -0.87755561 -0.73555082 0 3
2.6893919 -0.908701 -0.73373497 0 4
2.8083522 -0.94889575 -0.73717237 0 5
2.9133406 -0.98436958 -0.73476553 0 6
3.0346763 -1.0253669 -0.73429066 0 7
3.1849351 -1.0761368 -0.73817027 0 8
3.3142896 -1.1198436 -0.73448968 0 9
3.4686737 -1.1720074 -0.73361015 0 10
3.6370857 -1.228911 -0.73256701 0 11
3.8543901 -1.3023347 -0.7376197 0 12
4.0569234 -1.3707674 -0.73576427 0 13
4.3097138 -1.4561809 -0.73860121 0 14
4.5788975 -1.5471338 -0.73917496 0 15
4.583569 -1.5487121 -0.69445157 0 16
4.5734167 -1.5452819 -0.64765626 0 17
4.5723357 -1.5449166 -0.6023683 0 18
4.5869422 -1.5498518 -0.55911732 0 19
4.5786581 -1.5470529 -0.51310962 0 20
4.578331 -1.5469422 -0.46816593 0 21
4.5910301 -1.5512332 -0.42451319 0 22
4.5800252 -1.5475147 -0.37872422 0 23
4.5836339 -1.5487341 -0.33428049 0 24
4.5728736 -1.5450984 -0.28891537 0 25
4.5713124 -1.5445708 -0.24430057 0 26
4.5751395 -1.5458639 -0.19999316 0 27
4.5802445 -1.5475888 -0.15568866 0 28
4.5873337 -1.5499841 -0.11135945 0 29
4.5776997 -1.5467291 -0.066667832 0 30
4.5774817 -1.5466553 -0.022220299 0 31
4.5790038 -1.5471696 0.022227688 0 32
4.5885835 -1.5504065 0.066826344 0 33
4.5802231 -1.5475816 0.11118684 0 34
4.5823989 -1.5483168 0.1557619 0 35
4.5852575 -1.5492827 0.20043546 0 36
4.5623665 -1.5415481 0.24382249 0 37
4.5906725 -1.5511124 0.2900399 0 38
4.5719962 -1.544802 0.33343178 0 39
4.5916424 -1.55144 0.37968487 0 40
4.5784864 -1.5469948 0.42335334 0 41
4.5766826 -1.5463853 0.4679974 0 42
4.571795 -1.5447339 0.51234043 0 43
4.5700722 -1.5441518 0.55706102 0 44
4.5668855 -1.543075 0.60165024 0 45
4.579906 -1.5474745 0.64857525 0 46
4.5848312 -1.5491387 0.69464284 0 47
4.5704784 -1.5442891 0.73781592 0 48
4.576201 -1.5462226 0.78427202 0 49
4.5711474 -1.5445151 0.82902402 0 50
4.5941606 -1.5522908 0.87919056 0 51
4.585176 -1.549255 0.92352748 0 52
4.5790596 -1.5471885 0.96845216 0 53
4.5864205 -1.5496756 1.0164105 0 54
4.569521 -1.5439656 1.0590748 0 55
4.5897937 -1.5508153 1.1105773 0 56
4.5844193 -1.5489994 1.1562237 0 57
4.5745873 -1.5456773 1.2007965 0 58
4.5736933 -1.5453753 1.2478207 0 59
4.5756474 -1.5460355 1.2958584 0 60
4.5765986 -1.5463569 1.3438772 0 61
4.5853248 -1.5493053 1.3945254 0 62
4.5826979 -1.5484178 1.4420403 0 63
2.3554819 -0.76374102 -0.73818994 0 0
2.433567 -0.78905934 -0.73710918 0 1
2.503191 -0.81163424 -0.73205364 0 2
2.6059887 -0.8449654 -0.7350378 0 3
2.6966567 -0.87436348 -0.7327283 0 4
2.800523 -0.90804112 -0.732131 0 5
2.9247491 -0.94832021 -0.73464638 0 6
3.0474238 -0.98809618 -0.73437971 0 7
3.1996391 -1.0374504 -0.73856562 0 8
3.3464749 -1.0850605 -0.73860973 0 9
3.4694912 -1.1249473 -0.73080218 0 10
3.6364083 -1.1790684 -0.72945517 0 11
3.8457623 -1.2469493 -0.73297888 0 12
4.0455666 -1.311734 -0.7307241 0 13
4.3058925 -1.3961419 -0.73494858 0 14
4.5712485 -1.482181 -0.73494244 0 15
4.5961833 -1.4902657 -0.6935339 0 16
4.5635519 -1.4796853 -0.64363396 0 17
4.5889063 -1.4879063 -0.60209548 0 18
4.5866904 -1.4871877 -0.55681545 0 19
4.5871415 -1.487334 -0.51197201 0 20
4.5741196 -1.4831117 -0.46583521 0 21
4.570085 -1.4818038 -0.42085987 0 22
4.5865579 -1.4871448 -0.37772372 0 23
4.5785217 -1.4845393 -0.33255124 0 24
4.5786462 -1.4845796 -0.28810492 0 25
4.5850663 -1.4866611 -0.24404019 0 26
4.578126 -1.4844108 -0.19931075 0 27
4.5965695 -1.490391 -0.15560886 0 28
4.5810733 -1.4853665 -0.11075573 0 29
4.5601573 -1.4785846 -0.066142567 0 30
4.5921912 -1.4889714 -0.022201149 0 31
4.579814 -1.4849582 0.022141309 0 32
4.5811934 -1.4854054 0.066447683 0 33
4.5925331 -1.4890822 0.11103278 0 34
4.5747061 -1.483302 0.15486872 0 35
4.57727 -1.4841332 0.19927348 0 36
4.571022 -1.4821075 0.2432927 0 37
4.5781755 -1.484427 0.28807533 0 38
4.5813408 -1.4854531 0.33275598 0 39
4.5594001 -1.4783391 0.37548715 0 40
4.5706573 -1.4819893 0.42091256 0 41
4.5825558 -1.4858471 0.46669438 0 42
4.5750914 -1.4834269 0.51062709 0 43
4.5663729 -1.4806 0.55434895 0 44
4.5781655 -1.4844236 0.60068619 0 45
4.5781016 -1.4844029 0.64568603 0 46
4.5692873 -1.481545 0.68947548 0 47
4.5835776 -1.4861785 0.73692471 0 48
4.5921092 -1.4889448 0.78380132 0 49
4.5954938 -1.4900422 0.83005381 0 50
4.5796957 -1.4849198 0.8728621 0 51
4.570744 -1.4820173 0.91688079 0 52
4.5857868 -1.4868948 0.96593505 0 53
4.5851803 -1.4866982 1.0120078 0 54
4.5768533 -1.4839982 1.0564649 0 55
4.5839334 -1.4862939 1.1046537 0 56
4.5975709 -1.4907157 1.1548303 0 57
4.5763068 -1.483821 1.196368 0 58
4.573875 -1.4830325 1.2428011 0 59
4.5835876 -1.4861817 1.2928337 0 60
4.5802131 -1.4850876 1.339475 0 61
4.5808048 -1.4852794 1.3874913 0 62
4.5733519 -1.4828628 1.4332533 0 63
2.3576827 -0.73254281 -0.73600107 0 0
2.4418299 -0.75868773 -0.73673052 0 1
2.5301361 -0.78612489 -0.73705101 0 2
2.6255701 -0.81577671 -0.73767573 0 3
2.7260652 -0.84700096 -0.73783338 0 4
2.8370397 -0.88148123 -0.73878795 0 5
2.9576821 -0.9189654 -0.74002427 0 6
3.0522327 -0.94834274 -0.73267305 0 7
3.1875658 -0.99039131 -0.7329123 0 8
3.3333173 -1.035677 -0.73283947 0 9
3.5039167 -1.088683 -0.73517811 0 10
3.6800528 -1.1434093 -0.73533422 0 11
3.8814409 -1.2059815 -0.73689693 0 12
4.0982676 -1.2733505 -0.73735917 0 13
4.3005619 -1.3362043 -0.731179 0 14
4.5749388 -1.4214544 -0.73267013 0 15
4.5688148 -1.4195517 -0.68671834 0 16
4.5873046 -1.4252965 -0.64446342 0 17
4.5836463 -1.4241599 -0.59906226 0 18
4.5731955 -1.4209127 -0.55301428 0 19
4.5820589 -1.4236667 -0.50941235 0 20
4.5827932 -1.423895 -0.46490031 0 21
4.573163 -1.4209027 -0.41950259 0 22
4.5784101 -1.422533 -0.37558377 0 23
4.5796266 -1.4229109 -0.33133557 0 24
4.5745611 -1.4213371 -0.28672647 0 25
4.5720444 -1.4205552 -0.24239907 0 26
4.577332 -1.4221982 -0.19849984 0 27
4.5812678 -1.4234209 -0.15448663 0 28
4.5727434 -1.4207723 -0.11012363 0 29
4.5669918 -1.4189852 -0.065983623 0 30
4.5729046 -1.4208224 -0.022021776 0 31
4.5803409 -1.4231329 0.022057587 0 32
4.5744772 -1.421311 0.066091776 0 33
4.5791631 -1.422767 0.11027824 0 34
4.5724697 -1.4206873 0.15418994 0 35
4.5789189 -1.4226912 0.19856866 0 36
4.5873728 -1.4253178 0.24321175 0 37
4.5884094 -1.4256399 0.28759447 0 38
4.5908666 -1.4264033 0.33214882 0 39
4.5856638 -1.4247868 0.37617883 0 40
4.5770011 -1.4220953 0.41985467 0 41
4.5739918 -1.4211602 0.46400741 0 42
4.5860472 -1.424906 0.50985581 0 43
4.5913997 -1.426569 0.55521566 0 44
4.5726309 -1.4207374 0.59762263 0 45
4.5754285 -1.4216065 0.64279497 0 46
4.5547681 -1.4151874 0.68460703 0 47
4.5754151 -1.4216025 0.73274648 0 48
4.5810738 -1.4233606 0.77887148 0 49
4.5865846 -1.4250729 0.82521707 0 50
4.5765939 -1.4219687 0.86887264 0 51
4.5728092 -1.4207928 0.91372144 0 52
4.5755396 -1.4216411 0.96002179 0 53
4.5725064 -1.4206988 1.0052787 0 54
4.5840831 -1.4242955 1.0540115 0 55
4.5833411 -1.4240651 1.1002078 0 56
4.5764432 -1.4219218 1.1450449 0 57
4.583755 -1.4241937 1.1936467 0 58
4.5765934 -1.4219686 1.238695 0 59
4.5824008 -1.4237731 1.2874637 0 60
4.5788636 -1.4226739 1.3338635 0 61
4.5845275 -1.4244338 1.3832091 0 62
4.5814934 -1.423491 1.4302111 0 63
2.3564146 -0.70049697 -0.73286092 0 0
2.440372 -0.72545516 -0.73354375 0 1
2.5323713 -0.75280404 -0.73495001 0 2
2.6378403 -0.78415704 -0.73835826 0 3
