# .PCD v0.7 - Point Cloud Data file format
VERSION 0.7
FIELDS x y z intensity ring
SIZE 4 4 4 4 2
TYPE F F F F U
COUNT 1 1 1 1 1
WIDTH 1303
HEIGHT 1
VIEWPOINT 0 0 0 1 0 0 0
POINTS 1303
DATA ascii
4.5018559 0.24934818 0.90340769 0 53
4.5043211 0.24948473 0.94714171 0 54
4.5073361 0.24965174 0.99121135 0 55
4.5197916 0.25034162 1.0376823 0 56
4.5241604 0.25058362 1.0826446 0 57
4.5166821 0.2501694 1.1249348 0 58
4.5143633 0.25004095 1.1686165 0 59
4.5116677 0.24989167 1.2123624 0 60
4.5064464 0.24960245 1.2555711 0 61
4.5006785 0.24928299 1.2987474 0 62
4.5005441 0.24927554 1.3437285 0 63
2.4575548 0.16645133 -0.73430836 0 0
2.53216 0.17150439 -0.73125118 0 1
2.6314666 0.17823046 -0.73372561 0 2
2.7203259 0.18424895 -0.73155165 0 3
2.8229663 0.19120082 -0.73132414 0 4
2.9550889 0.20014955 -0.73655826 0 5
3.0718875 0.20806038 -0.73566812 0 6
3.1901009 0.21606702 -0.73295808 0 7
3.3435133 0.22645772 -0.73583096 0 8
3.5117221 0.23785058 -0.73898304 0 9
3.6401851 0.24655144 -0.73104554 0 10
3.8508165 0.26081759 -0.73648804 0 11
4.0650249 0.27532604 -0.73868471 0 12
4.2770109 0.28968394 -0.73654842 0 13
4.5036201 0.30503231 -0.73289615 0 14
4.4999704 0.3047851 -0.68978709 0 15
4.5056009 0.30516645 -0.64820141 0 16
4.5114307 0.30556133 -0.60664856 0 17
4.501905 0.30491611 -0.56316978 0 18
4.5052223 0.30514082 -0.52145278 0 19
4.5103264 0.30548653 -0.47995326 0 20
4.5168376 0.30592752 -0.43857732 0 21
4.5034175 0.30501857 -0.39540514 0 22
4.5038714 0.3050493 -0.3536391 0 23
4.5169873 0.30593768 -0.31280166 0 24
4.5043921 0.30508459 -0.27023196 0 25
4.504364 0.30508268 -0.22857891 0 26
4.5244179 0.30644095 -0.18779871 0 27
4.5099092 0.30545825 -0.14556439 0 28
4.4894352 0.30407155 -0.10348504 0 29
4.5030103 0.30499101 -0.062271748 0 30
4.5313177 0.30690828 -0.020886559 0 31
4.5169916 0.30593795 0.020820523 0 32
4.49575 0.30449924 0.062171344 0 33
4.5187464 0.3060568 0.10416068 0 34
4.5065742 0.30523238 0.14545676 0 35
4.5040474 0.30506122 0.18695317 0 36
4.4999342 0.30478263 0.2283541 0 37
4.5124779 0.30563223 0.27071702 0 38
4.5101447 0.30547419 0.3123278 0 39
4.5039754 0.30505636 0.35364726 0 40
4.5056171 0.30516753 0.39559826 0 41
4.5119452 0.30559617 0.4381023 0 42
4.5142012 0.30574897 0.4803656 0 43
4.5081234 0.30533731 0.52178854 0 44
4.5069218 0.30525592 0.56379741 0 45
4.4999013 0.30478039 0.60509819 0 46
4.5065718 0.30523223 0.64834112 0 47
4.5118303 0.30558836 0.69160503 0 48
4.5064988 0.30522728 0.73336458 0 49
4.5060878 0.30519941 0.77599794 0 50
4.5031638 0.30500141 0.81830209 0 51
4.5220361 0.3062796 0.86486214 0 52
4.5114779 0.30556449 0.90602416 0 53
4.5248504 0.30647022 0.95217884 0 54
4.5075531 0.30529869 0.99200964 0 55
4.5156016 0.3058438 1.0375053 0 56
4.5130725 0.30567253 1.080809 0 57
4.5051093 0.30513316 1.122902 0 58
4.5085254 0.30536455 1.167989 0 59
4.5141878 0.30574805 1.2139579 0 60
4.5008349 0.30484363 1.2549571 0 61
4.5196028 0.30611479 1.3051958 0 62
4.5107436 0.30551478 1.3477937 0 63
2.4518788 0.1963799 -0.73327845 0 0
2.5357234 0.20309533 -0.73294598 0 1
2.6293535 0.21059451 -0.73380297 0 2
2.7217727 0.21799669 -0.73260617 0 3
2.8432088 0.22772294 -0.73723787 0 4
2.9449234 0.23586965 -0.73469186 0 5
3.0596259 0.24505658 -0.73339784 0 6
3.1992335 0.25623828 -0.73572469 0 7
3.340934 0.2675876 -0.73593187 0 8
3.4595313 0.27708647 -0.72866225 0 9
3.6525319 0.29254457 -0.73419195 0 10
3.8453989 0.30799201 -0.73612058 0 11
4.0042415 0.32071429 -0.72830093 0 12
4.2474585 0.3401944 -0.73212421 0 13
4.5115733 0.36134836 -0.73485798 0 14
4.5038924 0.36073315 -0.69101596 0 15
4.5080376 0.36106515 -0.64914161 0 16
4.523303 0.36228782 -0.60879803 0 17
4.5071177 0.36099151 -0.56433457 0 18
4.5186868 0.36191809 -0.52348667 0 19
4.5184059 0.36189559 -0.48125017 0 20
4.5068512 0.36097014 -0.43800557 0 21
4.5063519 0.36093017 -0.39602256 0 22
4.5047903 0.36080506 -0.35403284 0 23
4.5010409 0.36050478 -0.31198075 0 24
4.504065 0.36074701 -0.27045801 0 25
4.5120811 0.36138901 -0.22917868 0 26
4.5228901 0.36225474 -0.18790598 0 27
4.4992719 0.36036307 -0.14535309 0 28
4.5201263 0.36203337 -0.10428722 0 29
4.5134425 0.36149806 -0.062472761 0 30
4.5011983 0.36051738 -0.02076659 0 31
4.5006905 0.36047667 0.020764247 0 32
4.5162344 0.36172169 0.062511407 0 33
4.5114722 0.36134022 0.10408755 0 34
4.4970903 0.36018836 0.14528263 0 35
4.4950733 0.36002681 0.18675032 0 36
4.5149851 0.36162159 0.22932619 0 37
4.5092416 0.36116156 0.27076882 0 38
4.5248561 0.36241221 0.31363147 0 39
4.5180159 0.36186436 0.35507223 0 40
4.5070658 0.36098734 0.39608529 0 41
4.5053267 0.36084801 0.43785739 0 42
4.5159125 0.36169589 0.4809846 0 43
4.5005269 0.36046359 0.52138287 0 44
4.5211911 0.36211866 0.56609666 0 45
4.5074267 0.36101621 0.6066612 0 46
4.5097308 0.36120078 0.64938545 0 47
4.516376 0.36173299 0.69293123 0 48
4.5183969 0.36189488 0.73596936 0 49
4.5035763 0.36070785 0.77627063 0 50
4.5010176 0.3605029 0.81865573 0 51
4.5063171 0.36092737 0.86263949 0 52
4.5157433 0.36168233 0.90770531 0 53
4.4994841 0.36038005 0.94770181 0 54
4.5064735 0.36093989 0.9926737 0 55
4.5118084 0.36136717 1.0375763 0 56
4.5124125 0.36141557 1.0816333 0 57
4.5106621 0.36127537 1.1253083 0 58
4.5220008 0.36218351 1.1725451 0 59
4.5050845 0.36082861 1.2126114 0 60
4.5074306 0.36101654 1.2579389 0 61
4.4969573 0.36017767 1.2998369 0 62
4.5078321 0.3610487 1.3481483 0 63
2.4582574 0.22734259 -0.7359665 0 0
2.5484846 0.2356869 -0.73741651 0 1
2.6408768 0.24423143 -0.73780125 0 2
2.7220967 0.25174278 -0.73347116 0 3
2.8327742 0.26197836 -0.73531199 0 4
2.9358373 0.27150974 -0.73320252 0 5
3.0770361 0.28456798 -0.73835403 0 6
3.1872506 0.29476076 -0.73374707 0 7
3.3330824 0.30824745 -0.73498172 0 8
3.4826109 0.32207602 -0.73430204 0 9
3.6467507 0.33725587 -0.73380804 0 10
3.8332756 0.3545059 -0.73457873 0 11
4.0378895 0.37342882 -0.73520046 0 12
4.2645278 0.39438862 -0.7358467 0 13
4.5160308 0.41764793 -0.73636478 0 14
4.5180354 0.41783333 -0.69392174 0 15
4.5285649 0.41880709 -0.65278971 0 16
4.5070834 0.41682047 -0.60725892 0 17
4.5085721 0.41695815 -0.56511593 0 18
4.5084338 0.41694537 -0.52285337 0 19
4.5096149 0.41705456 -0.4808237 0 20
4.5237837 0.41836491 -0.44011784 0 21
4.5004964 0.41621128 -0.39592779 0 22
4.4995217 0.41612116 -0.35399416 0 23
4.5099192 0.41708273 -0.31292796 0 24
4.5029593 0.41643906 -0.27067861 0 25
4.5145254 0.41750869 -0.22954623 0 26
4.5065689 0.41677287 -0.18742666 0 27
4.5123787 0.41731015 -0.14593126 0 28
4.5064869 0.4167653 -0.1040829 0 29
4.5052257 0.41664869 -0.062425226 0 30
4.5142083 0.4174794 -0.020848721 0 31
4.5056825 0.41669092 0.020809343 0 32
4.5013404 0.41628936 0.062371392 0 33
4.5046411 0.41659459 0.10404027 0 34
4.5051985 0.41664615 0.14569907 0 35
4.517343 0.41776928 0.18787473 0 36
4.515655 0.41761315 0.22960368 0 37
4.5165119 0.41769242 0.27149329 0 38
4.5037394 0.41651121 0.31249917 0 39
4.5132594 0.41739163 0.35507494 0 40
4.5099158 0.4170824 0.39675644 0 41
4.5109458 0.41717768 0.43886888 0 42
4.5128808 0.41735664 0.48117197 0 43
4.5088739 0.41698608 0.5229044 0 44
4.5092025 0.41701645 0.5651949 0 45
4.4946065 0.41566658 0.60557789 0 46
4.5011687 0.4162735 0.64884061 0 47
4.5127401 0.41734359 0.69310838 0 48
4.5043764 0.41657013 0.73446453 0 49
4.5035443 0.41649318 0.77708918 0 50
4.5228271 0.41827646 0.82349569 0 51
4.5070987 0.41682187 0.86370492 0 52
4.5053916 0.416664 0.90658587 0 53
4.5106659 0.41715178 0.95106548 0 54
4.4916615 0.41539425 0.99046123 0 55
4.5114713 0.41722625 1.0386001 0 56
4.5048928 0.41661787 1.0809771 0 57
4.4979787 0.41597843 1.1233352 0 58
4.5072994 0.41684046 1.1699737 0 59
4.4944053 0.41564795 1.2110211 0 60
4.514091 0.41746852 1.261135 0 61
4.4950943 0.4157117 1.3006777 0 62
4.5162635 0.41766948 1.3521036 0 63
2.4456074 0.25653678 -0.73306829 0 0
2.5440862 0.26686692 -0.73703766 0 1
2.6260703 0.27546677 -0.73455542 0 2
2.7365468 0.2870554 -0.73825997 0 3
2.8107293 0.29483694 -0.73047554 0 4
2.9478495 0.30922043 -0.73709643 0 5
3.0571678 0.32068759 -0.73447716 0 6
3.2012887 0.33580545 -0.73787361 0 7
3.3236616 0.34864196 -0.73379415 0 8
3.4799373 0.36503485 -0.73462921 0 9
3.6504867 0.38292494 -0.7354517 0 10
3.8482449 0.40366918 -0.73834276 0 11
4.0335574 0.42310792 -0.73530346 0 12
4.2446666 0.4452526 -0.73330891 0 13
4.4762425 0.46954423 -0.73076332 0 14
4.5127854 0.47337744 -0.69395691 0 15
4.5223212 0.47437772 -0.65268117 0 16
4.4987979 0.47191018 -0.60687852 0 17
4.51017 0.47310311 -0.56600255 0 18
4.5234509 0.47449622 -0.52523184 0 19
4.4969106 0.47171223 -0.48005131 0 20
4.5106521 0.47315365 -0.43937311 0 21
4.5051484 0.47257635 -0.39681825 0 22
4.5007734 0.47211745 -0.35452259 0 23
4.5033622 0.47238898 -0.31285241 0 24
4.5166273 0.47378045 -0.27182987 0 25
4.5092182 0.47300324 -0.22955477 0 26
4.5083375 0.47291088 -0.18772787 0 27
4.5210147 0.47424066 -0.14638808 0 28
4.5128784 0.47338721 -0.10435708 0 29
4.5081549 0.47289175 -0.062541656 0 30
4.5149469 0.4736042 -0.020877449 0 31
4.5058579 0.4726508 0.020835422 0 32
4.5141287 0.47351837 0.062624529 0 33
4.4952307 0.47153601 0.10394899 0 34
4.5075507 0.47282836 0.14595214 0 35
4.5102963 0.47311637 0.18780944 0 36
4.5072641 0.47279829 0.22945531 0 37
4.4971766 0.47174016 0.27065927 0 38
4.5119987 0.47329491 0.31345239 0 39
4.5122294 0.47331914 0.35542494 0 40
4.5077467 0.47284889 0.3970471 0 41
4.5182848 0.47395435 0.44011661 0 42
4.5103192 0.47311875 0.48148268 0 43
4.5138235 0.47348636 0.52411401 0 44
4.5062914 0.47269624 0.56551582 0 45
4.5171494 0.47383523 0.60935414 0 46
4.4994226 0.47197571 0.64937633 0 47
4.5003071 0.47206852 0.69203806 0 48
4.4967909 0.47169966 0.73411787 0 49
4.5136867 0.47347197 0.7797848 0 50
4.5110145 0.47319168 0.82234216 0 51
4.5129876 0.47339866 0.86588347 0 52
4.5184431 0.47397095 0.91031611 0 53
4.502635 0.47231272 0.95052493 0 54
4.506361 0.47270355 0.99490917 0 55
4.5064578 0.47271368 1.0387056 0 56
4.5060811 0.47267419 1.0825751 0 57
4.5183043 0.47395638 1.1297815 0 58
4.4960432 0.47162125 1.1684688 0 59
4.5111518 0.47320607 1.2170093 0 60
4.5101123 0.47309709 1.2615534 0 61
4.5051546 0.47257701 1.3051715 0 62
4.5058126 0.47264603 1.3506126 0 63
2.4555924 0.28815097 -0.73706764 0 0
2.519557 0.29565689 -0.73092937 0 1
2.6228456 0.30777726 -0.73465657 0 2
2.7057424 0.31750473 -0.73094767 0 3
2.8343894 0.33260083 -0.73763168 0 4
2.935781 0.3444986 -0.73508239 0 5
3.0641203 0.35955855 -0.73715401 0 6
3.1919634 0.37456027 -0.73673016 0 7
3.3120766 0.38865492 -0.73223621 0 8
3.4693573 0.40711099 -0.73339707 0 9
3.6470237 0.4279592 -0.73575854 0 10
3.80707 0.44673982 -0.73144144 0 11
4.0242581 0.4722257 -0.73461121 0 12
4.2663708 0.50063634 -0.73806626 0 13
4.4860997 0.52642041 -0.73337382 0 14
4.5154076 0.52985954 -0.69530946 0 15
4.5096822 0.52918768 -0.65174693 0 16
4.5105324 0.52928746 -0.6092934 0 17
4.5141802 0.52971554 -0.56728035 0 18
4.5226154 0.53070533 -0.52585286 0 19
4.5090384 0.52911216 -0.48200411 0 20
4.5047002 0.52860308 -0.43939328 0 21
4.5118318 0.52943993 -0.39795029 0 22
4.5075545 0.528938 -0.35554212 0 23
4.5089478 0.52910149 -0.3136687 0 24
4.527472 0.53127521 -0.2728551 0 25
4.5114956 0.52940047 -0.22998473 0 26
4.5064702 0.52881074 -0.18790667 0 27
4.5161238 0.52994359 -0.14642966 0 28
4.5114741 0.52939796 -0.10446724 0 29
4.5086331 0.5290646 -0.062633805 0 30
4.5111055 0.52935469 -0.020888206 0 31
4.5122509 0.5294891 0.02089351 0 32
4.5109277 0.52933389 0.062665686 0 33
4.5093665 0.52915066 0.10441844 0 34
4.5113864 0.52938765 0.14627604 0 35
4.5089893 0.52910638 0.18801172 0 36
4.5146952 0.52977592 0.23014784 0 37
4.5083609 0.52903265 0.27170333 0 38
4.5023198 0.52832371 0.31320763 0 39
4.5037456 0.52849108 0.35524172 0 40
4.4996705 0.52801287 0.39687765 0 41
4.5175543 0.53011143 0.4406471 0 42
4.5128632 0.52956098 0.48241293 0 43
4.5113444 0.52938277 0.52454233 0 44
4.5095606 0.52917343 0.56669986 0 45
4.5021143 0.52829963 0.60815626 0 46
4.5129991 0.5295769 0.65222633 0 47
4.5068421 0.52885443 0.69399053 0 48
4.5219522 0.53062755 0.73923492 0 49
4.5166717 0.53000784 0.78136736 0 50
4.5009394 0.52816176 0.82162732 0 51
4.5155244 0.52987325 0.86755472 0 52
4.4998331 0.52803195 0.90780616 0 53
4.5237136 0.5308342 0.95628035 0 54
4.5101361 0.52924097 0.99710399 0 55
4.5042591 0.52855128 1.0396183 0 56
4.5153823 0.52985656 1.0862929 0 57
4.4972353 0.52772713 1.1260507 0 58
4.5112228 0.52936852 1.1740168 0 59
4.5020947 0.52829731 1.2162266 0 60
4.5006695 0.52813011 1.2606332 0 61
4.5196853 0.53036153 1.3111713 0 62
4.5153775 0.52985603 1.3553302 0 63
2.4406788 0.31686988 -0.73370528 0 0
2.5371931 0.32940018 -0.73716491 0 1
2.6130502 0.33924863 -0.73302591 0 2
2.7066967 0.35140663 -0.73231751 0 3
2.832962 0.36779946 -0.73838133 0 4
2.9320602 0.38066524 -0.73526716 0 5
3.0590563 0.39715296 -0.73705482 0 6
3.1624966 0.41058245 -0.73103899 0 7
3.3026726 0.42878133 -0.73126751 0 8
3.4700022 0.4505055 -0.73464888 0 9
3.6507146 0.47396713 -0.73762321 0 10
3.809082 0.49452773 -0.73294091 0 11
4.027698 0.52291036 -0.73635727 0 12
4.2540436 0.55229646 -0.7370528 0 13
4.4766769 0.58120066 -0.73294634 0 14
4.5126214 0.58586729 -0.69593716 0 15
4.5007167 0.58432168 -0.65144038 0 16
4.5260234 0.58760726 -0.61231571 0 17
4.4869204 0.5825305 -0.56471217 0 18
4.5076556 0.58522254 -0.52491045 0 19
4.5077343 0.58523279 -0.48259747 0 20
4.5031147 0.58463299 -0.43990657 0 21
4.5232506 0.58724725 -0.39956415 0 22
4.5024791 0.5845505 -0.35568187 0 23
4.5196619 0.58678132 -0.3148922 0 24
4.5070109 0.58513892 -0.27203506 0 25
4.4935946 0.58339703 -0.22942053 0 26
4.5076265 0.58521879 -0.18824071 0 27
4.5040212 0.58475071 -0.14625932 0 28
4.4999399 0.58422083 -0.10435861 0 29
4.5138988 0.58603311 -0.062802315 0 30
4.5145435 0.58611679 -0.020935914 0 31
4.5133781 0.58596551 0.02093051 0 32
4.5052962 0.58491623 0.062682629 0 33
4.5130587 0.58592403 0.10466285 0 34
4.5121074 0.58580053 0.1465219 0 35
4.5004921 0.58429253 0.18794277 0 36
4.4994087 0.58415192 0.22971737 0 37
4.4999433 0.58422124 0.27160844 0 38
4.5113792 0.585706 0.31431511 0 39
4.5070438 0.58514315 0.3560425 0 40
4.4959831 0.58370715 0.39715546 0 41
4.5140638 0.58605456 0.4409762 0 42
4.5172515 0.58646834 0.48361635 0 43
4.4985542 0.58404094 0.52385062 0 44
4.5184274 0.58662105 0.5686776 0 45
4.5095806 0.58547252 0.61009121 0 46
4.5129161 0.58590549 0.65320611 0 47
4.5103183 0.58556831 0.69558203 0 48
4.5028968 0.58460474 0.73723924 0 49
4.5065007 0.58507264 0.78079337 0 50
4.4981194 0.58398449 0.82236129 0 51
4.4971523 0.58385891 0.86533886 0 52
4.4868474 0.58252108 0.90656298 0 53
4.5235734 0.58728915 0.9577049 0 54
4.499258 0.58413231 0.99621171 0 55
4.5034299 0.584674 1.0410076 0 56
4.5189176 0.5866847 1.0887966 0 57
4.5006061 0.58430731 1.1286085 0 58
4.5034137 0.58467185 1.1737667 0 59
4.5187798 0.58666676 1.2225903 0 60
4.5010681 0.58436733 1.2626621 0 61
4.5009713 0.58435476 1.3077279 0 62
4.5022941 0.58452648 1.3534582 0 63
2.4406698 0.347435 -0.73493123 0 0
2.5274563 0.35978925 -0.73556578 0 1
2.6179016 0.37266433 -0.73561668 0 2
2.7173181 0.38681653 -0.73642236 0 3
2.8171105 0.40102223 -0.73547953 0 4
2.9275999 0.41675061 -0.73537815 0 5
3.0369897 0.4323225 -0.73296356 0 6
3.1763258 0.45215732 -0.73546535 0 7
3.3077838 0.47087067 -0.73362577 0 8
3.4659956 0.4933925 -0.73502952 0 9
3.6189535 0.5151664 -0.73243046 0 10
3.8239639 0.54435015 -0.73703671 0 11
4.0226779 0.5726375 -0.73667109 0 12
4.2132487 0.59976572 -0.73120725 0 13
4.4867134 0.63869405 -0.73581976 0 14
4.5064621 0.64150536 -0.6961512 0 15
4.5133586 0.64248705 -0.65436423 0 16
4.5151358 0.64274001 -0.6118657 0 17
4.5280614 0.64458001 -0.57084447 0 18
4.5119457 0.64228594 -0.52628994 0 19
4.5085592 0.64180386 -0.48349413 0 20
4.5113707 0.64220405 -0.44145116 0 21
4.509387 0.64192164 -0.39900658 0 22
4.5065732 0.6415211 -0.35660148 0 23
4.5093422 0.64191532 -0.31469932 0 24
4.5114965 0.64222199 -0.27276182 0 25
4.5122781 0.64233327 -0.23076023 0 26
4.5300965 0.64486974 -0.18949591 0 27
4.5090203 0.64186949 -0.14666687 0 28
4.5144591 0.64264369 -0.10487066 0 29
4.5101461 0.64202976 -0.062855192 0 30
4.5147142 0.64267999 -0.020971768 0 31
4.527204 0.644458 0.021029787 0 32
4.5210996 0.64358902 0.063007846 0 33
4.5101728 0.64203358 0.10477109 0 34
4.51156 0.64223099 0.14674948 0 35
4.5131283 0.64245433 0.18878612 0 36
4.4915156 0.63937765 0.22969843 0 37
4.4971662 0.64018202 0.27189541 0 38
4.5120864 0.64230591 0.31489083 0 39
4.5118551 0.64227301 0.35701945 0 40
4.5211482 0.64359593 0.40004727 0 41
4.5136337 0.64252621 0.44167262 0 42
4.5127296 0.64239752 0.48394135 0 43
4.5081873 0.64175087 0.52585155 0 44
4.4973245 0.64020455 0.56696951 0 45
4.5106816 0.642106 0.61126214 0 46
4.5048609 0.64127737 0.6531322 0 47
4.5139995 0.64257824 0.69731551 0 48
4.517005 0.64300609 0.74078757 0 49
4.5005369 0.64066184 0.781066 0 50
4.5104604 0.64207447 0.82599843 0 51
4.5199752 0.64342892 0.87118697 0 52
4.5004458 0.6406489 0.91083336 0 53
4.516777 0.64297366 0.95786744 0 54
4.5125222 0.64236802 1.0008219 0 55
4.512845 0.64241397 1.0449311 0 56
4.52811 0.64458692 1.0928386 0 57
4.5251007 0.64415854 1.1366513 0 58
4.5105867 0.64209247 1.1776053 0 59
4.5138655 0.64255923 1.2233061 0 60
4.5143256 0.64262474 1.268502 0 61
4.5096588 0.64196038 1.3124464 0 62
4.5132451 0.6424709 1.3590224 0 63
2.4501243 0.37957317 -0.73912776 0 0
2.5207963 0.39052165 -0.7349695 0 1
2.6155462 0.4052003 -0.73629922 0 2
2.7071321 0.4193888 -0.73500389 0 3
2.7988377 0.43359584 -0.73204553 0 4
2.9215674 0.45260912 -0.73520529 0 5
3.0323842 0.46977684 -0.73319072 0 6
3.1668847 0.49061367 -0.73462063 0 7
3.3128061 0.51321977 -0.73608369 0 8
3.4425037 0.53331256 -0.73138309 0 9
3.6130753 0.5597375 -0.7325784 0 10
3.8032463 0.58919877 -0.73438448 0 11
4.0248337 0.62352711 -0.73841417 0 12
4.2209315 0.65390652 -0.73388058 0 13
4.4847975 0.6947847 -0.73685104 0 14
4.5050578 0.69792342 -0.69720727 0 15
4.5072455 0.69826233 -0.65467334 0 16
4.5012183 0.69732857 -0.61109549 0 17
4.4955335 0.69644785 -0.56778044 0 18
4.5129132 0.69914037 -0.52736574 0 19
4.4955502 0.69645047 -0.48298091 0 20
4.512557 0.69908518 -0.442375 0 21
4.5106115 0.69878376 -0.39984503 0 22
4.5043859 0.69781935 -0.35708043 0 23
4.5047688 0.6978786 -0.31495523 0 24
4.5093613 0.69859004 -0.27313143 0 25
4.507791 0.69834679 -0.23095246 0 26
4.5146751 0.6994133 -0.18919626 0 27
4.5083103 0.69842732 -0.14691202 0 28
4.5161419 0.69964051 -0.10510166 0 29
4.510788 0.69881111 -0.062979132 0 30
4.5036311 0.69770235 -0.020958554 0 31
4.5164614 0.69968998 0.021018261 0 32
4.5168095 0.69974399 0.063063204 0 33
4.518199 0.69995922 0.10514953 0 34
4.507061 0.69823372 0.14687131 0 35
4.5016232 0.69739127 0.18864928 0 36
4.5041442 0.69778186 0.23076563 0 37
4.507514 0.69830388 0.27301952 0 38
4.5105696 0.69877726 0.31536078 0 39
4.5086231 0.69847572 0.35741633 0 40
4.507205 0.69825602 0.39954305 0 41
4.5092387 0.69857109 0.44204968 0 42
4.5200634 0.70024806 0.48561454 0 43
4.5110006 0.69884408 0.52714223 0 44
4.4930787 0.69606757 0.56747043 0 45
4.515398 0.6995253 0.6130206 0 46
4.5256958 0.70112062 0.65735316 0 47
4.5085249 0.69846046 0.69774383 0 48
4.507339 0.69827682 0.74055457 0 49
4.4963975 0.69658172 0.781775 0 50
4.4895535 0.69552141 0.82367373 0 51
4.4987617 0.69694799 0.86868441 0 52
4.5218272 0.70052129 0.91683477 0 53
4.5102577 0.69872898 0.95823461 0 54
4.4930835 0.69606835 0.99833351 0 55
4.5184021 0.69999069 1.0481315 0 56
4.5128245 0.6991266 1.0911418 0 57
4.5011048 0.69731098 1.132692 0 58
4.5108132 0.69881499 1.1798185 0 59
4.5145264 0.69939029 1.2257231 0 60
4.5136495 0.69925439 1.270632 0 61
4.5132074 0.69918591 1.3158817 0 62
4.5050249 0.6979183 1.3590287 0 63
2.4188921 0.40525052 -0.73115396 0 0
2.5088737 0.42032564 -0.73294485 0 1
2.605932 0.43658635 -0.73504847 0 2
2.6994057 0.45224652 -0.73436046 0 3
2.8127909 0.47124258 -0.7371549 0 4
2.8987417 0.4856424 -0.73090875 0 5
3.0431893 0.50984246 -0.73726338 0 6
3.1708777 0.53123486 -0.73700649 0 7
3.298382 0.55259633 -0.73433304 0 8
3.4387698 0.57611632 -0.73203951 0 9
3.6221638 0.60684133 -0.73587847 0 10
3.80231 0.63702226 -0.73566061 0 11
3.9824314 0.66719896 -0.73208469 0 12
4.2124219 0.70573056 -0.73385441 0 13
4.4722672 0.74926388 -0.73625028 0 14
4.5078721 0.755229 -0.69902718 0 15
4.5090199 0.75542122 -0.65623057 0 16
4.5153046 0.7564742 -0.61422431 0 17
4.5046086 0.75468224 -0.5700556 0 18
4.517622 0.75686246 -0.52896351 0 19
4.5079422 0.75524074 -0.4852733 0 20
4.5000648 0.75392103 -0.44202575 0 21
4.5108237 0.75572348 -0.4006573 0 22
4.5029407 0.75440276 -0.35767418 0 23
4.5044661 0.75465834 -0.315559 0 24
4.5100994 0.75560212 -0.27371821 0 25
4.5049562 0.75474048 -0.23126522 0 26
4.5143309 0.75631106 -0.18955724 0 27
4.5125785 0.75601745 -0.14734291 0 28
4.5176611 0.75686902 -0.10534564 0 29
4.5068059 0.75505036 -0.0630484 0 30
4.4967289 0.75336212 -0.020967958 0 31
4.5127273 0.75604236 0.021042557 0 32
4.5055556 0.75484091 0.063030906 0 33
4.5162053 0.75662512 0.10531169 0 34
4.5127559 0.75604713 0.1473487 0 35
4.4962158 0.75327611 0.18879658 0 36
4.5027661 0.75437361 0.2311528 0 37
4.5105767 0.75568211 0.27374718 0 38
4.5248899 0.75808007 0.31698978 0 39
4.5111556 0.75577915 0.35832673 0 40
4.5031686 0.75444102 0.39997739 0 41
4.5204844 0.75734204 0.44403151 0 42
4.5139294 0.75624382 0.48591784 0 43
4.5215106 0.75751394 0.52941889 0 44
4.5139847 0.75625306 0.57124209 0 45
4.5212526 0.75747073 0.61503345 0 46
4.5125084 0.7560057 0.65673828 0 47
4.5145221 0.75634313 0.7000584 0 48
4.5020432 0.75425243 0.74115229 0 49
4.5105562 0.75567865 0.78579295 0 50
4.5176702 0.75687057 0.83047688 0 51
4.5083299 0.75530571 0.87225944 0 52
4.5172038 0.75679237 0.91771477 0 53
4.5026054 0.75434667 0.95850706 0 54
4.4954476 0.75314748 1.0008409 0 55
4.4993401 0.75379962 1.0457808 0 56
4.5042367 0.75461996 1.0912266 0 57
4.508956 0.75541061 1.1369193 0 58
4.5198512 0.75723588 1.1845284 0 59
4.5229878 0.75776136 1.2304573 0 60
4.5049405 0.75473785 1.270697 0 61
4.5122042 0.7559548 1.3181999 0 62
4.5134349 0.75616097 1.3642676 0 63
2.4202509 0.43613717 -0.73313028 0 0
2.5192592 0.45397881 -0.73755401 0 1
2.6163871 0.47148156 -0.73957694 0 2
2.6969843 0.48600546 -0.73527193 0 3
2.7890913 0.50260341 -0.73250818 0 4
2.9100761 0.5244053 -0.73533702 0 5
3.0143993 0.54320467 -0.73185146 0 6
3.133981 0.56475371 -0.72998953 0 7
3.2953525 0.59383333 -0.73522866 0 8
3.4465983 0.62108833 -0.73527622 0 9
3.6195872 0.65226156 -0.73692882 0 10
3.7677281 0.67895699 -0.73052984 0 11
3.9976113 0.72038269 -0.73644787 0 12
4.2173839 0.75998646 -0.73629117 0 13
4.4233036 0.79709381 -0.72974807 0 14
4.5233245 0.81511801 -0.70292449 0 15
4.508132 0.81238025 -0.65750557 0 16
4.5115809 0.81300175 -0.61503118 0 17
4.5172429 0.814022 -0.57287782 0 18
4.4982147 0.81059307 -0.52781832 0 19
4.4978943 0.81053537 -0.48522788 0 20
4.5016308 0.81120867 -0.44312587 0 21
4.5104656 0.81280077 -0.40148288 0 22
4.5035915 0.811562 -0.35849145 0 23
4.5018167 0.81124216 -0.31604832 0 24
4.5099249 0.81270331 -0.27429339 0 25
4.5123887 0.81314731 -0.23214251 0 26
4.5118003 0.81304127 -0.18985641 0 27
4.4860749 0.80840546 -0.14679101 0 28
4.5183964 0.81422997 -0.10558828 0 29
4.4953909 0.81008428 -0.063023299 0 30
4.5177464 0.81411278 -0.021111045 0 31
4.511755 0.81303316 0.021083049 0 32
4.5195279 0.81443381 0.063361682 0 33
4.4864774 0.808478 0.10484238 0 34
4.5062628 0.81204343 0.14745158 0 35
4.5039778 0.81163162 0.18952724 0 36
4.5141697 0.81346822 0.23223414 0 37
4.5072565 0.81222248 0.27413109 0 38
4.5203271 0.81457782 0.31734785 0 39
4.5120463 0.81308562 0.35916448 0 40
4.5224886 0.81496733 0.40255305 0 41
4.5189643 0.81433231 0.44483215 0 42
4.5067964 0.81213957 0.48618823 0 43
4.5026231 0.81138754 0.52833563 0 44
4.50102 0.81109864 0.57082045 0 45
4.4956784 0.81013602 0.6128633 0 46
4.5148301 0.81358725 0.65848243 0 47
4.5159297 0.81378543 0.70177531 0 48
4.5069337 0.81216425 0.74354517 0 49
4.5082626 0.8124038 0.78707427 0 50
4.4890523 0.80894202 0.82698214 0 51
4.5053658 0.81188172 0.87355143 0 52
4.5017595 0.81123191 0.91653436 0 53
4.5120249 0.81308174 0.96256787 0 54
4.5171227 0.81400037 1.0078187 0 55
4.4954195 0.81008941 1.0471057 0 56
4.5078731 0.81233358 1.0944446 0 57
4.5063996 0.81206799 1.1387064 0 58
4.5171356 0.81400269 1.1863501 0 59
4.5115552 0.8129971 1.2299738 0 60
4.5155706 0.81372064 1.2764211 0 61
4.5038657 0.81161141 1.3185797 0 62
4.5174751 0.81406391 1.3684111 0 63
2.4104989 0.46505094 -0.73185313 0 0
2.5112731 0.48449305 -0.73690438 0 1
2.6026793 0.50212783 -0.73739171 0 2
2.670557 0.51522326 -0.72973919 0 3
2.7813349 0.53659534 -0.73214871 0 4
2.8938458 0.55830175 -0.73291516 0 5
3.0181882 0.58229083 -0.73445421 0 6
3.1430874 0.60638726 -0.73379195 0 7
3.293678 0.63544029 -0.7365427 0 8
3.4417655 0.66401041 -0.73593146 0 9
3.5893517 0.69248378 -0.73245126 0 10
3.7862895 0.73047847 -0.73581469 0 11
4.0000577 0.77172017 -0.7385909 0 12
4.2089238 0.81201619 -0.73650175 0 13
4.4272308 0.85413355 -0.73207337 0 14
4.5069561 0.8695147 -0.70198929 0 15
4.5063829 0.86940414 -0.65875983 0 16
4.5063424 0.86939633 -0.6157279 0 17
4.5074563 0.8696112 -0.57294947 0 18
4.5193129 0.87189865 -0.53151178 0 19
4.5213852 0.87229848 -0.48888224 0 20
4.5115771 0.87040621 -0.44512486 0 21
4.4976635 0.86772197 -0.40126276 0 22
4.5191154 0.87186056 -0.36055329 0 23
4.5202079 0.87207133 -0.31806827 0 24
4.5031652 0.86878335 -0.27451125 0 25
4.523675 0.87274021 -0.23325759 0 26
4.5047069 0.86908072 -0.18999325 0 27
4.5110369 0.87030196 -0.14794677 0 28
4.500185 0.86820835 -0.10540421 0 29
4.5172334 0.87149745 -0.063474953 0 30
4.511394 0.87037092 -0.021129776 0 31
4.5029716 0.86874598 0.021090329 0 32
4.517077 0.87146729 0.063472755 0 33
4.5092125 0.86995 0.10561566 0 34
4.4973216 0.86765593 0.14749697 0 35
4.5162263 0.8713032 0.19047911 0 36
4.5227728 0.87256616 0.23321107 0 37
4.5019836 0.86855537 0.27443922 0 38
4.5270782 0.87339681 0.31855172 0 39
4.5058837 0.86930782 0.35949764 0 40
4.5060897 0.86934757 0.40201449 0 41
4.5087538 0.86986148 0.4448463 0 42
4.5006313 0.86829454 0.48663819 0 43
4.5220222 0.87242138 0.53183049 0 44
4.5094981 0.87000507 0.57320899 0 45
4.5129743 0.8706758 0.61663407 0 46
4.4983902 0.86786211 0.6575914 0 47
4.5190024 0.87183875 0.70386559 0 48
4.5021129 0.86858034 0.74445564 0 49
4.5114136 0.87037474 0.78943318 0 50
4.5077772 0.86967313 0.83233881 0 51
4.5122509 0.87053621 0.87689561 0 52
4.5018382 0.86852729 0.91865528 0 53
4.503006 0.86875266 0.96285003 0 54
4.5173998 0.87152952 1.0101951 0 55
4.5252223 0.87303871 1.0564681 0 56
4.5124388 0.87057245 1.0980692 0 57
4.5177712 0.87160122 1.1442016 0 58
4.5022764 0.86861181 1.1851631 0 59
4.5086699 0.86984533 1.23201 0 60
4.5144491 0.87096035 1.2790349 0 61
4.5131664 0.87071288 1.324337 0 62
4.5161538 0.87128919 1.3711524 0 63
2.4273181 0.49932787 -0.73876798 0 0
2.4950492 0.51326096 -0.73394012 0 1
2.5867155 0.53211778 -0.73466712 0 2
2.6657262 0.5483712 -0.73020649 0 3
2.7747324 0.57079506 -0.73220289 0 4
2.8986025 0.59627658 -0.7359212 0 5
3.0153215 0.62028706 -0.73555702 0 6
3.1597667 0.65000111 -0.73949605 0 7
3.278718 0.67447084 -0.73499638 0 8
3.4170432 0.70292598 -0.73243809 0 9
3.5874748 0.73798573 -0.73386461 0 10
3.7775381 0.77708393 -0.7359153 0 11
3.9876053 0.82029724 -0.73809826 0 12
4.1763291 0.85911995 -0.73259133 0 13
4.452199 0.91586959 -0.73800844 0 14
4.5216217 0.93015075 -0.70600164 0 15
4.507966 0.92734164 -0.66060829 0 16
4.5068593 0.92711389 -0.61730951 0 17
4.5163107 0.92905819 -0.57548362 0 18
4.5238967 0.9306187 -0.53335643 0 19
4.5182271 0.92945236 -0.48973948 0 20
4.5003238 0.92576951 -0.44510412 0 21
4.5037179 0.92646772 -0.40278882 0 22
4.5049496 0.9267211 -0.36030504 0 23
4.5070939 0.92716217 -0.31792369 0 24
4.5151701 0.92882359 -0.27591845 0 25
4.5109611 0.92795765 -0.23317277 0 26
4.5076051 0.92726737 -0.19058199 0 27
4.5000415 0.92571145 -0.14794832 0 28
4.5145082 0.92868739 -0.10599915 0 29
4.5124445 0.92826289 -0.06356325 0 30
4.5030417 0.92632866 -0.021142408 0 31
4.5221629 0.93026209 0.021232184 0 32
4.5162935 0.92905468 0.063617468 0 33
4.4842339 0.92245954 0.10528832 0 34
4.505897 0.926916 0.14814083 0 35
4.5174856 0.92929983 0.19099973 0 36
4.5151925 0.92882818 0.23339151 0 37
4.5144563 0.92867666 0.27587479 0 38
4.5070314 0.9271493 0.31791928 0 39
4.5168171 0.92916238 0.36125422 0 40
4.5128894 0.92835438 0.40360907 0 41
4.5180664 0.92941934 0.44685891 0 42
4.5129814 0.92837328 0.48917091 0 43
4.5077929 0.92730594 0.53145784 0 44
4.5111284 0.92799217 0.57482332 0 45
4.4932537 0.92431509 0.61544591 0 46
4.5078588 0.92731947 0.6605925 0 47
4.5103025 0.92782229 0.70423436 0 48
4.4958873 0.92485684 0.74525034 0 49
4.5152025 0.92883015 0.7920348 0 50
4.5081325 0.92737579 0.83444685 0 51
4.5077829 0.92730391 0.87817687 0 52
4.4978967 0.92527014 0.92010313 0 53
4.5129185 0.92836034 0.96733725 0 54
4.4997911 0.92565989 1.0087266 0 55
4.5133648 0.92845219 1.0562854 0 56
4.5179739 0.92940032 1.1021137 0 57
4.5134254 0.92846465 1.1459059 0 58
4.4991708 0.92553228 1.1872517 0 59
4.4998574 0.92567354 1.2326192 0 60
4.5029616 0.92631215 1.2789106 0 61
4.5059705 0.92693102 1.3254699 0 62
4.5044165 0.92661136 1.3709445 0 63
2.4189415 0.52868646 -0.7381413 0 0
2.4948852 0.54528481 -0.73580867 0 1
2.6052413 0.56940436 -0.74186122 0 2
2.6856728 0.58698356 -0.73759174 0 3
2.7909658 0.6099965 -0.73841012 0 4
2.8890784 0.63144004 -0.73541886 0 5
2.9963367 0.65488261 -0.73283488 0 6
3.1267462 0.68338501 -0.73367923 0 7
3.2612369 0.71277946 -0.73298699 0 8
3.4160047 0.74660569 -0.73412782 0 9
3.5978675 0.78635377 -0.73791271 0 10
3.7772684 0.82556385 -0.73778468 0 11
3.9382849 0.8607558 -0.73087305 0 12
4.1833873 0.91432565 -0.73574603 0 13
4.4505849 0.97272462 -0.73966771 0 14
4.5099916 0.98570859 -0.70602489 0 15
4.5064564 0.984936 -0.66211182 0 16
4.5198698 0.98786765 -0.62070853 0 17
4.5183096 0.9875266 -0.57724202 0 18
4.5103612 0.98578942 -0.53314948 0 19
4.5079165 0.98525506 -0.48989806 0 20
4.5150828 0.98682141 -0.44773015 0 21
4.5117126 0.98608476 -0.40455768 0 22
4.5155101 0.98691475 -0.36209288 0 23
4.4963293 0.98272252 -0.31799272 0 24
4.5048547 0.98458588 -0.27600706 0 25
4.4999995 0.9835248 -0.23321369 0 26
4.5076647 0.98520005 -0.19108227 0 27
4.4922242 0.98182535 -0.14807703 0 28
4.5130935 0.98638654 -0.10624269 0 29
4.5002065 0.98356998 -0.063556418 0 30
4.5084052 0.98536187 -0.021222873 0 31
4.5266013 0.98933887 0.02130853 0 32
4.5007181 0.9836818 0.063563645 0 33
4.511446 0.98602647 0.10620391 0 34
4.5134869 0.98647249 0.1487779 0 35
4.5067625 0.98500288 0.19104403 0 36
4.5146222 0.98672062 0.23397149 0 37
4.5022683 0.98402065 0.2758486 0 38
4.5092373 0.98554373 0.31890562 0 39
4.4954958 0.98254037 0.36048797 0 40
4.4984312 0.98318195 0.40336674 0 41
4.5015965 0.98387378 0.4463928 0 42
4.5172429 0.98729342 0.4909116 0 43
4.5163121 0.98709011 0.53385288 0 44
4.5036278 0.98431778 0.57536632 0 45
4.5159845 0.98701841 0.62017488 0 46
4.5107279 0.98586953 0.6627394 0 47
4.5213561 0.98819244 0.70780396 0 48
4.5196495 0.98781943 0.75114596 0 49
4.5070405 0.98506361 0.79266793 0 50
4.5136733 0.98651338 0.83765459 0 51
4.50946 0.98559237 0.88079792 0 52
4.4940815 0.98223132 0.92172378 0 53
4.5206709 0.98804271 0.97152978 0 54
4.4893394 0.98119485 1.009012 0 55
4.5079188 0.9852556 1.0577663 0 56
4.5016704 0.98388988 1.1010047 0 57
4.5080485 0.98528391 1.1475298 0 58
4.5113959 0.98601556 1.1935869 0 59
4.5175352 0.98735738 1.2406934 0 60
4.5104046 0.98579884 1.2843702 0 61
4.5149508 0.98679256 1.3315803 0 62
4.5190678 0.9876923 1.378996 0 63
2.3977637 0.5550335 -0.73370606 0 0
2.480592 0.57420659 -0.73362017 0 1
2.5752907 0.59612745 -0.73536432 0 2
2.6606722 0.61589146 -0.73275012 0 3
2.7645457 0.63993609 -0.73344654 0 4
2.8799148 0.66664165 -0.73511732 0 5
3.0043492 0.69544572 -0.73683035 0 6
3.1302691 0.72459358 -0.73654091 0 7
3.2686558 0.75662732 -0.73668981 0 8
3.4143639 0.7903558 -0.73580819 0 9
3.5481381 0.82132179 -0.72972953 0 10
3.7403429 0.86581326 -0.7325964 0 11
3.9413869 0.91235089 -0.73347527 0 12
4.1726418 0.96588165 -0.73588932 0 13
4.3981695 1.0180868 -0.73298168 0 14
4.5125542 1.0445645 -0.70838326 0 15
4.5195708 1.0461887 -0.66587842 0 16
4.5180693 1.0458411 -0.62218022 0 17
4.5065432 1.043173 -0.57733387 0 18
4.5132518 1.044726 -0.53496921 0 19
4.5169201 1.0455751 -0.49223655 0 20
4.4945345 1.0403934 -0.44692734 0 21
4.510314 1.0440459 -0.40555277 0 22
4.5037413 1.0425245 -0.36214975 0 23
4.5161271 1.0453916 -0.32027778 0 24
4.509656 1.0438936 -0.27706674 0 25
4.5090427 1.0437517 -0.23432979 0 26
4.5129004 1.0446446 -0.19183423 0 27
4.506578 1.0431812 -0.14896175 0 28
4.5145974 1.0450374 -0.10657255 0 29
4.5184088 1.0459197 -0.063990287 0 30
4.5078759 1.0434816 -0.021279177 0 31
4.4937906 1.0402211 0.021212686 0 32
4.5155935 1.0452681 0.063950419 0 33
4.5028925 1.042328 0.10629624 0 34
4.5094795 1.0438528 0.14905766 0 35
4.5223217 1.0468255 0.19223471 0 36
4.5159178 1.0453432 0.23468706 0 37
4.5121541 1.0444719 0.27722019 0 38
4.4988203 1.0413854 0.31905043 0 39
4.5116711 1.04436 0.3627874 0 40
4.5064054 1.0431411 0.40520132 0 41
4.5085464 1.0436367 0.44832063 0 42
4.5253611 1.047529 0.4931564 0 43
4.4899087 1.0393225 0.53220224 0 44
4.5097394 1.043913 0.57774341 0 45
4.5118022 1.0443904 0.62131721 0 46
4.5066347 1.0431943 0.6639725 0 47
4.5043721 1.0426706 0.70709884 0 48
4.5059047 1.0430253 0.75093639 0 49
4.5097528 1.043916 0.79534245 0 50
4.5097251 1.0439095 0.83924055 0 51
4.5104322 1.0440732 0.88342869 0 52
4.5101237 1.0440019 0.92757684 0 53
4.5098596 1.0439408 0.97189158 0 54
4.5174651 1.0457013 1.0181465 0 55
4.5005126 1.0417771 1.0589542 0 56
4.5051785 1.0428572 1.1049155 0 57
4.4983487 1.0412762 1.1482333 0 58
4.5038176 1.0425422 1.1948833 0 59
4.5077167 1.0434448 1.2414268 0 60
4.5034404 1.0424548 1.2859399 0 61
4.501183 1.0419322 1.3311976 0 62
4.4982142 1.0412451 1.3764355 0 63
2.4053473 0.58803999 -0.73818338 0 0
2.480845 0.60649711 -0.73584485 0 1
2.5657849 0.62726253 -0.73479688 0 2
2.6596177 0.65020204 -0.73460603 0 3
2.7718153 0.6776312 -0.73753005 0 4
2.8841867 0.70510286 -0.73836505 0 5
2.9979358 0.73291135 -0.73741198 0 6
3.0822921 0.75353408 -0.7273773 0 7
3.2333119 0.79045421 -0.73085946 0 8
3.394273 0.82980466 -0.73362195 0 9
3.5627978 0.87100422 -0.73489171 0 10
3.7559037 0.91821325 -0.73779982 0 11
3.9519072 0.96613055 -0.73758805 0 12
4.1346555 1.0108074 -0.73132682 0 13
4.389204 1.0730374 -0.73363101 0 14
4.5179181 1.1045045 -0.71130353 0 15
4.5108128 1.1027673 -0.6665355 0 16
4.5035505 1.100992 -0.62199819 0 17
4.5090618 1.1023393 -0.57934928 0 18
4.4997268 1.1000571 -0.53492898 0 19
4.5180449 1.1045355 -0.49380192 0 20
4.5045218 1.1012294 -0.449233 0 21
4.5049601 1.1013366 -0.40625834 0 22
4.5147858 1.1037385 -0.36410165 0 23
4.5151062 1.1038171 -0.32114372 0 24
4.5067773 1.1017808 -0.27770123 0 25
4.5138426 1.1035081 -0.23526663 0 26
4.51232 1.1031358 -0.19237162 0 27
4.5156488 1.1039497 -0.14969896 0 28
4.5125456 1.1031909 -0.10683626 0 29
4.5125542 1.103193 -0.064094648 0 30
4.5057888 1.1015391 -0.021331649 0 31
4.5203662 1.1051029 0.021400662 0 32
4.5208893 1.1052307 0.06421303 0 33
4.5044641 1.1012154 0.10664493 0 34
4.5023718 1.1007038 0.14925882 0 35
4.5119138 1.1030365 0.19235429 0 36
4.5130429 1.1033125 0.23522492 0 37
4.4940968 1.0986809 0.2769199 0 38
4.5215836 1.1054006 0.3216044 0 39
4.5184636 1.1046377 0.36439827 0 40
4.5060353 1.1015995 0.40635532 0 41
4.5120025 1.1030582 0.44997904 0 42
4.5024505 1.100723 0.4920975 0 43
4.4978023 1.0995866 0.53470016 0 44
4.5186667 1.1046875 0.58058339 0 45
4.5091681 1.1023653 0.62277406 0 46
4.5148311 1.1037498 0.66712928 0 47
4.5219502 1.1054902 0.71193838 0 48
4.5071797 1.1018791 0.75334996 0 49
4.5041056 1.1011277 0.79667419 0 50
4.51161 1.1029623 0.84205163 0 51
4.495605 1.0990496 0.88310486 0 52
4.5035563 1.1009933 0.92894018 0 53
4.4896398 1.0975912 0.97036934 0 54
4.4974585 1.0995027 1.0166078 0 55
4.5149302 1.103774 1.0654596 0 56
4.5068374 1.1017956 1.1085614 0 57
4.5079684 1.102072 1.1540607 0 58
4.5105824 1.1027111 1.2001847 0 59
4.5040455 1.101113 1.2440505 0 60
4.5049129 1.101325 1.29013 0 61
4.510035 1.1025773 1.3377242 0 62
4.5191493 1.1048054 1.3868937 0 63
2.3916392 0.61594909 -0.73624521 0 0
2.4621437 0.63410705 -0.73255527 0 1
2.5620065 0.65982604 -0.73598278 0 2
2.6470764 0.68173516 -0.73340201 0 3
2.7535608 0.70915937 -0.73493761 0 4
2.8493047 0.73381752 -0.73168981 0 5
2.9728475 0.76563507 -0.7335012 0 6
3.1063635 0.80002117 -0.73532379 0 7
3.2575073 0.83894718 -0.73860461 0 8
3.4070027 0.87744856 -0.73864949 0 9
3.5714326 0.91979629 -0.73894989 0 10
3.7543707 0.96691066 -0.7397784 0 11
3.9059291 1.0059434 -0.73126006 0 12
4.1455288 1.0676506 -0.73551655 0 13
4.3765645 1.1271522 -0.73377955 0 14
4.5314016 1.1670293 -0.71563166 0 15
4.5077868 1.1609474 -0.66814727 0 16
4.5127783 1.1622329 -0.6251992 0 17
4.5110898 1.1617981 -0.58140147 0 18
4.5131378 1.1623256 -0.53818172 0 19
4.5177364 1.16351 -0.49529445 0 20
4.5154519 1.1629215 -0.45171499 0 21
4.5210824 1.1643717 -0.40897253 0 22
4.5054049 1.160334 -0.36446825 0 23
4.5111938 1.1618248 -0.32185721 0 24
4.5066442 1.1606531 -0.2785514 0 25
4.5100636 1.1615338 -0.23579626 0 26
4.5069156 1.160723 -0.19273514 0 27
4.5169201 1.1632997 -0.15020396 0 28
4.503304 1.1597929 -0.10694702 0 29
4.5010581 1.1592145 -0.06412898 0 30
4.5192523 1.1639004 -0.021461522 0 31
4.5040736 1.1599911 0.02138944 0 32
4.5154653 1.162925 0.064334244 0 33
4.5095034 1.1613896 0.10709425 0 34
4.5211287 1.1643835 0.15034391 0 35
4.5232248 1.1649234 0.19343258 0 36
4.5057273 1.1604171 0.23556955 0 37
4.5075169 1.1608778 0.27860531 0 38
4.5125952 1.1621858 0.3219572 0 39
4.5031652 1.1597573 0.36428708 0 40
4.5071874 1.1607931 0.40771559 0 41
4.4974566 1.158287 0.44991481 0 42
4.5082912 1.1610774 0.49425894 0 43
4.5203586 1.1641852 0.53904271 0 44
4.5139565 1.1625365 0.58177096 0 45
4.5193181 1.1639173 0.62610531 0 46
4.5117087 1.1619575 0.66872859 0 47
4.5068145 1.1606971 0.71174866 0 48
4.5112538 1.1618403 0.75636172 0 49
4.5023661 1.1595514 0.79882812 0 50
4.5117397 1.1619655 0.8446787 0 51
4.5012178 1.1592556 0.88694054 0 52
4.4975276 1.1583053 0.93056422 0 53
4.5184383 1.1636907 0.97961241 0 54
4.4991622 1.1587262 1.0201364 0 55
4.5016165 1.1593583 1.0656015 0 56
4.5072823 1.1608175 1.1120976 0 57
4.4984169 1.1585343 1.1551751 0 58
4.5077777 1.1609451 1.2031459 0 59
4.5013323 1.1592852 1.2471443 0 60
4.5127211 1.1622182 1.2963607 0 61
4.5039229 1.1599524 1.3400407 0 62
4.5127921 1.1622366 1.3892236 0 63
2.3751762 0.64295167 -0.73355561 0 0
2.4689331 0.66833127 -0.7369647 0 1
2.5510054 0.69054794 -0.73520619 0 2
2.6364882 0.71368784 -0.73284447 0 3
2.7491341 0.74418068 -0.73614281 0 4
2.862397 0.77484059 -0.73744285 0 5
2.9808927 0.80691695 -0.73787856 0 6
3.1103408 0.84195805 -0.7386601 0 7
3.2359378 0.87595671 -0.73610049 0 8
3.3716161 0.91268438 -0.73335528 0 9
3.5283563 0.95511335 -0.7324118 0 10
3.716337 1.0059991 -0.73466599 0 11
3.9185841 1.0607466 -0.73601562 0 12
4.118834 1.1149535 -0.73315734 0 13
4.4013186 1.191421 -0.7403301 0 14
4.5152235 1.2222548 -0.71539611 0 15
4.5024242 1.2187901 -0.66952324 0 16
4.5271301 1.2254778 -0.62922764 0 17
4.5147839 1.2221358 -0.58377028 0 18
4.5087271 1.2204962 -0.53940457 0 19
4.5180511 1.2230201 -0.49694011 0 20
4.5123239 1.2214699 -0.4528704 0 21
4.499999 1.2181334 -0.40838942 0 22
4.5156989 1.2223834 -0.36648923 0 23
4.5068369 1.2199845 -0.32259229 0 24
4.5083561 1.2203958 -0.27956364 0 25
4.5118885 1.221352 -0.23665896 0 26
4.5136805 1.221837 -0.1936523 0 27
4.512394 1.2214888 -0.15054154 0 28
4.5149903 1.2221917 -0.10757333 0 29
4.5086932 1.220487 -0.06444671 0 30
4.5122242 1.2214428 -0.021497848 0 31
4.5172148 1.2227937 0.021521622 0 32
4.5083871 1.2204041 0.064442337 0 33
4.5090723 1.2205896 0.10743233 0 34
4.4953895 1.2168858 0.14997424 0 35
4.5203118 1.2236321 0.19393679 0 36
4.5050249 1.219494 0.23629896 0 37
4.5186286 1.2231765 0.2802006 0 38
4.5118361 1.2213378 0.32295009 0 39
4.502841 1.2189028 0.3654457 0 40
4.5072398 1.2200936 0.40904656 0 41
4.5123258 1.2214704 0.45287061 0 42
4.5018926 1.2186462 0.49516284 0 43
4.5115137 1.2212504 0.53973794 0 44
4.5030298 1.218954 0.58225042 0 45
4.5044751 1.2193452 0.62607878 0 46
4.513742 1.2218537 0.67120618 0 47
4.5043764 1.2193185 0.71367753 0 48
4.5133438 1.2217458 0.75917351 0 49
4.5102959 1.2209209 0.80283803 0 50
4.5189195 1.2232553 0.84877485 0 51
4.5077534 1.2202326 0.89111751 0 52
4.5157542 1.2223984 0.93737459 0 53
4.5066018 1.2199209 0.98022425 0 54
4.5049968 1.2194865 1.0247819 0 55
4.5118213 1.2213337 1.0714911 0 56
4.505302 1.2195691 1.115225 0 57
4.5092936 1.2206496 1.1617348 0 58
4.508348 1.2203935 1.2072121 0 59
4.5028148 1.2188958 1.251613 0 60
4.5225606 1.2242409 1.3034134 0 61
4.5030141 1.2189497 1.3441281 0 62
4.521399 1.2239264 1.3964006 0 63
2.3836117 0.67679793 -0.7386753 0 0
2.4571521 0.6976788 -0.73595327 0 1
2.5465052 0.72304952 -0.73641592 0 2
2.6315501 0.74719703 -0.73397028 0 3
2.7314816 0.77557135 -0.73391414 0 4
2.8291707 0.80330902 -0.73137224 0 5
2.9471986 0.83682168 -0.73202986 0 6
3.0847011 0.87586385 -0.73507327 0 7
3.2144365 0.91270065 -0.73370701 0 8
3.3703923 0.95698237 -0.73559296 0 9
3.5296719 1.0022079 -0.73518741 0 10
3.702914 1.0513979 -0.73451269 0 11
3.9105096 1.1103423 -0.7370078 0 12
4.1028743 1.1649618 -0.73281091 0 13
4.3465328 1.2341458 -0.733612 0 14
4.4937119 1.2759355 -0.71441972 0 15
4.5106206 1.2807366 -0.67303294 0 16
4.5059123 1.2793998 -0.62841767 0 17
4.5100522 1.2805752 -0.5851503 0 18
4.5033345 1.2786678 -0.54059964 0 19
4.5110855 1.2808685 -0.49786869 0 20
4.5205135 1.2835455 -0.45524195 0 21
4.5159683 1.2822551 -0.41123855 0 22
4.4922028 1.275507 -0.36582756 0 23
4.5016689 1.2781948 -0.32332295 0 24
4.4989257 1.2774159 -0.27993172 0 25
4.5086374 1.2801734 -0.23729619 0 26
4.5097647 1.2804935 -0.19414516 0 27
4.4994969 1.2775781 -0.15062399 0 28
4.506979 1.2797025 -0.10774922 0 29
4.5195136 1.2832617 -0.064822026 0 30
4.5265074 1.2852473 -0.021639556 0 31
4.5064468 1.2795515 0.021543656 0 32
4.5015845 1.2781708 0.064564876 0 33
4.5162497 1.2823348 0.10797086 0 34
4.4964418 1.2767106 0.15052171 0 35
4.5054979 1.2792821 0.19396149 0 36
4.501296 1.2780889 0.23690979 0 37
4.5052195 1.2792029 0.28032333 0 38
4.5222802 1.2840471 0.32480332 0 39
4.5027461 1.2785007 0.36668617 0 40
4.5150723 1.2820005 0.41115692 0 41
4.5128899 1.2813809 0.45447421 0 42
4.5035982 1.2787427 0.49704236 0 43
4.5043211 1.2789478 0.54071808 0 44
4.5080438 1.2800049 0.58488971 0 45
4.5125179 1.2812753 0.62933892 0 46
4.5035996 1.278743 0.67198533 0 47
4.5169978 1.2825472 0.71812171 0 48
4.5262432 1.2851723 0.76394367 0 49
4.509037 1.2802869 0.80535537 0 50
4.5156131 1.2821541 0.85105073 0 51
4.513123 1.2814472 0.89522636 0 52
4.508769 1.2802109 0.93912137 0 53
4.5033875 1.2786827 0.98287076 0 54
4.5188317 1.2830681 1.03144 0 55
4.5129957 1.2814109 1.0754308 0 56
4.5106745 1.2807518 1.1203685 0 57
4.5084696 1.2801257 1.1654898 0 58
4.5086493 1.2801768 1.2114165 0 59
4.5017576 1.2782199 1.2555931 0 60
4.5095038 1.2804195 1.3040894 0 61
4.5096192 1.2804521 1.3506974 0 62
4.517251 1.2826192 1.3998847 0 63
2.3570187 0.7006765 -0.73304874 0 0
2.4535935 0.72938555 -0.73751795 0 1
2.5227325 0.74993861 -0.73215258 0 2
2.630151 0.7818712 -0.73620594 0 3
2.7340939 0.81277055 -0.73724568 0 4
2.8371496 0.8434062 -0.73606026 0 5
2.9514928 0.8773973 -0.73572063 0 6
3.0686324 0.91221964 -0.73386163 0 7
3.2172482 0.95639902 -0.7369774 0 8
3.3619871 0.99942583 -0.73638505 0 9
3.5021379 1.0410888 -0.73206353 0 10
3.6761672 1.0928229 -0.73181736 0 11
3.8591518 1.1472192 -0.72993195 0 12
4.0883775 1.2153617 -0.73283553 0 13
4.3531857 1.2940818 -0.73736489 0 14
4.5118575 1.3412507 -0.71987218 0 15
4.5009861 1.3380188 -0.67399937 0 16
4.493012 1.3356482 -0.62886149 0 17
4.5123353 1.3413926 -0.58754212 0 18
4.4979444 1.3371146 -0.54188538 0 19
4.510426 1.3408251 -0.49957782 0 20
4.5083437 1.340206 -0.45564157 0 21
4.5073256 1.3399034 -0.4119207 0 22
4.5138116 1.3418316 -0.3689031 0 23
4.5007329 1.3379436 -0.32441282 0 24
4.4933963 1.3357626 -0.28058848 0 25
4.5036807 1.3388199 -0.23788379 0 26
4.5123367 1.341393 -0.19495124 0 27
4.5068245 1.3397543 -0.15140931 0 28
4.5037212 1.3388319 -0.10805676 0 29
4.5122762 1.341375 -0.064949878 0 30
4.5070009 1.3398068 -0.021623431 0 31
4.5118222 1.3412402 0.021646563 0 32
4.5164037 1.342602 0.065009288 0 33
4.5118895 1.34126 0.10825273 0 34
4.5007391 1.3379453 0.15120488 0 35
4.4972005 1.3368934 0.19429728 0 36
4.4986176 1.3373147 0.23761636 0 37
4.5052166 1.3392764 0.28132656 0 38
4.5103111 1.3407909 0.32510322 0 39
4.5041466 1.3389584 0.36811319 0 40
4.5145116 1.3420396 0.41257745 0 41
4.4975467 1.3369964 0.45455036 0 42
4.4895906 1.3346313 0.49727008 0 43
4.5077925 1.3400422 0.54307181 0 44
4.5243192 1.3449551 0.58910251 0 45
4.5118465 1.3412473 0.63149768 0 46
4.5073724 1.3399172 0.67495567 0 47
4.5113769 1.3411077 0.71979541 0 48
4.5037899 1.3388523 0.76287502 0 49
4.5308218 1.3468882 0.81214303 0 50
4.5093403 1.3405023 0.85291058 0 51
4.5147915 1.3421227 0.89876294 0 52
4.5128956 1.3415592 0.94334561 0 53
4.5078506 1.3400594 0.98736656 0 54
4.5026412 1.3385109 1.0314233 0 55
4.5131807 1.3416439 1.0793245 0 56
4.5206356 1.3438601 1.1268619 0 57
4.506031 1.3395185 1.1690291 0 58
4.4996948 1.3376349 1.2133383 0 59
4.491991 1.3353448 1.2573539 0 60
4.5173101 1.3428714 1.311023 0 61
4.5075984 1.3399844 1.3549248 0 62
4.5090075 1.3404034 1.4023319 0 63
2.3582702 0.73272532 -0.73618442 0 0
2.4450424 0.75968593 -0.73769981 0 1
2.5100248 0.77987623 -0.73119241 0 2
2.6062849 0.80978465 -0.73225737 0 3
2.7157047 0.84378195 -0.73502928 0 4
2.8220499 0.87682384 -0.73488444 0 5
2.9437397 0.91463345 -0.73653579 0 6
3.0578959 0.95010227 -0.73403245 0 7
3.2025375 0.99504316 -0.73635477 0 8
3.3360646 1.0365305 -0.73344344 0 9
3.5069718 1.0896323 -0.7358191 0 10
3.6897812 1.1464319 -0.73727816 0 11
3.8767846 1.2045348 -0.73601288 0 12
4.1126218 1.2778105 -0.73994184 0 13
4.2956166 1.3346678 -0.73033828 0 14
4.5188985 1.4040425 -0.7236954 0 15
4.5104041 1.4014033 -0.67793894 0 16
4.5209346 1.4046751 -0.63513923 0 17
4.5014095 1.3986086 -0.58831429 0 18
4.5180998 1.4037943 -0.54635185 0 19
4.5130925 1.4022385 -0.50174499 0 20
4.5018163 1.398735 -0.45668563 0 21
4.5162163 1.4032091 -0.41427878 0 22
4.5156484 1.4030328 -0.37043521 0 23
4.5153913 1.4029528 -0.32668817 0 24
4.509449 1.4011065 -0.28264531 0 25
4.5146685 1.4027282 -0.23935713 0 26
4.512023 1.4019063 -0.19566767 0 27
4.5162358 1.4032153 -0.15229367 0 28
4.499001 1.3978603 -0.10834772 0 29
4.5106926 1.401493 -0.065170221 0 30
4.5041494 1.39946 -0.021690672 0 31
4.5327682 1.4083519 0.021828491 0 32
4.5045843 1.399595 0.065081969 0 33
4.5151772 1.4028864 0.10873729 0 34
4.4989491 1.3978442 0.15171073 0 35
4.4919591 1.3956723 0.19479756 0 36
4.5123467 1.4020067 0.23923403 0 37
4.4992995 1.397953 0.28200918 0 38
4.5242047 1.4056911 0.32732582 0 39
4.514946 1.4028144 0.37037757 0 40
4.5122905 1.4019895 0.41391867 0 41
4.5080276 1.4006648 0.45731571 0 42
4.4980035 1.3975503 0.50006747 0 43
4.5079951 1.4006548 0.5451299 0 44
4.4965277 1.3970917 0.58767629 0 45
4.5160484 1.4031569 0.63445276 0 46
4.5061574 1.4000838 0.67730057 0 47
4.5074778 1.400494 0.72186637 0 48
4.506639 1.4002334 0.7662161 0 49
4.5131006 1.402241 0.8119958 0 50
4.5011244 1.39852 0.8545447 0 51
4.5131545 1.4022578 0.90180147 0 52
4.5105796 1.4014578 0.94639218 0 53
4.5018897 1.3987577 0.98975343 0 54
4.5204973 1.4045392 1.0393913 0 55
4.5179701 1.4037541 1.0845159 0 56
4.5184126 1.4038916 1.1305255 0 57
4.5050688 1.3997456 1.1731561 0 58
4.5011716 1.3985347 1.2182814 0 59
4.5051198 1.3997613 1.2657508 0 60
4.5103574 1.4013888 1.313907 0 61
4.511529 1.4017527 1.3611846 0 62
4.5034943 1.3992563 1.4058621 0 63
2.3348553 0.75705314 -0.73172575 0 0
2.4119604 0.78205365 -0.73056471 0 1
2.508729 0.81342989 -0.73367327 0 2
2.5978296 0.84231985 -0.73273647 0 3
2.6963649 0.87426889 -0.73264903 0 4
2.8091259 0.91083056 -0.73438007 0 5
2.9209003 0.94707227 -0.73367959 0 6
3.0689561 0.99507785 -0.73956871 0 7
3.193073 1.0353215 -0.73705006 0 8
3.3502271 1.0862771 -0.73943782 0 9
3.478905 1.1279997 -0.73278511 0 10
3.643894 1.1814957 -0.73095685 0 11
