# .PCD v0.7 - Point Cloud Data file format
VERSION 0.7
FIELDS x y z intensity ring
SIZE 4 4 4 4 2
TYPE F F F F U
COUNT 1 1 1 1 1
WIDTH 1296
HEIGHT 1
VIEWPOINT 0 0 0 1 0 0 0
POINTS 1296
DATA ascii
4.1723857 0.076963283 1.0786206 0 59
4.1692224 0.07690493 1.1188171 0 60
4.1616883 0.076765954 1.1579382 0 61
4.16362 0.076801591 1.1998488 0 62
4.1855793 0.077206641 1.2479892 0 63
2.4651954 0.075803064 -0.73525494 0 0
2.5430646 0.078197494 -0.73306781 0 1
2.6331294 0.08096692 -0.73285723 0 2
2.7333317 0.08404807 -0.73371553 0 3
2.8359277 0.087202832 -0.73334903 0 4
2.9471445 0.090622671 -0.73324537 0 5
3.0791121 0.094680585 -0.73606044 0 6
3.1930633 0.098184504 -0.73230773 0 7
3.356885 0.10322191 -0.73743343 0 8
3.4993751 0.10760338 -0.73504877 0 9
3.6443093 0.11206001 -0.73054588 0 10
3.8379323 0.11801378 -0.73269218 0 11
4.0607948 0.12486666 -0.73657727 0 12
4.1667805 0.12812565 -0.71626371 0 13
4.180459 0.12854625 -0.67907226 0 14
4.1762509 0.12841685 -0.63900363 0 15
4.1825156 0.12860949 -0.60062885 0 16
4.1722145 0.12829274 -0.56001651 0 17
4.1635089 0.12802504 -0.51989293 0 18
4.1476369 0.127537 -0.47919342 0 19
4.1678739 0.12815925 -0.44270751 0 20
4.1542068 0.12773901 -0.40263468 0 21
4.182435 0.128607 -0.36655629 0 22
4.1592898 0.12789531 -0.32599044 0 23
4.1681461 0.12816763 -0.28812069 0 24
4.1690021 0.12819396 -0.24965712 0 25
4.1717997 0.12827998 -0.21131848 0 26
4.1777477 0.12846288 -0.17309457 0 27
4.1661248 0.12810549 -0.13422427 0 28
4.1779661 0.12846959 -0.096130699 0 29
4.1729951 0.12831675 -0.0576033 0 30
4.1557174 0.12778546 -0.019120522 0 31
4.1756043 0.12839697 0.019212022 0 32
4.1748066 0.12837243 0.0576283 0 33
4.1633525 0.12802023 0.095794454 0 34
4.1737723 0.12834063 0.13447064 0 35
4.1680803 0.1281656 0.17269403 0 36
4.1693206 0.12820375 0.21119289 0 37
4.1804638 0.1285464 0.2503435 0 38
4.1670675 0.12813446 0.28804615 0 39
4.1645617 0.12805742 0.32640362 0 40
4.1660147 0.12810209 0.36511719 0 41
4.1719198 0.12828368 0.40435147 0 42
4.1736474 0.1283368 0.44332078 0 43
4.1744685 0.12836203 0.48229334 0 44
4.1827154 0.12861563 0.52229118 0 45
4.1597562 0.12790965 0.5583443 0 46
4.1610661 0.12794992 0.59754854 0 47
4.1759305 0.128407 0.63895464 0 48
4.1587267 0.127878 0.67554212 0 49
4.1645842 0.12805811 0.71588612 0 50
4.1744585 0.12836175 0.75719452 0 51
4.1542668 0.12774086 0.79308301 0 52
4.1608334 0.12794277 0.8340894 0 53
4.1771708 0.12844515 0.87742084 0 54
4.1713061 0.12826481 0.91634381 0 55
4.1618166 0.12797301 0.95448476 0 56
4.1723437 0.1282967 0.99739695 0 57
4.1638746 0.12803629 1.0359662 0 58
4.1593685 0.12789772 1.0755806 0 59
4.1679716 0.12816226 1.1188198 0 60
4.1832385 0.12863171 1.1642863 0 61
4.1709247 0.12825307 1.2023174 0 62
4.1787157 0.12849264 1.2463197 0 63
2.4711304 0.10641199 -0.73735964 0 0
2.5425701 0.10948832 -0.73325795 0 1
2.6323428 0.11335412 -0.73297083 0 2
2.7297506 0.1175487 -0.73308688 0 3
2.8370893 0.12217093 -0.73398244 0 4
2.946816 0.12689598 -0.73349637 0 5
3.0906312 0.13308896 -0.73914939 0 6
3.2012284 0.13785152 -0.73451358 0 7
3.3330219 0.14352681 -0.73252356 0 8
3.5044355 0.15090825 -0.7364459 0 9
3.6518071 0.15725437 -0.73238122 0 10
3.8359704 0.16518481 -0.73264998 0 11
4.0691004 0.17522387 -0.73841876 0 12
4.1765857 0.17985241 -0.71827507 0 13
4.1774983 0.17989171 -0.67889935 0 14
4.1709619 0.17961024 -0.638484 0 15
4.1672659 0.17945108 -0.59871048 0 16
4.1552491 0.17893362 -0.55799252 0 17
4.1772699 0.17988187 -0.52184796 0 18
4.1690712 0.17952883 -0.48188844 0 19
4.1788368 0.17994934 -0.44407344 0 20
4.1670933 0.17944366 -0.40406698 0 21
4.1626477 0.17925221 -0.36498767 0 22
4.1656075 0.17937967 -0.32663375 0 23
4.1681466 0.179489 -0.28825149 0 24
4.1685538 0.17950656 -0.2497436 0 25
4.1557293 0.17895429 -0.21059997 0 26
4.1726074 0.17968109 -0.17296006 0 27
4.1716132 0.17963828 -0.13446207 0 28
4.1851959 0.1802232 -0.096340761 0 29
4.1753058 0.17979731 -0.057661351 0 30
4.1635699 0.17929193 -0.019165346 0 31
4.1749587 0.17978235 0.019217769 0 32
4.1898131 0.18042201 0.057861697 0 33
4.1862993 0.1802707 0.09636616 0 34
4.1630354 0.1792689 0.1341856 0 35
4.1757336 0.17981572 0.17308965 0 36
4.1588807 0.17909001 0.21075968 0 37
4.1626592 0.17925271 0.24939044 0 38
4.1616683 0.17921004 0.2878035 0 39
4.1725674 0.17967938 0.32717949 0 40
4.1716142 0.17963834 0.36577389 0 41
4.1726952 0.17968488 0.40461016 0 42
4.1582317 0.17906205 0.4418838 0 43
4.169323 0.17953967 0.4819175 0 44
4.1729975 0.1796979 0.52131426 0 45
4.1614966 0.17920263 0.55883139 0 46
4.1634603 0.17928721 0.59816378 0 47
4.1659122 0.17939278 0.63771099 0 48
4.1775837 0.17989539 0.67891324 0 49
4.1791186 0.17996149 0.7187106 0 50
4.169313 0.17953923 0.75660431 0 51
4.1628489 0.17926086 0.79508203 0 52
4.1707506 0.17960113 0.83645689 0 53
4.1724448 0.17967409 0.87682587 0 54
4.1811352 0.18004832 0.91891986 0 55
4.1731505 0.17970449 0.95751858 0 56
4.1698093 0.17956062 0.99724358 0 57
4.1798406 0.17999257 1.0404104 0 58
4.1707501 0.17960112 1.0790133 0 59
4.168716 0.17951353 1.1195275 0 60
4.1694574 0.17954546 1.1609775 0 61
4.1680517 0.17948493 1.2020346 0 62
4.168344 0.17949751 1.2437905 0 63
2.4758203 0.13713041 -0.73920631 0 0
2.5346701 0.14038996 -0.73142219 0 1
2.6335871 0.14586876 -0.73376125 0 2
2.7345665 0.15146181 -0.73482478 0 3
2.8296072 0.15672591 -0.73248994 0 4
2.9544888 0.16364282 -0.73585147 0 5
3.0894017 0.17111537 -0.73930264 0 6
3.1788592 0.17607023 -0.72982258 0 7
3.3598981 0.18609759 -0.73887748 0 8
3.5000966 0.19386289 -0.73597938 0 9
3.6333337 0.20124261 -0.72911751 0 10
3.8357272 0.21245275 -0.73304713 0 11
4.0544524 0.22456746 -0.73620605 0 12
4.1667471 0.23078723 -0.71701682 0 13
4.1585221 0.23033167 -0.67622465 0 14
4.1788378 0.23145691 -0.64007694 0 15
4.1765513 0.23133026 -0.60040784 0 16
4.1642709 0.23065008 -0.55954254 0 17
4.1877861 0.23195253 -0.52347845 0 18
4.1655846 0.23072283 -0.48177689 0 19
4.1724453 0.23110284 -0.44366267 0 20
4.175447 0.23126911 -0.40512213 0 21
4.17172 0.23106267 -0.36600459 0 22
4.1770391 0.23135729 -0.32772842 0 23
4.1760278 0.23130128 -0.28897139 0 24
4.1791978 0.23147684 -0.25053287 0 25
4.1684246 0.23088016 -0.21137124 0 26
4.1657972 0.23073463 -0.17278232 0 27
4.163847 0.2306266 -0.13429302 0 28
4.1534142 0.23004876 -0.095667049 0 29
4.1583524 0.23032226 -0.057461988 0 30
4.1780457 0.23141304 -0.019243622 0 31
4.1742616 0.23120345 0.019226193 0 32
4.1646147 0.23066911 0.057548523 0 33
4.1640787 0.23063943 0.095912687 0 34
4.1537714 0.23006855 0.13396807 0 35
4.1700172 0.23096837 0.17295736 0 36
4.1780486 0.2314132 0.21185924 0 37
4.1732388 0.2311468 0.25017563 0 38
4.1683006 0.23087327 0.28843668 0 39
4.1740756 0.23119314 0.3274959 0 40
4.1598263 0.2304039 0.36496112 0 41
4.1626625 0.230561 0.40388173 0 42
4.1765623 0.23133089 0.44410047 0 43
4.1664104 0.23076858 0.48187241 0 44
4.1583395 0.23032154 0.51979756 0 45
4.1752253 0.23125681 0.56101441 0 46
4.1683536 0.23087621 0.59922934 0 47
4.1720247 0.23107955 0.63903338 0 48
4.1763039 0.23131655 0.67911613 0 49
4.1582456 0.23031636 0.71555394 0 50
4.1668663 0.23079382 0.75661814 0 51
4.1743422 0.23120792 0.79775995 0 52
4.1679645 0.23085465 0.8364042 0 53
4.1925573 0.23221681 0.8815859 0 54
4.1830831 0.23169205 0.91990459 0 55
4.1723857 0.23109955 0.95792264 0 56
4.1560388 0.23019411 0.9945519 0 57
4.1751337 0.23125175 1.039868 0 58
4.1791334 0.2314733 1.0818368 0 59
4.1709604 0.2310206 1.1208085 0 60
4.1727419 0.23111928 1.1625954 0 61
4.1756501 0.23128036 1.2049549 0 62
4.1626425 0.23055989 1.2428412 0 63
2.4586542 0.1665258 -0.73463684 0 0
2.5471227 0.17251781 -0.73557216 0 1
2.6219659 0.17758697 -0.73107654 0 2
2.7205338 0.18426304 -0.73160756 0 3
2.832118 0.19182068 -0.73369503 0 4
2.9471357 0.19961087 -0.73457587 0 5
3.0613198 0.20734462 -0.73313731 0 6
3.1870713 0.21586183 -0.73226202 0 7
3.3400607 0.22622387 -0.73507118 0 8
3.5052459 0.23741195 -0.73762023 0 9
3.6462426 0.24696171 -0.73226202 0 10
3.8432674 0.2603063 -0.73504424 0 11
4.0430679 0.27383891 -0.73469484 0 12
4.1626592 0.28193885 -0.71685576 0 13
4.1591048 0.28169811 -0.67683142 0 14
4.1822739 0.28326735 -0.64108831 0 15
4.1802182 0.28312811 -0.60138994 0 16
4.1675615 0.28227091 -0.56040871 0 17
4.1618705 0.28188545 -0.52063292 0 18
4.1842694 0.2834025 -0.48430434 0 19
4.1682959 0.28232062 -0.44355705 0 20
4.1636314 0.28200468 -0.40428159 0 21
4.1735964 0.28267962 -0.36644647 0 22
4.174808 0.28276172 -0.32780141 0 23
4.1709113 0.28249776 -0.28883585 0 24
4.1555686 0.28145862 -0.24930498 0 25
4.1763158 0.28286383 -0.21193174 0 26
4.1711836 0.28251621 -0.17313673 0 27
4.1747479 0.28275761 -0.13474655 0 28
4.1739106 0.28270093 -0.09621194 0 29
4.176899 0.28290331 -0.057761982 0 30
4.1767364 0.28289229 -0.019252157 0 31
4.1774244 0.28293893 0.019255331 0 32
4.1617479 0.28187713 0.057552457 0 33
4.1696372 0.28241146 0.096113436 0 34
4.161067 0.28183103 0.13430499 0 35
4.1786447 0.28302157 0.17344642 0 36
4.1706839 0.28248239 0.21164593 0 37
4.1754608 0.28280592 0.25049838 0 38
4.1698847 0.28242823 0.2887648 0 39
4.1776376 0.28295335 0.32802358 0 40
4.1693282 0.28239053 0.36607173 0 41
4.1596084 0.2817322 0.40389097 0 42
4.1714563 0.28253469 0.4438934 0 43
4.1763401 0.28286546 0.48338658 0 44
4.1744056 0.28273442 0.522201 0 45
4.191709 0.28390643 0.56365585 0 46
4.1759434 0.28283858 0.600775 0 47
4.1738248 0.28269511 0.63979322 0 48
4.1672578 0.28225034 0.67815828 0 49
4.1730742 0.28264427 0.71864939 0 50
4.1818781 0.28324056 0.75991899 0 51
4.1762447 0.282859 0.79872781 0 52
4.1669288 0.28222802 0.8368296 0 53
4.1516352 0.28119218 0.87364203 0 54
4.1666198 0.28220713 0.916978 0 55
4.1668429 0.28222224 0.95737451 0 56
4.1653891 0.28212374 0.99754423 0 57
4.1706157 0.28247777 1.0395293 0 58
4.1731944 0.28265241 1.0811174 0 59
4.1671581 0.28224358 1.1206346 0 60
4.1758451 0.28283197 1.1643411 0 61
4.1611915 0.28183943 1.2016919 0 62
4.1659517 0.28216186 1.244771 0 63
2.4560838 0.1967167 -0.73453599 0 0
2.5168545 0.20158406 -0.72749197 0 1
2.633759 0.21094735 -0.7350325 0 2
2.7386384 0.21934752 -0.73714584 0 3
2.8283517 0.226533 -0.7333855 0 4
2.948663 0.23616917 -0.73562479 0 5
3.0434489 0.24376091 -0.7295202 0 6
3.1935487 0.25578296 -0.73441738 0 7
3.3378708 0.26734224 -0.73525709 0 8
3.4644651 0.27748165 -0.72970146 0 9
3.6536806 0.2926366 -0.73442292 0 10
3.8352895 0.30718231 -0.73418534 0 11
4.0391355 0.32350907 -0.73464751 0 12
4.168829 0.3338967 -0.71857101 0 13
4.1814942 0.33491111 -0.68109369 0 14
4.1778765 0.33462134 -0.64099652 0 15
4.1657958 0.33365378 -0.59986001 0 16
4.1626773 0.33340397 -0.56026083 0 17
4.1737828 0.33429345 -0.52259779 0 18
4.1712904 0.33409384 -0.48324108 0 19
4.1687584 0.33389103 -0.4440096 0 20
4.1692948 0.33393404 -0.40519962 0 21
4.1660209 0.33367178 -0.3661139 0 22
4.1799059 0.33478388 -0.32850006 0 23
4.1702256 0.33400857 -0.28905097 0 24
4.1611319 0.33328021 -0.2498657 0 25
4.1660485 0.33367398 -0.21160291 0 26
4.1580629 0.33303443 -0.17274904 0 27
4.1727262 0.33420885 -0.13480374 0 28
4.1732879 0.33425382 -0.096285053 0 29
4.1647553 0.33357042 -0.057646409 0 30
4.1664486 0.33370605 -0.019222198 0 31
4.1601782 0.33320382 0.019193269 0 32
4.1878405 0.33541942 0.057965945 0 33
4.1697769 0.33397263 0.09620405 0 34
4.1811075 0.33488014 0.13507451 0 35
4.1815691 0.3349171 0.17372561 0 36
4.1716995 0.33412662 0.21188995 0 37
4.1708989 0.33406249 0.25045219 0 38
4.1671433 0.33376172 0.28883734 0 39
4.1711311 0.33408108 0.32781047 0 40
4.164691 0.33356526 0.36599705 0 41
4.1721549 0.33416307 0.40547755 0 42
4.1580338 0.33303207 0.44286734 0 43
4.17623 0.33448946 0.48381335 0 44
4.1627431 0.33340925 0.5212155 0 45
4.1713619 0.33409959 0.56142974 0 46
4.171885 0.33414146 0.60073686 0 47
4.1784439 0.33466679 0.64108354 0 48
4.1742849 0.33433366 0.67991936 0 49
4.1771054 0.33455959 0.71999758 0 50
4.1689477 0.3339062 0.7582581 0 51
4.1743712 0.3343406 0.79909545 0 52
4.1682954 0.33385396 0.83786511 0 53
4.1715317 0.33411318 0.87862706 0 54
4.1681933 0.33384579 0.91815829 0 55
4.1621308 0.33336022 0.95716131 0 56
4.1735744 0.3342768 1.0004133 0 57
4.1835504 0.3350758 1.0437013 0 58
4.1727557 0.33421123 1.0819865 0 59
4.184556 0.33515635 1.1263365 0 60
4.1709976 0.33407041 1.1640469 0 61
4.1846819 0.33516642 1.2095742 0 62
4.1715355 0.33411348 1.2475727 0 63
2.4385026 0.22551563 -0.73005223 0 0
2.5393026 0.23483776 -0.73475969 0 1
2.6416521 0.24430315 -0.73801792 0 2
2.7322564 0.25268233 -0.73620868 0 3
2.853466 0.26389194 -0.74068296 0 4
2.9272695 0.27071738 -0.73106283 0 5
3.0664682 0.28359064 -0.73581821 0 6
3.1883605 0.2948634 -0.73400259 0 7
3.3329546 0.30823565 -0.73495352 0 8
3.4752445 0.32139477 -0.73274887 0 9
3.6480117 0.33737248 -0.73406178 0 10
3.8390524 0.35504016 -0.73568583 0 11
4.0202446 0.37179703 -0.73198777 0 12
4.1630635 0.38500509 -0.71833891 0 13
4.1754274 0.38614851 -0.68082744 0 14
4.1740069 0.38601717 -0.64108264 0 15
4.1813455 0.38669583 -0.6027382 0 16
4.1703606 0.38567996 -0.56189084 0 17
4.1867681 0.38719732 -0.52478015 0 18
4.1708446 0.38572472 -0.48370236 0 19
4.1667542 0.38534641 -0.44426724 0 20
4.1759796 0.38619959 -0.4062801 0 21
4.1646671 0.38515341 -0.36638346 0 22
4.1715236 0.38578749 -0.32818931 0 23
4.1681457 0.38547507 -0.28921345 0 24
4.1685629 0.38551369 -0.25057763 0 25
4.1637173 0.38506556 -0.21170901 0 26
4.1836267 0.3869068 -0.1739956 0 27
4.1587996 0.38461077 -0.13449645 0 28
4.1826487 0.38681638 -0.096603461 0 29
4.1625938 0.38496163 -0.057677653 0 30
4.1749215 0.38610175 -0.019281736 0 31
4.1664181 0.38531533 0.019242464 0 32
4.163177 0.38501558 0.057685733 0 33
4.1632166 0.38501924 0.096154653 0 34
4.1734686 0.38596734 0.13497084 0 35
4.1584435 0.38457781 0.17294823 0 36
4.1780767 0.38639355 0.21243913 0 37
4.1756854 0.38617241 0.25100577 0 38
4.1703548 0.38567942 0.28936678 0 39
4.1808705 0.38665193 0.32892469 0 40
4.1810613 0.38666955 0.36782572 0 41
4.1630349 0.38500246 0.40502071 0 42
4.1808448 0.38664952 0.44576961 0 43
4.1622505 0.38492993 0.48270568 0 44
4.1662846 0.38530299 0.52221268 0 45
4.1671925 0.38538694 0.56146389 0 46
4.1743283 0.38604686 0.60172671 0 47
4.1712184 0.38575929 0.64065433 0 48
4.1709323 0.3857328 0.68009448 0 49
4.1662412 0.385299 0.71888733 0 50
4.1813679 0.38669789 0.76132441 0 51
4.1673174 0.38539851 0.79859191 0 52
4.1673479 0.38540131 0.83856386 0 53
4.1780243 0.38638869 0.8809287 0 54
4.1806793 0.3866342 0.92188615 0 55
4.1547709 0.38423818 0.95648295 0 56
4.1568737 0.38443264 0.99746782 0 57
4.1840472 0.38694569 1.0449333 0 58
4.1784344 0.38642663 1.0846092 0 59
4.1683612 0.38549501 1.1231682 0 60
4.1732407 0.3859463 1.1659092 0 61
4.1714196 0.38577786 1.2070208 0 62
4.1791625 0.38649392 1.2511804 0 63
2.4648082 0.25855088 -0.73882371 0 0
2.5439999 0.26685783 -0.73701262 0 1
2.6227896 0.27512264 -0.73363781 0 2
2.7299714 0.28636569 -0.73648614 0 3
2.8322196 0.29709122 -0.73606062 0 4
2.9366579 0.30804646 -0.73429799 0 5
3.0587885 0.32085761 -0.73486656 0 6
3.1981416 0.3354753 -0.73714823 0 7
3.3201196 0.34827045 -0.73301214 0 8
3.4819114 0.36524189 -0.73504591 0 9
3.6656837 0.38451907 -0.73851341 0 10
3.8224523 0.40096363 -0.73339409 0 11
4.0182476 0.42150193 -0.73251247 0 12
4.167747 0.43718398 -0.72002029 0 13
4.1755428 0.43800175 -0.68167299 0 14
4.1730604 0.43774134 -0.64171547 0 15
4.1592994 0.43629783 -0.60028827 0 16
4.1610322 0.4364796 -0.56131464 0 17
4.1682835 0.43724024 -0.52309757 0 18
4.1772003 0.43817562 -0.48502767 0 19
4.1666598 0.43706992 -0.44479659 0 20
4.174365 0.43787822 -0.40661612 0 21
4.1676655 0.43717542 -0.3670924 0 22
4.1710944 0.43753508 -0.32855397 0 23
4.1652479 0.43692183 -0.28936332 0 24
4.1649423 0.43688974 -0.25066397 0 25
4.1696916 0.43738794 -0.21227019 0 26
4.1835198 0.43883848 -0.17420241 0 27
4.1665602 0.43705946 -0.13491103 0 28
4.1697345 0.43739247 -0.096422121 0 29
4.1669006 0.4370952 -0.057807434 0 30
4.1669455 0.4370999 -0.019268265 0 31
4.1717362 0.4376024 0.019290417 0 32
4.1778693 0.43824574 0.057959598 0 33
4.176774 0.43813089 0.096584909 0 34
4.1671538 0.43712175 0.13493025 0 35
4.164887 0.43688396 0.17342652 0 36
4.1609025 0.43646604 0.21182278 0 37
4.1749282 0.43793726 0.25126496 0 38
4.1749048 0.43793479 0.29003417 0 39
4.1734953 0.43778694 0.3287431 0 40
4.161653 0.43654475 0.36656284 0 41
4.1637831 0.43676817 0.40558532 0 42
4.1766686 0.43811983 0.44586504 0 43
4.1770544 0.43816027 0.48501065 0 44
4.172297 0.43766126 0.52360129 0 45
4.1703801 0.43746015 0.56257564 0 46
4.1757746 0.43802604 0.60266608 0 47
4.165071 0.4369033 0.6404869 0 48
4.1711545 0.43754143 0.68095654 0 49
4.1611409 0.43649098 0.71887898 0 50
4.1784496 0.43830666 0.76171684 0 51
4.1812 0.43859515 0.80222511 0 52
4.1617103 0.43655077 0.83844626 0 53
4.1533918 0.43567818 0.87679827 0 54
4.1838331 0.43887138 0.92370188 0 55
4.159935 0.4363645 0.95883459 0 56
4.1784372 0.43830532 1.0038594 0 57
4.1708064 0.43750489 1.0428911 0 58
4.1745076 0.43789312 1.0849055 0 59
4.1761112 0.43806133 1.1266228 0 60
4.1684136 0.43725389 1.1659745 0 61
4.1689038 0.43730533 1.2077575 0 62
4.1555648 0.43590608 1.2456262 0 63
2.4551632 0.2881006 -0.73693883 0 0
2.5218999 0.29593182 -0.73160905 0 1
2.6076744 0.30599698 -0.73040706 0 2
2.7050283 0.31742096 -0.73075479 0 3
2.8215125 0.33108976 -0.73428053 0 4
2.9323795 0.34409943 -0.73423064 0 5
3.0706711 0.36032724 -0.73872995 0 6
3.1850216 0.37374568 -0.73512793 0 7
3.3190503 0.38947323 -0.73377794 0 8
3.4679573 0.40694672 -0.73310113 0 9
3.6331098 0.42632648 -0.73295158 0 10
3.8039594 0.4463748 -0.73084378 0 11
4.0141559 0.47104028 -0.73276711 0 12
4.1656628 0.48881879 -0.72064412 0 13
4.1760197 0.49003413 -0.68268293 0 14
4.1699514 0.48932207 -0.6421141 0 15
4.1699762 0.48932499 -0.60265207 0 16
4.18261 0.49080747 -0.56499684 0 17
4.1550899 0.48757812 -0.52215481 0 18
4.1630707 0.48851463 -0.48404789 0 19
4.1577315 0.48788813 -0.44445032 0 20
4.1654539 0.48879427 -0.40630281 0 21
4.1783652 0.49030936 -0.36853802 0 22
4.1824732 0.49079141 -0.32990071 0 23
4.1690311 0.48921406 -0.29002213 0 24
4.1771235 0.49016368 -0.25174081 0 25
4.1602135 0.48817939 -0.21207726 0 26
4.1689749 0.48920748 -0.1738341 0 27
4.168447 0.48914552 -0.13515666 0 28
4.1633043 0.48854202 -0.096405052 0 29
4.1776776 0.49022868 -0.058036182 0 30
4.1787405 0.49035341 -0.019349225 0 31
4.1667967 0.48895186 0.019293919 0 32
4.1831307 0.49086857 0.058111936 0 33
4.1715436 0.4895089 0.096595846 0 34
4.1732035 0.48970369 0.13531089 0 35
4.1669574 0.4889707 0.17374997 0 36
4.1713767 0.48948932 0.21264632 0 37
4.1773295 0.49018782 0.25175321 0 38
4.1698122 0.48930573 0.29007646 0 39
4.1633024 0.48854184 0.3283886 0 40
4.1649566 0.48873591 0.36735538 0 41
4.1703682 0.48937097 0.40678218 0 42
4.1747022 0.48987952 0.44626442 0 43
4.1541619 0.48746926 0.48301208 0 44
4.1637831 0.48859826 0.5232473 0 45
4.1747022 0.48987955 0.56392866 0 46
4.1633749 0.48855031 0.60169798 0 47
4.1686311 0.48916709 0.64191073 0 48
4.168613 0.48916498 0.68147206 0 49
4.1741529 0.48981509 0.72211289 0 50
4.1746745 0.4898763 0.76206911 0 51
4.1728263 0.48965937 0.80171311 0 52
4.1746736 0.48987615 0.84220779 0 53
4.1527848 0.48730764 0.87786871 0 54
4.1592207 0.48806286 0.91952342 0 55
4.158463 0.48797396 0.95980585 0 56
4.1818275 0.49071565 1.0060476 0 57
4.1661649 0.48887771 1.0431548 0 58
4.1733394 0.48971963 1.0860848 0 59
4.1648307 0.48872119 1.1251158 0 60
4.1798997 0.49048942 1.1707859 0 61
4.185071 0.49109626 1.2140988 0 62
4.1626868 0.4884696 1.249467 0 63
2.4378245 0.31649932 -0.73284721 0 0
2.5248816 0.32780182 -0.73358792 0 1
2.6116581 0.33906791 -0.73263538 0 2
2.730803 0.35453629 -0.73883957 0 3
2.8179889 0.36585554 -0.73447877 0 4
2.9314816 0.38059011 -0.73512208 0 5
3.0714028 0.39875591 -0.74002969 0 6
3.1697676 0.41152647 -0.73271978 0 7
3.3047209 0.42904726 -0.73172104 0 8
3.4654117 0.44990951 -0.73367703 0 9
3.6574891 0.47484663 -0.73899198 0 10
3.8024466 0.49366626 -0.73166412 0 11
4.0307379 0.523305 -0.73691303 0 12
4.1659646 0.54086131 -0.7217924 0 13
4.1727338 0.54174018 -0.68318313 0 14
4.1726379 0.54172772 -0.64350486 0 15
4.1785078 0.54248977 -0.60480338 0 16
4.1878247 0.54369938 -0.56656158 0 17
4.1753278 0.54207689 -0.52549595 0 18
4.1923876 0.54429179 -0.48819792 0 19
4.1719985 0.54164469 -0.4466536 0 20
4.1777072 0.54238582 -0.40811771 0 21
4.1740212 0.54190731 -0.36871475 0 22
4.1813254 0.54285556 -0.33031172 0 23
4.1621685 0.5403685 -0.28998503 0 24
4.1676183 0.541076 -0.25154993 0 25
4.1760492 0.54217058 -0.21320826 0 26
4.1720433 0.54165047 -0.1742266 0 27
4.1821055 0.54295683 -0.13580574 0 28
4.1731114 0.54178917 -0.096779101 0 29
4.1831245 0.54308915 -0.058200222 0 30
4.1675477 0.54106683 -0.019326743 0 31
4.1838179 0.54317915 0.019402195 0 32
4.1642008 0.54063231 0.057936933 0 33
4.1658111 0.5408414 0.096609801 0 34
4.1784544 0.54248285 0.13568717 0 35
4.1744666 0.54196507 0.17432778 0 36
4.1620789 0.54035687 0.212495 0 37
4.1606297 0.5401687 0.25112811 0 38
4.1589975 0.53995681 0.28976411 0 39
4.1715474 0.54158616 0.32953933 0 40
4.1647878 0.54070854 0.36789909 0 41
4.1654387 0.540793 0.40691918 0 42
4.1719546 0.54163897 0.44664893 0 43
4.1754971 0.54209894 0.48623106 0 44
4.1679411 0.54111797 0.52456629 0 45
4.1715598 0.54158771 0.5643611 0 46
4.1859136 0.54345125 0.60587531 0 47
4.1689796 0.54125273 0.64294064 0 48
4.175024 0.54203749 0.68355811 0 49
4.16924 0.54128659 0.72235984 0 50
4.1745753 0.54197925 0.76320988 0 51
4.1766052 0.54224277 0.80365944 0 52
4.1572914 0.53973532 0.83997655 0 53
4.1613736 0.54026526 0.8810221 0 54
4.1720777 0.541655 0.92376852 0 55
4.1769838 0.54229194 0.96554673 0 56
4.1682577 0.54115903 1.004308 0 57
4.1689677 0.54125118 1.0454441 0 58
4.1820354 0.54294777 1.090003 0 59
4.1768374 0.54227293 1.1300752 0 60
4.158391 0.53987801 1.1665325 0 61
4.1693797 0.54130471 1.2113862 0 62
4.1688867 0.54124069 1.2532308 0 63
2.4332521 0.34637907 -0.73269767 0 0
2.5178962 0.35842833 -0.7327835 0 1
2.6096425 0.37148866 -0.73329598 0 2
2.724617 0.38785553 -0.73840046 0 3
2.8184307 0.40121013 -0.73582411 0 4
2.9068904 0.41380256 -0.73017615 0 5
3.0290623 0.43119404 -0.73105031 0 6
3.1755192 0.45204249 -0.73527855 0 7
3.3090401 0.47104952 -0.73390442 0 8
3.4853384 0.49614599 -0.73913151 0 9
3.6177964 0.51500171 -0.73219627 0 10
3.8038192 0.54148245 -0.733154 0 11
4.017355 0.57187974 -0.73569626 0 12
4.1651359 0.59291673 -0.7228573 0 13
4.173203 0.59406507 -0.68440413 0 14
4.1624279 0.5925312 -0.64300531 0 15
4.1590395 0.59204894 -0.60299367 0 16
4.1647615 0.59286344 -0.564385 0 17
4.1557755 0.59158427 -0.52391112 0 18
4.1676831 0.59327936 -0.48613387 0 19
4.1775618 0.59468555 -0.44799823 0 20
4.1691403 0.59348679 -0.40796289 0 21
4.164536 0.59283137 -0.36849296 0 22
4.177794 0.59471864 -0.33058545 0 23
4.1680927 0.59333766 -0.29088411 0 24
4.1823969 0.59537387 -0.25286469 0 25
4.1703629 0.59366083 -0.21327452 0 26
4.1666684 0.59313494 -0.17429355 0 27
4.1732526 0.59407222 -0.13574521 0 28
4.1715722 0.59383297 -0.096905425 0 29
4.1677046 0.5932824 -0.058082793 0 30
4.1701674 0.593633 -0.019371279 0 31
4.1813326 0.59522235 0.019423144 0 32
4.1643896 0.59281051 0.058036592 0 33
4.1764784 0.59453136 0.097019389 0 34
4.1776242 0.5946945 0.1358874 0 35
4.1577673 0.5918678 0.1739212 0 36
4.1723595 0.59394509 0.21337663 0 37
4.1703491 0.5936588 0.25213629 0 38
4.1677122 0.59328347 0.29085755 0 39
4.1726594 0.5939877 0.33017918 0 40
4.1776791 0.5947023 0.36965591 0 41
4.177815 0.59472167 0.40881178 0 42
4.1837392 0.59556496 0.4486607 0 43
4.1729207 0.5940249 0.48674479 0 44
4.1578979 0.59188646 0.52417868 0 45
4.1759038 0.59444958 0.56589496 0 46
4.1807151 0.59513444 0.60613626 0 47
4.1643558 0.59280568 0.6433031 0 48
4.1817126 0.59527653 0.68579978 0 49
4.1759934 0.59446234 0.72474164 0 50
4.173419 0.59409589 0.76427627 0 51
4.1640649 0.59276432 0.80258834 0 52
4.1725168 0.59396744 0.84446466 0 53
4.1690273 0.59347069 0.88412058 0 54
4.1734405 0.59409887 0.92561775 0 55
4.1682153 0.59335512 0.96513337 0 56
4.1720672 0.59390342 1.0069094 0 57
4.1807704 0.59514236 1.0501596 0 58
4.1583743 0.59195417 1.085651 0 59
4.1667533 0.59314698 1.1292349 0 60
4.1683402 0.59337288 1.1712818 0 61
4.171638 0.59384233 1.2140721 0 62
4.173008 0.59403735 1.2565706 0 63
2.437129 0.37755993 -0.7352075 0 0
2.5221305 0.39072835 -0.73535848 0 1
2.6096489 0.40428671 -0.73463911 0 2
2.7033823 0.41880786 -0.73398578 0 3
2.7904246 0.43229246 -0.72984505 0 4
2.9235702 0.45291939 -0.73570925 0 5
3.0493686 0.47240809 -0.73729736 0 6
3.1914613 0.49442106 -0.7403217 0 7
3.3174729 0.51394278 -0.73712063 0 8
3.4457676 0.53381819 -0.73207653 0 9
3.6145897 0.55997211 -0.73288542 0 10
3.8003302 0.58874696 -0.73382139 0 11
4.0246844 0.62350392 -0.73838675 0 12
4.1549826 0.64368975 -0.72241426 0 13
4.1590762 0.64432395 -0.68333513 0 14
4.1708832 0.64615309 -0.64549005 0 15
4.1876035 0.64874339 -0.60824555 0 16
4.1667995 0.64552045 -0.56569409 0 17
4.1632643 0.6449728 -0.52581531 0 18
4.1730742 0.64649248 -0.48765311 0 19
4.1528392 0.64335769 -0.44616163 0 20
4.1702266 0.64605135 -0.40881562 0 21
4.1805325 0.64764792 -0.37058502 0 22
4.1630716 0.64494288 -0.33002308 0 23
4.164362 0.64514285 -0.29115537 0 24
4.1595221 0.64439303 -0.25194171 0 25
4.1673007 0.64559811 -0.21350776 0 26
4.175683 0.64689666 -0.17499013 0 27
4.1693192 0.64591074 -0.13586533 0 28
4.1829004 0.64801478 -0.097346313 0 29
4.1638994 0.64507115 -0.058135908 0 30
4.1709933 0.64617014 -0.019410558 0 31
4.178998 0.64741021 0.019447807 0 32
4.181078 0.6477325 0.058375757 0 33
4.1691618 0.64588642 0.097026587 0 34
4.1711268 0.64619088 0.13592425 0 35
4.164938 0.64523208 0.17453985 0 36
4.1566329 0.6439454 0.21296118 0 37
4.1686158 0.64580178 0.25249252 0 38
4.1585464 0.64424187 0.29074878 0 39
4.1677651 0.64567 0.33039516 0 40
4.1696248 0.64595813 0.36961812 0 41
4.1794982 0.6474877 0.40972456 0 42
4.1741538 0.64665979 0.44845161 0 43
4.1718001 0.64629513 0.48750421 0 44
4.174583 0.64672619 0.52724481 0 45
4.1826038 0.64796883 0.56783968 0 46
4.1678596 0.6456846 0.60537773 0 47
4.1772289 0.64713615 0.6464721 0 48
4.1702709 0.64605826 0.68517435 0 49
4.1698818 0.64599794 0.72500473 0 50
4.1754394 0.64685893 0.76604497 0 51
4.1680703 0.64571732 0.80482984 0 52
4.1669178 0.64553881 0.8448742 0 53
4.1748891 0.64677364 0.88698328 0 54
4.1576533 0.64410353 0.92380321 0 55
4.175652 0.64689189 0.96862388 0 56
4.1806841 0.64767146 1.0108347 0 57
4.1801538 0.64758927 1.0519254 0 58
4.1661673 0.64542246 1.0896752 0 59
4.1639891 0.64508504 1.13055 0 60
4.1742578 0.64667588 1.1750903 0 61
4.1622968 0.6448229 1.2135694 0 62
4.1612201 0.64465606 1.2553132 0 63
2.4317334 0.40740189 -0.73503548 0 0
2.5077307 0.42013413 -0.73261094 0 1
2.6056652 0.43654165 -0.73497325 0 2
2.6962869 0.45172399 -0.73351198 0 3
2.7946274 0.46819955 -0.73239481 0 4
2.9160836 0.48854777 -0.73528147 0 5
3.0440769 0.50999117 -0.73747838 0 6
3.1665103 0.53050315 -0.73599136 0 7
3.2986364 0.55263901 -0.73438966 0 8
3.4445231 0.57708019 -0.73326427 0 9
3.6347337 0.60894722 -0.73843223 0 10
3.8091567 0.63816929 -0.73698527 0 11
3.9807422 0.66691595 -0.73177415 0 12
4.1772885 0.69984448 -0.72773373 0 13
4.1805024 0.70038289 -0.68821836 0 14
4.1785717 0.70005947 -0.64796323 0 15
4.1829348 0.70079041 -0.60877305 0 16
4.1648812 0.69776583 -0.56655568 0 17
4.1652017 0.69781947 -0.52710384 0 18
4.173542 0.69921684 -0.48867556 0 19
4.1821723 0.70066273 -0.45020467 0 20
4.1780119 0.69996566 -0.4103916 0 21
4.1729712 0.69912118 -0.3706488 0 22
4.1828866 0.7007823 -0.33225188 0 23
4.1628008 0.69741726 -0.29162377 0 24
4.1634827 0.69753152 -0.25268203 0 25
4.1705661 0.69871825 -0.21409906 0 26
4.1574492 0.69652063 -0.17457172 0 27
4.1683035 0.69833916 -0.13610178 0 28
4.1782117 0.69999915 -0.097430155 0 29
4.1752896 0.69950962 -0.058410618 0 30
4.1862521 0.70134622 -0.019520225 0 31
4.18367 0.70091361 0.019508185 0 32
4.1714864 0.69887239 0.05835741 0 33
4.160974 0.69711125 0.097028196 0 34
4.1669717 0.69811606 0.1360583 0 35
4.1774468 0.699871 0.17541143 0 36
4.1692533 0.69849831 0.21403167 0 37
4.1677217 0.69824171 0.25293928 0 38
4.1614766 0.69719541 0.29153097 0 39
4.1659322 0.6979419 0.3309052 0 40
4.1727586 0.69908559 0.37062994 0 41
4.1736794 0.69923979 0.40996605 0 42
4.1749249 0.69944853 0.44942451 0 43
4.1773252 0.69985068 0.48911858 0 44
4.168273 0.69833404 0.52749252 0 45
4.1876187 0.70157516 0.56964868 0 46
4.1797147 0.70025092 0.60830438 0 47
4.1741161 0.69931298 0.64727223 0 48
4.1683884 0.69835335 0.68622404 0 49
4.1681905 0.69832021 0.72614872 0 50
4.1704097 0.69869202 0.76664042 0 51
4.1679907 0.69828671 0.8064115 0 52
4.1714897 0.69887292 0.84747946 0 53
4.1644559 0.6976946 0.88652235 0 54
4.1668763 0.69810009 0.92768973 0 55
4.1701241 0.69864416 0.96926111 0 56
4.1785402 0.70005417 1.0123211 0 57
4.1761045 0.69964612 1.0529919 0 58
4.1654181 0.69785577 1.0916412 0 59
4.1692967 0.69850558 1.1342374 0 60
4.1752973 0.69951087 1.1777153 0 61
4.1712875 0.69883913 1.2186041 0 62
4.1598139 0.69691682 1.2573791 0 63
2.4387345 0.439468 -0.7387293 0 0
2.5090418 0.45213759 -0.7345627 0 1
2.6064246 0.4696863 -0.7367608 0 2
2.6854796 0.48393226 -0.73213542 0 3
2.8023446 0.50499171 -0.73598891 0 4
2.9133737 0.52499956 -0.73617029 0 5
3.009867 0.54238796 -0.73075104 0 6
3.141583 0.5661236 -0.73176026 0 7
3.2978113 0.59427649 -0.73577726 0 8
3.4557796 0.62274283 -0.73723489 0 9
3.6244364 0.65313536 -0.73791605 0 10
3.7884862 0.68269771 -0.73455465 0 11
3.9859984 0.71829003 -0.73430854 0 12
4.1696992 0.75139356 -0.72796619 0 13
4.1797066 0.7531969 -0.68955988 0 14
4.1626515 0.7501235 -0.64687586 0 15
4.1707797 0.75158823 -0.60830313 0 16
4.1595602 0.7495665 -0.56704277 0 17
4.1525593 0.7483049 -0.52662861 0 18
4.1648126 0.7505129 -0.48869705 0 19
4.1702867 0.75149935 -0.44988593 0 20
4.1687632 0.75122482 -0.41035947 0 21
4.168921 0.75125331 -0.3710815 0 22
4.1682067 0.75112462 -0.33179441 0 23
4.1684432 0.75116724 -0.29264399 0 24
4.1583238 0.74934363 -0.25290903 0 25
4.1624837 0.75009322 -0.21414143 0 26
4.1661034 0.75074553 -0.17530951 0 27
4.1662621 0.75077415 -0.13632625 0 28
4.1694617 0.7513507 -0.097434185 0 29
4.1749344 0.75233692 -0.058530644 0 30
4.1685891 0.75119346 -0.019479463 0 31
4.1769085 0.75269264 0.019518338 0 32
4.1596766 0.74958742 0.058316737 0 33
4.166769 0.75086546 0.097371258 0 34
4.1662164 0.75076592 0.13632476 0 35
4.1670928 0.75092387 0.17535114 0 36
4.1708083 0.75159335 0.2145697 0 37
4.1620998 0.75002408 0.25313866 0 38
4.1790333 0.75307554 0.29338744 0 39
4.1720781 0.75182223 0.3321026 0 40
4.1723475 0.75187075 0.3713865 0 41
4.1759901 0.75252718 0.41107085 0 42
4.1721425 0.75183386 0.45008615 0 43
4.1642771 0.75041646 0.48863426 0 44
4.1624556 0.75008821 0.52788365 0 45
4.163219 0.75022578 0.56754154 0 46
4.1876521 0.75462872 0.61076397 0 47
4.1686687 0.75120783 0.64781094 0 48
4.1711574 0.75165629 0.68814945 0 49
4.1775732 0.75281245 0.72934091 0 50
4.1674638 0.75099075 0.76773846 0 51
4.1724386 0.75188714 0.80899972 0 52
4.1716805 0.75175053 0.84933203 0 53
4.1633949 0.75025743 0.88819319 0 54
4.1665869 0.75083268 0.92961043 0 55
4.1609569 0.74981815 0.96920013 0 56
4.1676936 0.75103211 1.0118542 0 57
4.172986 0.75198579 1.0544573 0 58
4.1684327 0.75116533 1.0947691 0 59
4.1642327 0.75040847 1.1352842 0 60
4.1691828 0.75130045 1.1785073 0 61
4.1710377 0.75163478 1.221139 0 62
4.1569777 0.74910104 1.2592109 0 63
2.3976893 0.46257964 -0.72796404 0 0
2.5084243 0.48394343 -0.73606837 0 1
2.5829885 0.49832889 -0.73181283 0 2
2.6902957 0.51903135 -0.73513281 0 3
2.7826867 0.53685611 -0.73250455 0 4
2.8973403 0.55897593 -0.73380017 0 5
3.0124948 0.58119237 -0.7330687 0 6
3.1548085 0.6086486 -0.7365284 0 7
3.290802 0.63488543 -0.73589957 0 8
3.4416165 0.66398168 -0.73589963 0 9
3.5842304 0.69149578 -0.73140615 0 10
3.7811735 0.72949141 -0.73482049 0 11
3.9681342 0.76556128 -0.73269635 0 12
4.1790648 0.80625552 -0.73127681 0 13
4.1625037 0.80306041 -0.68829888 0 14
4.1608739 0.80274606 -0.64808464 0 15
4.1821136 0.80684376 -0.61135697 0 16
4.16925 0.804362 -0.56966895 0 17
4.1607442 0.80272102 -0.52887845 0 18
4.1789412 0.80623168 -0.49148104 0 19
4.1677418 0.80407101 -0.45064393 0 20
4.1590614 0.8023963 -0.41034466 0 21
4.1728253 0.80505174 -0.37228203 0 22
4.1772509 0.80590558 -0.33327797 0 23
4.1593451 0.80245113 -0.29267588 0 24
4.1625376 0.80306703 -0.25374672 0 25
4.1631546 0.803186 -0.21466783 0 26
4.1772132 0.80589831 -0.17618069 0 27
4.1740546 0.80528897 -0.13689491 0 28
4.1709361 0.80468726 -0.097692482 0 29
4.1675348 0.80403113 -0.058561087 0 30
4.1750312 0.80547732 -0.019554369 0 31
4.1750464 0.8054803 0.019554444 0 32
4.1768327 0.80582494 0.058691736 0 33
4.1745 0.80537486 0.097775951 0 34
4.1738248 0.80524457 0.13688736 0 35
4.1782827 0.8061046 0.17622578 0 36
4.1643105 0.80340904 0.21472743 0 37
4.1691875 0.80434996 0.25415209 0 38
4.1803207 0.80649781 0.29415181 0 39
4.1751528 0.80550081 0.33311057 0 40
4.1714725 0.80479074 0.37216133 0 41
4.1610842 0.80278659 0.41054428 0 42
4.1756434 0.80559546 0.45149833 0 43
4.1718965 0.80487263 0.49065253 0 44
4.1770191 0.80586094 0.53094715 0 45
4.1879973 0.80797887 0.57223052 0 46
4.148663 0.80039018 0.60646701 0 47
4.166934 0.8039152 0.64902854 0 48
4.1773701 0.80592859 0.69075716 0 49
4.1692443 0.80436087 0.72955835 0 50
4.1626754 0.80309355 0.76861745 0 51
4.1818962 0.8068018 0.81269556 0 52
4.1698184 0.80447161 0.85090256 0 53
4.1678576 0.80409336 0.89118725 0 54
4.1795416 0.80634749 0.93464231 0 55
4.1848245 0.80736673 0.97699815 0 56
4.1686754 0.80425113 1.0144168 0 57
4.1657453 0.80368584 1.0550451 0 58
4.1786671 0.80617881 1.0999774 0 59
4.1703033 0.80456519 1.1395502 0 60
4.1523137 0.80109447 1.1764344 0 61
4.1755924 0.80558562 1.2252798 0 62
4.1549425 0.80160165 1.2614847 0 63
2.4064167 0.4950282 -0.73240656 0 0
2.4905748 0.51234049 -0.73262393 0 1
2.5912595 0.5330525 -0.73595762 0 2
2.6848226 0.55229956 -0.73543745 0 3
2.7835348 0.57260579 -0.73452568 0 4
2.8920727 0.59493333 -0.73426336 0 5
3.0171773 0.62066883 -0.73600978 0 6
3.1545804 0.64893425 -0.73828226 0 7
3.2664864 0.67195463 -0.73225439 0 8
3.4186671 0.70326 -0.73278618 0 9
3.5923393 0.73898637 -0.73485965 0 10
3.7702584 0.77558649 -0.73449719 0 11
3.9872596 0.82022619 -0.73803431 0 12
4.1679974 0.85740602 -0.73112977 0 13
4.1801124 0.85989821 -0.69290662 0 14
4.1725783 0.85834837 -0.65150231 0 15
4.1622577 0.85622531 -0.60994732 0 16
4.1786609 0.85959965 -0.57235587 0 17
4.1743078 0.85870421 -0.53190446 0 18
4.1583185 0.85541493 -0.49025562 0 19
4.1681099 0.85742921 -0.45178965 0 20
4.1709633 0.85801619 -0.41252872 0 21
4.1689119 0.85759413 -0.37284553 0 22
4.1678004 0.85736555 -0.3333399 0 23
4.163723 0.85652673 -0.29370284 0 24
4.1635938 0.85650021 -0.2544339 0 25
4.1749926 0.858845 -0.21580647 0 26
4.17414 0.85866964 -0.17648305 0 27
4.1458387 0.8528477 -0.13630314 0 28
4.1707211 0.8579663 -0.097927146 0 29
4.1772647 0.85931242 -0.058841832 0 30
4.1783843 0.85954273 -0.019618096 0 31
4.1640506 0.85659415 0.019550797 0 32
4.1690345 0.85761935 0.058725901 0 33
4.1726594 0.85836506 0.097972661 0 34
4.1663947 0.85707635 0.13697897 0 35
4.1705289 0.85792685 0.17633039 0 36
4.1611476 0.85599691 0.21509081 0 37
4.1789298 0.8596549 0.25537103 0 38
4.1648068 0.85674971 0.29377928 0 39
4.163229 0.85642511 0.33297428 0 40
4.1707263 0.85796738 0.3730078 0 41
4.1695347 0.85772234 0.41238746 0 42
4.1717715 0.85818243 0.45218652 0 43
4.1797123 0.8598159 0.49277791 0 44
4.1737938 0.85859847 0.53183901 0 45
4.1514897 0.85401022 0.56863415 0 46
4.170424 0.85790515 0.61114401 0 47
4.1560354 0.85494536 0.6489194 0 48
4.1659193 0.85697848 0.69055396 0 49
4.175519 0.85895336 0.73244923 0 50
4.1635809 0.85649747 0.77067101 0 51
4.1642537 0.85663599 0.81125277 0 52
4.1721134 0.85825276 0.85346001 0 53
4.17314 0.85846394 0.89450628 0 54
4.1756544 0.85898119 0.9360643 0 55
4.1640434 0.85659266 0.97453195 0 56
4.1480784 0.8533085 1.0118816 0 57
4.1638861 0.85656029 1.0571618 0 58
4.1642346 0.85663193 1.0988679 0 59
4.1770215 0.85926241 1.1441866 0 60
4.160141 0.8557899 1.1815443 0 61
4.1748972 0.85882545 1.2280819 0 62
4.1701331 0.85784537 1.2692035 0 63
2.4047565 0.52558619 -0.73381275 0 0
2.4946141 0.54522556 -0.73572868 0 1
2.578928 0.56365329 -0.73436832 0 2
2.6827888 0.58635324 -0.73679972 0 3
2.8012543 0.61224514 -0.74113214 0 4
2.8945484 0.63263559 -0.73681122 0 5
2.9974313 0.6551218 -0.73310256 0 6
3.1294703 0.68398041 -0.73431844 0 7
3.272939 0.7153371 -0.7356171 0 8
3.412796 0.74590439 -0.73343825 0 9
3.5972407 0.7862168 -0.73778415 0 10
3.7897904 0.82830065 -0.7402305 0 11
3.9527066 0.86390781 -0.73354942 0 12
4.1732903 0.91211879 -0.73397022 0 13
4.1813879 0.91388863 -0.69492835 0 14
4.1636925 0.91002113 -0.65181285 0 15
4.1789165 0.9133485 -0.61398792 0 16
4.1750898 0.91251212 -0.57336026 0 17
4.1733255 0.91212654 -0.5331682 0 18
4.1709495 0.91160715 -0.49302909 0 19
4.1755357 0.91260958 -0.45377657 0 20
4.1647234 0.91024643 -0.41298738 0 21
4.1639485 0.9100771 -0.37337425 0 22
4.170464 0.91150111 -0.33442411 0 23
4.1812539 0.91385943 -0.29570976 0 24
4.1740861 0.91229272 -0.25574124 0 25
4.1624126 0.90974134 -0.21571814 0 26
4.169817 0.91135967 -0.17676072 0 27
4.1709619 0.91160995 -0.13748728 0 28
4.162282 0.90971279 -0.097984239 0 29
4.1704183 0.9114911 -0.058898821 0 30
4.157352 0.90863526 -0.019570325 0 31
4.1761303 0.91273957 0.019658722 0 32
4.1614647 0.90953422 0.05877237 0 33
4.1665401 0.91064352 0.098084487 0 34
4.1639829 0.91008455 0.13725722 0 35
4.1651216 0.9103334 0.17656168 0 36
4.1699677 0.91139263 0.21610969 0 37
4.1725111 0.9119485 0.25564474 0 38
4.1742568 0.91233009 0.29521489 0 39
4.1791739 0.91340476 0.33512256 0 40
4.1706033 0.91153151 0.37397096 0 41
4.1849098 0.91465843 0.41498911 0 42
4.1707034 0.91155344 0.45325142 0 43
4.1716661 0.91176385 0.49311385 0 44
4.1632624 0.90992707 0.53188252 0 45
4.164011 0.91009068 0.5718388 0 46
4.1683335 0.91103548 0.61243302 0 47
4.1644363 0.91018373 0.65192932 0 48
4.1642427 0.91014135 0.69207889 0 49
4.185792 0.91485125 0.73616892 0 50
4.1592011 0.9090395 0.77187103 0 51
4.1616745 0.90958005 0.81286776 0 52
4.1588964 0.90897286 0.85297817 0 53
4.173799 0.91223001 0.8969841 0 54
4.1653986 0.91039401 0.93620396 0 55
4.1686664 0.9111082 0.97816193 0 56
4.1732864 0.91211796 1.0206896 0 57
4.1631441 0.90990132 1.0597341 0 58
4.1645207 0.91020215 1.1018137 0 59
4.1828632 0.91421103 1.1487793 0 60
4.1700482 0.91141021 1.1874512 0 61
4.176981 0.91292542 1.2319038 0 62
4.1661496 0.9105581 1.2713027 0 63
2.3986564 0.55524015 -0.73397923 0 0
2.4790518 0.57385004 -0.73316461 0 1
2.5774832 0.59663492 -0.73599035 0 2
2.6712699 0.6183446 -0.73566872 0 3
2.7584553 0.63852626 -0.73183072 0 4
2.8830802 0.66737443 -0.73592538 0 5
2.9872067 0.6914776 -0.73262608 0 6
3.1322021 0.72504109 -0.73699576 0 7
3.2487211 0.75201285 -0.73219693 0 8
3.4189851 0.79142547 -0.73680407 0 9
3.5582254 0.8236568 -0.73180413 0 10
3.7529609 0.86873412 -0.73506784 0 11
3.9574168 0.91606146 -0.73645836 0 12
4.1729569 0.9659546 -0.73594493 0 13
4.1832356 0.96833396 -0.69716167 0 14
4.16959 0.96517527 -0.65454459 0 15
4.176353 0.96674073 -0.61531132 0 16
4.1679139 0.9647873 -0.5739606 0 17
4.1566758 0.96218586 -0.53251231 0 18
4.1619258 0.96340114 -0.49332547 0 19
4.1802783 0.96764934 -0.45555061 0 20
4.1624551 0.96352363 -0.41390601 0 21
4.1708941 0.96547717 -0.37503323 0 22
4.1621871 0.96346164 -0.33468509 0 23
4.1671901 0.96461976 -0.29553163 0 24
4.160965 0.96317869 -0.25564364 0 25
4.1641459 0.96391511 -0.21640588 0 26
4.1745534 0.96632421 -0.17745179 0 27
4.1662531 0.96440279 -0.13771254 0 28
4.1614985 0.96330225 -0.098237224 0 29
4.1665988 0.96448284 -0.059007913 0 30
4.170001 0.9652704 -0.019684255 0 31
4.1735811 0.96609914 0.019701155 0 32
4.1611667 0.96322536 0.058930982 0 33
4.179811 0.96754122 0.098669507 0 34
4.1536222 0.96147907 0.13729504 0 35
4.1632662 0.96371144 0.176972 0 36
4.1552272 0.96185058 0.2159424 0 37
4.1668935 0.96455109 0.25600791 0 38
4.1585903 0.96262908 0.29492176 0 39
4.1664577 0.96445024 0.3350285 0 40
4.1591682 0.96276283 0.37397888 0 41
4.1731553 0.96600056 0.41497001 0 42
4.1633544 0.96373183 0.45370629 0 43
4.1697125 0.96520364 0.49424848 0 44
4.1660566 0.96435732 0.53371412 0 45
4.1517415 0.96104372 0.57173353 0 46
4.1615911 0.96332371 0.61313647 0 47
4.1806517 0.96773583 0.65628105 0 48
4.1704535 0.96537519 0.69503146 0 49
4.1908393 0.97009403 0.73909867 0 50
4.1789756 0.96734786 0.77768952 0 51
4.1640935 0.96390295 0.81559366 0 52
4.1645446 0.96400738 0.85650307 0 53
4.1697192 0.96520519 0.89859009 0 54
4.1804543 0.96769011 0.942191 0 55
4.1604362 0.96305633 0.97893548 0 56
4.1683221 0.96488184 1.0223 0 57
4.1737986 0.96614951 1.0653898 0 58
4.1750097 0.96642983 1.1076491 0 59
4.1713691 0.96558708 1.1487966 0 60
4.1804171 0.96768147 1.193702 0 61
4.1799006 0.96756202 1.2361804 0 62
4.1666665 0.96449852 1.2749832 0 63
2.3987463 0.58642626 -0.7361576 0 0
2.4912853 0.60904944 -0.73894155 0 1
2.5719647 0.62877333 -0.73656666 0 2
2.6803751 0.6552766 -0.7403394 0 3
2.770541 0.67731971 -0.73719102 0 4
2.8794475 0.70394427 -0.7371518 0 5
2.9950242 0.73219955 -0.73669577 0 6
3.1200764 0.76277131 -0.73629391 0 7
3.2292573 0.78946292 -0.72994292 0 8
3.3832295 0.82710481 -0.73123509 0 9
3.566071 0.87180448 -0.73556685 0 10
3.7426155 0.91496468 -0.73518956 0 11
3.9526391 0.96630955 -0.73772472 0 12
4.1397243 1.0120466 -0.73222333 0 13
4.1867499 1.0235431 -0.69979197 0 14
4.1740494 1.0204382 -0.65716469 0 15
4.1656237 1.0183784 -0.615529 0 16
4.1710329 1.0197008 -0.57607329 0 17
4.1833658 1.0227158 -0.53750205 0 18
4.1685586 1.0190958 -0.4955596 0 19
4.1680913 1.0189816 -0.45555353 0 20
4.1618114 1.0174464 -0.41505474 0 21
4.1556153 1.0159316 -0.37475437 0 22
4.1692929 1.0192753 -0.33623889 0 23
4.1817183 1.022313 -0.29743099 0 24
4.1740456 1.0204372 -0.25719881 0 25
4.1668267 1.0186723 -0.21717975 0 26
4.1695538 1.0193391 -0.17775862 0 27
4.1665583 1.0186068 -0.13812621 0 28
4.167767 1.0189023 -0.0986735 0 29
4.1736774 1.0203472 -0.059281368 0 30
4.1784081 1.0215037 -0.019781737 0 31
4.1566162 1.0161762 0.01967857 0 32
4.1702919 1.0195196 0.059233282 0 33
4.1661358 1.0185035 0.098634876 0 34
4.1628909 1.0177102 0.13800463 0 35
4.1913133 1.0246587 0.17868631 0 36
4.1802306 1.0219493 0.21787839 0 37
4.1690969 1.0192274 0.25689384 0 38
4.1706848 1.0196155 0.29664618 0 39
4.1700859 1.0194693 0.33630285 0 40
4.1632714 1.0178033 0.3754448 0 41
4.1687269 1.019137 0.41574439 0 42
4.161665 1.0174104 0.45485115 0 43
4.1734223 1.0202849 0.4961378 0 44
4.171905 1.0199139 0.53602952 0 45
4.1693511 1.0192896 0.57584101 0 46
4.1813374 1.0222199 0.61785096 0 47
4.1848788 1.0230856 0.65886962 0 48
4.173727 1.0203593 0.69761521 0 49
4.177845 1.0213661 0.73896611 0 50
4.1614761 1.0173644 0.77670228 0 51
4.1680198 1.0189641 0.81875485 0 52
4.1650534 1.0182389 0.85911787 0 53
4.1776018 1.0213066 0.90292692 0 54
4.1782103 1.0214554 0.94444472 0 55
4.1810632 1.0221528 0.98667169 0 56
4.1732101 1.020233 1.0264981 0 57
4.1615062 1.0173718 1.0653648 0 58
4.1769071 1.0211368 1.1113997 0 59
4.1649117 1.0182042 1.1503794 0 60
4.1742973 1.0204988 1.1954473 0 61
4.1798325 1.021852 1.2397826 0 62
4.1704941 1.0195689 1.279894 0 63
2.3830101 0.61372679 -0.73358887 0 0
2.4681778 0.63566113 -0.73435062 0 1
2.546509 0.65583473 -0.73153079 0 2
2.6545811 0.6836679 -0.73548126 0 3
2.7533486 0.70910478 -0.73488098 0 4
2.8620243 0.73709339 -0.7349562 0 5
2.9883564 0.76962924 -0.73732775 0 6
3.0792747 0.79304463 -0.7289114 0 7
3.2293477 0.83169478 -0.7322197 0 8
3.3903406 0.87315732 -0.73503703 0 9
3.5448024 0.91293788 -0.73343998 0 10
3.7486868 0.96544683 -0.73865837 0 11
3.912385 1.007606 -0.73246872 0 12
4.1450901 1.0675375 -0.73543876 0 13
4.1612954 1.0717112 -0.69768733 0 14
4.1568494 1.0705661 -0.65647966 0 15
4.1738777 1.0749516 -0.61865509 0 16
4.1839371 1.0775423 -0.57964164 0 17
4.1619964 1.0718917 -0.53640938 0 18
4.1586318 1.0710251 -0.49590763 0 19
4.1787515 1.0762068 -0.45813042 0 20
4.1687493 1.0736308 -0.41703171 0 21
4.1415515 1.0666262 -0.37464052 0 22
4.1816411 1.076951 -0.33827713 0 23
4.1728873 1.0746965 -0.29772028 0 24
4.1803703 1.0766237 -0.2583847 0 25
4.1690888 1.0737183 -0.21796934 0 26
4.1674185 1.0732881 -0.17821679 0 27
4.1599536 1.0713656 -0.13833353 0 28
4.1590228 1.0711259 -0.098770842 0 29
4.1664619 1.0730418 -0.059361808 0 30
4.1609006 1.0716094 -0.019759741 0 31
4.1678734 1.0734053 0.019792857 0 32
4.1742077 1.0750365 0.059472162 0 33
4.1736417 1.0748909 0.099118017 0 34
4.1658959 1.0728959 0.13853113 0 35
4.1737547 1.0749198 0.17848773 0 36
4.1745434 1.0751231 0.21825451 0 37
4.1664238 1.0730319 0.2575227 0 38
4.1682887 1.0735122 0.29739219 0 39
4.1688037 1.0736448 0.33723861 0 40
4.1775322 1.0758928 0.37789533 0 41
4.1557612 1.0702858 0.41573241 0 42
4.1825252 1.0771787 0.45854414 0 43
4.1655941 1.0728182 0.49673787 0 44
4.1630387 1.0721601 0.53654373 0 45
4.1609402 1.0716196 0.57645565 0 46
4.16646 1.0730412 0.61755556 0 47
4.1716576 1.0743798 0.65881824 0 48
4.1718345 1.0744253 0.69945425 0 49
4.1650472 1.0726774 0.73897964 0 50
4.1564198 1.0704554 0.77815646 0 51
4.1713705 1.074306 0.82194597 0 52
4.1649876 1.072662 0.86175978 0 53
4.1751232 1.0752723 0.90518051 0 54
4.1719422 1.0744532 0.94594288 0 55
4.1623912 1.0719934 0.98530167 0 56
4.1494141 1.0686512 1.0237997 0 57
4.1704521 1.0740694 1.0709552 0 58
4.1654358 1.0727775 1.1117734 0 59
4.174634 1.0751464 1.156629 0 60
4.1831965 1.0773516 1.2016989 0 61
4.1659274 1.0729041 1.2394776 0 62
4.1685519 1.07358 1.2832524 0 63
2.3629072 0.63963044 -0.72976637 0 0
2.476819 0.67046601 -0.73931861 0 1
2.5537808 0.69129926 -0.73600602 0 2
2.6407192 0.71483314 -0.73402053 0 3
2.7510726 0.7447055 -0.73666197 0 4
2.8541071 0.77259654 -0.73530716 0 5
2.9766574 0.80577046 -0.73683017 0 6
3.0964203 0.83818984 -0.73535424 0 7
3.2328286 0.87511504 -0.73539329 0 8
3.3651793 0.91094196 -0.73195517 0 9
3.5305271 0.95570099 -0.73286241 0 10
3.7093148 1.0040982 -0.7332778 0 11
3.9162378 1.0601115 -0.73557496 0 12
4.1424613 1.1213493 -0.73736304 0 13
4.1695728 1.1286883 -0.70134902 0 14
4.1754618 1.1302825 -0.66156399 0 15
4.1686635 1.1284422 -0.619892 0 16
4.1700578 1.1288197 -0.57959801 0 17
4.1692882 1.1286113 -0.53909701 0 18
4.179213 1.1312979 -0.49998298 0 19
4.1805382 1.1316566 -0.45981708 0 20
4.1726074 1.1295098 -0.41877544 0 21
4.1728683 1.1295804 -0.37870124 0 22
4.1649933 1.1274487 -0.33802634 0 23
4.1616335 1.1265391 -0.29788315 0 24
4.1697392 1.1287334 -0.25856593 0 25
4.1728435 1.1295738 -0.21887529 0 26
4.1800618 1.1315277 -0.17933892 0 27
4.1599984 1.1260966 -0.13878499 0 28
4.1637306 1.1271069 -0.099204279 0 29
4.172915 1.129593 -0.059647135 0 30
4.1685734 1.1284178 -0.019860571 0 31
4.1617594 1.1265733 0.019828109 0 32
4.1613765 1.1264696 0.059482206 0 33
4.1692028 1.1285882 0.099334657 0 34
4.1764073 1.1305385 0.13933243 0 35
4.1671119 1.1280222 0.17878333 0 36
4.169816 1.1287541 0.21871647 0 37
4.1800599 1.1315271 0.25920594 0 38
4.1860609 1.1331517 0.29963166 0 39
4.1791716 1.1312867 0.33917704 0 40
4.1695356 1.1286783 0.37839881 0 41
4.1699123 1.1287802 0.41850495 0 42
4.1701388 1.1288415 0.45867324 0 43
4.1716695 1.1292559 0.49908048 0 44
4.1786642 1.1311494 0.54030937 0 45
4.1740599 1.129903 0.5801543 0 46
4.1658301 1.1276752 0.61947066 0 47
4.1817741 1.1319911 0.6625641 0 48
4.1687131 1.1284556 0.70120442 0 49
4.1766748 1.1306109 0.74345309 0 50
4.1642923 1.127259 0.7821663 0 51
4.1761575 1.1304708 0.82556581 0 52
4.1717319 1.1292728 0.86596292 0 53
4.1717105 1.129267 0.90738255 0 54
4.1588583 1.125788 0.94604349 0 55
4.1564922 1.1251475 0.98710561 0 56
4.1753721 1.1302582 1.0335554 0 57
4.174015 1.1298908 1.0753566 0 58
4.1679053 1.128237 1.116051 0 59
4.173665 1.1297961 1.1601218 0 60
4.173852 1.1298467 1.2029146 0 61
4.1720548 1.1293602 1.2453383 0 62
4.1665778 1.1278777 1.2868168 0 63
2.3880029 0.67804468 -0.74003601 0 0
2.4540558 0.6967997 -0.73502588 0 1
2.5511053 0.7243557 -0.73774618 0 2
2.6403368 0.7496919 -0.73642099 0 3
2.7307281 0.77535748 -0.73371178 0 4
2.8546991 0.81055754 -0.73797166 0 5
2.9520488 0.83819878 -0.73323458 0 6
3.0755572 0.87326753 -0.73289424 0 7
3.2222035 0.91490597 -0.73547983 0 8
3.3586893 0.95365947 -0.73303878 0 9
3.5371373 1.0043277 -0.73674238 0 10
