# .PCD v0.7 - Point Cloud Data file format
VERSION 0.7
FIELDS x y z intensity ring
SIZE 4 4 4 4 2
TYPE F F F F U
COUNT 1 1 1 1 1
WIDTH 1342
HEIGHT 1
VIEWPOINT 0 0 0 1 0 0 0
POINTS 1342
DATA ascii
2.4124372 -2.9872346 -0.73268652 0 11
2.5393081 -3.1443343 -0.7327581 0 12
2.6773484 -3.3152645 -0.73217535 0 13
2.8419125 -3.5190384 -0.7344135 0 14
3.0147595 -3.7330687 -0.73385006 0 15
3.2208459 -3.9882584 -0.73582834 0 16
3.4519434 -4.2744179 -0.73711598 0 17
3.7169693 -4.6025901 -0.73838234 0 18
3.9029222 -4.8328485 -0.71736127 0 19
3.904928 -4.8353324 -0.65986222 0 20
3.9032216 -4.8332195 -0.60184437 0 21
3.9090466 -4.8404322 -0.54502982 0 22
3.9163997 -4.8495374 -0.48832682 0 23
3.8971944 -4.8257561 -0.42856979 0 24
3.9087985 -4.8401251 -0.37238577 0 25
3.9040852 -4.8342886 -0.31460905 0 26
3.8988893 -4.8278551 -0.25699228 0 27
3.9055243 -4.836071 -0.20017785 0 28
3.9034312 -4.8334789 -0.14288336 0 29
3.9058239 -4.836442 -0.085772894 0 30
3.900631 -4.8300118 -0.028551342 0 31
3.9050608 -4.8354969 0.028583765 0 32
3.9051833 -4.8356485 0.08575882 0 33
3.9092379 -4.8406692 0.14309591 0 34
3.9021297 -4.8318672 0.20000386 0 35
3.9075971 -4.8386378 0.25756624 0 36
3.9031007 -4.8330698 0.31452972 0 37
3.8921661 -4.81953 0.37080121 0 38
3.9017494 -4.8313966 0.42907068 0 39
3.9032969 -4.833313 0.48669308 0 40
3.9128122 -4.8450952 0.54555482 0 41
3.903765 -4.8338923 0.60192817 0 42
3.9081442 -4.8393149 0.66040576 0 43
3.9093392 -4.8407946 0.71854073 0 44
3.9131207 -4.8454771 0.77734816 0 45
3.9046443 -4.8349814 0.83378416 0 46
3.9010594 -4.8305421 0.89122862 0 47
3.9040129 -4.8341994 0.95031136 0 48
3.9059639 -4.8366156 1.0093882 0 49
3.9106722 -4.8424454 1.0694529 0 50
3.9073238 -4.8382993 1.1275209 0 51
3.9051585 -4.835618 1.1860441 0 52
3.9125631 -4.8447866 1.2477615 0 53
3.9035378 -4.833611 1.3044337 0 54
3.8996654 -4.8288159 1.3628613 0 55
3.8973076 -4.8258967 1.4219644 0 56
3.9021478 -4.8318896 1.4839853 0 57
3.9081402 -4.8393102 1.5468776 0 58
3.9056537 -4.8362312 1.6067461 0 59
3.9036872 -4.833796 1.6670489 0 60
3.8972909 -4.8258758 1.725631 0 61
0 0 0 0 62
0 0 0 0 63
1.5719482 -1.8982543 -0.73473841 0 0
1.6274658 -1.9652965 -0.73520184 0 1
1.6825838 -2.0318558 -0.73389143 0 2
1.7357383 -2.0960441 -0.73017603 0 3
1.7947209 -2.1672704 -0.72731143 0 4
1.8783242 -2.2682281 -0.73236293 0 5
1.9701414 -2.3791049 -0.73806274 0 6
2.0406094 -2.4642007 -0.73342192 0 7
2.1323433 -2.5749767 -0.73409355 0 8
2.2294972 -2.6922977 -0.73390609 0 9
2.3370667 -2.8221967 -0.73419482 0 10
2.4580262 -2.9682651 -0.73539156 0 11
2.577817 -3.112922 -0.73276925 0 12
2.7254393 -3.291188 -0.73420393 0 13
2.8722365 -3.4684575 -0.73117298 0 14
3.0720439 -3.7097411 -0.73663455 0 15
3.2694893 -3.9481721 -0.73579431 0 16
3.5069699 -4.2349496 -0.73769045 0 17
3.7388518 -4.5149655 -0.73164529 0 18
3.8959167 -4.7046337 -0.70538735 0 19
3.902271 -4.7123075 -0.64957255 0 20
3.9028289 -4.7129812 -0.59280318 0 21
3.8988266 -4.708148 -0.53549242 0 22
3.9054244 -4.716115 -0.47969124 0 23
3.8969803 -4.7059183 -0.42215085 0 24
3.8979018 -4.7070312 -0.36580586 0 25
3.897429 -4.70646 -0.30938563 0 26
3.9115555 -4.7235193 -0.2539795 0 27
3.9013991 -4.7112546 -0.19698223 0 28
3.9078393 -4.7190313 -0.14091 0 29
3.8947082 -4.7031746 -0.084252402 0 30
3.8956337 -4.7042923 -0.028089223 0 31
3.8992198 -4.7086229 0.028115081 0 32
3.906718 -4.7176776 0.084512204 0 33
3.9044662 -4.7149582 0.14078838 0 34
3.9020205 -4.7120051 0.1970136 0 35
3.9022367 -4.712266 0.25337443 0 36
3.9012487 -4.7110729 0.30968884 0 37
3.9016287 -4.7115316 0.36615562 0 38
3.9028187 -4.7129688 0.42278329 0 39
3.9030726 -4.7132754 0.47940239 0 40
3.9131229 -4.7254119 0.53745598 0 41
3.9012649 -4.7110925 0.5925656 0 42
3.901242 -4.7110648 0.64940131 0 43
3.8998873 -4.7094288 0.70610631 0 44
3.9039495 -4.7143345 0.76395279 0 45
3.8998218 -4.7093496 0.82032675 0 46
3.9028418 -4.7129965 0.87832952 0 47
3.8998692 -4.7094069 0.93513584 0 48
3.8915603 -4.6993732 0.99065793 0 49
3.8939579 -4.7022686 1.0489902 0 50
3.9102232 -4.7219105 1.1115186 0 51
3.903199 -4.713428 1.167758 0 52
3.8995442 -4.7090144 1.2250507 0 53
3.9036877 -4.7140179 1.2850164 0 54
3.8997357 -4.7092457 1.3425468 0 55
3.8984776 -4.7077265 1.4011642 0 56
3.9083967 -4.7197046 1.4641801 0 57
3.9009426 -4.7107029 1.5209866 0 58
3.9006186 -4.7103119 1.5807275 0 59
3.9008892 -4.710639 1.6409937 0 60
3.9016297 -4.7115331 1.7017711 0 61
3.9043632 -4.7148337 1.7637819 0 62
0 0 0 0 63
1.6069188 -1.8926213 -0.74015021 0 0
1.6473705 -1.9402651 -0.73336023 0 1
1.7061244 -2.0094652 -0.7333262 0 2
1.7790099 -2.0953095 -0.73748481 0 3
1.8410931 -2.1684306 -0.73524261 0 4
1.9156693 -2.2562661 -0.73605072 0 5
1.9963632 -2.3513069 -0.73699892 0 6
2.0695765 -2.4375374 -0.73300493 0 7
2.15642 -2.5398211 -0.73157531 0 8
2.2600286 -2.6618507 -0.73312652 0 9
2.3775291 -2.8002427 -0.73603332 0 10
2.4865787 -2.9286807 -0.73310435 0 11
2.6222079 -3.088424 -0.73453707 0 12
2.7677777 -3.2598753 -0.73475546 0 13
2.9372256 -3.4594505 -0.73683232 0 14
3.107836 -3.6603944 -0.73436868 0 15
3.3261237 -3.9174924 -0.73764312 0 16
3.5311368 -4.1589561 -0.73196119 0 17
3.8064985 -4.4832759 -0.73403943 0 18
3.8996646 -4.5930061 -0.69578761 0 19
3.9077756 -4.6025596 -0.64101958 0 20
3.9102495 -4.605473 -0.58528429 0 21
3.8992479 -4.5925155 -0.52775413 0 22
3.9035842 -4.5976229 -0.47248554 0 23
3.9018881 -4.5956254 -0.41652942 0 24
3.8944554 -4.5868711 -0.36016202 0 25
3.908639 -4.6035762 -0.30575874 0 26
3.9137373 -4.609581 -0.25042185 0 27
3.8941097 -4.5864639 -0.19375202 0 28
3.9073176 -4.6020198 -0.1388402 0 29
3.9009614 -4.5945334 -0.083159223 0 30
3.9048464 -4.5991096 -0.027745783 0 31
3.9108269 -4.6061535 0.027788278 0 32
3.9089653 -4.6039605 0.083329849 0 33
3.9075642 -4.6023107 0.13884896 0 34
3.9120491 -4.6075926 0.1946446 0 35
3.8959465 -4.5886269 0.24928351 0 36
3.8940566 -4.5864015 0.30461803 0 37
3.9058855 -4.6003332 0.36121908 0 38
3.8976779 -4.5906663 0.41607997 0 39
3.9029977 -4.5969319 0.47241455 0 40
3.8953626 -4.5879397 0.5272283 0 41
3.8984606 -4.5915885 0.58351976 0 42
3.8985198 -4.5916576 0.63950121 0 43
3.9035838 -4.5976224 0.69648683 0 44
3.8977032 -4.5906959 0.75162721 0 45
3.9039972 -4.5981092 0.80925065 0 46
3.9120758 -4.6076241 0.86759126 0 47
3.9050181 -4.5993118 0.92273951 0 48
3.9067945 -4.6014037 0.98005831 0 49
3.9056251 -4.6000266 1.0368172 0 50
3.911387 -4.606813 1.095664 0 51
3.906358 -4.6008897 1.15169 0 52
3.8991849 -4.5924416 1.2071061 0 53
3.9112618 -4.6066656 1.2687671 0 54
3.9073963 -4.6021128 1.3256019 0 55
3.8971605 -4.5900569 1.3803006 0 56
3.8999233 -4.5933113 1.4397377 0 57
3.903656 -4.5977073 1.4998877 0 58
3.8941548 -4.5865169 1.5551351 0 59
3.8983202 -4.591423 1.6160405 0 60
3.9108179 -4.6061425 1.6809473 0 61
3.9022317 -4.5960298 1.7371573 0 62
0 0 0 0 63
1.6315559 -1.8744296 -0.74082577 0 0
1.6875811 -1.9387946 -0.74059182 0 1
1.7380795 -1.9968102 -0.73645175 0 2
1.7960724 -2.063436 -0.73398423 0 3
1.8659461 -2.1437111 -0.73458517 0 4
1.9368312 -2.2251482 -0.73361325 0 5
2.0169921 -2.3172419 -0.7340399 0 6
2.1064367 -2.4200013 -0.73546499 0 7
2.1946182 -2.5213094 -0.73396081 0 8
2.2895958 -2.6304255 -0.73217016 0 9
2.4139316 -2.7732697 -0.73668998 0 10
2.5376565 -2.9154122 -0.73753828 0 11
2.6679618 -3.065115 -0.73674023 0 12
2.794044 -3.2099657 -0.73119467 0 13
2.9745715 -3.4173665 -0.73560375 0 14
3.1441767 -3.6122191 -0.73240483 0 15
3.3685994 -3.8700495 -0.73645371 0 16
3.5881448 -4.1222763 -0.73321557 0 17
3.8782563 -4.455574 -0.73725617 0 18
3.9076793 -4.489377 -0.68731606 0 19
3.9008832 -4.4815693 -0.63080162 0 20
3.9102962 -4.4923835 -0.57697928 0 21
3.9086261 -4.4904647 -0.52151054 0 22
3.9003758 -4.4809866 -0.46539274 0 23
3.9109848 -4.4931746 -0.41157138 0 24
3.9048645 -4.4861431 -0.35599616 0 25
3.914922 -4.4976978 -0.30190104 0 26
3.9069335 -4.4885201 -0.24643636 0 27
3.9144232 -4.4971247 -0.19199681 0 28
3.8998036 -4.480329 -0.13660526 0 29
3.9122989 -4.4946842 -0.082216501 0 30
3.895076 -4.4748974 -0.027283315 0 31
3.9038923 -4.4850259 0.027345069 0 32
3.90364 -4.4847364 0.082034536 0 33
3.9113462 -4.4935899 0.13700959 0 34
3.9056439 -4.4870386 0.1915662 0 35
3.8972335 -4.477376 0.2458245 0 36
3.9073098 -4.4889522 0.30131403 0 37
3.8984928 -4.4788227 0.35541525 0 38
3.9030595 -4.4840693 0.41073737 0 39
3.8987913 -4.479166 0.46520367 0 40
3.8995938 -4.4800878 0.5203054 0 41
3.9014542 -4.4822254 0.57567459 0 42
3.8998599 -4.4803934 0.6306361 0 43
3.9108913 -4.4930673 0.68788105 0 44
3.8979733 -4.4782262 0.74100435 0 45
3.9030437 -4.4840512 0.79756325 0 46
3.9046791 -4.48593 0.85365313 0 47
3.9144933 -4.4972053 0.91184247 0 48
3.8982506 -4.4785447 0.96402717 0 49
3.9037619 -4.4848762 1.0216053 0 50
3.9033494 -4.4844022 1.0778844 0 51
3.9043283 -4.485527 1.1347444 0 52
3.9047983 -4.4860668 1.1916766 0 53
3.9050031 -4.4863024 1.2487473 0 54
3.9041641 -4.4853382 1.3056955 0 55
3.8953865 -4.4752541 1.3600791 0 56
3.9029942 -4.4839945 1.4204088 0 57
3.9015551 -4.4823408 1.4777914 0 58
3.9112411 -4.4934688 1.5397764 0 59
3.8970122 -4.4771218 1.5925558 0 60
3.9048214 -4.4860935 1.6545346 0 61
3.9050541 -4.486361 1.7137258 0 62
0 0 0 0 63
1.6369326 -1.8345613 -0.73296869 0 0
1.6999173 -1.9051503 -0.7356692 0 1
1.7613845 -1.9740385 -0.7359857 0 2
1.8182325 -2.0377498 -0.73274493 0 3
1.8817986 -2.1089904 -0.73056144 0 4
1.9671307 -2.2046247 -0.73476613 0 5
2.0529048 -2.3007543 -0.73675787 0 6
2.1237531 -2.3801563 -0.73123693 0 7
2.2222743 -2.490572 -0.73291236 0 8
2.3462591 -2.6295257 -0.73989427 0 9
2.4380925 -2.7324462 -0.73375404 0 10
2.5794816 -2.8909056 -0.73930681 0 11
2.7000854 -3.0260699 -0.73528004 0 12
2.8422787 -3.1854303 -0.73351157 0 13
3.0146129 -3.3785706 -0.73517644 0 14
3.192836 -3.578311 -0.73343462 0 15
3.4170599 -3.8296056 -0.73669755 0 16
3.6464272 -4.0866647 -0.73480105 0 17
3.9004731 -4.3713818 -0.73120594 0 18
3.9117525 -4.3840227 -0.6784994 0 19
3.9100056 -4.3820653 -0.6235162 0 20
3.9001131 -4.3709784 -0.56750315 0 21
3.9022593 -4.3733835 -0.51344699 0 22
3.9034109 -4.3746743 -0.45930159 0 23
3.9037509 -4.3750553 -0.40511811 0 24
3.9004908 -4.3714018 -0.35067043 0 25
3.8934302 -4.3634887 -0.29608366 0 26
3.9072354 -4.3789606 -0.24304061 0 27
3.9104118 -4.3825202 -0.18914255 0 28
3.9060211 -4.3775997 -0.13492729 0 29
3.9030287 -4.3742461 -0.080885231 0 30
3.9045291 -4.3759274 -0.026970586 0 31
3.9029827 -4.3741946 0.026959905 0 32
3.9063122 -4.3779259 0.08095327 0 33
3.9048898 -4.3763318 0.13488822 0 34
3.9050364 -4.3764963 0.18888256 0 35
3.9109972 -4.3831763 0.24327458 0 36
3.9033425 -4.3745975 0.29683745 0 37
3.9081297 -4.3799629 0.35135716 0 38
3.8978398 -4.3684306 0.40450469 0 39
3.9043808 -4.375761 0.4594157 0 40
3.9114766 -4.3837137 0.51465976 0 41
3.9117661 -4.384038 0.56919879 0 42
3.9020998 -4.3732052 0.62225544 0 43
3.9069867 -4.3786817 0.6776728 0 44
3.8985806 -4.3692608 0.73085111 0 45
3.8984427 -4.3691063 0.7855854 0 46
3.9061024 -4.3776908 0.84213215 0 47
3.8988984 -4.369617 0.89562595 0 48
3.9004686 -4.371377 0.95121098 0 49
3.9051948 -4.3766732 1.0078201 0 50
3.9087632 -4.3806725 1.0644239 0 51
3.9042933 -4.3756633 1.1190119 0 52
3.8942015 -4.3643532 1.1719761 0 53
3.9020016 -4.373095 1.2304987 0 54
3.8972149 -4.3677301 1.2853125 0 55
3.8985808 -4.3692613 1.3423342 0 56
3.902971 -4.3741813 1.40072 0 57
3.8980031 -4.3686132 1.455989 0 58
3.8967264 -4.3671827 1.512807 0 59
3.9099722 -4.3820276 1.5757129 0 60
3.9138713 -4.3863974 1.6353915 0 61
3.9057283 -4.3772717 1.6902729 0 62
3.9066699 -4.3783269 1.7492881 0 63
1.6613995 -1.8165193 -0.73386699 0 0
1.7287118 -1.8901165 -0.73801649 0 1
1.7839285 -1.9504886 -0.73532832 0 2
1.8368582 -2.0083601 -0.7302435 0 3
1.9284257 -2.1084769 -0.73854196 0 4
1.9942875 -2.1804881 -0.73483926 0 5
2.0807214 -2.274992 -0.73664558 0 6
2.1562047 -2.357523 -0.73237371 0 7
2.267684 -2.4794106 -0.73777777 0 8
2.3684344 -2.5895681 -0.73679006 0 9
2.4643171 -2.6944029 -0.73162001 0 10
2.606735 -2.8501177 -0.73701745 0 11
2.7260311 -2.9805522 -0.73230964 0 12
2.8855362 -3.1549499 -0.73460776 0 13
3.0646696 -3.3508084 -0.73727989 0 14
3.2413495 -3.5439844 -0.73451269 0 15
3.4422882 -3.763684 -0.73210353 0 16
3.6859834 -4.0301323 -0.73273051 0 17
3.9035826 -4.2680483 -0.72189569 0 18
3.9003532 -4.2645173 -0.66737622 0 19
3.9032514 -4.2676864 -0.61402428 0 20
3.9081511 -4.2730432 -0.56098479 0 21
3.9119122 -4.2771554 -0.50775856 0 22
3.9042408 -4.2687678 -0.45318854 0 23
3.8937824 -4.2573328 -0.39862072 0 24
3.9064548 -4.2711887 -0.34645858 0 25
3.9056075 -4.2702622 -0.29299438 0 26
3.9023218 -4.2666698 -0.23945339 0 27
3.9091358 -4.2741199 -0.18652463 0 28
3.9122968 -4.277576 -0.13331704 0 29
3.9055796 -4.2702317 -0.079843879 0 30
3.8996019 -4.2636957 -0.026572391 0 31
3.9000804 -4.2642193 0.026575655 0 32
3.9004452 -4.2646179 0.079738915 0 33
3.9105191 -4.2756324 0.13325647 0 34
3.918793 -4.2846785 0.18698542 0 35
3.8936334 -4.2571702 0.23892027 0 36
3.9023194 -4.2666674 0.29274771 0 37
3.9037216 -4.2682004 0.3462162 0 38
3.8994853 -4.2635684 0.39920458 0 39
3.9073739 -4.2721934 0.45355222 0 40
3.899332 -4.2634006 0.50612569 0 41
3.9024765 -4.266839 0.56017023 0 42
3.8896706 -4.2528372 0.61188787 0 43
3.9032056 -4.2676363 0.66786426 0 44
3.9019797 -4.2662954 0.72159928 0 45
3.9077663 -4.2726226 0.77681834 0 46
3.9080238 -4.2729044 0.8311559 0 47
3.907321 -4.2721357 0.88542652 0 48
3.9009414 -4.2651606 0.93846512 0 49
3.8895581 -4.2527142 0.99021441 0 50
3.9057448 -4.2704124 1.0492231 0 51
3.9036598 -4.2681327 1.1037047 0 52
3.899565 -4.2636557 1.1577243 0 53
3.9042382 -4.268765 1.2145592 0 54
3.8996277 -4.2637243 1.2687212 0 55
3.901711 -4.2660017 1.3252501 0 56
3.9040318 -4.2685394 1.3821589 0 57
3.8988581 -4.2628827 1.4366204 0 58
3.8957098 -4.2594404 1.4919658 0 59
3.9070718 -4.2718635 1.5532576 0 60
3.9074678 -4.272296 1.6106429 0 61
3.8887875 -4.2518721 1.6601895 0 62
3.8929036 -4.2563725 1.7195585 0 63
1.6790299 -1.7910695 -0.73187101 0 0
1.7402463 -1.8563708 -0.73314011 0 1
1.8120557 -1.932972 -0.73706913 0 2
1.8735123 -1.9985294 -0.73499006 0 3
1.9438882 -2.0736015 -0.7346431 0 4
2.0221071 -2.1570399 -0.73526108 0 5
2.0925984 -2.232235 -0.73107743 0 6
2.1948524 -2.3413122 -0.73566639 0 7
2.2890553 -2.4418013 -0.73490667 0 8
2.4001708 -2.5603313 -0.73681313 0 9
2.5061424 -2.6733744 -0.73422229 0 10
2.6307764 -2.806325 -0.73400277 0 11
2.7566848 -2.9406352 -0.73077542 0 12
2.9171631 -3.1118219 -0.73286259 0 13
3.1023684 -3.3093858 -0.73650366 0 14
3.2883501 -3.5077777 -0.73533344 0 15
3.511899 -3.746244 -0.73705542 0 16
3.7500243 -4.0002589 -0.73562723 0 17
3.9579198 -4.2220273 -0.72228885 0 18
3.9531188 -4.2169056 -0.6674819 0 19
3.9528205 -4.2165875 -0.61361921 0 20
3.9562638 -4.2202606 -0.56039959 0 21
3.9561768 -4.2201676 -0.50673008 0 22
3.9490969 -4.2126155 -0.45234829 0 23
3.9512045 -4.2148638 -0.39916328 0 24
3.9554191 -4.2193594 -0.34617352 0 25
3.9467015 -4.2100601 -0.29217148 0 26
3.953126 -4.2169132 -0.23937093 0 27
3.9509676 -4.2146111 -0.18603374 0 28
3.9531991 -4.2169914 -0.1329338 0 29
3.9508777 -4.2145152 -0.079704449 0 30
3.9479499 -4.2113919 -0.026546963 0 31
3.956017 -4.2199974 0.026601208 0 32
3.9541969 -4.2180557 0.079771414 0 33
3.9414134 -4.2044191 0.13253748 0 34
3.9541316 -4.2179861 0.18618272 0 35
3.951112 -4.2147651 0.23924899 0 36
3.9510422 -4.2146902 0.29249281 0 37
3.9522243 -4.2159514 0.34589395 0 38
3.9494872 -4.2130318 0.39898977 0 39
3.9554224 -4.2193627 0.45307285 0 40
3.9563715 -4.2203755 0.50675499 0 41
3.960012 -4.2242589 0.56093055 0 42
3.9515979 -4.2152834 0.61342943 0 43
3.9592457 -4.2234416 0.66851646 0 44
3.9432132 -4.2063389 0.71960503 0 45
3.9558241 -4.2197914 0.77599823 0 46
3.9496682 -4.2132249 0.82893169 0 47
3.949357 -4.212893 0.88314629 0 48
3.9610999 -4.2254195 0.94036692 0 49
3.9544139 -4.218287 0.99344522 0 50
3.9488852 -4.2123895 1.0468183 0 51
3.9507475 -4.214376 1.1022828 0 52
3.9491692 -4.2126927 1.1569846 0 53
3.9524777 -4.2162218 1.2133459 0 54
3.9488554 -4.212358 1.2677894 0 55
3.9553485 -4.2192841 1.3257461 0 56
3.9565868 -4.2206054 1.3822869 0 57
3.9448168 -4.2080498 1.4343801 0 58
3.9452488 -4.2085104 1.4910064 0 59
3.9485087 -4.211988 1.5490235 0 60
3.9514749 -4.2151523 1.6072962 0 61
3.9536216 -4.217442 1.6656027 0 62
3.9489608 -4.2124701 1.7213094 0 63
1.7175303 -1.7875719 -0.73901588 0 0
1.773174 -1.8454849 -0.73739618 0 1
1.834783 -1.9096062 -0.73670673 0 2
1.901836 -1.9793937 -0.7364974 0 3
1.9637998 -2.0438843 -0.73261458 0 4
2.0542643 -2.1380382 -0.7373386 0 5
2.1287897 -2.2156026 -0.73414779 0 6
2.2222037 -2.3128262 -0.73524606 0 7
2.3292468 -2.4242344 -0.73818398 0 8
2.418366 -2.516988 -0.73284221 0 9
2.5370486 -2.6405106 -0.73370898 0 10
2.6637857 -2.7724159 -0.7336455 0 11
2.802763 -2.9170609 -0.73342615 0 12
2.9549451 -3.075449 -0.73279834 0 13
3.1257284 -3.253197 -0.73249727 0 14
3.315881 -3.4511039 -0.73194492 0 15
3.5503504 -3.6951351 -0.73553371 0 16
3.8139515 -3.969486 -0.73853678 0 17
4.0453987 -4.2103715 -0.72874981 0 18
4.0464129 -4.2114272 -0.67443955 0 19
4.0492954 -4.2144275 -0.6205039 0 20
4.0481348 -4.2132196 -0.56603175 0 21
4.0529861 -4.2182689 -0.51244748 0 22
4.0558066 -4.2212043 -0.45859113 0 23
4.0480056 -4.2130847 -0.40367827 0 24
4.0473394 -4.2123914 -0.34965861 0 25
4.0547247 -4.220078 -0.29630443 0 26
4.0414467 -4.2062583 -0.2415688 0 27
4.0479007 -4.2129755 -0.18814442 0 28
4.0375676 -4.2022214 -0.13402313 0 29
4.0505767 -4.2157607 -0.080663867 0 30
4.0592918 -4.2248316 -0.026944291 0 31
4.054564 -4.2199111 0.026912907 0 32
4.0489173 -4.2140341 0.080630831 0 33
4.0502315 -4.2154016 0.13444349 0 34
4.048542 -4.2136431 0.18817423 0 35
4.0458889 -4.2108817 0.24183433 0 36
4.0444021 -4.2093344 0.29555008 0 37
4.0604296 -4.2260156 0.35078949 0 38
4.0551205 -4.22049 0.4043878 0 39
4.0522423 -4.217494 0.45818806 0 40
4.0490103 -4.2141309 0.51194477 0 41
4.0499353 -4.2150936 0.56628352 0 42
4.0599813 -4.2255492 0.62214142 0 43
4.0535369 -4.218842 0.67562699 0 44
4.0436339 -4.2085352 0.728432 0 45
4.0411825 -4.2059836 0.78253806 0 46
4.0561833 -4.2215962 0.84032816 0 47
4.0451994 -4.2101641 0.89293408 0 48
4.057158 -4.222611 0.95077276 0 49
4.0567846 -4.2222219 1.006044 0 50
4.0535831 -4.2188902 1.0607404 0 51
4.0510278 -4.2162304 1.1157123 0 52
4.0458083 -4.2107978 1.1700391 0 53
4.0489988 -4.214119 1.2269762 0 54
4.0464988 -4.2115164 1.2824148 0 55
4.0387602 -4.2034626 1.3362782 0 56
4.0605617 -4.2261529 1.4003507 0 57
4.0547032 -4.2200561 1.4553577 0 58
4.0500765 -4.21524 1.5109203 0 59
4.0449491 -4.2099037 1.5664308 0 60
4.0415645 -4.2063813 1.6227793 0 61
4.0473776 -4.212431 1.6831515 0 62
4.0447259 -4.2096715 1.7403574 0 63
1.7315834 -1.7584018 -0.73570341 0 0
1.793834 -1.8216164 -0.73661709 0 1
1.8413153 -1.8698332 -0.73004246 0 2
1.9145155 -1.9441671 -0.73209435 0 3
2.0005445 -2.0315287 -0.73694754 0 4
2.0852473 -2.1175432 -0.73905748 0 5
2.1567533 -2.1901567 -0.73444825 0 6
2.2441733 -2.2789307 -0.73318779 0 7
2.3371105 -2.3733072 -0.73137212 0 8
2.4499314 -2.4878755 -0.73308176 0 9
2.5651884 -2.6049175 -0.73252821 0 10
2.7062211 -2.7481344 -0.73597026 0 11
2.8382738 -2.8822324 -0.7333889 0 12
2.9951355 -3.0415235 -0.73343486 0 13
3.173136 -3.2222807 -0.7342661 0 14
3.3776019 -3.4299135 -0.73620367 0 15
3.5897164 -3.6453133 -0.73434734 0 16
3.85935 -3.9191229 -0.73794019 0 17
4.1364079 -4.2004719 -0.73578435 0 18
4.1518049 -4.2161074 -0.68331319 0 19
4.1431651 -4.2073336 -0.62691307 0 20
4.151401 -4.2156973 -0.57317936 0 21
4.1440554 -4.2082376 -0.51738018 0 22
4.153234 -4.2175584 -0.46370825 0 23
4.1472769 -4.2115092 -0.40838271 0 24
4.1483755 -4.2126245 -0.35388541 0 25
4.1503601 -4.2146397 -0.29948327 0 26
4.1560726 -4.2204413 -0.24529979 0 27
4.1620889 -4.2265501 -0.19102177 0 28
4.1544495 -4.2187929 -0.13617064 0 29
4.1583962 -4.2228007 -0.081770778 0 30
4.1519427 -4.2162471 -0.027213089 0 31
4.1584349 -4.2228398 0.027255639 0 32
4.1521897 -4.2164979 0.08164873 0 33
4.1432266 -4.207396 0.13580279 0 34
4.1482129 -4.2124596 0.19038491 0 35
4.1470547 -4.2112837 0.24476752 0 36
4.1539388 -4.2182741 0.29974148 0 37
4.1459599 -4.2101717 0.35367936 0 38
4.1426477 -4.2068086 0.40792689 0 39
4.1581783 -4.2225795 0.46426031 0 40
4.1411333 -4.2052703 0.51701534 0 41
4.1503515 -4.2146316 0.57303447 0 42
4.1512885 -4.2155833 0.6281423 0 43
4.147347 -4.2115803 0.68257952 0 44
4.1542554 -4.218596 0.73895907 0 45
4.1467185 -4.2109423 0.79288745 0 46
4.1408257 -4.204958 0.84708762 0 47
4.1494164 -4.2136817 0.90443331 0 48
4.1534085 -4.2177358 0.96110201 0 49
4.150629 -4.2149129 1.0163867 0 50
4.1559539 -4.2203207 1.0738677 0 51
4.1521373 -4.216445 1.1291944 0 52
4.1453972 -4.2096004 1.1837807 0 53
4.1460366 -4.2102494 1.2405995 0 54
4.1536713 -4.2180028 1.2998441 0 55
4.1570263 -4.2214093 1.3581308 0 56
4.1527734 -4.2170906 1.4141614 0 57
4.1500416 -4.2143168 1.4708661 0 58
4.1488137 -4.2130694 1.5283129 0 59
4.1494665 -4.2137327 1.5867205 0 60
4.156209 -4.2205796 1.6478486 0 61
4.1455326 -4.2097378 1.7023147 0 62
4.1559896 -4.2203569 1.7657689 0 63
1.7496336 -1.7335703 -0.73426002 0 0
1.8103909 -1.7937698 -0.73430306 0 1
1.8669068 -1.8497667 -0.73111546 0 2
1.9435673 -1.9257234 -0.73409313 0 3
2.0234749 -2.0048974 -0.73625726 0 4
2.0977936 -2.0785339 -0.73439014 0 5
2.1798015 -2.1597888 -0.73319769 0 6
2.2758622 -2.2549677 -0.73442632 0 7
2.3784947 -2.3566577 -0.73519874 0 8
2.4807115 -2.4579363 -0.73319274 0 9
2.6075382 -2.5835986 -0.73549402 0 10
2.7343791 -2.709275 -0.73451245 0 11
2.8723228 -2.8459523 -0.73308903 0 12
3.039125 -3.0112228 -0.73508412 0 13
3.1945872 -3.1652579 -0.73016828 0 14
3.432198 -3.4006872 -0.73893338 0 15
3.6522834 -3.618752 -0.73798794 0 16
3.8733175 -3.8377569 -0.73153228 0 17
4.1694679 -4.1311884 -0.73257357 0 18
4.2694578 -4.2302599 -0.69406319 0 19
4.2634034 -4.2242613 -0.63719881 0 20
4.2489471 -4.209938 -0.57945615 0 21
4.2514048 -4.2123728 -0.5242762 0 22
4.253108 -4.2140603 -0.46903822 0 23
4.252037 -4.2129993 -0.41356596 0 24
4.2597494 -4.2206411 -0.35893193 0 25
4.2461071 -4.2071238 -0.30263636 0 26
4.2569275 -4.217845 -0.24817252 0 27
4.2563419 -4.2172647 -0.19295296 0 28
4.2579584 -4.2188663 -0.13785255 0 29
4.2620034 -4.2228742 -0.082780764 0 30
4.2569799 -4.2178969 -0.027559511 0 31
4.2518702 -4.2128344 0.027526431 0 32
4.2546577 -4.2155957 0.082638085 0 33
4.2546372 -4.2155757 0.13774502 0 34
4.2552562 -4.2161889 0.19290373 0 35
4.2497778 -4.2107606 0.24775571 0 36
4.2551675 -4.2161012 0.30328217 0 37
4.2529345 -4.2138886 0.3583577 0 38
4.2566094 -4.2175298 0.41401067 0 39
4.2564988 -4.2174201 0.46941218 0 40
4.2590618 -4.2199597 0.52522045 0 41
4.251709 -4.2126741 0.57983279 0 42
4.253139 -4.2140913 0.6356647 0 43
4.2492995 -4.2102871 0.69078618 0 44
4.2540207 -4.2149644 0.74742937 0 45
4.2496772 -4.2106614 0.80261332 0 46
4.2536173 -4.2145653 0.85949469 0 47
4.2533374 -4.2142878 0.91572016 0 48
4.2601247 -4.2210126 0.97371197 0 49
4.2618718 -4.222744 1.0308343 0 50
4.2600803 -4.2209687 1.0872797 0 51
4.2628298 -4.2236934 1.1450869 0 52
4.243639 -4.2046781 1.19698 0 53
4.2498264 -4.2108088 1.2560678 0 54
4.26372 -4.224575 1.3179266 0 55
4.2588348 -4.2197347 1.3743364 0 56
4.2529793 -4.213933 1.4305314 0 57
4.2509179 -4.2118902 1.4881502 0 58
4.2641282 -4.2249794 1.5515366 0 59
4.2613606 -4.2222371 1.6095328 0 60
4.254931 -4.2158666 1.6663102 0 61
4.2483473 -4.2093434 1.7231494 0 62
0 0 0 0 63
1.7656385 -1.7069207 -0.732113 0 0
1.8288738 -1.7680531 -0.73292613 0 1
1.8942345 -1.8312402 -0.73294377 0 2
1.9748977 -1.9092209 -0.7370038 0 3
2.0415547 -1.9736611 -0.73394972 0 4
2.1265278 -2.0558085 -0.73554409 0 5
2.216737 -2.1430175 -0.73670202 0 6
2.2964652 -2.2200942 -0.73221004 0 7
2.3966033 -2.3169024 -0.73193455 0 8
2.5035877 -2.4203289 -0.73110241 0 9
2.6216495 -2.5344644 -0.73062855 0 10
2.763109 -2.6712196 -0.73335117 0 11
2.9211941 -2.8240476 -0.73664361 0 12
3.0757685 -2.9734814 -0.735048 0 13
3.2461369 -3.1381838 -0.73307532 0 14
3.4484944 -3.333812 -0.73356062 0 15
3.6851432 -3.5625908 -0.73572022 0 16
3.9500086 -3.8186479 -0.73709249 0 17
4.2173982 -4.0771451 -0.73213089 0 18
4.3620625 -4.2169986 -0.70063484 0 19
4.3542876 -4.2094822 -0.64299732 0 20
4.3580747 -4.2131433 -0.58722895 0 21
4.3660665 -4.2208691 -0.53197539 0 22
4.3606081 -4.2155924 -0.4751409 0 23
4.3601894 -4.215188 -0.41901216 0 24
4.3608847 -4.2158599 -0.36305815 0 25
4.3643336 -4.2191944 -0.30734184 0 26
4.3637915 -4.2186699 -0.25135931 0 27
4.3678923 -4.2226343 -0.19564123 0 28
4.3612919 -4.2162533 -0.13950895 0 29
4.3652463 -4.2200766 -0.083771817 0 30
4.3659158 -4.2207241 -0.027926648 0 31
4.3601732 -4.2151723 0.027889915 0 32
4.3553729 -4.2105312 0.083582334 0 33
4.3600073 -4.2150116 0.13946787 0 34
4.348484 -4.2038717 0.19477192 0 35
4.3582721 -4.2133341 0.25104138 0 36
4.3592248 -4.2142553 0.30698207 0 37
4.3603354 -4.2153287 0.3630124 0 38
4.3569651 -4.2120705 0.4187023 0 39
4.3759594 -4.2304335 0.47681364 0 40
4.3647552 -4.2196016 0.53181565 0 41
4.3648167 -4.2196612 0.58813739 0 42
4.3676615 -4.2224116 0.64497226 0 43
4.3675847 -4.2223368 0.70152175 0 44
4.3596458 -4.2146621 0.75682473 0 45
4.3565602 -4.211679 0.81295717 0 46
4.3571601 -4.2122593 0.86988503 0 47
4.3594666 -4.214489 0.92734176 0 48
4.360589 -4.2155738 0.98475206 0 49
4.3710799 -4.2257161 1.0446019 0 50
4.3643169 -4.2191777 1.1005589 0 51
4.3555632 -4.2107153 1.1560012 0 52
4.3551006 -4.2102685 1.2137249 0 53
4.3616533 -4.2166033 1.2736983 0 54
4.3593874 -4.2144122 1.3313785 0 55
4.3618002 -4.2167449 1.390726 0 56
4.3699417 -4.2246156 1.4522899 0 57
4.3604302 -4.2154207 1.5082279 0 58
4.3552179 -4.2103815 1.5657239 0 59
4.3738298 -4.2283745 1.6322513 0 60
4.3612247 -4.2161884 1.6875061 0 61
4.3559542 -4.2110934 1.7456607 0 62
0 0 0 0 63
1.7847817 -1.6834685 -0.73141187 0 0
1.8575176 -1.7520756 -0.73571569 0 1
1.927062 -1.8176723 -0.73694175 0 2
1.9951662 -1.8819104 -0.73587626 0 3
2.0629859 -1.9458804 -0.73299694 0 4
2.1556737 -2.0333068 -0.73692155 0 5
2.2387125 -2.1116319 -0.73532039 0 6
2.343086 -2.2100806 -0.73835403 0 7
2.4325304 -2.2944477 -0.73423475 0 8
2.5572546 -2.4120917 -0.73805708 0 9
2.6706076 -2.5190105 -0.73558468 0 10
2.7940798 -2.6354737 -0.73291457 0 11
2.9539506 -2.7862697 -0.7362085 0 12
3.1077745 -2.9313614 -0.73402709 0 13
3.2897172 -3.1029763 -0.73424488 0 14
3.504848 -3.3058953 -0.7368452 0 15
3.7189238 -3.5078192 -0.73379749 0 16
3.9812059 -3.7552128 -0.73424196 0 17
4.2979832 -4.054008 -0.73741066 0 18
4.4714766 -4.2176533 -0.70982516 0 19
4.4653082 -4.2118349 -0.65169454 0 20
4.4733377 -4.2194085 -0.59572393 0 21
4.4739466 -4.2199831 -0.53875661 0 22
4.4708309 -4.2170439 -0.48146442 0 23
4.4747062 -4.2206993 -0.42499751 0 24
4.4716039 -4.217773 -0.36793023 0 25
4.4750233 -4.2209983 -0.31145808 0 26
4.4621668 -4.2088714 -0.25402552 0 27
4.4632692 -4.2099118 -0.19757962 0 28
4.4770389 -4.2228999 -0.14153974 0 29
4.4768548 -4.2227263 -0.084910773 0 30
4.4679971 -4.2143707 -0.028245995 0 31
4.4788394 -4.2245979 0.028314538 0 32
4.458869 -4.205761 0.084569633 0 33
4.4765773 -4.2224641 0.14152513 0 34
4.475636 -4.2215762 0.19812706 0 35
4.4720054 -4.2181516 0.25458562 0 36
4.4664621 -4.2129235 0.31086224 0 37
4.4681973 -4.21456 0.36764994 0 38
4.4582801 -4.2052054 0.42343739 0 39
4.4743719 -4.2203841 0.48184574 0 40
4.4650402 -4.2115822 0.53768408 0 41
4.470962 -4.2171679 0.59540761 0 42
4.4573336 -4.2043128 0.6505307 0 43
4.466239 -4.2127128 0.70899367 0 44
4.4666362 -4.2130876 0.76634675 0 45
4.461781 -4.2085075 0.82287294 0 46
4.4636159 -4.2102389 0.88073599 0 47
4.4653306 -4.2118559 0.93877316 0 48
4.4778447 -4.22366 0.99942774 0 49
4.462729 -4.2094021 1.0540546 0 50
4.4697657 -4.2160392 1.1139927 0 51
4.4724822 -4.2186017 1.1731761 0 52
4.4776053 -4.223434 1.2332991 0 53
4.4646111 -4.2111769 1.288545 0 54
4.4718723 -4.2180262 1.3497896 0 55
4.4787235 -4.2244887 1.4113367 0 56
4.4698639 -4.2161317 1.4681572 0 57
4.4650469 -4.2115884 1.5263855 0 58
4.4737682 -4.2198148 1.589569 0 59
4.4706149 -4.2168403 1.6488949 0 60
4.4690938 -4.2154055 1.7090586 0 61
0 0 0 0 62
0 0 0 0 63
1.8189734 -1.6739373 -0.73693287 0 0
1.8814646 -1.7314457 -0.7367121 0 1
1.944821 -1.7897505 -0.73526144 0 2
2.0110381 -1.8506876 -0.73328143 0 3
2.0972035 -1.9299825 -0.73666686 0 4
2.1677594 -1.9949129 -0.73261189 0 5
2.2637522 -2.0832517 -0.73507535 0 6
2.3595119 -2.1713758 -0.73506075 0 7
2.4732814 -2.2760739 -0.73803145 0 8
2.569586 -2.3646996 -0.73316854 0 9
2.6935852 -2.4788117 -0.73346263 0 10
2.8362601 -2.6101105 -0.73550439 0 11
2.9748797 -2.7376771 -0.73297924 0 12
3.1433399 -2.8927052 -0.73397052 0 13
3.3333259 -3.0675428 -0.73550361 0 14
3.5288324 -3.2474604 -0.73343694 0 15
3.781311 -3.4798076 -0.73760867 0 16
4.0274978 -3.7063646 -0.73431855 0 17
4.3471303 -4.0005112 -0.73734725 0 18
4.5814533 -4.2161503 -0.71899909 0 19
4.5751414 -4.2103419 -0.6601184 0 20
4.5771317 -4.2121735 -0.6026032 0 21
4.574645 -4.2098851 -0.54460776 0 22
4.5816073 -4.2162919 -0.48777381 0 23
4.5747161 -4.2099504 -0.42954698 0 24
4.5798154 -4.214643 -0.37254164 0 25
4.5794325 -4.2142906 -0.31509438 0 26
4.5752802 -4.2104692 -0.25749803 0 27
4.5788941 -4.2137952 -0.20038921 0 28
4.5808258 -4.2155728 -0.1431713 0 29
4.5857077 -4.2200656 -0.085984625 0 30
4.5849533 -4.2193713 -0.028655211 0 31
4.5767436 -4.2118163 0.028603902 0 32
4.5707545 -4.2063046 0.085704245 0 33
4.5746832 -4.2099199 0.14297931 0 34
4.5819731 -4.2166286 0.20052394 0 35
4.5744181 -4.2096763 0.25744951 0 36
4.5772748 -4.2123051 0.31494591 0 37
4.5932879 -4.2270412 0.37363753 0 38
4.5776553 -4.2126555 0.42982298 0 39
4.5707603 -4.2063098 0.486619 0 40
4.573102 -4.2084651 0.54442412 0 41
4.578753 -4.213665 0.60281664 0 42
4.5787492 -4.2136621 0.66063893 0 43
4.5839467 -4.2184448 0.71939039 0 44
4.5739117 -4.2092099 0.77581316 0 45
4.5689354 -4.2046309 0.8330369 0 46
4.5827675 -4.2173595 0.89394623 0 47
4.5779214 -4.2129002 0.95148093 0 48
4.583375 -4.2179189 1.0113289 0 49
4.5769281 -4.2119861 1.0687137 0 50
4.5812426 -4.2159562 1.1287702 0 51
4.5776081 -4.2126117 1.1870741 0 52
4.5826569 -4.217258 1.2478564 0 53
4.5759759 -4.2111096 1.3056428 0 54
4.5856109 -4.2199764 1.3683542 0 55
4.5691366 -4.2048159 1.423427 0 56
4.5854249 -4.2198052 1.4889584 0 57
4.574132 -4.2094131 1.5458651 0 58
4.5732956 -4.208643 1.6064227 0 59
4.5805593 -4.2153277 1.6702015 0 60
4.5788131 -4.2137208 1.7310718 0 61
0 0 0 0 62
0 0 0 0 63
1.8402663 -1.6522073 -0.73727286 0 0
1.8982596 -1.7042742 -0.73502707 0 1
1.9569006 -1.7569225 -0.73160535 0 2
2.0344915 -1.8265842 -0.73358798 0 3
2.1318665 -1.9140084 -0.74051952 0 4
2.1930635 -1.9689517 -0.73292589 0 5
2.2831671 -2.0498474 -0.73313946 0 6
2.388911 -2.1447854 -0.73594779 0 7
2.4993668 -2.2439532 -0.73752588 0 8
2.6004877 -2.3347406 -0.73373872 0 9
2.7369955 -2.4572985 -0.73699969 0 10
2.8577425 -2.5657063 -0.73283851 0 11
3.0090365 -2.7015393 -0.73315477 0 12
3.1706657 -2.8466516 -0.73212242 0 13
3.359905 -3.0165522 -0.73312825 0 14
3.5664241 -3.2019668 -0.73301131 0 15
3.8162122 -3.4262288 -0.73614275 0 16
4.0677352 -3.6520483 -0.73341167 0 17
4.3817997 -3.9340184 -0.73496705 0 18
4.6862617 -4.2073669 -0.72727317 0 19
4.6883736 -4.2092628 -0.66893739 0 20
4.7049232 -4.2241216 -0.61254299 0 21
4.7057996 -4.2249084 -0.55399501 0 22
4.6960611 -4.2161651 -0.49440214 0 23
4.6969371 -4.2169514 -0.43612123 0 24
4.7119665 -4.2304449 -0.37903121 0 25
4.6923804 -4.2128601 -0.31927738 0 26
4.7062402 -4.2253036 -0.26192459 0 27
4.6993833 -4.2191477 -0.2033764 0 28
4.6954751 -4.2156386 -0.14512348 0 29
4.6999564 -4.2196622 -0.087147363 0 30
4.7004571 -4.2201114 -0.029050576 0 31
4.6929355 -4.2133584 0.029004088 0 32
4.6867256 -4.2077832 0.08690203 0 33
4.6960382 -4.2161441 0.14514087 0 34
4.7067795 -4.2257876 0.20369647 0 35
4.6927371 -4.2131805 0.26117307 0 36
4.7080641 -4.2269411 0.32034454 0 37
4.7021084 -4.2215939 0.3782382 0 38
4.7005067 -4.2201557 0.43645263 0 39
4.6957741 -4.2159071 0.49437192 0 40
4.6926832 -4.2131324 0.55245084 0 41
4.7004514 -4.2201061 0.61196071 0 42
4.6894917 -4.2102666 0.66909689 0 43
4.7021947 -4.2216716 0.72974586 0 44
4.6942577 -4.2145457 0.78737622 0 45
4.7045746 -4.2238083 0.8482337 0 46
4.6932592 -4.2136493 0.9053241 0 47
4.7060046 -4.2250924 0.96723062 0 48
4.7062197 -4.2252851 1.0268929 0 49
4.6949334 -4.2151523 1.0840833 0 50
4.6979737 -4.2178817 1.144666 0 51
4.7005787 -4.2202206 1.2054148 0 52
4.6962767 -4.2163582 1.2645817 0 53
4.697041 -4.2170448 1.3252902 0 54
4.708571 -4.2273965 1.3894292 0 55
4.6982417 -4.2181225 1.4473794 0 56
4.69805 -4.2179503 1.5085737 0 57
4.699892 -4.2196045 1.5707126 0 58
4.6948485 -4.2150764 1.6307902 0 59
4.6891398 -4.2099509 1.6907893 0 60
4.6931462 -4.2135477 1.754576 0 61
0 0 0 0 62
0 0 0 0 63
1.8538009 -1.6236386 -0.73464102 0 0
1.9164702 -1.6785272 -0.73403084 0 1
1.9778351 -1.7322731 -0.73141307 0 2
2.0568442 -1.8014729 -0.73360503 0 3
2.1360166 -1.8708154 -0.73391485 0 4
2.2263927 -1.9499707 -0.73599553 0 5
2.3051245 -2.0189273 -0.73216307 0 6
2.4158788 -2.1159306 -0.73618454 0 7
2.5030663 -2.1922934 -0.73060763 0 8
2.6401136 -2.3123252 -0.73684096 0 9
2.7718599 -2.4277143 -0.73829347 0 10
2.8992138 -2.5392563 -0.73541075 0 11
3.0614929 -2.6813874 -0.73784649 0 12
3.2163599 -2.8170266 -0.73461944 0 13
3.3954375 -2.9738705 -0.73284692 0 14
3.6122894 -3.1637988 -0.73438662 0 15
3.8437116 -3.3664882 -0.73340672 0 16
4.1353955 -3.6219573 -0.73752499 0 17
4.4252243 -3.875802 -0.73420131 0 18
4.77209 -4.1796017 -0.73256165 0 19
4.8091788 -4.2120857 -0.67873263 0 20
4.8137097 -4.2160544 -0.61990976 0 21
4.8150907 -4.2172642 -0.56071407 0 22
4.8070564 -4.2102275 -0.50059944 0 23
4.8118281 -4.2144065 -0.44194388 0 24
4.812489 -4.2149854 -0.38291913 0 25
4.8130527 -4.2154789 -0.32393667 0 26
4.824141 -4.2251906 -0.26557469 0 27
4.8193603 -4.2210031 -0.20630683 0 28
4.817915 -4.2197375 -0.1472929 0 29
4.8192263 -4.2208862 -0.088389821 0 30
4.8140635 -4.2163644 -0.02943005 0 31
4.8106613 -4.2133846 0.029409252 0 32
4.8227348 -4.223959 0.088454172 0 33
4.8134122 -4.2157936 0.14715524 0 34
4.8095555 -4.2124162 0.20588711 0 35
4.8170843 -4.2190099 0.26518622 0 36
4.8149781 -4.2171655 0.32406625 0 37
4.8180375 -4.2198448 0.38336062 0 38
4.8234406 -4.224577 0.44301042 0 39
4.8133302 -4.2157216 0.50125271 0 40
4.8061185 -4.2094059 0.55966926 0 41
4.8134446 -4.2158222 0.61987561 0 42
4.8078399 -4.2109132 0.67854363 0 43
4.8110576 -4.2137318 0.73854363 0 44
4.8188872 -4.2205887 0.79951501 0 45
4.8202825 -4.2218108 0.85967082 0 46
4.8148961 -4.2170935 0.91871542 0 47
4.8126044 -4.2150865 0.9784134 0 48
4.8127494 -4.2152133 1.0387493 0 49
4.8201151 -4.2216644 1.1009185 0 50
4.8123622 -4.2148743 1.1598213 0 51
4.8065505 -4.209784 1.2192231 0 52
4.8009677 -4.2048941 1.2787527 0 53
4.813571 -4.2159328 1.3434408 0 54
4.8119507 -4.2145138 1.4045365 0 55
4.8154235 -4.2175555 1.4673916 0 56
4.8253555 -4.2262545 1.5326492 0 57
4.812757 -4.21522 1.5909895 0 58
4.8210449 -4.2224789 1.6564649 0 59
4.8167605 -4.2187266 1.7179714 0 60
0 0 0 0 61
0 0 0 0 62
0 0 0 0 63
1.8797961 -1.6059954 -0.73706096 0 0
1.9482356 -1.6644664 -0.73830247 0 1
2.0126915 -1.719534 -0.73642832 0 2
2.0878673 -1.78376 -0.73679107 0 3
2.1589425 -1.8444827 -0.73394358 0 4
2.2472098 -1.9198936 -0.73501736 0 5
2.341337 -2.0003107 -0.73579687 0 6
2.4372067 -2.0822165 -0.73482597 0 7
2.5407302 -2.1706614 -0.73375487 0 8
2.6608186 -2.2732584 -0.73476255 0 9
2.7956424 -2.3884444 -0.73674971 0 10
2.9350994 -2.5075889 -0.73663628 0 11
3.084959 -2.6356208 -0.73563558 0 12
3.2384877 -2.7667873 -0.73184752 0 13
3.4353466 -2.934973 -0.73361576 0 14
3.6455576 -3.1145658 -0.73330861 0 15
3.8882849 -3.3219388 -0.73406202 0 16
4.180778 -3.5718286 -0.73772985 0 17
4.4828634 -3.8299141 -0.73589522 0 18
4.8401041 -4.1351213 -0.7351414 0 19
5.226913 -4.4655895 -0.72988367 0 20
5.7987151 -4.9541063 -0.73885787 0 21
5.93152 -5.0675673 -0.68341345 0 22
5.9213018 -5.0588374 -0.61011106 0 23
5.9278073 -5.0643954 -0.53868103 0 24
5.9205918 -5.0582309 -0.46610421 0 25
5.9319215 -5.0679102 -0.3950167 0 26
5.9278216 -5.0644078 -0.32288095 0 27
5.9237862 -5.0609598 -0.25090203 0 28
5.9277167 -5.0643182 -0.1793043 0 29
5.9344258 -5.0700498 -0.10769219 0 30
5.9170842 -5.0552344 -0.035790481 0 31
5.9235725 -5.0607777 0.035829727 0 32
5.9279795 -5.0645428 0.10757522 0 33
5.9266911 -5.0634418 0.17927326 0 34
5.9232697 -5.0605187 0.25088015 0 35
5.9277258 -5.0643258 0.32287574 0 36
5.9318156 -5.0678201 0.39500967 0 37
5.927887 -5.0644636 0.4666785 0 38
5.9289637 -5.0653834 0.53878611 0 39
5.9279876 -5.0645494 0.61079991 0 40
5.9242597 -5.0613647 0.68257695 0 41
5.9267392 -5.0634828 0.75517035 0 42
5.9227962 -5.0601144 0.82705653 0 43
5.9223857 -5.0597634 0.89952415 0 44
5.9151721 -5.0536008 0.97101927 0 45
5.9187727 -5.0566769 1.0444123 0 46
5.9247603 -5.0617924 1.1185243 0 47
5.9160213 -5.0543265 1.1900153 0 48
5.9235644 -5.060771 1.2649729 0 49
5.9337425 -5.0694661 1.340933 0 50
5.9234705 -5.0606904 1.4125036 0 51
5.9305868 -5.0667701 1.4884285 0 52
5.9216547 -5.0591393 1.5605636 0 53
5.9240432 -5.0611796 1.6358744 0 54
5.9215374 -5.0590391 1.7101213 0 55
0 0 0 0 56
0 0 0 0 57
0 0 0 0 58
0 0 0 0 59
0 0 0 0 60
0 0 0 0 61
0 0 0 0 62
0 0 0 0 63
1.8995601 -1.5828937 -0.73712283 0 0
1.9623274 -1.6351974 -0.73596722 0 1
2.0440335 -1.7032827 -0.74017668 0 2
2.1076577 -1.7563004 -0.73609811 0 3
2.1810412 -1.8174505 -0.73380333 0 4
2.2807145 -1.9005078 -0.73827654 0 5
2.3604863 -1.9669812 -0.73415828 0 6
2.4687481 -2.0571952 -0.73665327 0 7
2.5811687 -2.1508746 -0.73773938 0 8
2.6761093 -2.2299883 -0.73135763 0 9
2.8085515 -2.3403518 -0.73251235 0 10
2.9411278 -2.4508269 -0.73053056 0 11
3.1031342 -2.5858259 -0.73233211 0 12
3.2827604 -2.7355075 -0.73419547 0 13
3.4707375 -2.892148 -0.73352355 0 14
3.6863124 -3.0717854 -0.7338531 0 15
3.9520895 -3.293256 -0.73840666 0 16
4.2228551 -3.5188837 -0.73746365 0 17
4.5413609 -3.7842929 -0.7378034 0 18
4.8869305 -4.0722542 -0.7345925 0 19
5.2957478 -4.4129195 -0.73186308 0 20
5.798305 -4.8316979 -0.73118013 0 21
6.0849237 -5.0705357 -0.69385201 0 22
6.0781832 -5.064919 -0.61981153 0 23
6.0770693 -5.0639911 -0.54654503 0 24
6.0963497 -5.0800571 -0.47498727 0 25
6.0942283 -5.0782895 -0.4016363 0 26
6.0865679 -5.0719056 -0.32810581 0 27
6.0761671 -5.0632391 -0.25469986 0 28
6.0773449 -5.0642204 -0.18193293 0 29
6.0884719 -5.0734925 -0.10934728 0 30
6.0817747 -5.0679121 -0.036406949 0 31
6.0933433 -5.0775518 0.036476199 0 32
6.0799074 -5.0663562 0.10919347 0 33
6.0795383 -5.0660481 0.1819986 0 34
6.0669456 -5.0555549 0.25431329 0 35
6.0825076 -5.0685225 0.32788697 0 36
6.0796137 -5.0661111 0.40067312 0 37
6.0665269 -5.0552058 0.47266364 0 38
6.0880051 -5.0731034 0.54752856 0 39
6.0787606 -5.0654001 0.61987042 0 40
6.0807452 -5.0670538 0.69337553 0 41
6.0743213 -5.0617013 0.76598644 0 42
6.080297 -5.0666804 0.84028643 0 43
6.0665917 -5.0552597 0.91191655 0 44
6.0728288 -5.0604572 0.98661035 0 45
6.0772052 -5.0641041 1.0613005 0 46
6.0731001 -5.0606833 1.1346954 0 47
6.0721841 -5.0599198 1.2088207 0 48
6.077353 -5.0642271 1.2844189 0 49
6.0771337 -5.0640445 1.3591623 0 50
6.0760069 -5.0631056 1.4339228 0 51
6.0784798 -5.0651665 1.5098002 0 52
6.0902457 -5.0749707 1.5884274 0 53
6.0778708 -5.0646586 1.6610296 0 54
6.0971518 -5.0807257 1.7426639 0 55
0 0 0 0 56
0 0 0 0 57
0 0 0 0 58
0 0 0 0 59
0 0 0 0 60
0 0 0 0 61
0 0 0 0 62
0 0 0 0 63
1.9275185 -1.5664389 -0.74044162 0 0
1.9765717 -1.6063031 -0.73384613 0 1
2.0447776 -1.6617322 -0.73299146 0 2
2.1244664 -1.726493 -0.73449856 0 3
2.2078412 -1.7942493 -0.73534155 0 4
2.2944582 -1.8646404 -0.73524773 0 5
2.3803065 -1.9344069 -0.73286927 0 6
2.4768379 -2.0128551 -0.73162633 0 7
2.5950968 -2.1089609 -0.73425281 0 8
2.7179785 -2.2088232 -0.7353217 0 9
2.8466454 -2.3133872 -0.73497295 0 10
2.9882462 -2.428462 -0.73476136 0 11
3.1482978 -2.5585313 -0.73551029 0 12
3.321708 -2.6994569 -0.73542678 0 13
3.5003486 -2.8446329 -0.73233366 0 14
3.7126002 -3.0171237 -0.73164529 0 15
3.9886122 -3.2414308 -0.7377277 0 16
4.2589626 -3.4611371 -0.73628128 0 17
4.5641761 -3.7091751 -0.73404467 0 18
4.9404182 -4.014936 -0.73515594 0 19
5.3563638 -4.352963 -0.73278749 0 20
5.8747096 -4.7742081 -0.73335648 0 21
6.2414842 -5.0722752 -0.70453894 0 22
6.22404 -5.0580988 -0.62829512 0 23
6.2360406 -5.0678515 -0.55519581 0 24
6.2384219 -5.0697865 -0.48116305 0 25
6.2395382 -5.070694 -0.40707284 0 26
6.2382307 -5.0696316 -0.33289585 0 27
6.2382364 -5.0696359 -0.25886077 0 28
6.2330198 -5.0653968 -0.18471467 0 29
6.2368922 -5.0685434 -0.11088514 0 30
6.2390981 -5.0703363 -0.036972702 0 31
6.2316365 -5.0642724 0.036928486 0 32
6.2337179 -5.0659637 0.11082871 0 33
6.2423348 -5.0729666 0.18499072 0 34
6.2218161 -5.0562916 0.2581794 0 35
6.2367806 -5.0684528 0.33281845 0 36
6.224771 -5.0586929 0.40610942 0 37
6.2232375 -5.0574465 0.47999188 0 38
6.2246013 -5.0585551 0.55417734 0 39
6.2304978 -5.0633469 0.62894702 0 40
6.2384901 -5.0698419 0.70420098 0 41
6.2395539 -5.0707068 0.77890104 0 42
6.2254004 -5.0592046 0.85167778 0 43
6.234179 -5.0663385 0.92767328 0 44
6.2301993 -5.0631042 1.0019869 0 45
6.2412672 -5.0720987 1.0789782 0 46
6.2282343 -5.0615072 1.1519648 0 47
6.2280149 -5.0613294 1.2273604 0 48
6.2262316 -5.0598803 1.3026358 0 49
6.2331657 -5.065515 1.380024 0 50
6.2255878 -5.0593567 1.4544317 0 51
6.2268829 -5.0604091 1.5310897 0 52
6.2312741 -5.0639777 1.6088473 0 53
6.2462082 -5.0761142 1.6898487 0 54
6.2390924 -5.0703316 1.7652795 0 55
0 0 0 0 56
0 0 0 0 57
0 0 0 0 58
0 0 0 0 59
0 0 0 0 60
0 0 0 0 61
0 0 0 0 62
0 0 0 0 63
1.9286265 -1.5283514 -0.73359251 0 0
1.9982895 -1.5835562 -0.73462433 0 1
2.0669045 -1.6379305 -0.73364794 0 2
2.1668553 -1.7171371 -0.74179763 0 3
2.2320349 -1.7687892 -0.73609984 0 4
2.3114412 -1.8317151 -0.73341686 0 5
2.4147549 -1.9135867 -0.73617518 0 6
2.5074427 -1.9870375 -0.73339379 0 7
2.6133456 -2.070961 -0.73215556 0 8
2.7459135 -2.1760154 -0.73558474 0 9
2.8763115 -2.2793498 -0.7353403 0 10
3.0232544 -2.3957956 -0.73606992 0 11
3.1820514 -2.5216353 -0.73609626 0 12
3.3407085 -2.6473641 -0.73237085 0 13
3.5648396 -2.8249781 -0.73850286 0 14
3.7669778 -2.9851635 -0.73507208 0 15
4.0209532 -3.1864278 -0.73640674 0 16
4.298234 -3.4061606 -0.73577398 0 17
4.6274686 -3.6670644 -0.73691607 0 18
4.993228 -3.9569128 -0.73571843 0 19
5.4298677 -4.3029304 -0.73554921 0 20
5.9670606 -4.728632 -0.7375707 0 21
6.3849449 -5.0597873 -0.71365577 0 22
6.3958759 -5.068449 -0.6393016 0 23
6.3828597 -5.0581346 -0.56268716 0 24
6.3996825 -5.071466 -0.48875412 0 25
6.3803854 -5.0561738 -0.41217446 0 26
6.3960195 -5.068563 -0.33796456 0 27
6.3967767 -5.0691628 -0.26283312 0 28
6.3975101 -5.0697446 -0.18772769 0 29
6.3889985 -5.0629992 -0.11247407 0 30
6.3893332 -5.0632644 -0.037491202 0 31
6.3874836 -5.0617986 0.037480351 0 32
6.3826599 -5.0579762 0.11236248 0 33
6.3895841 -5.0634632 0.1874951 0 34
6.3856368 -5.0603352 0.26237538 0 35
6.3904438 -5.0641446 0.33766997 0 36
6.3972754 -5.0695586 0.41326556 0 37
6.4020901 -5.0733738 0.488938 0 38
6.3904305 -5.0641341 0.56335455 0 39
6.3869748 -5.0613956 0.63841194 0 40
6.3865266 -5.0610404 0.7138325 0 41
6.3928843 -5.0660787 0.79020548 0 42
6.3881602 -5.062335 0.86536294 0 43
6.3913355 -5.0648513 0.94172019 0 44
6.3927674 -5.0659862 1.0180368 0 45
6.39364 -5.0666776 1.0944667 0 46
6.3790216 -5.0550933 1.1682689 0 47
6.3955297 -5.0681753 1.2479967 0 48
6.3908634 -5.0644774 1.3239504 0 49
6.3883247 -5.0624652 1.4004881 0 50
6.3927398 -5.0659642 1.478817 0 51
6.3887205 -5.0627789 1.5554579 0 52
6.3900237 -5.0638118 1.6336346 0 53
6.3977733 -5.069953 1.7138574 0 54
0 0 0 0 55
0 0 0 0 56
0 0 0 0 57
0 0 0 0 58
0 0 0 0 59
0 0 0 0 60
0 0 0 0 61
0 0 0 0 62
0 0 0 0 63
1.9412277 -1.4998518 -0.7313152 0 0
2.0258164 -1.5652077 -0.73761272 0 1
2.079041 -1.6063306 -0.73088956 0 2
2.171345 -1.6776475 -0.73621684 0 3
2.2459726 -1.7353071 -0.73360378 0 4
2.3414733 -1.809094 -0.73583198 0 5
2.4194963 -1.8693768 -0.73055756 0 6
2.5382295 -1.9611137 -0.73528969 0 7
2.6504872 -2.0478475 -0.7354508 0 8
2.7678618 -2.1385348 -0.73436439 0 9
2.8856955 -2.2295763 -0.7306751 0 10
3.0305717 -2.3415122 -0.7307862 0 11
3.2134464 -2.4828067 -0.73624074 0 12
3.3896179 -2.6189222 -0.73597753 0 13
3.579833 -2.7658885 -0.73450762 0 14
3.8071616 -2.9415295 -0.73579967 0 15
4.0477753 -3.127435 -0.7342205 0 16
4.3371572 -3.3510201 -0.73532766 0 17
4.6728044 -3.6103516 -0.7370103 0 18
5.0440197 -3.8971639 -0.73608571 0 19
5.4991617 -4.2488203 -0.73780292 0 20
6.0359411 -4.6635523 -0.73894066 0 21
6.5569639 -5.0661106 -0.72586489 0 22
6.5554371 -5.0649309 -0.64897627 0 23
6.555244 -5.0647817 -0.57235032 0 24
6.5543432 -5.064086 -0.49577263 0 25
6.567143 -5.0739756 -0.42017674 0 26
6.5577011 -5.0666804 -0.34318981 0 27
6.5672588 -5.0740647 -0.26725411 0 28
6.5566797 -5.0658913 -0.19055603 0 29
6.559937 -5.0684075 -0.11437751 0 30
6.5578442 -5.0667906 -0.038111523 0 31
6.5484443 -5.0595284 0.038056895 0 32
6.5667834 -5.0736976 0.11449689 0 33
6.556797 -5.0659819 0.19055943 0 34
6.5599647 -5.068429 0.26695728 0 35
6.5586505 -5.0674138 0.34323952 0 36
6.5501399 -5.0608382 0.41908887 0 37
6.5605636 -5.068892 0.49624315 0 38
6.56775 -5.0744443 0.57344222 0 39
6.560986 -5.0692182 0.64952558 0 40
6.5626974 -5.0705404 0.72649956 0 41
6.557363 -5.0664191 0.80277497 0 42
6.5530944 -5.0631208 0.87920523 0 43
6.5569081 -5.0660677 0.95686507 0 44
6.5659761 -5.0730739 1.0356076 0 45
6.5691824 -5.075551 1.1137483 0 46
6.5567813 -5.0659699 1.1893258 0 47
6.5645971 -5.0720081 1.2687216 0 48
6.5642004 -5.071702 1.3468381 0 49
6.5601201 -5.0685492 1.4243791 0 50
6.5524545 -5.0626268 1.5012493 0 51
6.5542684 -5.0640278 1.5804836 0 52
6.5683246 -5.0748882 1.6631386 0 53
6.5564485 -5.0657125 1.7395458 0 54
0 0 0 0 55
0 0 0 0 56
0 0 0 0 57
0 0 0 0 58
0 0 0 0 59
0 0 0 0 60
0 0 0 0 61
0 0 0 0 62
0 0 0 0 63
1.9608904 -1.4769003 -0.73182577 0 0
2.0320954 -1.5305305 -0.73299098 0 1
2.1066966 -1.5867183 -0.7336973 0 2
2.1966972 -1.654505 -0.73785901 0 3
2.2713187 -1.7107081 -0.73495609 0 4
2.3618262 -1.7788765 -0.73529834 0 5
2.455662 -1.8495516 -0.73455501 0 6
2.5580375 -1.9266586 -0.73410934 0 7
2.6740618 -2.0140457 -0.73506469 0 8
2.8141527 -2.119559 -0.73967528 0 9
2.9342721 -2.2100303 -0.73603833 0 10
3.0803416 -2.3200469 -0.73585266 0 11
3.2440975 -2.4433842 -0.73632395 0 12
3.4292727 -2.5828543 -0.73763597 0 13
3.6180565 -2.7250421 -0.73541951 0 14
3.8358405 -2.8890722 -0.7344209 0 15
4.0978789 -3.0864339 -0.73636895 0 16
4.3868876 -3.3041089 -0.73681504 0 17
4.7307501 -3.5630989 -0.73918337 0 18
5.1098547 -3.8486323 -0.73873115 0 19
5.4912853 -4.1359177 -0.72986758 0 20
6.0376792 -4.5474496 -0.73225248 0 21
6.6896038 -5.038465 -0.73363429 0 22
6.721817 -5.0627275 -0.65923476 0 23
6.7277188 -5.0671725 -0.58192515 0 24
6.7265515 -5.0662932 -0.50404823 0 25
6.7234607 -5.0639653 -0.42616192 0 26
6.7268629 -5.0665278 -0.3487559 0 27
6.72368 -5.0641308 -0.27106506 0 28
6.730361 -5.0691628 -0.19377749 0 29
6.7136178 -5.0565519 -0.11596417 0 30
6.7269197 -5.0665708 -0.038729127 0 31
6.7155118 -5.0579786 0.038663451 0 32
6.7194324 -5.0609312 0.1160646 0 33
6.7232614 -5.0638156 0.19357309 0 34
6.7245717 -5.0648022 0.271101 0 35
6.7229576 -5.0635867 0.34855345 0 36
6.7263646 -5.0661526 0.42634597 0 37
6.7219911 -5.0628586 0.50370651 0 38
6.7236013 -5.0640717 0.58156902 0 39
6.7224159 -5.0631785 0.65929347 0 40
6.7195635 -5.0610299 0.73691988 0 41
6.7290225 -5.0681543 0.81609893 0 42
6.7194686 -5.0609589 0.89311016 0 43
6.7382827 -5.075129 0.9741528 0 44
6.717072 -5.0591536 1.0495477 0 45
6.7233067 -5.0638494 1.1292365 0 46
6.7260303 -5.0659008 1.2086351 0 47
6.7257214 -5.0656681 1.2877257 0 48
6.7155633 -5.0580173 1.3650302 0 49
6.7261858 -5.0660181 1.4468014 0 50
6.7232342 -5.0637951 1.5259956 0 51
6.7318635 -5.0702944 1.6081527 0 52
6.7267771 -5.066463 1.6873574 0 53
6.7227807 -5.0634532 1.7670237 0 54
0 0 0 0 55
0 0 0 0 56
0 0 0 0 57
0 0 0 0 58
0 0 0 0 59
0 0 0 0 60
0 0 0 0 61
0 0 0 0 62
0 0 0 0 63
1.9869982 -1.4586221 -0.73482001 0 0
2.0600622 -1.5122572 -0.73631561 0 1
2.1272094 -1.5615488 -0.73409849 0 2
2.2123129 -1.6240219 -0.73634076 0 3
2.286865 -1.6787493 -0.73325157 0 4
2.3799434 -1.7470766 -0.73419499 0 5
2.4865499 -1.8253347 -0.73702466 0 6
2.5928023 -1.9033328 -0.73731387 0 7
2.6970472 -1.9798573 -0.73463535 0 8
