# .PCD v0.7 - Point Cloud Data file format
VERSION 0.7
FIELDS x y z intensity ring
SIZE 4 4 4 4 2
TYPE F F F F U
COUNT 1 1 1 1 1
WIDTH 1287
HEIGHT 1
VIEWPOINT 0 0 0 1 0 0 0
POINTS 1287
DATA ascii
-1.3174124 2.6314065 0.84788585 0 62
-1.318573 2.6337249 0.87805086 0 63
-1.1352681 2.1996062 -0.73791939 0 0
-1.1684901 2.2639747 -0.73406696 0 1
-1.2041502 2.3330669 -0.73038477 0 2
-1.2584063 2.4381893 -0.73617345 0 3
-1.3011807 2.5210655 -0.73329222 0 4
-1.3535664 2.6225641 -0.73392445 0 5
-1.3604206 2.6358442 -0.7087369 0 6
-1.3639674 2.6427162 -0.68173248 0 7
-1.3621733 2.63924 -0.65214264 0 8
-1.358876 2.6328514 -0.62205589 0 9
-1.3580232 2.6311991 -0.59328496 0 10
-1.3616763 2.6382773 -0.56652886 0 11
-1.366106 2.6468596 -0.54002708 0 12
-1.3634273 2.6416695 -0.51077324 0 13
-1.3594725 2.6340072 -0.4812673 0 14
-1.360679 2.6363447 -0.45372877 0 15
-1.3559811 2.6272423 -0.42437139 0 16
-1.3571235 2.629456 -0.39698809 0 17
-1.3616234 2.6381745 -0.37054014 0 18
-1.3567579 2.6287475 -0.34161454 0 19
-1.3640242 2.6428261 -0.31575358 0 20
-1.3583566 2.631845 -0.28691992 0 21
-1.3582895 2.6317148 -0.25943446 0 22
-1.3558263 2.6269426 -0.23158668 0 23
-1.3605081 2.6360135 -0.20495406 0 24
-1.361394 2.6377301 -0.17767224 0 25
-1.3588387 2.6327791 -0.15000501 0 26
-1.3658677 2.6463981 -0.12333144 0 27
-1.3607866 2.6365533 -0.09554603 0 28
-1.3621732 2.6392398 -0.068305142 0 29
-1.3523654 2.6202369 -0.040683411 0 30
-1.3557454 2.626786 -0.013594266 0 31
-1.3607044 2.636394 0.013643989 0 32
-1.3670843 2.6487551 0.041126203 0 33
-1.3604562 2.6359131 0.068219051 0 34
-1.3559407 2.6271641 0.095205776 0 35
-1.3592166 2.6335113 0.12273087 0 36
-1.3596658 2.6343815 0.15009631 0 37
-1.3575599 2.6303015 0.17717186 0 38
-1.3621249 2.6391463 0.20519765 0 39
-1.3632717 2.6413682 0.23285842 0 40
-1.3533258 2.6220977 0.25848642 0 41
-1.3636267 2.642056 0.28803313 0 42
-1.3629366 2.6407189 0.31550181 0 43
-1.3615347 2.6380026 0.34281725 0 44
-1.3674701 2.6495028 0.37213126 0 45
-1.3555176 2.6263447 0.39651835 0 46
-1.3586048 2.6323259 0.42519253 0 47
-1.3566952 2.6286259 0.4524003 0 48
-1.3575324 2.6302481 0.48058048 0 49
-1.3586836 2.6324787 0.50899619 0 50
-1.3625331 2.6399369 0.53861469 0 51
-1.3609388 2.636848 0.56622195 0 52
-1.3598229 2.6346858 0.59407121 0 53
-1.3551539 2.6256399 0.62035203 0 54
-1.3611606 2.6372778 0.65165782 0 55
-1.3644354 2.6436229 0.68196636 0 56
-1.3644323 2.6436169 0.71082687 0 57
-1.3633964 2.6416097 0.73925442 0 58
-1.362168 2.6392295 0.76766211 0 59
-1.3688467 2.6521697 0.80078155 0 60
-1.3519949 2.619519 0.82006085 0 61
-1.3571235 2.6294558 0.85256994 0 62
-1.3628427 2.640537 0.88584191 0 63
-1.1677155 2.1958008 -0.74140376 0 0
-1.1965066 2.2499402 -0.73423147 0 1
-1.2387327 2.3293433 -0.73393208 0 2
-1.280815 2.4084759 -0.73190194 0 3
-1.3352261 2.5107918 -0.73502392 0 4
-1.3921053 2.617749 -0.73731166 0 5
-1.3998941 2.6323953 -0.71238422 0 6
-1.4019456 2.6362529 -0.68446046 0 7
-1.3967222 2.6264305 -0.65317196 0 8
-1.39379 2.6209168 -0.62323833 0 9
-1.4053334 2.6426234 -0.59971207 0 10
-1.3988068 2.6303504 -0.56847721 0 11
-1.4007443 2.6339939 -0.54087543 0 12
-1.3927153 2.618896 -0.50964266 0 13
-1.4011744 2.6348026 -0.48452407 0 14
-1.4046086 2.6412604 -0.45751274 0 15
-1.404657 2.6413515 -0.42940789 0 16
-1.3997432 2.6321113 -0.39995739 0 17
-1.4055634 2.6430557 -0.37362501 0 18
-1.4021578 2.636652 -0.34485626 0 19
-1.4006448 2.6338067 -0.31670979 0 20
-1.394823 2.622859 -0.28778839 0 21
-1.4026281 2.637536 -0.26168877 0 22
-1.4042948 2.6406703 -0.23430149 0 23
-1.4027179 2.6377051 -0.20641108 0 24
-1.4031252 2.6384709 -0.17887077 0 25
-1.403626 2.6394126 -0.15135491 0 26
-1.4018772 2.6361239 -0.12364664 0 27
-1.4043428 2.6407607 -0.096317008 0 28
-1.3963597 2.6257491 -0.068395205 0 29
-1.4051815 2.6423378 -0.041291725 0 30
-1.401387 2.6352022 -0.013725965 0 31
-1.4078538 2.6473627 0.013789305 0 32
-1.4016092 2.6356201 0.041186746 0 33
-1.3983597 2.6295097 0.068493158 0 34
-1.3971229 2.6271839 0.095821828 0 35
-1.3991036 2.6309087 0.12340201 0 36
-1.394567 2.6223781 0.15037808 0 37
-1.4021761 2.6366863 0.17874978 0 38
-1.3974228 2.627748 0.2056319 0 39
-1.4019505 2.6362619 0.23391035 0 40
-1.3978975 2.6286407 0.2608062 0 41
-1.3987392 2.6302235 0.28859642 0 42
-1.4041182 2.6403382 0.31749517 0 43
-1.395975 2.6250255 0.34333563 0 44
-1.4035273 2.6392269 0.37308377 0 45
-1.404333 2.6407421 0.40126884 0 46
-1.3962228 2.6254914 0.42682952 0 47
-1.4005584 2.6336441 0.45619348 0 48
-1.400672 2.633858 0.48435032 0 49
-1.4021786 2.6366911 0.51310563 0 50
-1.4064119 2.6446512 0.54306388 0 51
-1.3992963 2.6312711 0.56867617 0 52
-1.3971617 2.6272569 0.59622484 0 53
-1.399832 2.6322782 0.62594002 0 54
-1.4018128 2.636003 0.65555257 0 55
-1.3973657 2.6276405 0.68222439 0 56
-1.4024892 2.637275 0.71370482 0 57
-1.4001155 2.6328113 0.74155414 0 58
-1.4023578 2.637028 0.77197909 0 59
-1.4100385 2.6514709 0.80574471 0 60
-1.3968934 2.6267526 0.82764018 0 61
-1.4046135 2.6412697 0.86193544 0 62
-1.4059631 2.6438072 0.89267141 0 63
-1.1867194 2.1668408 -0.73649693 0 0
-1.2298648 2.2456203 -0.73770106 0 1
-1.2693607 2.3177361 -0.73513734 0 2
-1.3130122 2.39744 -0.73339921 0 3
-1.3645408 2.4915264 -0.73424053 0 4
-1.4194783 2.5918372 -0.73487407 0 5
-1.4429951 2.6347766 -0.71777624 0 6
-1.4393914 2.6281967 -0.68691224 0 7
-1.4460694 2.6403899 -0.66101569 0 8
-1.4416888 2.6323915 -0.63013482 0 9
-1.4479144 2.6437588 -0.60396457 0 10
-1.4396082 2.6285925 -0.57187986 0 11
-1.435277 2.6206839 -0.54172546 0 12
-1.4465725 2.6413088 -0.51742661 0 13
-1.4413669 2.6318038 -0.48719501 0 14
-1.4371229 2.6240547 -0.45755884 0 15
-1.4470388 2.6421599 -0.43239936 0 16
-1.4463617 2.6409237 -0.40396842 0 17
-1.4366378 2.6231687 -0.37328279 0 18
-1.4380667 2.6257777 -0.34572071 0 19
-1.4463528 2.6409078 -0.3196781 0 20
-1.4381409 2.6259131 -0.29004192 0 21
-1.4456395 2.6396053 -0.26363784 0 22
-1.4509751 2.6493473 -0.23663656 0 23
-1.4418156 2.6326232 -0.20738509 0 24
-1.4458801 2.6400442 -0.18016914 0 25
-1.4454161 2.6391971 -0.15235025 0 26
-1.444214 2.6370025 -0.12451139 0 27
-1.4387139 2.6269596 -0.096451603 0 28
-1.4427825 2.6343887 -0.069077142 0 29
-1.4426079 2.6340697 -0.041436594 0 30
-1.4408476 2.6308556 -0.013794567 0 31
-1.4392567 2.6279507 0.013779334 0 32
-1.4372002 2.6241956 0.041281264 0 33
-1.4400561 2.6294103 0.068946607 0 34
-1.4364108 2.6227543 0.096297197 0 35
-1.4376428 2.6250038 0.12394486 0 36
-1.4432256 2.6351976 0.15211937 0 37
-1.4475309 2.6430585 0.18037483 0 38
-1.4417371 2.6324794 0.20737378 0 39
-1.4411629 2.6314313 0.23503633 0 40
-1.4385022 2.6265731 0.26233622 0 41
-1.4464955 2.6411684 0.29172689 0 42
-1.4483827 2.644614 0.32012674 0 43
-1.4436502 2.635973 0.34706303 0 44
-1.4379046 2.6254821 0.37361196 0 45
-1.4444572 2.6374464 0.40343648 0 46
-1.443529 2.6357517 0.43135059 0 47
-1.4450035 2.6384439 0.4600679 0 48
-1.4409568 2.6310551 0.48705643 0 49
-1.4406166 2.6304338 0.51529628 0 50
-1.4459392 2.6401525 0.54574984 0 51
-1.4417109 2.632432 0.57271516 0 52
-1.4404365 2.6301048 0.60084534 0 53
-1.4394088 2.6282284 0.62913829 0 54
-1.4406452 2.630486 0.65853626 0 55
-1.4505458 2.6485636 0.69223541 0 56
-1.442156 2.6332445 0.71735883 0 57
-1.4438651 2.6363652 0.74749929 0 58
-1.4405227 2.6302621 0.77512538 0 59
-1.4462372 2.6406965 0.8078137 0 60
-1.4424034 2.6336966 0.83535331 0 61
-1.4423685 2.6336327 0.86516565 0 62
-1.4461699 2.6405735 0.89751601 0 63
-1.2117288 2.149348 -0.73556 0 0
-1.2478048 2.2133391 -0.73208165 0 1
-1.3066159 2.3176575 -0.74015248 0 2
-1.3457416 2.3870583 -0.73522991 0 3
-1.393508 2.4717855 -0.73341727 0 4
-1.4527934 2.5769451 -0.73566115 0 5
-1.4872665 2.638093 -0.72360712 0 6
-1.4834695 2.6313579 -0.69245374 0 7
-1.483889 2.632102 -0.66345865 0 8
-1.4858801 2.6356337 -0.63523662 0 9
-1.4880927 2.6395586 -0.60713935 0 10
-1.4784445 2.6224446 -0.57445407 0 11
-1.4906169 2.6440358 -0.55029982 0 12
-1.479826 2.6248951 -0.51773679 0 13
-1.4838026 2.6319487 -0.49056235 0 14
-1.4866602 2.6370175 -0.46297181 0 15
-1.4795964 2.6244879 -0.43245202 0 16
-1.4787911 2.6230595 -0.40398678 0 17
-1.4878836 2.6391876 -0.37813723 0 18
-1.4888562 2.6409128 -0.35009745 0 19
-1.4822311 2.6291614 -0.32043824 0 20
-1.4840438 2.6323767 -0.29274932 0 21
-1.4821894 2.6290874 -0.2643877 0 22
-1.4837692 2.6318896 -0.236689 0 23
-1.4855758 2.6350939 -0.20900296 0 24
-1.4832083 2.6308947 -0.18077572 0 25
-1.4844943 2.6331758 -0.15304482 0 26
-1.4874568 2.6384304 -0.12543295 0 27
-1.4895203 2.6420908 -0.097672261 0 28
-1.4815232 2.6279056 -0.06937959 0 29
-1.4816151 2.6280687 -0.041625641 0 30
-1.4924612 2.6473074 -0.013975998 0 31
-1.4760537 2.6182039 0.013822353 0 32
-1.480516 2.6261191 0.041594762 0 33
-1.4891869 2.6414993 0.069738477 0 34
-1.4884937 2.6402698 0.097604945 0 35
-1.480772 2.6265733 0.12486926 0 36
-1.4887543 2.640732 0.153484 0 37
-1.4792676 2.6239047 0.18029541 0 38
-1.4910091 2.6447318 0.20976737 0 39
-1.4842558 2.6327527 0.23676662 0 40
-1.4817125 2.6282413 0.26430261 0 41
-1.4881096 2.6395886 0.29355136 0 42
-1.4887222 2.6406751 0.32184151 0 43
-1.4936948 2.6494954 0.35123521 0 44
-1.4814706 2.6278124 0.37650743 0 45
-1.4803991 2.6259117 0.40442604 0 46
-1.4820706 2.6288764 0.43317518 0 47
-1.4856144 2.6351626 0.46264613 0 48
-1.4847821 2.6336863 0.49088624 0 49
-1.4844949 2.6331768 0.51937032 0 50
-1.4765416 2.6190693 0.54510361 0 51
-1.4840513 2.63239 0.57663268 0 52
-1.4875624 2.6386178 0.60692292 0 53
-1.4834689 2.6313567 0.63420576 0 54
-1.4863307 2.6364331 0.66455036 0 55
-1.4850538 2.6341681 0.69319326 0 56
-1.4817364 2.6282837 0.72091657 0 57
-1.481761 2.6283274 0.75032967 0 58
-1.4815269 2.627912 0.77974248 0 59
-1.4897088 2.6424251 0.81388468 0 60
-1.4888984 2.6409876 0.84340918 0 61
-1.4824872 2.6296155 0.86976874 0 62
-1.4821476 2.6290131 0.89971328 0 63
-1.2355425 2.1299388 -0.7340616 0 0
-1.2822696 2.2104912 -0.73629916 0 1
-1.3278393 2.2890482 -0.7361747 0 2
-1.3661031 2.3550107 -0.73047787 0 3
-1.4243039 2.4553425 -0.73367959 0 4
-1.4822346 2.5552089 -0.73460358 0 5
-1.5249549 2.6288538 -0.72616142 0 6
-1.5267128 2.6318843 -0.69747978 0 7
-1.5253297 2.6294999 -0.66748005 0 8
-1.5293099 2.6363614 -0.63989598 0 9
-1.5266807 2.631829 -0.60963339 0 10
-1.5317132 2.6405044 -0.58249193 0 11
-1.5240123 2.627229 -0.55066055 0 12
-1.5292126 2.6361938 -0.52363467 0 13
-1.5213727 2.6226785 -0.49228418 0 14
-1.5352192 2.6465483 -0.467924 0 15
-1.528751 2.6353979 -0.43731418 0 16
-1.5287319 2.635365 -0.40874624 0 17
-1.5337952 2.6440935 -0.38151357 0 18
-1.5313342 2.6398511 -0.35242626 0 19
-1.5305988 2.6385832 -0.32385597 0 20
-1.5314128 2.6399868 -0.2956675 0 21
-1.5240762 2.6273391 -0.26607642 0 22
-1.531357 2.6398904 -0.23908389 0 23
-1.5273428 2.6329703 -0.21030822 0 24
-1.5293564 2.6364415 -0.18243524 0 25
-1.529574 2.6368167 -0.15433794 0 26
-1.527614 2.6334379 -0.1260791 0 27
-1.5322095 2.64136 -0.09833432 0 28
-1.5305082 2.6384273 -0.07014893 0 29
-1.5232879 2.6259801 -0.041886073 0 30
-1.5278445 2.6338353 -0.014003 0 31
-1.5238183 2.6268945 0.013966097 0 32
-1.5244099 2.6279144 0.041916925 0 33
-1.5238469 2.6269438 0.06984362 0 34
-1.5335294 2.6436353 0.098419018 0 35
-1.5350299 2.6462221 0.12669116 0 36
-1.5214609 2.6228306 0.1535193 0 37
-1.5288692 2.6356015 0.18237711 0 38
-1.5254729 2.6297469 0.21005075 0 39
-1.5318091 2.6406698 0.23915447 0 40
-1.5212877 2.6225321 0.26558959 0 41
-1.533367 2.6433554 0.29604477 0 42
-1.5292461 2.6362514 0.32356974 0 43
-1.5224071 2.6244617 0.35037175 0 44
-1.5270946 2.6325424 0.37984687 0 45
-1.5268495 2.6321199 0.40824291 0 46
-1.531377 2.6399248 0.43806535 0 47
-1.528788 2.6354616 0.46596384 0 48
-1.5281241 2.6343172 0.49446878 0 49
-1.527267 2.6328397 0.52296841 0 50
-1.5235839 2.6264904 0.5505057 0 51
-1.5233053 2.6260099 0.5792945 0 52
-1.5290908 2.6359837 0.6105957 0 53
-1.5311471 2.6395285 0.6406647 0 54
-1.5216197 2.6231043 0.6658566 0 55
-1.5285361 2.6350274 0.69831276 0 56
-1.5293838 2.6364889 0.72827041 0 57
-1.5344393 2.6452041 0.76047653 0 58
-1.5271647 2.6326632 0.78666472 0 59
-1.5275464 2.6333213 0.81680429 0 60
-1.5289094 2.6356711 0.84765112 0 61
-1.5225481 2.6247048 0.8742708 0 62
-1.5288775 2.6356158 0.90833801 0 63
-1.2687947 2.1265814 -0.73822564 0 0
-1.3047463 2.1868386 -0.73370928 0 1
-1.3598921 2.2792668 -0.73835093 0 2
-1.4002117 2.3468449 -0.73323011 0 3
-1.4548516 2.4384248 -0.73391449 0 4
-1.5099385 2.5307541 -0.7328555 0 5
-1.5713543 2.6336908 -0.73277938 0 6
-1.5695977 2.6307468 -0.70224011 0 7
-1.5730486 2.6365306 -0.67412388 0 8
-1.5686791 2.6292071 -0.64279276 0 9
-1.5782825 2.645303 -0.61720324 0 10
-1.5687222 2.6292794 -0.58422679 0 11
-1.5678918 2.6278875 -0.55479759 0 12
-1.5746913 2.6392839 -0.52805471 0 13
-1.5822514 2.6519551 -0.50139356 0 14
-1.5685446 2.6289816 -0.46819288 0 15
-1.5682695 2.6285205 -0.43933973 0 16
-1.569553 2.6306717 -0.41098067 0 17
-1.5694931 2.6305714 -0.38231823 0 18
-1.5750501 2.6398854 -0.35498965 0 19
-1.5767931 2.6428068 -0.32672942 0 20
-1.5686411 2.6291432 -0.29659089 0 21
-1.5679675 2.6280146 -0.26807711 0 22
-1.5684161 2.6287663 -0.23980494 0 23
-1.5712708 2.6335509 -0.21188185 0 24
-1.572085 2.6349156 -0.18365343 0 25
-1.5682441 2.6284781 -0.15496686 0 26
-1.5735265 2.6373315 -0.12718225 0 27
-1.5815336 2.6507518 -0.099400446 0 28
-1.5796477 2.6475909 -0.070903651 0 29
-1.5738722 2.6379111 -0.042381868 0 30
-1.5739324 2.6380119 -0.014127033 0 31
-1.5728807 2.6362493 0.014117594 0 32
-1.5697221 2.630955 0.042270113 0 33
-1.5735261 2.637331 0.070628889 0 34
-1.5722961 2.6352694 0.098819867 0 35
-1.5656257 2.6240892 0.12654364 0 36
-1.5698669 2.6311979 0.15512723 0 37
-1.5719239 2.6346455 0.18363461 0 38
-1.5729104 2.6362989 0.21210295 0 39
-1.572928 2.6363285 0.24049477 0 40
-1.5680636 2.6281755 0.26809353 0 41
-1.5724947 2.6356022 0.29731953 0 42
-1.5709695 2.6330457 0.32552266 0 43
-1.5744983 2.6389604 0.35486525 0 44
-1.5720661 2.6348839 0.382945 0 45
-1.5759463 2.6413875 0.41265473 0 46
-1.5735072 2.6372991 0.44080701 0 47
-1.5711854 2.6334076 0.46898112 0 48
-1.5740503 2.6382096 0.4987947 0 49
-1.5711114 2.6332839 0.52685422 0 50
-1.5768433 2.6428907 0.55796504 0 51
-1.5783479 2.6454124 0.58781159 0 52
-1.5681454 2.6283123 0.61323905 0 53
-1.5745684 2.6390779 0.64520597 0 54
-1.5721494 2.6350236 0.67373848 0 55
-1.5720183 2.6348038 0.70332307 0 56
-1.5694759 2.6305425 0.73190349 0 57
-1.5687603 2.629343 0.76140487 0 58
-1.5731899 2.6367674 0.79361141 0 59
-1.5766593 2.6425824 0.8256281 0 60
-1.5711552 2.633357 0.85305578 0 61
-1.5787007 2.6460037 0.88776439 0 62
-1.5682456 2.6284807 0.91245592 0 63
-1.2941278 2.1096489 -0.73781604 0 0
-1.3326447 2.1724381 -0.73432016 0 1
-1.3797871 2.2492883 -0.73408031 0 2
-1.4340172 2.3376925 -0.73582423 0 3
-1.4922268 2.4325843 -0.73762357 0 4
-1.5409869 2.5120714 -0.73287714 0 5
-1.6098729 2.6243675 -0.73563755 0 6
-1.6167107 2.6355143 -0.70876575 0 7
-1.6101731 2.6248569 -0.67615038 0 8
-1.6200716 2.6409931 -0.65049541 0 9
-1.6078705 2.621103 -0.61612338 0 10
-1.6105586 2.6254852 -0.58773983 0 11
-1.6205951 2.6418464 -0.5619092 0 12
-1.6100208 2.6246083 -0.5290395 0 13
-1.6165328 2.6352241 -0.5019505 0 14
-1.6086372 2.6223528 -0.47049952 0 15
-1.6126877 2.6289561 -0.44269356 0 16
-1.6143914 2.6317334 -0.41421649 0 17
-1.6141009 2.6312597 -0.38527375 0 18
-1.6188823 2.6390543 -0.35752773 0 19
-1.6173967 2.6366324 -0.32840005 0 20
-1.6108865 2.6260197 -0.29845053 0 21
-1.6184143 2.6382911 -0.27113494 0 22
-1.6177684 2.6372385 -0.24237417 0 23
-1.6132473 2.6298683 -0.21316546 0 24
-1.6105788 2.6255181 -0.18436486 0 25
-1.6206428 2.6419241 -0.15692265 0 26
-1.6098996 2.6244109 -0.12750417 0 27
-1.609913 2.6244328 -0.099148348 0 28
-1.6182201 2.6379747 -0.071173631 0 29
-1.6181152 2.6378038 -0.042696591 0 30
-1.6134341 2.6301727 -0.014190225 0 31
-1.6179386 2.6375158 0.014229842 0 32
-1.6138448 2.6308422 0.042583913 0 33
-1.6199473 2.6407905 0.071249597 0 34
-1.614092 2.6312451 0.099405713 0 35
-1.6234659 2.6465263 0.12857862 0 36
-1.6175812 2.6369333 0.15662621 0 37
-1.6134485 2.6301963 0.18469337 0 38
-1.6097851 2.6242242 0.21270797 0 39
-1.6157081 2.6338797 0.24206549 0 40
-1.6220317 2.6441882 0.27174097 0 41
-1.6107695 2.625829 0.29842883 0 42
-1.6133004 2.6299548 0.32756835 0 43
-1.6163715 2.6349614 0.3569732 0 44
-1.6152098 2.6330676 0.38553846 0 45
-1.6150475 2.6328027 0.41438481 0 46
-1.6186959 2.6387503 0.44434285 0 47
-1.6119925 2.6278226 0.47148088 0 48
-1.6145043 2.6319175 0.50132066 0 49
-1.6182464 2.6380179 0.53174239 0 50
-1.6139641 2.6310368 0.55961001 0 51
-1.6088217 2.6226537 0.58710599 0 52
-1.6157703 2.6339812 0.61915052 0 53
-1.6175591 2.6368973 0.6494866 0 54
-1.6162477 2.6347592 0.67870116 0 55
-1.6218551 2.6439006 0.71102107 0 56
-1.6134188 2.6301479 0.7372579 0 57
-1.6123768 2.6284492 0.76682943 0 58
-1.620803 2.6421854 0.80118006 0 59
-1.6227889 2.6454227 0.83268696 0 60
-1.6181346 2.6378353 0.86088699 0 61
-1.6167554 2.635587 0.89087224 0 62
-1.6152542 2.6331398 0.92089862 0 63
-1.3107407 2.0789404 -0.73265767 0 0
-1.364743 2.1645923 -0.7372849 0 1
-1.4043568 2.2274232 -0.73252481 0 2
-1.4619422 2.318758 -0.73546714 0 3
-1.5165538 2.4053764 -0.73497248 0 4
-1.5727431 2.4944973 -0.73333663 0 5
-1.6543678 2.6239605 -0.74116981 0 6
-1.6646507 2.6402702 -0.71549547 0 7
-1.6605837 2.6338196 -0.68366736 0 8
-1.6636571 2.638694 -0.65491837 0 9
-1.664884 2.64064 -0.62548077 0 10
-1.6656268 2.6418183 -0.595936 0 11
-1.661749 2.6356678 -0.56489849 0 12
-1.6570493 2.6282136 -0.53383297 0 13
-1.666582 2.6433334 -0.50736022 0 14
-1.6522785 2.620647 -0.47380289 0 15
-1.6604677 2.6336355 -0.44688597 0 16
-1.656813 2.6278391 -0.41677862 0 17
-1.6616267 2.6354737 -0.3888531 0 18
-1.6642398 2.6396184 -0.3603493 0 19
-1.6600457 2.6329663 -0.33046088 0 20
-1.6658046 2.6421003 -0.30258319 0 21
-1.6665956 2.6433549 -0.27374071 0 22
-1.6525193 2.6210287 -0.2427336 0 23
-1.6636918 2.6387491 -0.21552721 0 24
-1.6673334 2.6445251 -0.18712506 0 25
-1.6650341 2.6408782 -0.15806468 0 26
-1.661074 2.6345973 -0.12898165 0 27
-1.6663603 2.6429815 -0.10061561 0 28
-1.6556183 2.6259439 -0.071392916 0 29
-1.6612197 2.6348283 -0.042975824 0 30
-1.6647118 2.640367 -0.014354579 0 31
-1.6634316 2.6383364 0.01434354 0 32
-1.6675022 2.6447928 0.043138351 0 33
-1.6589527 2.6312327 0.071536697 0 34
-1.6586373 2.6307323 0.10014928 0 35
-1.6622891 2.6365244 0.129076 0 36
-1.6571797 2.6284206 0.15731905 0 37
-1.6527762 2.6214361 0.18549132 0 38
-1.6619799 2.636034 0.21530545 0 39
-1.6570944 2.6282852 0.2434056 0 40
-1.6691228 2.6473632 0.2741558 0 41
-1.6651443 2.641053 0.30246326 0 42
-1.6643188 2.6397436 0.33131149 0 43
-1.6650387 2.6408856 0.3605223 0 44
-1.6557826 2.6262045 0.38748544 0 45
-1.6697637 2.6483798 0.42003641 0 46
-1.6665927 2.6433504 0.44853443 0 47
-1.6685233 2.6464124 0.47846118 0 48
-1.6622471 2.6364577 0.50604051 0 49
-1.660109 2.6330667 0.53481871 0 50
-1.655605 2.6259229 0.56280982 0 51
-1.6615794 2.6353989 0.59448791 0 52
-1.664342 2.6397805 0.62527716 0 53
-1.6664879 2.6431839 0.6560328 0 54
-1.6556785 2.6260395 0.6816479 0 55
-1.6558943 2.6263816 0.71173179 0 56
-1.6595411 2.6321659 0.74348748 0 57
-1.6658826 2.6422241 0.77676558 0 58
-1.664547 2.6401055 0.80669492 0 59
-1.6629399 2.6375566 0.83658415 0 60
-1.6654215 2.6414926 0.86869842 0 61
-1.6636785 2.6387281 0.89878094 0 62
-1.6637231 2.638799 0.92996234 0 63
-1.3447411 2.0758464 -0.73733902 0 0
-1.3822163 2.1336961 -0.73249507 0 1
-1.4376998 2.2193446 -0.7356264 0 2
-1.4847488 2.2919734 -0.73270696 0 3
-1.5435112 2.3826835 -0.73378241 0 4
-1.6141499 2.4917269 -0.7383014 0 5
-1.6722118 2.5813556 -0.73488802 0 6
-1.7057862 2.6331837 -0.71920484 0 7
-1.7071519 2.6352918 -0.68944633 0 8
-1.7016828 2.6268494 -0.65712237 0 9
-1.7107594 2.6408606 -0.63046813 0 10
-1.7024361 2.6280122 -0.59749871 0 11
-1.7081891 2.636893 -0.56961989 0 12
-1.7009338 2.6256931 -0.53752869 0 13
-1.709321 2.6386404 -0.51045519 0 14
-1.7030516 2.6289623 -0.47905618 0 15
-1.7069638 2.6350017 -0.4506453 0 16
-1.7046753 2.631469 -0.42064703 0 17
-1.7027262 2.6284602 -0.39087793 0 18
-1.7083628 2.637161 -0.36285418 0 19
-1.7063026 2.633981 -0.33319643 0 20
-1.7068831 2.634877 -0.30413666 0 21
-1.7048935 2.6318057 -0.27469492 0 22
-1.7101291 2.6398878 -0.24640895 0 23
-1.7119639 2.64272 -0.21755449 0 24
-1.7097663 2.6393278 -0.18823074 0 25
-1.7083579 2.6371536 -0.15908705 0 26
-1.6999897 2.6242359 -0.12948798 0 27
-1.702913 2.6287484 -0.10086329 0 28
-1.7003256 2.6247542 -0.071923569 0 29
-1.7034398 2.6295617 -0.043228302 0 30
-1.7057503 2.6331282 -0.014428165 0 31
-1.707661 2.6360779 0.014444326 0 32
-1.7082092 2.636924 0.043349333 0 33
-1.7129997 2.6443191 0.072459683 0 34
-1.7039831 2.6304002 0.10092667 0 35
-1.70112 2.6259806 0.12957408 0 36
-1.7108873 2.6410582 0.15932259 0 37
-1.7086391 2.6375878 0.18810664 0 38
-1.7079719 2.6365576 0.2170472 0 39
-1.7043364 2.6309457 0.24557428 0 40
-1.7049114 2.6318333 0.27469781 0 41
-1.7135082 2.6451039 0.30531713 0 42
-1.7078215 2.6363256 0.33349299 0 43
-1.7115873 2.6421387 0.36353907 0 44
-1.7104018 2.6403086 0.39263994 0 45
-1.7109014 2.6410799 0.42218336 0 46
-1.7043947 2.6310356 0.44996706 0 47
-1.7090858 2.6382773 0.4807536 0 48
-1.7063731 2.6340897 0.50957483 0 49
-1.7091383 2.6383581 0.54012144 0 50
-1.7074172 2.6357014 0.56936252 0 51
-1.703869 2.630224 0.5980016 0 52
-1.7045822 2.631325 0.62819165 0 53
-1.7035106 2.6296709 0.65782815 0 54
-1.7127657 2.6439576 0.69171345 0 55
-1.7078317 2.6363413 0.72006732 0 56
-1.7118603 2.64256 0.75231236 0 57
-1.7031741 2.6291516 0.77902049 0 58
-1.7098114 2.6393974 0.81284124 0 59
-1.7124724 2.6435051 0.84508598 0 60
-1.7147772 2.6470628 0.87739831 0 61
-1.7076919 2.6361256 0.90497839 0 62
-1.7111747 2.6415019 0.93825936 0 63
-1.3655691 2.0522511 -0.7348668 0 0
-1.4059808 2.1129839 -0.73126453 0 1
-1.4702463 2.2095656 -0.73832166 0 2
-1.5141089 2.2754848 -0.73333234 0 3
-1.5768119 2.3697183 -0.7357052 0 4
-1.6387386 2.462785 -0.735641 0 5
-1.7002087 2.5551655 -0.7333284 0 6
-1.7526888 2.6340356 -0.72526914 0 7
-1.7586288 2.6429627 -0.69705796 0 8
-1.7517629 2.6326439 -0.66391021 0 9
-1.7584798 2.6427386 -0.63603061 0 10
-1.7521945 2.6332927 -0.60355228 0 11
-1.7521107 2.6331668 -0.57342571 0 12
-1.7551198 2.6376889 -0.54436147 0 13
-1.7572687 2.6409185 -0.51503712 0 14
-1.7514434 2.632164 -0.48352751 0 15
-1.7538501 2.6357808 -0.45443255 0 16
-1.7533052 2.6349621 -0.42461964 0 17
-1.7538236 2.6357412 -0.39513788 0 18
-1.7480977 2.6271358 -0.36440483 0 19
-1.7508227 2.6312311 -0.33554658 0 20
-1.7463241 2.6244702 -0.30539101 0 21
-1.7521182 2.633178 -0.27706599 0 22
-1.7543323 2.6365056 -0.24808805 0 23
-1.7558851 2.6388392 -0.2189959 0 24
-1.7556742 2.6385221 -0.18969859 0 25
-1.7551533 2.6377392 -0.16041219 0 26
-1.7542679 2.6364088 -0.13114312 0 27
-1.751379 2.6320672 -0.10180925 0 28
-1.7490079 2.6285038 -0.072610147 0 29
-1.7491517 2.6287198 -0.043564755 0 30
-1.751081 2.6316192 -0.014536782 0 31
-1.756695 2.6400564 0.014583387 0 32
-1.7554444 2.6381769 0.043721482 0 33
-1.75495 2.637434 0.072856836 0 34
-1.7537103 2.6355705 0.10194476 0 35
-1.7509414 2.6314094 0.13089444 0 36
-1.7478459 2.6267574 0.15974434 0 37
-1.7512941 2.6319394 0.18922533 0 38
-1.7549515 2.6374359 0.21887945 0 39
-1.7587296 2.6431141 0.24870989 0 40
-1.748198 2.6272867 0.27644607 0 41
-1.7549756 2.6374722 0.30690396 0 42
-1.7547433 2.6371231 0.33629799 0 43
-1.7556846 2.6385379 0.36598641 0 44
-1.7557681 2.6386633 0.39557597 0 45
-1.7459733 2.6239433 0.42284399 0 46
-1.7478099 2.6267033 0.45286748 0 47
-1.7567093 2.6400778 0.4849813 0 48
-1.7563596 2.6395521 0.51477069 0 49
-1.752735 2.634105 0.54362184 0 50
-1.753616 2.6354289 0.57391834 0 51
-1.7528931 2.6343424 0.60379291 0 52
-1.7480493 2.627063 0.63225794 0 53
-1.7553909 2.6380963 0.66528517 0 54
-1.7569395 2.6404238 0.69638836 0 55
-1.755015 2.6375315 0.72623181 0 56
-1.7561945 2.6393039 0.75747603 0 57
-1.7446001 2.6218793 0.78316295 0 58
-1.7557015 2.6385632 0.81917107 0 59
-1.757293 2.640955 0.85111433 0 60
-1.7523726 2.6335604 0.87999856 0 61
-1.7498847 2.6298215 0.91013235 0 62
-1.7611161 2.6467006 0.94772631 0 63
-1.3903722 2.0348265 -0.73469383 0 0
-1.4453353 2.1152658 -0.73814917 0 1
-1.4996452 2.1947491 -0.73947668 0 2
-1.5485228 2.2662821 -0.73644739 0 3
-1.609789 2.3559461 -0.73751915 0 4
-1.6741385 2.4501224 -0.73795187 0 5
-1.7452158 2.5541446 -0.73913854 0 6
-1.8020921 2.6373837 -0.73223722 0 7
-1.811397 2.6510017 -0.70499945 0 8
-1.8049729 2.6415999 -0.67171508 0 9
-1.7954395 2.6276476 -0.63766384 0 10
-1.8002378 2.63467 -0.60889566 0 11
-1.8032384 2.6390615 -0.5794943 0 12
-1.7994248 2.6334801 -0.54801792 0 13
-1.8032556 2.6390865 -0.51896501 0 14
-1.7946061 2.6264279 -0.48649079 0 15
-1.7953376 2.6274984 -0.4567762 0 16
-1.7983457 2.631901 -0.42765754 0 17
-1.7965062 2.6292086 -0.39744025 0 18
-1.799407 2.6334541 -0.36832252 0 19
-1.8013196 2.6362531 -0.33898607 0 20
-1.7947297 2.6266088 -0.30818453 0 21
-1.7947159 2.6265886 -0.27867365 0 22
-1.7990468 2.6329269 -0.24981403 0 23
-1.7938831 2.6253698 -0.2196921 0 24
-1.804588 2.6410365 -0.19146025 0 25
-1.7982911 2.6318209 -0.16138484 0 26
-1.7906048 2.6205721 -0.13144065 0 27
-1.8035083 2.6394565 -0.10294509 0 28
-1.7976533 2.6308877 -0.073281087 0 29
-1.8025494 2.6380529 -0.044083428 0 30
-1.7952906 2.6274297 -0.014634478 0 31
-1.8021311 2.6374409 0.014690238 0 32
-1.8099602 2.6488988 0.04426467 0 33
-1.8017573 2.6368937 0.073448382 0 34
-1.7982767 2.6317999 0.10264646 0 35
-1.7989907 2.6328449 0.13205624 0 36
-1.7999202 2.6342051 0.16153105 0 37
-1.7964828 2.6291745 0.19060034 0 38
-1.800961 2.6357284 0.2205589 0 39
-1.8083264 2.6465077 0.2511026 0 40
-1.8065747 2.6439443 0.28051504 0 41
-1.793206 2.6243789 0.3079229 0 42
-1.79564 2.6279411 0.33791724 0 43
-1.7965239 2.6292346 0.36773235 0 44
-1.8067129 2.6441462 0.39969829 0 45
-1.7938185 2.6252751 0.42658094 0 46
-1.8061401 2.6433082 0.45952463 0 47
-1.7952827 2.6274183 0.48667422 0 48
-1.7883267 2.617238 0.51466858 0 49
-1.803726 2.639775 0.54932785 0 50
-1.8034893 2.6394286 0.57957494 0 51
-1.7925152 2.6233678 0.60628361 0 52
-1.805565 2.6424665 0.64126003 0 53
-1.8093855 2.6480579 0.67335725 0 54
-1.8065754 2.6439452 0.70312285 0 55
-1.7967064 2.6295018 0.73004889 0 56
-1.8073087 2.6450183 0.76543629 0 57
-1.7976322 2.6308568 0.79238731 0 58
-1.8011205 2.635962 0.82517701 0 59
-1.8010664 2.6358826 0.85655224 0 60
-1.7947085 2.6265779 0.88497263 0 61
-1.7947658 2.6266618 0.91660732 0 62
-1.8044646 2.640856 0.95350665 0 63
-1.4131289 2.0145018 -0.73357391 0 0
-1.4700471 2.0956423 -0.73755348 0 1
-1.5141602 2.1585281 -0.73349053 0 2
-1.5673615 2.2343698 -0.73228484 0 3
-1.6273652 2.3199089 -0.73244679 0 4
-1.6966134 2.4186265 -0.73469371 0 5
-1.7583355 2.5066149 -0.73158568 0 6
-1.8414195 2.6250563 -0.73504561 0 7
-1.8461149 2.6317499 -0.70586324 0 8
-1.8549693 2.6443725 -0.67816895 0 9
-1.8507198 2.6383145 -0.64572632 0 10
-1.8536204 2.6424494 -0.61591464 0 11
-1.8501993 2.6375725 -0.58411896 0 12
-1.841085 2.6245794 -0.55083513 0 13
-1.8447708 2.6298339 -0.52156681 0 14
-1.8432192 2.6276219 -0.4908731 0 15
-1.8506081 2.6381552 -0.46254987 0 16
-1.8539689 2.6429462 -0.43312392 0 17
-1.8463794 2.632127 -0.40128306 0 18
-1.8463572 2.6320956 -0.37127981 0 19
-1.8535745 2.6423841 -0.34267929 0 20
-1.8468819 2.6328433 -0.31155711 0 21
-1.8548875 2.6442559 -0.28294665 0 22
-1.8466533 2.6325176 -0.25191066 0 23
-1.8489174 2.635745 -0.22244596 0 24
-1.8514996 2.6394262 -0.19297941 0 25
-1.8419571 2.6258228 -0.16239363 0 26
-1.8397763 2.6227138 -0.13267276 0 27
-1.8500941 2.6374226 -0.10374521 0 28
-1.8474708 2.6336827 -0.073986121 0 29
-1.8460145 2.6316068 -0.044351678 0 30
-1.8472198 2.6333251 -0.014792711 0 31
-1.8417577 2.6255386 0.01474897 0 32
-1.8509638 2.6386623 0.04447059 0 33
-1.8574591 2.6479218 0.074386127 0 34
-1.8463905 2.6321428 0.10353752 0 35
-1.8483921 2.6349964 0.13329408 0 36
-1.8482798 2.6348362 0.16295107 0 37
-1.8538884 2.6428316 0.19322839 0 38
-1.8460634 2.6316767 0.2221026 0 39
-1.852495 2.6408451 0.25270751 0 40
-1.8456602 2.6311018 0.28153911 0 41
-1.8492544 2.6362255 0.31195733 0 42
-1.8466558 2.6325212 0.34140021 0 43
-1.848996 2.6358571 0.37181044 0 44
-1.8472655 2.6333902 0.40147567 0 45
-1.847275 2.6334038 0.4315601 0 46
-1.8427229 2.6269145 0.46057901 0 47
-1.8535159 2.6423006 0.49361521 0 48
-1.8471552 2.6332328 0.52224094 0 49
-1.8484651 2.6351004 0.55304319 0 50
-1.8513738 2.6392469 0.58448976 0 51
-1.8369701 2.6187134 0.61038214 0 52
-1.8461896 2.6318564 0.64414567 0 53
-1.8546946 2.6439807 0.67806852 0 54
-1.8465186 2.6323254 0.70601767 0 55
-1.8428131 2.6270432 0.73560196 0 56
-1.8553294 2.6448858 0.77194166 0 57
-1.8517454 2.6397765 0.80187124 0 58
-1.8433189 2.6277642 0.82964361 0 59
-1.8533734 2.6420975 0.86591208 0 60
-1.8449126 2.6300361 0.89371383 0 61
-1.8485974 2.635289 0.9274801 0 62
-1.8562964 2.6462643 0.96362799 0 63
-1.4377344 1.996895 -0.73354477 0 0
-1.4999298 2.0832796 -0.73963779 0 1
-1.5474432 2.1492715 -0.73675525 0 2
-1.6064191 2.2311845 -0.73765898 0 3
-1.6629812 2.3097444 -0.7356382 0 4
-1.725773 2.3969572 -0.7345019 0 5
-1.7962855 2.4948931 -0.7345556 0 6
-1.8788192 2.6095257 -0.73711026 0 7
-1.8945385 2.6313586 -0.71195275 0 8
-1.8971123 2.6349335 -0.68167931 0 9
-1.8997406 2.6385837 -0.65146029 0 10
-1.8972704 2.6351531 -0.61960495 0 11
-1.8914119 2.6270158 -0.58688736 0 12
-1.9016688 2.6412621 -0.55920178 0 13
-1.8945687 2.6314006 -0.52645802 0 14
-1.9000158 2.6389661 -0.49731931 0 15
-1.8992445 2.6378949 -0.46656361 0 16
-1.9078916 2.649905 -0.43807581 0 17
-1.8989694 2.6375127 -0.40563342 0 18
-1.8986431 2.6370595 -0.37524489 0 19
-1.8968397 2.6345549 -0.34466273 0 20
-1.8985199 2.6368885 -0.31477454 0 21
-1.8960563 2.6334667 -0.28426543 0 22
-1.8935409 2.6299729 -0.25387603 0 23
-1.9011413 2.6405294 -0.2248057 0 24
-1.900236 2.639272 -0.19466181 0 25
-1.9025578 2.6424968 -0.16485922 0 26
-1.8933147 2.6296587 -0.13419162 0 27
-1.8996916 2.6385157 -0.10469916 0 28
-1.8929173 2.6291068 -0.074505821 0 29
-1.9001893 2.6392071 -0.044870168 0 30
-1.8925416 2.6285851 -0.014895686 0 31
-1.8909533 2.626379 0.014883185 0 32
-1.899586 2.6383691 0.044855922 0 33
-1.8951051 2.6321454 0.074591935 0 34
-1.8953823 2.6325305 0.10446166 0 35
-1.8988695 2.6373739 0.13458534 0 36
-1.9045186 2.64522 0.16502912 0 37
-1.8944507 2.6312366 0.19406915 0 38
-1.8963555 2.6338823 0.22423978 0 39
-1.9007616 2.640002 0.25484416 0 40
-1.8921286 2.6280115 0.28367656 0 41
-1.8972014 2.6350572 0.31455594 0 42
-1.8965837 2.6341991 0.34461623 0 43
-1.8984451 2.6367846 0.37520579 0 44
-1.9031118 2.6432662 0.40651828 0 45
-1.9037448 2.6441453 0.43712366 0 46
-1.8920746 2.6279364 0.46480227 0 47
-1.8996534 2.6384628 0.49722445 0 48
-1.8992054 2.6378405 0.5277465 0 49
-1.9023052 2.6421459 0.55938894 0 50
-1.8963317 2.6338491 0.58841395 0 51
-1.8974148 2.6353536 0.61965209 0 52
-1.9003028 2.6393647 0.65165311 0 53
-1.9058847 2.6471176 0.68483144 0 54
-1.8936139 2.6300745 0.71160531 0 55
-1.8951722 2.6322386 0.74352592 0 56
-1.8978646 2.6359782 0.77609444 0 57
-1.8996599 2.6384718 0.80850947 0 58
-1.9012856 2.6407299 0.84105486 0 59
-1.9069427 2.648587 0.8756578 0 60
-1.8949345 2.6319087 0.9021998 0 61
-1.886276 2.6198826 0.93015081 0 62
-1.8956995 2.632971 0.9672026 0 63
-1.4747573 1.9960918 -0.73985529 0 0
-1.5167044 2.0528674 -0.73540628 0 1
-1.5563717 2.1065571 -0.72861832 0 2
-1.6302607 2.2065663 -0.73609191 0 3
-1.6916999 2.2897246 -0.73583168 0 4
-1.7466073 2.3640423 -0.73094177 0 5
-1.8305556 2.4776666 -0.73605537 0 6
-1.9103231 2.5856323 -0.73694068 0 7
-1.9485891 2.6374257 -0.7200228 0 8
-1.9491245 2.6381502 -0.68866003 0 9
-1.9456296 2.63342 -0.65604264 0 10
-1.945375 2.6330752 -0.62469375 0 11
-1.9434829 2.6305141 -0.59296298 0 12
-1.9475762 2.6360545 -0.56312698 0 13
-1.9548399 2.6458862 -0.53412491 0 14
-1.9448719 2.6323943 -0.50054985 0 15
-1.9460081 2.6339321 -0.47005951 0 16
-1.9488221 2.6377411 -0.43999326 0 17
-1.9504541 2.6399498 -0.40966582 0 18
-1.9386197 2.6239319 -0.37674052 0 19
-1.9430505 2.6299291 -0.34715706 0 20
-1.9391602 2.6246636 -0.31613776 0 21
-1.9514457 2.6412921 -0.2876786 0 22
-1.9412333 2.6274695 -0.25591928 0 23
-1.9481697 2.636858 -0.2265155 0 24
-1.942082 2.6286182 -0.19562259 0 25
-1.9426421 2.6293762 -0.16551845 0 26
-1.9370866 2.6218569 -0.1349988 0 27
-1.9498683 2.6391571 -0.10566803 0 28
-1.9480721 2.6367259 -0.075394876 0 29
-1.9440099 2.6312275 -0.045137502 0 30
-1.9517671 2.641727 -0.01510502 0 31
-1.9490541 2.6380548 0.015084024 0 32
-1.9483508 2.6371031 0.045238294 0 33
-1.9361514 2.6205912 0.074933521 0 34
-1.9453131 2.6329916 0.10542118 0 35
-1.9425406 2.6292391 0.1353789 0 36
-1.9519205 2.6419346 0.166309 0 37
-1.9511303 2.6408651 0.19653401 0 38
-1.9501566 2.6395471 0.22674651 0 39
-1.9541557 2.6449599 0.25762287 0 40
-1.9401463 2.6259983 0.28601286 0 41
-1.9401226 2.6259663 0.31629464 0 42
-1.9291993 2.6111815 0.34468234 0 43
-1.9475526 2.6360226 0.37847647 0 44
-1.9457669 2.633606 0.40868136 0 45
-1.9509068 2.6405625 0.44046393 0 46
-1.9484047 2.637176 0.47063842 0 47
-1.9537308 2.6443849 0.50282985 0 48
-1.9471513 2.6354795 0.53202415 0 49
-1.945949 2.633852 0.56265652 0 50
-1.9477828 2.6363342 0.59427488 0 51
-1.9442095 2.6314979 0.62431949 0 52
-1.9572949 2.649209 0.65997607 0 53
-1.9412893 2.6275454 0.68589169 0 54
-1.9462008 2.6341932 0.71914029 0 55
-1.9438959 2.6310735 0.74989194 0 56
-1.9450166 2.6325903 0.78207946 0 57
-1.9434197 2.6304288 0.81330621 0 58
-1.9426947 2.6294475 0.84500587 0 59
-1.9419631 2.6284571 0.87683111 0 60
-1.9542433 2.6450787 0.91488266 0 61
-1.9515567 2.6414423 0.9462536 0 62
-1.9347004 2.6186271 0.97059917 0 63
-1.4874659 1.9623423 -0.73406988 0 0
-1.538808 2.0300756 -0.73396444 0 1
-1.5869281 2.0935581 -0.7308163 0 2
-1.6551996 2.1836255 -0.73517311 0 3
-1.7173234 2.2655826 -0.73480397 0 4
-1.7889497 2.3600755 -0.73646116 0 5
-1.861294 2.4555159 -0.73621857 0 6
-1.92828 2.5438874 -0.73174536 0 7
-2.0102098 2.6519732 -0.73068726 0 8
-1.9981742 2.6360955 -0.69448495 0 9
-1.9969113 2.6344292 -0.6623612 0 10
-2.0054471 2.6456902 -0.63348931 0 11
-1.9878199 2.6224356 -0.59660673 0 12
-1.984279 2.6177642 -0.56438941 0 13
-2.0033128 2.6428747 -0.53844905 0 14
-1.9891434 2.6241815 -0.50360107 0 15
-1.9980397 2.6359179 -0.47476262 0 16
-2.0012772 2.6401892 -0.44447291 0 17
-1.9989283 2.6370902 -0.41300514 0 18
-1.9967898 2.634269 -0.38172117 0 19
-1.9904883 2.6259558 -0.34983703 0 20
-2.0027671 2.6421545 -0.32118651 0 21
-2.001049 2.639888 -0.29018369 0 22
-1.9940517 2.6306567 -0.25859842 0 23
-1.9948645 2.6317289 -0.22816485 0 24
-1.9906746 2.6262014 -0.1972495 0 25
-1.9903626 2.6257899 -0.16682073 0 26
-1.9927065 2.6288822 -0.13661186 0 27
-1.9959441 2.6331534 -0.10640228 0 28
-1.9960266 2.6332622 -0.075991906 0 29
-2.0027385 2.642117 -0.045743305 0 30
-1.9941936 2.6308439 -0.015181854 0 31
-1.9955062 2.6325755 0.015191847 0 32
-2.0014691 2.6404424 0.045714311 0 33
-1.9885663 2.62342 0.075707883 0 34
-2.0016282 2.6406522 0.10670529 0 35
-2.0048442 2.6448946 0.13744396 0 36
-1.98759 2.6221321 0.16658834 0 37
-1.9957868 2.6329458 0.19775607 0 38
-1.9967028 2.6341543 0.22837512 0 39
-2.0009193 2.6397169 0.25948906 0 40
-1.9963012 2.6336243 0.2894952 0 41
-1.9941883 2.630837 0.31981075 0 42
-1.9962453 2.6335506 0.35084882 0 43
-1.9990993 2.6373158 0.38216269 0 44
-1.9967899 2.634269 0.41256329 0 45
-1.9976496 2.6354034 0.44366723 0 46
-1.9960201 2.6332536 0.47428274 0 47
-1.9878237 2.6224406 0.50326699 0 48
-1.9989876 2.6371684 0.53728652 0 49
-2.0073574 2.6482103 0.57095361 0 50
-1.9941046 2.6307266 0.59849292 0 51
-1.9963212 2.6336508 0.63060653 0 52
-1.9965096 2.6338995 0.66222793 0 53
-2.0065491 2.6471441 0.69739574 0 54
-1.9953102 2.6323171 0.72527146 0 55
-2.0027947 2.6421912 0.76002234 0 56
-1.9974308 2.6351147 0.79006624 0 57
-1.9984175 2.6364164 0.82269323 0 58
-1.9911731 2.6268592 0.85197806 0 59
-1.9957569 2.6329062 0.88643485 0 60
-1.9959587 2.6331725 0.91918415 0 61
-2.0001857 2.6387491 0.95402753 0 62
-1.9993861 2.6376941 0.98670441 0 63
-1.5054184 1.9361072 -0.7311253 0 0
-1.5583259 2.0041511 -0.73146415 0 1
-1.6203805 2.0839591 -0.73436534 0 2
-1.6794933 2.1599834 -0.73411089 0 3
-1.7455182 2.2448978 -0.73500109 0 4
-1.8215293 2.3426549 -0.73795867 0 5
-1.8816869 2.4200232 -0.73245901 0 6
-1.9630305 2.5246387 -0.73309642 0 7
-2.0449703 2.6300209 -0.73151183 0 8
-2.0539448 2.6415627 -0.70252609 0 9
-2.0515447 2.6384759 -0.66967064 0 10
-2.0474899 2.6332612 -0.6364935 0 11
-2.0429277 2.6273937 -0.6034041 0 12
-2.0519247 2.6389647 -0.57435668 0 13
-2.0582285 2.6470721 -0.54441941 0 14
-2.0412445 2.6252291 -0.50858057 0 15
-2.0472758 2.6329858 -0.47873253 0 16
-2.0498824 2.6363382 -0.4480342 0 17
-2.0465889 2.6321023 -0.41613382 0 18
-2.0416834 2.6257937 -0.38410196 0 19
-2.044183 2.6290083 -0.35356566 0 20
-2.0514841 2.6383979 -0.32377192 0 21
-2.0470252 2.6326637 -0.29213437 0 22
-2.0515761 2.6385164 -0.26183113 0 23
-2.0491962 2.6354556 -0.2306551 0 24
-2.047508 2.6332846 -0.19965741 0 25
-2.0350795 2.6173 -0.16785851 0 26
-2.0521543 2.6392601 -0.13845201 0 27
-2.0462995 2.6317303 -0.10735343 0 28
-2.055434 2.6434782 -0.077010289 0 29
-2.0460749 2.6314414 -0.04599059 0 30
-2.0540221 2.6416621 -0.015388872 0 31
-2.042798 2.6272268 0.015304781 0 32
-2.0492239 2.6354911 0.046061371 0 33
-2.0487556 2.6348889 0.076760069 0 34
-2.0421371 2.6263771 0.10713506 0 35
-2.0491302 2.6353707 0.13824798 0 36
-2.0490413 2.6352565 0.16901012 0 37
-2.0447123 2.629689 0.19938481 0 38
-2.0533297 2.6407716 0.23112036 0 39
-2.0444577 2.6293614 0.26092264 0 40
-2.0459101 2.6312294 0.29197523 0 41
-2.0474153 2.6331654 0.3231298 0 42
-2.050432 2.6370449 0.3546465 0 43
-2.0500195 2.6365144 0.38567021 0 44
-2.0454984 2.6306999 0.41591206 0 45
-2.0457268 2.6309936 0.44712588 0 46
-2.0517983 2.6388023 0.47979009 0 47
-2.0445306 2.6294553 0.50939929 0 48
-2.0486557 2.6347606 0.54188734 0 49
-2.0449126 2.6299467 0.57239395 0 50
-2.0455432 2.6307576 0.60417664 0 51
-2.0526872 2.6399453 0.63810915 0 52
-2.0513721 2.6382539 0.66961432 0 53
-2.0511234 2.6379342 0.70156103 0 54
-2.0553851 2.6434152 0.73523736 0 55
-2.0527284 2.6399982 0.76659423 0 56
-2.0514293 2.6383276 0.79853231 0 57
-2.0474439 2.6332021 0.82948381 0 58
-2.034955 2.6171401 0.85687673 0 59
-2.0535383 2.6410401 0.89760697 0 60
-2.0497715 2.6361957 0.92896771 0 61
-2.0404537 2.6242118 0.95777053 0 62
-2.0567849 2.6452155 0.99890333 0 63
-1.5390828 1.9299563 -0.73589361 0 0
-1.5910844 1.9951645 -0.73526931 0 1
-1.6477364 2.0662043 -0.73519301 0 2
-1.7113868 2.1460195 -0.73646146 0 3
-1.7603486 2.2074158 -0.72976106 0 4
-1.8374093 2.3040473 -0.73285872 0 5
-1.9140395 2.4001389 -0.73350877 0 6
-1.9951308 2.5018246 -0.73354018 0 7
-2.0909288 2.6219521 -0.73636317 0 8
-2.0996068 2.6328337 -0.70701736 0 9
-2.1016753 2.6354277 -0.67540514 0 10
-2.1031251 2.6372459 -0.64365894 0 11
-2.1021535 2.6360276 -0.61127716 0 12
-2.1042609 2.63867 -0.5798803 0 13
-2.1103125 2.6462584 -0.54954749 0 14
-2.1030593 2.6371632 -0.51586342 0 15
-2.1031907 2.6373279 -0.48418763 0 16
-2.1037946 2.6380851 -0.45269322 0 17
-2.1085868 2.6440945 -0.42209706 0 18
-2.0931001 2.6246746 -0.38767388 0 19
-2.0954056 2.6275659 -0.35680988 0 20
-2.1007242 2.6342351 -0.32640633 0 21
-2.1061404 2.6410267 -0.29591382 0 22
-2.1068866 2.6419625 -0.26472396 0 23
-2.1143084 2.6512692 -0.23429677 0 24
-2.0968742 2.6294072 -0.2013032 0 25
-2.0998764 2.633172 -0.17051956 0 26
-2.0977426 2.6304963 -0.13933489 0 27
-2.1066365 2.6416488 -0.10880649 0 28
-2.0977252 2.6304743 -0.077377066 0 29
-2.1093369 2.645035 -0.046677958 0 30
-2.0967607 2.6292651 -0.015465681 0 31
-2.1003158 2.633723 0.015491903 0 32
-2.1094289 2.6451504 0.046679996 0 33
-2.0944529 2.6263709 0.077256359 0 34
-2.0963683 2.628773 0.10827614 0 35
-2.1012602 2.6349072 0.13956854 0 36
-2.1024399 2.6363864 0.17072773 0 37
-2.0966105 2.6290767 0.20127788 0 38
-2.0965359 2.6289833 0.23232734 0 39
-2.1068277 2.6418889 0.26471657 0 40
-2.1011362 2.6347518 0.29521072 0 41
-2.1013103 2.6349699 0.32649738 0 42
-2.0988195 2.6318467 0.35739124 0 43
-2.1078043 2.6431131 0.39039734 0 44
-2.1007295 2.6342416 0.42052418 0 45
-2.1017981 2.6355817 0.45226365 0 46
-2.1095867 2.6453485 0.48566014 0 47
-2.0975513 2.6302564 0.51451236 0 48
-2.1040702 2.6384306 0.54792196 0 49
-2.1032238 2.6373696 0.57959449 0 50
-2.1059136 2.6407423 0.61237055 0 51
-2.1025128 2.6364779 0.6434716 0 52
-2.1115968 2.6478689 0.67859358 0 53
-2.0956719 2.6278996 0.70569235 0 54
-2.1078441 2.6431632 0.7423203 0 55
-2.0965991 2.6290622 0.77084655 0 56
-2.1009831 2.6345599 0.80515033 0 57
-2.1065774 2.6415749 0.84021759 0 58
-2.1087201 2.6442616 0.8741802 0 59
-2.1027422 2.6367655 0.90487349 0 60
-2.1048977 2.6394687 0.93917096 0 61
-2.1120176 2.6483967 0.97600216 0 62
-2.1017339 2.6355014 1.0049185 0 63
-1.5540081 1.9002625 -0.73180223 0 0
-1.6093411 1.9679245 -0.73246813 0 1
-1.6709023 2.0432024 -0.73426372 0 2
-1.7229362 2.1068301 -0.73022795 0 3
-1.7974358 2.1979291 -0.73387623 0 4
-1.8720638 2.2891853 -0.73539788 0 5
-1.9499522 2.3844285 -0.73597962 0 6
-2.0372036 2.4911203 -0.73769075 0 7
-2.1059239 2.5751526 -0.73043716 0 8
-2.1541882 2.6341708 -0.7144357 0 9
-2.1604171 2.6417878 -0.68379158 0 10
-2.1483188 2.6269939 -0.64755523 0 11
-2.1546216 2.634701 -0.61706674 0 12
-2.1610253 2.6425314 -0.58652431 0 13
-2.1532416 2.6330135 -0.55225372 0 14
-2.1519635 2.6314507 -0.51988286 0 15
-2.1542294 2.6342213 -0.48844358 0 16
-2.1553209 2.6355562 -0.4567726 0 17
-2.1613677 2.6429501 -0.4261249 0 18
-2.1594748 2.6406357 -0.3939237 0 19
-2.1603408 2.6416943 -0.36230841 0 20
-2.1616127 2.6432498 -0.33079186 0 21
-2.147692 2.6262271 -0.29719213 0 22
-2.1602407 2.641572 -0.26732627 0 23
-2.1557386 2.6360669 -0.2352781 0 24
-2.1485004 2.6272159 -0.20314267 0 25
-2.1467814 2.625114 -0.17169423 0 26
-2.1577704 2.6385515 -0.14115633 0 27
-2.1550913 2.6352751 -0.10962718 0 28
-2.1675253 2.6504798 -0.078743592 0 29
-2.1530895 2.6328275 -0.0469262 0 30
-2.1506667 2.6298649 -0.015623585 0 31
-2.1542211 2.6342111 0.015649404 0 32
-2.1515281 2.630918 0.04689217 0 33
-2.1534865 2.6333129 0.078233585 0 34
-2.1608248 2.6422863 0.10991884 0 35
-2.153415 2.6332252 0.14087139 0 36
-2.1626191 2.6444802 0.17296088 0 37
-2.14569 2.6237793 0.20287694 0 38
-2.1555974 2.6358943 0.23526269 0 39
-2.1581669 2.6390359 0.26706964 0 40
-2.1548405 2.6349685 0.29818133 0 41
-2.1574185 2.6381211 0.33015004 0 42
-2.1518283 2.6312852 0.36088082 0 43
-2.1578574 2.6386578 0.39362866 0 44
-2.1568549 2.6374319 0.42523518 0 45
-2.1505561 2.6297297 0.45576277 0 46
-2.1466153 2.6249108 0.48671719 0 47
-2.1404281 2.6173449 0.51709604 0 48
-2.1540859 2.6340458 0.55247021 0 49
-2.1539464 2.6338754 0.58460301 0 50
-2.157901 2.6387112 0.61800599 0 51
-2.1556973 2.6360164 0.64977932 0 52
-2.1633453 2.6453683 0.68471837 0 53
-2.1591661 2.6402581 0.71608669 0 54
-2.166121 2.6487625 0.75131649 0 55
-2.150209 2.6293051 0.77861112 0 56
-2.1589975 2.6400518 0.81488055 0 57
-2.1486266 2.6273701 0.84403938 0 58
-2.156296 2.6367486 0.88039553 0 59
-2.155211 2.6354218 0.91343796 0 60
-2.1570203 2.637634 0.94788414 0 61
-2.1588604 2.6398842 0.98257387 0 62
-2.1499813 2.6290269 1.0124537 0 63
-1.58517 1.8904504 -0.73547441 0 0
-1.6358107 1.9508437 -0.73354191 0 1
-1.7008502 2.0284088 -0.73640776 0 2
-1.7570506 2.0954325 -0.73371059 0 3
-1.8393154 2.1935403 -0.73990661 0 4
-1.8971938 2.2625654 -0.73428512 0 5
-1.9706213 2.3501339 -0.73281825 0 6
-2.0480983 2.4425316 -0.73070484 0 7
-2.1498311 2.5638568 -0.73467594 0 8
-2.2095103 2.6350296 -0.72198278 0 9
-2.2173159 2.6443381 -0.69145668 0 10
-2.205868 2.6306856 -0.6551019 0 11
-2.2085238 2.633853 -0.6231814 0 12
-2.213155 2.6393759 -0.59181947 0 13
-2.213634 2.6399472 -0.55937487 0 14
-2.2169456 2.6438966 -0.52768761 0 15
-2.2142651 2.6406999 -0.49465606 0 16
-2.2071369 2.6321988 -0.46085957 0 17
-2.2089744 2.6343901 -0.42909175 0 18
-2.2124538 2.6385398 -0.39763942 0 19
-2.2057116 2.6304991 -0.36446527 0 20
-2.2041018 2.6285794 -0.33232257 0 21
-2.2094016 2.6348996 -0.30122516 0 22
-2.2101316 2.6357703 -0.26946905 0 23
-2.2083724 2.6336722 -0.23747011 0 24
-2.2118814 2.637857 -0.20605291 0 25
-2.2183428 2.6455626 -0.17480256 0 26
-2.2059209 2.6307485 -0.14217927 0 27
-2.2130761 2.639282 -0.11091754 0 28
-2.2053547 2.6300735 -0.078937031 0 29
-2.2114398 2.6373305 -0.047487542 0 30
-2.2170079 2.6439707 -0.01586814 0 31
-2.2132099 2.6394413 0.015840957 0 32
-2.2053592 2.6300788 0.047356971 0 33
-2.2064283 2.6313539 0.078975454 0 34
-2.2137382 2.6400714 0.11095072 0 35
-2.2122529 2.6383002 0.14258739 0 36
-2.2118654 2.6378381 0.17429216 0 37
-2.2078497 2.633049 0.20567735 0 38
-2.2154098 2.6420648 0.23822685 0 39
-2.209867 2.6354547 0.26943678 0 40
-2.209326 2.6348095 0.30121484 0 41
-2.2093434 2.6348305 0.33311287 0 42
-2.2100248 2.635643 0.36517799 0 43
-2.2131207 2.6393352 0.39775929 0 44
-2.2136538 2.6399708 0.43000075 0 45
-2.2136376 2.6399512 0.46221691 0 46
-2.2090106 2.6344335 0.49348223 0 47
-2.2024932 2.6266611 0.52424759 0 48
-2.2129343 2.6391125 0.55919802 0 49
-2.1998091 2.6234598 0.58825064 0 50
-2.2200422 2.6475897 0.62643152 0 51
-2.2162199 2.6430309 0.65817624 0 52
-2.2110958 2.63692 0.68951696 0 53
-2.211832 2.6377981 0.72274143 0 54
-2.2083135 2.6336021 0.75466156 0 55
-2.2151513 2.6417568 0.79030472 0 56
-2.2112041 2.6370492 0.8222841 0 57
-2.2061188 2.6309848 0.85385066 0 58
-2.2047343 2.6293337 0.88690472 0 59
-2.2134399 2.6397157 0.92428994 0 60
-2.2040517 2.6285195 0.95427614 0 61
-2.2088063 2.6341896 0.99048865 0 62
-2.2078812 2.6330867 1.024395 0 63
-1.6088189 1.8714272 -0.73571432 0 0
-1.6668155 1.9388905 -0.73669839 0 1
-1.7154232 1.9954326 -0.73203844 0 2
-1.7870655 2.078769 -0.73551464 0 3
-1.8412702 2.1418216 -0.73004317 0 4
-1.9312379 2.2464747 -0.7367143 0 5
-2.0056846 2.3330734 -0.73513323 0 6
-2.084306 2.4245281 -0.73293084 0 7
-2.1827779 2.5390737 -0.73520994 0 8
-2.2602885 2.6292362 -0.72795576 0 9
-2.2686286 2.638938 -0.69728637 0 10
-2.2564378 2.6247571 -0.66048509 0 11
-2.2557933 2.6240077 -0.62736756 0 12
-2.2620206 2.6312511 -0.59618944 0 13
-2.2639859 2.6335373 -0.56387287 0 14
-2.2631929 2.6326149 -0.53095013 0 15
-2.2595613 2.6283906 -0.49751729 0 16
-2.2576458 2.6261623 -0.46462807 0 17
-2.2661347 2.6360371 -0.43386599 0 18
-2.2624443 2.6317439 -0.40077758 0 19
-2.2709374 2.6416235 -0.36984771 0 20
-2.2686801 2.6389976 -0.33714113 0 21
-2.2655554 2.6353629 -0.3044399 0 22
-2.2698691 2.6403809 -0.27277333 0 23
-2.2765853 2.6481934 -0.24128532 0 24
-2.2679117 2.638104 -0.20823486 0 25
-2.2574608 2.6259472 -0.17532736 0 26
-2.2605407 2.6295297 -0.14360482 0 27
-2.2738581 2.645021 -0.11232529 0 28
-2.2679806 2.6381841 -0.08001142 0 29
-2.2640755 2.6336415 -0.047918785 0 30
-2.2663949 2.6363394 -0.015988389 0 31
-2.2694359 2.6398771 0.016009843 0 32
-2.2686846 2.639003 0.04801634 0 33
-2.2627668 2.6321194 0.079827487 0 34
-2.2598958 2.6287796 0.11163557 0 35
-2.2671435 2.6372101 0.14402427 0 36
-2.259279 2.6280622 0.17546856 0 37
-2.2695491 2.6400087 0.2083852 0 38
-2.2620552 2.6312914 0.23974533 0 39
-2.2746086 2.6458941 0.27334288 0 40
-2.2647204 2.6343918 0.30432773 0 41
-2.2645943 2.6342452 0.33653399 0 42
-2.2630339 2.6324298 0.36856052 0 43
-2.2626507 2.6319842 0.40081415 0 44
-2.2611763 2.6302693 0.43291664 0 45
-2.2759986 2.6475108 0.46840513 0 46
-2.2660563 2.6359456 0.49894735 0 47
-2.2625048 2.6318147 0.53078878 0 48
-2.2654667 2.6352599 0.56424171 0 49
-2.2621942 2.631453 0.59623522 0 50
-2.2634764 2.6329448 0.62950426 0 51
-2.2633123 2.6327538 0.6624974 0 52
-2.2702348 2.6408064 0.69778001 0 53
-2.2633193 2.632762 0.7289319 0 54
-2.2673998 2.6375084 0.76371253 0 55
-2.2625148 2.6318262 0.79559666 0 56
-2.2681811 2.6384172 0.83134472 0 57
-2.2652051 2.6349556 0.86411369 0 58
-2.2674744 2.6375952 0.89902836 0 59
-2.2541335 2.6220767 0.92774892 0 60
-2.2665024 2.6364646 0.96720558 0 61
-2.2605429 2.6295323 0.9991138 0 62
-2.2586002 2.6272726 1.0328599 0 63
-1.6266019 1.8457111 -0.73341233 0 0
-1.6911364 1.9189385 -0.73696297 0 1
-1.7410153 1.9755365 -0.73253787 0 2
-1.8103625 2.054225 -0.73465127 0 3
-1.8900654 2.144664 -0.73887795 0 4
