# .PCD v0.7 - Point Cloud Data file format
VERSION 0.7
FIELDS x y z intensity ring
SIZE 4 4 4 4 2
TYPE F F F F U
COUNT 1 1 1 1 1
WIDTH 1287
HEIGHT 1
VIEWPOINT 0 0 0 1 0 0 0
POINTS 1287
DATA ascii
-2.0911191 2.3147891 0.5359773 0 50
-2.0985165 2.3229778 0.56756425 0 51
-2.1007059 2.3254013 0.59797752 0 52
-2.0912962 2.314985 0.62509096 0 53
-2.1030295 2.3279734 0.65866774 0 54
-2.1026981 2.3276067 0.68874532 0 55
-2.096627 2.3208861 0.71697271 0 56
-2.1061313 2.3314071 0.75070405 0 57
-2.0939455 2.3179176 0.7767989 0 58
-2.1010423 2.3257737 0.81011325 0 59
-2.1015675 2.3263552 0.8411513 0 60
-2.0991797 2.3237119 0.87114841 0 61
-2.0940261 2.318007 0.90004492 0 62
-2.0982604 2.3226941 0.93312824 0 63
-1.6778618 1.8120323 -0.736206 0 0
-1.7321149 1.8706238 -0.73454773 0 1
-1.7957705 1.9393697 -0.73528308 0 2
-1.8517311 1.9998051 -0.73125672 0 3
-1.9357184 2.0905087 -0.73640096 0 4
-2.0102496 2.1709998 -0.73579103 0 5
-2.0879116 2.2548718 -0.73427147 0 6
-2.142601 2.3139346 -0.72290957 0 7
-2.1446662 2.316165 -0.69311076 0 8
-2.146426 2.3180654 -0.66328198 0 9
-2.1409976 2.3122032 -0.6314007 0 10
-2.1431525 2.3145301 -0.60191321 0 11
-2.1469431 2.3186238 -0.57290727 0 12
-2.1400766 2.3112082 -0.54120052 0 13
-2.1409345 2.3121347 -0.51162529 0 14
-2.1403263 2.3114779 -0.48178503 0 15
-2.1405501 2.3117197 -0.45222086 0 16
-2.1513698 2.3234046 -0.42482087 0 17
-2.1469722 2.318655 -0.39440042 0 18
-2.1387391 2.3097639 -0.36351681 0 19
-2.1424179 2.3137369 -0.33478278 0 20
-2.1373985 2.308316 -0.30476502 0 21
-2.141902 2.3131797 -0.27616435 0 22
-2.1501689 2.3221076 -0.24792184 0 23
-2.1489215 2.3207605 -0.21852879 0 24
-2.1403916 2.3115482 -0.18856524 0 25
-2.1415136 2.3127601 -0.15958476 0 26
-2.142549 2.3138785 -0.13059561 0 27
-2.1435196 2.3149266 -0.10159744 0 28
-2.1440547 2.3155043 -0.072575428 0 29
-2.1527021 2.3248434 -0.043715954 0 30
-2.1369388 2.3078196 -0.014464465 0 31
-2.1349268 2.3056467 0.014450846 0 32
-2.1416156 2.3128705 0.043490816 0 33
-2.1406181 2.3117929 0.072459102 0 34
-2.1534598 2.3256617 0.10206858 0 35
-2.1303802 2.3007364 0.12985387 0 36
-2.1381893 2.30917 0.15933703 0 37
-2.1444468 2.315928 0.18892251 0 38
-2.1373284 2.3082402 0.21734984 0 39
-2.1481056 2.3198793 0.24768394 0 40
-2.1474698 2.3191924 0.27688223 0 41
-2.1437736 2.3152008 0.30567405 0 42
-2.1410093 2.3122156 0.33456263 0 43
-2.1452587 2.3168046 0.36462492 0 44
-2.1388898 2.3099265 0.3929157 0 45
-2.1403282 2.3114798 0.42264053 0 46
-2.1522331 2.3243368 0.45468903 0 47
-2.1552575 2.3276029 0.48514599 0 48
-2.1397738 2.3108814 0.51134789 0 49
-2.1472433 2.318948 0.54301286 0 50
-2.1426704 2.3140094 0.57176721 0 51
-2.1504049 2.3223624 0.60395008 0 52
-2.1429281 2.3142877 0.63196999 0 53
-2.1473262 2.3190374 0.66356009 0 54
-2.140337 2.3114893 0.6917116 0 55
-2.1339285 2.3045685 0.71998346 0 56
-2.150526 2.3224933 0.75629151 0 57
-2.1528671 2.3250215 0.78799176 0 58
-2.1421764 2.3134758 0.81494325 0 59
-2.147471 2.3191938 0.84804565 0 60
-2.1362877 2.3071163 0.87470877 0 61
-2.1393981 2.3104753 0.90726662 0 62
-2.1423717 2.3136868 0.94002199 0 63
-1.7045786 1.7960738 -0.73818237 0 0
-1.7581499 1.8525206 -0.73587269 0 1
-1.8169096 1.9144342 -0.73424417 0 2
-1.885097 1.9862819 -0.73473233 0 3
-1.9607592 2.0660052 -0.73620683 0 4
-2.0419118 2.1515138 -0.7376408 0 5
-2.1209478 2.234792 -0.73616976 0 6
-2.1936486 2.3113952 -0.73048812 0 7
-2.1904802 2.3080566 -0.6986919 0 8
-2.188417 2.3058827 -0.66744542 0 9
-2.1854696 2.3027773 -0.63611716 0 10
-2.1864104 2.3037684 -0.60606045 0 11
-2.1927414 2.3104393 -0.57750362 0 12
-2.1901321 2.3076899 -0.54664153 0 13
-2.1852047 2.3024983 -0.51539975 0 14
-2.1900272 2.3075793 -0.48654863 0 15
-2.1916969 2.3093386 -0.45699254 0 16
-2.1847754 2.3020458 -0.42579547 0 17
-2.1902366 2.3078001 -0.3971051 0 18
-2.1881936 2.3056474 -0.36707589 0 19
-2.1829565 2.3001292 -0.33667234 0 20
-2.1844752 2.3017294 -0.30741864 0 21
-2.186275 2.3036258 -0.27821228 0 22
-2.1838593 2.3010807 -0.24852516 0 23
-2.1773391 2.2942102 -0.21853331 0 24
-2.1959045 2.3137722 -0.1909349 0 25
-2.1976879 2.3156514 -0.16163674 0 26
-2.1869621 2.3043497 -0.13156565 0 27
-2.1903675 2.3079379 -0.10246505 0 28
-2.1860566 2.3033957 -0.073032916 0 29
-2.1902065 2.3077683 -0.043897983 0 30
-2.1817212 2.2988276 -0.014575149 0 31
-2.1895764 2.3071043 0.014627625 0 32
-2.1865723 2.3039391 0.043825142 0 33
-2.1887405 2.3062236 0.073122576 0 34
-2.1751952 2.2919512 0.10175529 0 35
-2.1942453 2.3120241 0.13200381 0 36
-2.1997902 2.3178666 0.16179135 0 37
-2.1806569 2.2977061 0.18960911 0 38
-2.1842062 2.3014462 0.21922255 0 39
-2.1803989 2.2974346 0.24813136 0 40
-2.1835713 2.3007772 0.27786824 0 41
-2.1929331 2.3106413 0.30860892 0 42
-2.1757231 2.2925076 0.33555675 0 43
-2.2012854 2.3194418 0.36927208 0 44
-2.1864471 2.3038073 0.39641804 0 45
-2.1888051 2.3062916 0.42658082 0 46
-2.1802886 2.297318 0.4546138 0 47
-2.1943734 2.3121588 0.48751423 0 48
-2.186806 2.3041852 0.51577741 0 49
-2.1887569 2.306241 0.54629833 0 50
-2.1872401 2.3046427 0.57605475 0 51
-2.1906028 2.3081858 0.60722256 0 52
-2.1970887 2.3150201 0.63949907 0 53
-2.182375 2.2995164 0.66560274 0 54
-2.1891129 2.3066161 0.69825584 0 55
-2.1831686 2.3003528 0.72699833 0 56
-2.184175 2.3014131 0.75811553 0 57
-2.1895373 2.3070631 0.79097044 0 58
-2.1908972 2.3084962 0.82261693 0 59
-2.1975958 2.3155544 0.85653138 0 60
-2.1937292 2.31148 0.88652337 0 61
-2.1785982 2.295537 0.91185111 0 62
-2.1823087 2.2994466 0.94506747 0 63
-1.7121444 1.7601866 -0.73203033 0 0
-1.7732964 1.8230543 -0.73277414 0 1
-1.8371401 1.8886895 -0.73297894 0 2
-1.9042633 1.9576962 -0.73276454 0 3
-1.9816487 2.0372529 -0.7345888 0 4
-2.0555661 2.1132443 -0.73313063 0 5
-2.1388385 2.1988535 -0.7329393 0 6
-2.2346969 2.2974017 -0.73469448 0 7
-2.2392004 2.3020315 -0.70514977 0 8
-2.2380116 2.3008094 -0.67389166 0 9
-2.2279873 2.290504 -0.64024633 0 10
-2.2322173 2.2948525 -0.61088967 0 11
-2.2290802 2.2916274 -0.57960892 0 12
-2.2343986 2.2970951 -0.5505985 0 13
-2.2489018 2.3120053 -0.52367836 0 14
-2.2303572 2.2929401 -0.48920763 0 15
-2.2387688 2.3015881 -0.46087158 0 16
-2.2422245 2.3051405 -0.43143499 0 17
-2.2350836 2.2977993 -0.40008315 0 18
-2.2262707 2.288739 -0.36871442 0 19
-2.23365 2.2963254 -0.34011009 0 20
-2.2378128 2.3006051 -0.31092015 0 21
-2.2360926 2.2988367 -0.28093338 0 22
-2.236378 2.29913 -0.25126553 0 23
-2.2347176 2.2974229 -0.22144009 0 24
-2.2343881 2.2970843 -0.19181058 0 25
-2.2372386 2.3000147 -0.16245325 0 26
-2.2298243 2.2923923 -0.13243841 0 27
-2.2406912 2.3035643 -0.10348629 0 28
-2.2258117 2.2882671 -0.073415488 0 29
-2.2236059 2.2859993 -0.04400067 0 30
-2.230401 2.2929854 -0.014710884 0 31
-2.2295518 2.2921121 0.014705282 0 32
-2.2307913 2.2933865 0.044142861 0 33
-2.2378981 2.3006928 0.073814139 0 34
-2.2360868 2.2988305 0.10327363 0 35
-2.2327905 2.2954419 0.13261458 0 36
-2.2327368 2.2953866 0.16212635 0 37
-2.227726 2.2902353 0.19123866 0 38
-2.2250977 2.287533 0.22048683 0 39
-2.237139 2.2999122 0.25135103 0 40
-2.2292707 2.2918231 0.28007627 0 41
-2.229408 2.2919643 0.3097524 0 42
-2.233542 2.2962143 0.34009364 0 43
-2.2380121 2.3008099 0.37065905 0 44
-2.2307129 2.2933059 0.39930075 0 45
-2.2387679 2.3015869 0.43076989 0 46
-2.2394118 2.302249 0.46100393 0 47
-2.2426524 2.3055804 0.4919045 0 48
-2.238385 2.3011932 0.52122933 0 49
-2.2234013 2.285789 0.54788852 0 50
-2.238395 2.3012035 0.58203095 0 51
-2.224992 2.2874246 0.60891235 0 52
-2.227669 2.2901766 0.64015484 0 53
-2.2236087 2.2860024 0.66955477 0 54
-2.2465434 2.3095806 0.70746219 0 55
-2.2310221 2.2936239 0.73348635 0 56
-2.2305229 2.2931104 0.76435781 0 57
-2.2328675 2.295521 0.79636639 0 58
-2.2269585 2.2894461 0.82552409 0 59
-2.2388625 2.3016841 0.86151904 0 60
-2.2349229 2.2976341 0.89168566 0 61
-2.2368844 2.2996507 0.92434132 0 62
-2.2404101 2.3032751 0.95789123 0 63
-1.7541176 1.7595251 -0.74066955 0 0
-1.8033653 1.8089246 -0.73595226 0 1
-1.8666772 1.8724316 -0.73552185 0 2
-1.9264476 1.9323863 -0.73210233 0 3
-2.0015097 2.0076797 -0.73274434 0 4
-2.0775037 2.0839081 -0.73176038 0 5
-2.1814857 2.1882105 -0.73827726 0 6
-2.2618086 2.2687809 -0.73438042 0 7
-2.2831564 2.2901945 -0.71007001 0 8
-2.2820029 2.2890375 -0.67861122 0 9
-2.2761803 2.2831972 -0.64597863 0 10
-2.2917857 2.2988505 -0.61940885 0 11
-2.2903421 2.2974024 -0.58814824 0 12
-2.2908025 2.2978644 -0.55749261 0 13
-2.2703755 2.2773745 -0.52211833 0 14
-2.2810459 2.2880776 -0.49411717 0 15
-2.2855339 2.2925794 -0.46466017 0 16
-2.2858429 2.2928894 -0.43436995 0 17
-2.2810338 2.2880654 -0.40324157 0 18
-2.2823899 2.2894256 -0.37331814 0 19
-2.2732086 2.2802162 -0.34183836 0 20
-2.2787743 2.285799 -0.31268248 0 21
-2.2851725 2.292217 -0.28353691 0 22
-2.2798867 2.2869148 -0.25297529 0 23
-2.2812884 2.2883208 -0.2232497 0 24
-2.2807 2.2877307 -0.19335668 0 25
-2.2762914 2.2833085 -0.16323791 0 26
-2.2884033 2.2954576 -0.13423105 0 27
-2.2770894 2.2841089 -0.10386232 0 28
-2.279712 2.2867396 -0.074260235 0 29
-2.283289 2.2903275 -0.044621021 0 30
-2.2791781 2.2862041 -0.014846058 0 31
-2.2764256 2.2834432 0.014828129 0 32
-2.2865992 2.293648 0.04468571 0 33
-2.273335 2.2803431 0.074052513 0 34
-2.2753413 2.2823553 0.10378257 0 35
-2.2893386 2.296396 0.13428591 0 36
-2.2851617 2.292206 0.16387403 0 37
-2.2780628 2.2850854 0.1931331 0 38
-2.2853692 2.2924142 0.22364905 0 39
-2.2812641 2.2882967 0.25312811 0 40
-2.274333 2.2813439 0.28219199 0 41
-2.2730751 2.2800822 0.31190047 0 42
-2.2756379 2.2826529 0.34220365 0 43
-2.2803729 2.2874026 0.37298825 0 44
-2.2870281 2.2940781 0.40430123 0 45
-2.2878118 2.2948644 0.43474406 0 46
-2.2820578 2.2890925 0.46395347 0 47
-2.2742283 2.2812393 0.49264038 0 48
-2.2789032 2.2859285 0.52407938 0 49
-2.2770307 2.28405 0.55414104 0 50
-2.2808049 2.2878361 0.58569914 0 51
-2.2748826 2.2818954 0.61484039 0 52
-2.273947 2.2809567 0.64534473 0 53
-2.2751589 2.2821727 0.67657602 0 54
-2.2819879 2.2890224 0.70970666 0 55
-2.2843902 2.2914321 0.74171239 0 56
-2.2773111 2.2843313 0.77070731 0 57
-2.2827137 2.2897506 0.80404156 0 58
-2.2812684 2.2883008 0.83516282 0 59
-2.2776589 2.2846801 0.86557209 0 60
-2.286402 2.2934504 0.90090489 0 61
-2.2836986 2.2907383 0.93197596 0 62
-2.2810154 2.2880471 0.96315014 0 63
-1.7603931 1.7229221 -0.7343182 0 0
-1.8169378 1.7782632 -0.73251218 0 1
-1.8994398 1.859009 -0.73936814 0 2
-1.9491776 1.9076883 -0.7317704 0 3
-2.0297384 1.9865341 -0.73408043 0 4
-2.1185007 2.0734072 -0.73716474 0 5
-2.1964738 2.1497204 -0.73434812 0 6
-2.2918077 2.2430251 -0.73510987 0 7
-2.3297253 2.2801356 -0.71577924 0 8
-2.3310201 2.2814028 -0.68479365 0 9
-2.3160048 2.2667072 -0.64932144 0 10
-2.3243189 2.2748444 -0.62059456 0 11
-2.330864 2.28125 -0.59130591 0 12
-2.3284767 2.2789137 -0.55979913 0 13
-2.327491 2.2779491 -0.52877158 0 14
-2.3350744 2.2853708 -0.49969554 0 15
-2.3307328 2.2811217 -0.46811128 0 16
-2.3301616 2.2805629 -0.43742973 0 17
-2.3355508 2.2858372 -0.40787935 0 18
-2.3335454 2.2838745 -0.37706342 0 19
-2.3286164 2.2790504 -0.34593007 0 20
-2.326473 2.2769525 -0.3153618 0 21
-2.3348722 2.2851732 -0.28619537 0 22
-2.3188615 2.2695031 -0.25418416 0 23
-2.3254409 2.2759426 -0.22481479 0 24
-2.3343744 2.2846859 -0.19551063 0 25
-2.3362992 2.2865698 -0.16551238 0 26
-2.3360686 2.2863438 -0.13536763 0 27
-2.3300478 2.2804513 -0.10499088 0 28
-2.3378968 2.2881331 -0.075233378 0 29
-2.3293629 2.2797811 -0.044970181 0 30
-2.3313935 2.2817683 -0.015002281 0 31
-2.3246181 2.2751372 0.014958682 0 32
-2.3289809 2.2794073 0.044962805 0 33
-2.3270016 2.2774699 0.074882768 0 34
-2.3275783 2.2780344 0.10487961 0 35
-2.3213615 2.27195 0.1345154 0 36
-2.3399401 2.290133 0.16577031 0 37
-2.3289158 2.2793434 0.19505346 0 38
-2.3326721 2.2830198 0.22551386 0 39
-2.3287759 2.2792065 0.25527093 0 40
-2.3421636 2.292309 0.28708908 0 41
-2.3231091 2.2736604 0.31490582 0 42
-2.3262792 2.276763 0.34558287 0 43
-2.3340011 2.2843204 0.37713704 0 44
-2.3318777 2.2822423 0.40723789 0 45
-2.3221648 2.2727361 0.43592852 0 46
-2.3296452 2.2800572 0.46789283 0 47
-2.3387573 2.2889755 0.50048369 0 48
-2.3355033 2.2857907 0.53059179 0 49
-2.330163 2.2805641 0.56020457 0 50
-2.333756 2.2840805 0.59203959 0 51
-2.3296766 2.2800879 0.62202507 0 52
-2.331538 2.2819097 0.65367639 0 53
-2.3218243 2.2724028 0.68209213 0 54
-2.3345182 2.2848265 0.71725178 0 55
-2.3300347 2.2804384 0.74737138 0 56
-2.3267627 2.2772362 0.77790773 0 57
-2.3259785 2.2764685 0.80935973 0 58
-2.3248701 2.2753837 0.84081852 0 59
-2.3275275 2.2779846 0.8738125 0 60
-2.3355665 2.2858524 0.90913296 0 61
-2.3205574 2.271163 0.93555021 0 62
-2.3260317 2.2765207 0.97026473 0 63
-1.7741665 1.6941971 -0.73131824 0 0
-1.8549432 1.7713329 -0.73899722 0 1
-1.9158989 1.829541 -0.73696214 0 2
-1.9813575 1.8920491 -0.73506147 0 3
-2.0603659 1.9674964 -0.73635185 0 4
-2.1482453 2.0514145 -0.7386815 0 5
-2.2197526 2.1196988 -0.73336124 0 6
-2.3194692 2.2149208 -0.73519093 0 7
-2.3743405 2.2673187 -0.72086644 0 8
-2.3636487 2.2571087 -0.68617368 0 9
-2.3778064 2.2706285 -0.65877062 0 10
-2.3804674 2.2731693 -0.62807554 0 11
-2.376399 2.2692845 -0.59573358 0 12
-2.3785298 2.2713189 -0.56507528 0 13
-2.3781397 2.2709465 -0.53389376 0 14
-2.3755629 2.268486 -0.50235265 0 15
-2.3791645 2.2719252 -0.47219187 0 16
-2.3797731 2.2725065 -0.44146392 0 17
-2.3704853 2.2636373 -0.40908834 0 18
-2.3664775 2.25981 -0.37786606 0 19
-2.3719013 2.2649891 -0.34819645 0 20
-2.3827231 2.2753234 -0.31917003 0 21
-2.3777046 2.2705309 -0.28800154 0 22
-2.3799944 2.2727177 -0.25780243 0 23
-2.3767517 2.2696211 -0.22706008 0 24
-2.3863354 2.2787728 -0.19750077 0 25
-2.3805189 2.2732184 -0.1666522 0 26
-2.3755546 2.2684779 -0.13602905 0 27
-2.3813288 2.2739921 -0.10603362 0 28
-2.3733647 2.2663867 -0.075472213 0 29
-2.3732364 2.2662642 -0.045275774 0 30
-2.378809 2.2715857 -0.01512651 0 31
-2.3808756 2.2735593 0.015139651 0 32
-2.3835046 2.2760696 0.045471668 0 33
-2.3748066 2.2677639 0.075518072 0 34
-2.3802366 2.272949 0.10598498 0 35
-2.3884578 2.2807994 0.13676792 0 36
-2.3909721 2.2832007 0.16738401 0 37
-2.3733749 2.2663968 0.19642812 0 38
-2.3813035 2.273968 0.22749494 0 39
-2.3806946 2.2733865 0.2578783 0 40
-2.3844614 2.2769833 0.28881997 0 41
-2.3861721 2.2786169 0.31963202 0 42
-2.3818076 2.2744491 0.34965071 0 43
-2.3758807 2.2687893 0.37936753 0 44
-2.3701165 2.2632852 0.40902472 0 45
-2.3822844 2.2749045 0.44192979 0 46
-2.3715954 2.2646971 0.47068962 0 47
-2.3797281 2.2724636 0.50323349 0 48
-2.3835158 2.2760804 0.53510064 0 49
-2.3834007 2.2759705 0.5662325 0 50
-2.365201 2.2585912 0.59292638 0 51
-2.3807909 2.2734783 0.62816095 0 52
-2.383188 2.2757673 0.66026157 0 53
-2.3717659 2.2648602 0.68853009 0 54
-2.3792236 2.2719817 0.72234899 0 55
-2.3836725 2.2762299 0.75554109 0 56
-2.3852153 2.2777033 0.78802681 0 57
-2.3789625 2.2717323 0.81801438 0 58
-2.3779125 2.2707298 0.84983945 0 59
-2.3851199 2.2776122 0.88485289 0 60
-2.3872836 2.2796783 0.91828316 0 61
-2.3688636 2.2620885 0.94373977 0 62
-2.3723357 2.2654042 0.9778859 0 63
-1.8046645 1.6813861 -0.73531169 0 0
-1.8607302 1.733622 -0.73275459 0 1
-1.9302442 1.7983874 -0.73391849 0 2
-1.9944226 1.8581817 -0.73137641 0 3
-2.0750608 1.9333115 -0.73305202 0 4
-2.1667101 2.0187004 -0.73643959 0 5
-2.2450466 2.0916855 -0.73316503 0 6
-2.3412471 2.1813142 -0.73353648 0 7
-2.4281189 2.2622519 -0.72869319 0 8
-2.4284511 2.2625613 -0.69685662 0 9
-2.4219873 2.2565391 -0.66327339 0 10
-2.4264235 2.2606723 -0.63281864 0 11
-2.4306462 2.2646065 -0.60230631 0 12
-2.4194851 2.2542078 -0.56817698 0 13
-2.42261 2.2571192 -0.53760576 0 14
-2.4272585 2.2614503 -0.50736576 0 15
-2.4292855 2.2633388 -0.4765797 0 16
-2.4350777 2.2687354 -0.44651437 0 17
-2.4207504 2.2553866 -0.41294554 0 18
-2.4355373 2.2691636 -0.38440877 0 19
-2.4207857 2.2554195 -0.35127485 0 20
-2.4276261 2.2617927 -0.32143506 0 21
-2.4290447 2.2631145 -0.29082742 0 22
-2.4281914 2.2623193 -0.25999019 0 23
-2.4189885 2.2537453 -0.22843032 0 24
-2.4252231 2.2595539 -0.1984047 0 25
-2.4231956 2.2576647 -0.16768371 0 26
-2.4308252 2.2647734 -0.13758889 0 27
-2.4332967 2.267076 -0.10709821 0 28
-2.430392 2.2643697 -0.076394469 0 29
-2.4244449 2.2588289 -0.045719363 0 30
-2.4300644 2.2640646 -0.01527425 0 31
-2.4276297 2.261796 0.015258946 0 32
-2.4246912 2.2590582 0.045724008 0 33
-2.4277294 2.261889 0.076310776 0 34
-2.4308517 2.2647979 0.10699059 0 35
-2.4251392 2.2594757 0.13726705 0 36
-2.4325194 2.2663519 0.16832893 0 37
-2.4343739 2.2680795 0.1991533 0 38
-2.4082334 2.2437246 0.22741468 0 39
-2.4189653 2.2537236 0.25900233 0 40
-2.4315522 2.2654505 0.29112765 0 41
-2.4241972 2.2585981 0.32098106 0 42
-2.4187984 2.2535682 0.35098651 0 43
-2.4309573 2.2648964 0.38368589 0 44
-2.4337237 2.2674739 0.41515863 0 45
-2.4224937 2.2570109 0.44420686 0 46
-2.4253938 2.2597129 0.47581625 0 47
-2.429754 2.2637751 0.50788736 0 48
-2.4261312 2.2604001 0.53838718 0 49
-2.4255776 2.2598844 0.56960773 0 50
-2.4378848 2.2713506 0.60409999 0 51
-2.4299059 2.2639167 0.63372678 0 52
-2.4312623 2.2651806 0.66581333 0 53
-2.4268901 2.2611072 0.69640875 0 54
-2.4232147 2.2576826 0.72722143 0 55
-2.4349725 2.2686374 0.7629016 0 56
-2.4357905 2.2693994 0.79545623 0 57
-2.4214401 2.2560291 0.82301927 0 58
-2.4334769 2.2672439 0.85966885 0 59
-2.4322224 2.2660751 0.89192241 0 60
-2.4274056 2.2615871 0.92294943 0 61
-2.4280951 2.2622297 0.95618266 0 62
-2.4302993 2.2642834 0.99022698 0 63
-1.8305527 1.6639338 -0.73746747 0 0
-1.877462 1.7065734 -0.7310245 0 1
-1.9544673 1.7765696 -0.73476696 0 2
-2.0264058 1.8419602 -0.73474365 0 3
-2.1068683 1.9150987 -0.73591381 0 4
-2.1885796 1.9893726 -0.73550266 0 5
-2.2846699 2.0767169 -0.73770964 0 6
-2.3782465 2.1617758 -0.73674458 0 7
-2.4844 2.2582674 -0.73719424 0 8
-2.4832706 2.2572405 -0.70456934 0 9
-2.4701641 2.245327 -0.66885525 0 10
-2.4774163 2.251919 -0.63884759 0 11
-2.4703143 2.2454636 -0.60524821 0 12
-2.4714813 2.2465243 -0.57385695 0 13
-2.4743249 2.2491093 -0.54290366 0 14
-2.4848218 2.2586505 -0.51355386 0 15
-2.4720325 2.2470255 -0.47950906 0 16
-2.4823256 2.2563815 -0.45005643 0 17
-2.480576 2.2547913 -0.41838968 0 18
-2.4812236 2.2553799 -0.38721308 0 19
-2.4714799 2.2465229 -0.35459566 0 20
-2.4697464 2.2449472 -0.32333255 0 21
-2.4777834 2.2522528 -0.29332483 0 22
-2.4802086 2.2544572 -0.26257166 0 23
-2.4834702 2.257422 -0.23188064 0 24
-2.4844847 2.2583442 -0.20096581 0 25
-2.4764292 2.2510219 -0.16943921 0 26
-2.4770143 2.2515538 -0.13862571 0 27
-2.483803 2.2577245 -0.10809109 0 28
-2.4732003 2.2480869 -0.07686533 0 29
-2.4757049 2.2503636 -0.046160698 0 30
-2.4714077 2.2464576 -0.015359325 0 31
-2.4817026 2.2558153 0.015423305 0 32
-2.4800122 2.2542789 0.046241008 0 33
-2.4805965 2.2548099 0.077095203 0 34
-2.4772003 2.2517228 0.10780375 0 35
-2.4763 2.2509046 0.13858573 0 36
-2.469806 2.2450016 0.16898605 0 37
-2.4833436 2.2573068 0.20087351 0 38
-2.4786108 2.2530048 0.23142692 0 39
-2.4779239 2.2523806 0.26232982 0 40
-2.4793897 2.2537129 0.29351497 0 41
-2.4795482 2.2538569 0.32461578 0 42
-2.4783766 2.2527921 0.35558519 0 43
-2.4777122 2.252188 0.38666508 0 44
-2.4819744 2.2560623 0.41862553 0 45
-2.4785504 2.25295 0.44937196 0 46
-2.4824243 2.2564712 0.48152474 0 47
-2.4860523 2.259769 0.51380819 0 48
-2.475354 2.2500446 0.54312944 0 49
-2.4750555 2.249773 0.57468683 0 50
-2.4854484 2.2592201 0.60895616 0 51
-2.4624498 2.2383149 0.63498819 0 52
-2.4709935 2.2460811 0.66907984 0 53
-2.4725556 2.2475009 0.70152926 0 54
-2.4719436 2.2469444 0.73349798 0 55
-2.4869998 2.2606304 0.77043474 0 56
-2.4733429 2.2482164 0.79863125 0 57
-2.4653225 2.2409263 0.82850599 0 58
-2.4706738 2.2457905 0.86298853 0 59
-2.4824224 2.2564695 0.90008825 0 60
-2.4732056 2.2480917 0.92978257 0 61
-2.4846654 2.2585084 0.96745038 0 62
-2.472559 2.247504 0.99610996 0 63
-1.8326983 1.6251833 -0.73022574 0 0
-1.9004281 1.6852441 -0.73184276 0 1
-1.97184 1.7485702 -0.73315942 0 2
-2.0486517 1.8166845 -0.73465443 0 3
-2.1372361 1.8952385 -0.73832512 0 4
-2.2086952 1.9586062 -0.73411351 0 5
-2.3069086 2.0456991 -0.73671228 0 6
-2.3959785 2.1246836 -0.73408872 0 7
-2.4875851 2.2059178 -0.73003531 0 8
-2.535073 2.2480288 -0.71137029 0 9
-2.5267861 2.24068 -0.67667532 0 10
-2.5253649 2.2394197 -0.6440624 0 11
-2.5321686 2.2454534 -0.61359173 0 12
-2.524394 2.2385588 -0.57970762 0 13
-2.5372887 2.2499936 -0.55060667 0 14
-2.5183673 2.2332146 -0.51477253 0 15
-2.5283623 2.2420778 -0.4850511 0 16
-2.5323927 2.2456517 -0.45409301 0 17
-2.5329394 2.2461367 -0.42253119 0 18
-2.5312729 2.2446589 -0.39068672 0 19
-2.5312886 2.2446728 -0.35918942 0 20
-2.5343394 2.2473781 -0.32814622 0 21
-2.5177379 2.2326565 -0.2947824 0 22
-2.5296798 2.2432461 -0.26486877 0 23
-2.5260272 2.2400072 -0.23326476 0 24
-2.5352557 2.2481906 -0.20282112 0 25
-2.5421853 2.2543356 -0.17202865 0 26
-2.5232689 2.237561 -0.13966395 0 27
-2.5384855 2.2510548 -0.10925794 0 28
-2.5207162 2.2352974 -0.077481978 0 29
-2.5258431 2.2398438 -0.046578489 0 30
-2.523927 2.2381446 -0.01551351 0 31
-2.5226133 2.23698 0.015505436 0 32
-2.5225902 2.2369592 0.046518501 0 33
-2.5237606 2.2379973 0.077575557 0 34
-2.5243571 2.2385261 0.10864984 0 35
-2.5242178 2.2384028 0.13971649 0 36
-2.5328095 2.2460215 0.17139418 0 37
-2.5372527 2.2499614 0.20298088 0 38
-2.542064 2.2542281 0.23474567 0 39
-2.5202107 2.2348492 0.26387733 0 40
-2.5259326 2.2399232 0.29574186 0 41
-2.5201278 2.2347758 0.3263061 0 42
-2.5134671 2.2288692 0.35666057 0 43
-2.5240209 2.2382281 0.3895674 0 44
-2.5265892 2.2405055 0.42147186 0 45
-2.5273287 2.2411613 0.45318499 0 46
-2.5251122 2.2391958 0.48442757 0 47
-2.5224719 2.2368543 0.51561159 0 48
-2.5258775 2.2398744 0.54813039 0 49
-2.5287714 2.2424407 0.58071285 0 50
-2.5272813 2.2411191 0.61240739 0 51
-2.5244911 2.2386448 0.64383954 0 52
-2.5245028 2.2386553 0.67606384 0 53
-2.5192778 2.2340219 0.70693797 0 54
-2.5236599 2.2379079 0.74062228 0 55
-2.5148356 2.2300828 0.77050459 0 56
-2.5133069 2.2287271 0.80262572 0 57
-2.5388379 2.2513673 0.84384453 0 58
-2.5272858 2.2411232 0.87307084 0 59
-2.5345755 2.2475874 0.90890855 0 60
-2.5285678 2.24226 0.94015902 0 61
-2.530314 2.2438085 0.97440773 0 62
-2.5313506 2.2447276 1.0085988 0 63
-1.8498641 1.6002097 -0.72917008 0 0
-1.9368383 1.675446 -0.73787457 0 1
-1.991539 1.7227645 -0.73255193 0 2
-2.0743184 1.7943721 -0.73589057 0 3
-2.1456432 1.856071 -0.73328954 0 4
-2.2349391 1.9333158 -0.73487931 0 5
-2.3178883 2.0050702 -0.73228961 0 6
-2.4374938 2.1085339 -0.73880875 0 7
-2.5377023 2.1952183 -0.7367658 0 8
-2.5867138 2.2376153 -0.718086 0 9
-2.575495 2.2279108 -0.6823315 0 10
-2.5826545 2.2341039 -0.65161783 0 11
-2.5702407 2.2233655 -0.61614579 0 12
-2.5884163 2.2390883 -0.58804268 0 13
-2.5884871 2.2391496 -0.55570006 0 14
-2.5759223 2.2282803 -0.52089703 0 15
-2.5762138 2.2285326 -0.48893702 0 16
-2.5823131 2.2338088 -0.45808443 0 17
-2.5761859 2.2285085 -0.42514199 0 18
-2.5769956 2.2292089 -0.39348319 0 19
-2.5748665 2.2273672 -0.36145934 0 20
-2.5763786 2.2286751 -0.33001614 0 21
-2.5788612 2.2308226 -0.29870456 0 22
-2.5833361 2.2346935 -0.26758945 0 23
-2.5811405 2.2327945 -0.23580098 0 24
-2.5786321 2.2306244 -0.20408151 0 25
-2.5714226 2.2243879 -0.17214321 0 26
-2.5789342 2.2308857 -0.14121601 0 27
-2.5856166 2.2366664 -0.11009442 0 28
-2.5765653 2.2288365 -0.078350313 0 29
-2.5677445 2.2212064 -0.046843972 0 30
-2.5756984 2.2280867 -0.015662141 0 31
-2.5764625 2.2287478 0.015666788 0 32
-2.5728452 2.2256186 0.046937022 0 33
-2.5799632 2.2317758 0.078453645 0 34
-2.5691738 2.2224426 0.10939428 0 35
-2.5826931 2.2341375 0.14142184 0 36
-2.5764782 2.2287614 0.17248166 0 37
-2.5805275 2.2322643 0.20423153 0 38
-2.5834236 2.2347693 0.23600954 0 39
-2.5751886 2.2276459 0.26674551 0 40
-2.581332 2.23296 0.29899076 0 41
-2.57935 2.2312455 0.33039674 0 42
-2.5822661 2.233768 0.3624981 0 43
-2.576813 2.2290509 0.39345533 0 44
-2.5878832 2.2386272 0.42707241 0 45
-2.5872872 2.2381115 0.45896679 0 46
-2.5841887 2.2354312 0.49045056 0 47
-2.5859888 2.2369883 0.52293271 0 48
-2.5758417 2.2282107 0.55298537 0 49
-2.5773842 2.2295451 0.58553636 0 50
-2.582376 2.2338631 0.61905491 0 51
-2.5850749 2.2361977 0.65222853 0 52
-2.5803204 2.232085 0.6836099 0 53
-2.5792785 2.2311835 0.7160219 0 54
-2.5770996 2.2292988 0.74820393 0 55
-2.579905 2.2317257 0.78197384 0 56
-2.5786352 2.2306273 0.81466734 0 57
-2.5747037 2.2272263 0.84659863 0 58
-2.5764921 2.2287734 0.88053536 0 59
-2.5893536 2.2398989 0.91860574 0 60
-2.5788128 2.2307808 0.94857001 0 61
-2.5892851 2.2398398 0.98643637 0 62
-2.5814731 2.2330821 1.017552 0 63
-1.8862209 1.5915369 -0.7357313 0 0
-1.9583086 1.6523623 -0.73825765 0 1
-2.0258968 1.7093912 -0.73740244 0 2
-2.1007898 1.7725837 -0.73749328 0 3
-2.1840987 1.8428773 -0.73863161 0 4
-2.2644751 1.9106965 -0.73681003 0 5
-2.3454337 1.9790069 -0.73324853 0 6
-2.4523134 2.0691888 -0.73553294 0 7
-2.5641155 2.1635242 -0.73665476 0 8
-2.6381807 2.2260182 -0.72472006 0 9
-2.6338739 2.2223842 -0.69050586 0 10
-2.6403787 2.2278726 -0.65922022 0 11
-2.628211 2.2176058 -0.6234585 0 12
-2.6210737 2.2115839 -0.58923918 0 13
-2.6292436 2.2184772 -0.55855113 0 14
-2.6249123 2.2148228 -0.52525669 0 15
-2.6307395 2.2197394 -0.49406776 0 16
-2.6301045 2.2192037 -0.46168664 0 17
-2.6384492 2.2262447 -0.43086699 0 18
-2.6267982 2.2164137 -0.39689612 0 19
-2.637233 2.2252185 -0.36634555 0 20
-2.6303508 2.2194116 -0.33340862 0 21
-2.6261828 2.2158947 -0.30100694 0 22
-2.6380763 2.22593 -0.27040398 0 23
-2.6373904 2.2253513 -0.23842184 0 24
-2.6315572 2.2204294 -0.2060937 0 25
-2.6297593 2.2189124 -0.17420879 0 26
-2.6244407 2.2144248 -0.14220606 0 27
-2.6303053 2.219373 -0.11082684 0 28
-2.6298597 2.218997 -0.079135224 0 29
-2.6352439 2.2235401 -0.047572978 0 30
-2.6330781 2.2217126 -0.015843732 0 31
-2.6391711 2.2268538 0.015880395 0 32
-2.6331191 2.2217472 0.047534619 0 33
-2.6307874 2.21978 0.079163142 0 34
-2.6228065 2.2130458 0.11051089 0 35
-2.6318715 2.2206945 0.14260869 0 36
-2.6403871 2.2278798 0.17491284 0 37
-2.6345761 2.2229767 0.20633014 0 38
-2.6188753 2.2097287 0.23674805 0 39
-2.6355405 2.2237904 0.27014405 0 40
-2.6360655 2.2242334 0.30213964 0 41
-2.6403971 2.2278881 0.33468202 0 42
-2.6299891 2.2191064 0.36533928 0 43
-2.6338997 2.2224059 0.39796916 0 44
-2.6303918 2.2194462 0.42955118 0 45
-2.6329689 2.2216206 0.46218944 0 46
-2.6304605 2.2195041 0.49401537 0 47
-2.634922 2.2232685 0.52725971 0 48
-2.6326287 2.2213335 0.55927026 0 49
-2.6263573 2.2160418 0.59042692 0 50
-2.6337557 2.2222846 0.62477386 0 51
-2.6325674 2.2212818 0.65727001 0 52
-2.6291151 2.2183688 0.68925822 0 53
-2.6400096 2.2275612 0.72522253 0 54
-2.6437938 2.2307541 0.75954586 0 55
-2.6327832 2.2214639 0.78966206 0 56
-2.6326058 2.2213142 0.8230266 0 57
-2.632498 2.2212231 0.85655648 0 58
-2.6254311 2.2152605 0.88788408 0 59
-2.6250176 2.2149115 0.92152619 0 60
-2.6307335 2.2197344 0.95755583 0 61
-2.6355739 2.2238185 0.99357814 0 62
-2.638567 2.2263441 1.0291883 0 63
-1.9176898 1.5781349 -0.74038076 0 0
-1.9595497 1.6125828 -0.73119497 0 1
-2.0421267 1.6805383 -0.73573256 0 2
-2.1137071 1.7394444 -0.73446369 0 3
-2.197202 1.8081552 -0.73548818 0 4
-2.2726393 1.8702353 -0.73192835 0 5
-2.3848093 1.9625438 -0.73795813 0 6
-2.4812789 2.0419323 -0.73663408 0 7
-2.5806839 2.1237361 -0.7338568 0 8
-2.6831403 2.2080512 -0.72955698 0 9
-2.682013 2.2071235 -0.69595844 0 10
-2.6792419 2.2048428 -0.66210413 0 11
-2.6939356 2.2169352 -0.6325351 0 12
-2.6865926 2.2108922 -0.59781152 0 13
-2.6871309 2.2113352 -0.56502938 0 14
-2.6877091 2.2118108 -0.53234005 0 15
-2.6891384 2.2129872 -0.49988708 0 16
-2.6832511 2.2081423 -0.46621439 0 17
-2.6864457 2.2107713 -0.4342328 0 18
-2.6861606 2.2105365 -0.40172809 0 19
-2.6798415 2.2053363 -0.36846951 0 20
-2.6848683 2.2094731 -0.33684972 0 21
-2.685365 2.209882 -0.30465263 0 22
-2.6754539 2.2017257 -0.27143964 0 23
-2.6815739 2.2067621 -0.23994486 0 24
-2.6925471 2.2157922 -0.20872058 0 25
-2.6744659 2.2009127 -0.17536432 0 26
-2.6843781 2.2090697 -0.14397103 0 27
-2.6895547 2.2133298 -0.11216807 0 28
-2.698494 2.2206862 -0.080372743 0 29
-2.685235 2.209775 -0.047981285 0 30
-2.6847773 2.2093983 -0.015990134 0 31
-2.682158 2.2072427 0.015974535 0 32
-2.676589 2.2026598 0.047826797 0 33
-2.681767 2.2069209 0.079874538 0 34
-2.6827364 2.2077188 0.11188371 0 35
-2.6772225 2.2031813 0.14358725 0 36
-2.6897306 2.2134745 0.17636521 0 37
-2.6925979 2.2158341 0.20872453 0 38
-2.6904314 2.2140512 0.24073741 0 39
-2.6938436 2.2168593 0.27330539 0 40
-2.6730313 2.1997321 0.30325338 0 41
-2.6926398 2.2158687 0.33782476 0 42
-2.6828208 2.2077882 0.36887917 0 43
-2.6882317 2.2122412 0.40203786 0 44
-2.6891232 2.2129745 0.43466556 0 45
-2.6812656 2.2065084 0.46586943 0 46
-2.6841881 2.2089133 0.49896684 0 47
-2.6858141 2.2102516 0.53196472 0 48
-2.6856573 2.2101226 0.5647195 0 49
-2.6881132 2.2121434 0.59814984 0 50
-2.6903546 2.2139881 0.63169426 0 51
-2.6868591 2.2111115 0.66398656 0 52
-2.6704183 2.1975815 0.69294971 0 53
-2.6822124 2.2072873 0.72930461 0 54
-2.6794953 2.2050514 0.76195532 0 55
-2.6816769 2.2068467 0.79612756 0 56
-2.6882384 2.2122467 0.83185166 0 57
-2.6795897 2.2051294 0.86299115 0 58
-2.6822617 2.2073281 0.89785641 0 59
-2.6763995 2.2025039 0.92998612 0 60
-2.6898091 2.2135391 0.96907806 0 61
-2.6740155 2.200542 0.99779391 0 62
-2.6924143 2.215683 1.0394859 0 63
-1.924733 1.5446332 -0.73571134 0 0
-1.9952669 1.6012378 -0.73711985 0 1
-2.0772026 1.6669927 -0.74092865 0 2
-2.1367903 1.7148129 -0.73510206 0 3
-2.2280695 1.788066 -0.73840505 0 4
-2.3017318 1.8471814 -0.73392719 0 5
-2.3907714 1.9186373 -0.73244727 0 6
-2.5030763 2.008764 -0.73571652 0 7
-2.6120367 2.0962067 -0.73538709 0 8
-2.7244458 2.1864171 -0.73342246 0 9
-2.7494624 2.2064934 -0.70636702 0 10
-2.7273128 2.1887178 -0.66728222 0 11
-2.7434757 2.2016888 -0.63776213 0 12
-2.7366035 2.1961737 -0.60288507 0 13
-2.7348707 2.1947832 -0.56934977 0 14
-2.7416937 2.200259 -0.53763318 0 15
-2.7408907 2.1996143 -0.50444132 0 16
-2.7419076 2.2004304 -0.47166905 0 17
-2.7407603 2.1995096 -0.43860725 0 18
-2.7434564 2.2016733 -0.40621737 0 19
-2.7435584 2.201755 -0.37347957 0 20
-2.7319555 2.1924436 -0.33934936 0 21
-2.7485528 2.2057633 -0.30872083 0 22
-2.7400138 2.1989107 -0.27522555 0 23
-2.7444882 2.2025015 -0.24313264 0 24
-2.7335072 2.1936889 -0.20978884 0 25
-2.7434449 2.2016642 -0.17809863 0 26
-2.7395532 2.1985409 -0.14546929 0 27
-2.7351208 2.1949837 -0.11293422 0 28
-2.7427666 2.2011199 -0.080879122 0 29
-2.7298822 2.1907799 -0.04829406 0 30
-2.7528799 2.2092359 -0.01623272 0 31
-2.7446711 2.2026482 0.016184317 0 32
-2.7353151 2.1951399 0.048390172 0 33
-2.7435012 2.2017093 0.080900773 0 34
-2.7348082 2.1947331 0.11292133 0 35
-2.7497015 2.2066851 0.14600816 0 36
-2.7347579 2.1946926 0.1775347 0 37
-2.7246797 2.1866047 0.20911136 0 38
-2.7332571 2.1934881 0.24213767 0 39
-2.7358129 2.1955395 0.27480358 0 40
-2.7491395 2.2062342 0.30878672 0 41
-2.7504141 2.207257 0.34164217 0 42
-2.742152 2.2006266 0.37328815 0 43
-2.7398009 2.1987398 0.40567613 0 44
-2.7229192 2.1851919 0.43575212 0 45
-2.7449408 2.2028646 0.47219083 0 46
-2.7472713 2.2047348 0.50561565 0 47
-2.7395289 2.1985216 0.53720862 0 48
-2.7337928 2.1939182 0.56912541 0 49
-2.736979 2.1964753 0.6029678 0 50
-2.7381332 2.1974015 0.63652021 0 51
-2.7398779 2.1988015 0.67035645 0 52
-2.7356803 2.1954329 0.70282626 0 53
-2.7289829 2.190058 0.73464382 0 54
-2.7397876 2.1987293 0.77135378 0 55
-2.7419035 2.2004273 0.80591381 0 56
-2.7435865 2.2017777 0.84053725 0 57
-2.7247543 2.1866646 0.86881155 0 58
-2.7359333 2.195636 0.90671635 0 59
-2.7426243 2.2010057 0.9435221 0 60
-2.7378249 2.197154 0.97656959 0 61
-2.7393482 2.1983764 1.0120089 0 62
-2.7456317 2.203419 1.0494922 0 63
-1.9484124 1.5246323 -0.73754072 0 0
-2.0044012 1.5684434 -0.73331392 0 1
-2.0731575 1.6222454 -0.73231512 0 2
-2.1465726 1.6796925 -0.73130655 0 3
-2.2461874 1.7576412 -0.73719108 0 4
-2.297035 1.7974294 -0.72532731 0 5
-2.4338033 1.9044507 -0.73840046 0 6
-2.5213156 1.9729289 -0.73389137 0 7
-2.638459 2.0645936 -0.73562282 0 8
-2.7613041 2.1607201 -0.73613667 0 9
-2.796993 2.1886466 -0.71161026 0 10
-2.7914114 2.1842787 -0.67634237 0 11
-2.7875848 2.1812847 -0.64173228 0 12
-2.8017817 2.1923935 -0.61125875 0 13
-2.8025579 2.193001 -0.57778347 0 14
-2.7975621 2.1890917 -0.54326904 0 15
-2.7944286 2.1866398 -0.50930756 0 16
-2.8001852 2.1911445 -0.47702318 0 17
-2.7987227 2.1899998 -0.44353998 0 18
-2.7980037 2.1894374 -0.41027674 0 19
-2.7966213 2.1883554 -0.37701139 0 20
-2.7925198 2.1851461 -0.34350878 0 21
-2.7986324 2.1899292 -0.31129766 0 22
-2.7955389 2.1875086 -0.27807996 0 23
-2.7966874 2.1884074 -0.24535447 0 24
-2.8003657 2.1912856 -0.212836 0 25
-2.7969275 2.1885951 -0.17980994 0 26
-2.7934368 2.1858635 -0.14689215 0 27
-2.7981579 2.189558 -0.11441671 0 28
-2.7959833 2.1878564 -0.081648886 0 29
-2.7972612 2.1888564 -0.049006194 0 30
-2.8011911 2.1919315 -0.016357426 0 31
-2.8029752 2.1933274 0.016367843 0 32
-2.7995634 2.1906579 0.049046528 0 33
-2.8103089 2.1990662 0.082067229 0 34
-2.8042455 2.1943214 0.11466563 0 35
-2.7987485 2.1900201 0.14717147 0 36
-2.7930517 2.1855624 0.1795608 0 37
-2.789005 2.1823959 0.21197256 0 38
-2.8056715 2.1954374 0.24614264 0 39
-2.7974415 2.1889973 0.2782692 0 40
-2.7974429 2.1889985 0.31116533 0 41
-2.7785742 2.1742337 0.34179333 0 42
-2.7956114 2.1875653 0.37687525 0 43
-2.79425 2.1865001 0.40972635 0 44
-2.7991869 2.1903632 0.44361356 0 45
-2.7942185 2.1864755 0.47600675 0 46
-2.7887774 2.1822176 0.50827754 0 47
-2.7895796 2.1828454 0.5417189 0 48
-2.7935433 2.1859472 0.57592505 0 49
-2.7957175 2.1876483 0.6099357 0 50
-2.8015299 2.1921966 0.64494258 0 51
-2.798218 2.189605 0.67799157 0 52
-2.802974 2.1933267 0.7131319 0 53
-2.7917712 2.1845603 0.74425882 0 54
-2.7933929 2.1858294 0.77881962 0 55
-2.7928605 2.1854126 0.81293124 0 56
-2.795969 2.187845 0.84827918 0 57
-2.7863464 2.1803155 0.87983561 0 58
-2.7991731 2.1903524 0.91867912 0 59
-2.8062475 2.195888 0.95604837 0 60
-2.7935338 2.1859396 0.98677838 0 61
-2.8083508 2.1975341 1.0274404 0 62
-2.7912016 2.1841147 1.0565652 0 63
-1.967012 1.5005608 -0.73754096 0 0
-2.0307245 1.5491648 -0.73591954 0 1
-2.1097245 1.6094309 -0.73818541 0 2
-2.1759181 1.6599275 -0.73429483 0 3
-2.2424903 1.710713 -0.72901869 0 4
-2.3553119 1.7967803 -0.7366969 0 5
-2.4446852 1.8649601 -0.73468882 0 6
-2.5477095 1.9435536 -0.7345621 0 7
-2.6579278 2.0276349 -0.73404396 0 8
-2.772018 2.11467 -0.73200536 0 9
-2.8432944 2.1690443 -0.71655023 0 10
-2.8424954 2.1684349 -0.68220758 0 11
-2.8617878 2.1831522 -0.65258521 0 12
-2.8505414 2.1745727 -0.61601627 0 13
-2.8639977 2.1848381 -0.58486718 0 14
-2.8410211 2.16731 -0.54649192 0 15
-2.8419867 2.1680467 -0.51307774 0 16
-2.8440855 2.1696477 -0.4799206 0 17
-2.8463385 2.1713665 -0.44682091 0 18
-2.8427715 2.1686454 -0.41289973 0 19
-2.8559544 2.1787021 -0.38136968 0 20
-2.8561199 2.1788282 -0.34801024 0 21
-2.8437114 2.1693623 -0.31332102 0 22
-2.8395226 2.166167 -0.27978441 0 23
-2.8417561 2.1678708 -0.24695106 0 24
-2.8467028 2.1716444 -0.21431202 0 25
-2.8534033 2.1767559 -0.18170619 0 26
-2.8523893 2.1759825 -0.14857392 0 27
-2.8549228 2.1779151 -0.11563402 0 28
-2.8562522 2.1789293 -0.082620203 0 29
-2.8538573 2.1771023 -0.04952497 0 30
-2.8587191 2.1808112 -0.016535515 0 31
-2.8526354 2.1761703 0.016500326 0 32
-2.8503265 2.1744089 0.049463701 0 33
-2.8589866 2.1810153 0.082699306 0 34
-2.8648443 2.1854839 0.11603588 0 35
-2.8491876 2.1735401 0.14840715 0 36
-2.8569958 2.1794965 0.18193495 0 37
-2.8533878 2.176744 0.21481527 0 38
-2.8602839 2.1820049 0.24856113 0 39
-2.860306 2.1820219 0.28183225 0 40
-2.8521442 2.1757956 0.31425014 0 41
-2.8502564 2.1743553 0.34729582 0 42
-2.8541815 2.1773496 0.3811329 0 43
-2.8488421 2.1732764 0.41378143 0 44
-2.8511176 2.1750124 0.44757116 0 45
-2.8619096 2.1832452 0.48292831 0 46
-2.8480811 2.1726959 0.51417798 0 47
-2.8566792 2.179255 0.54950386 0 48
-2.8609664 2.1825256 0.58424813 0 49
-2.8489313 2.1733444 0.6156683 0 50
-2.8498766 2.1740656 0.64986908 0 51
-2.8502417 2.1743441 0.68406671 0 52
-2.8499014 2.1740844 0.71821529 0 53
-2.8598251 2.1816549 0.75519258 0 54
-2.8522127 2.1758475 0.78769988 0 55
-2.8515475 2.1753402 0.82216543 0 56
-2.853349 2.1767144 0.85750246 0 57
-2.8474495 2.172214 0.89062822 0 58
-2.8556774 2.1784906 0.92836177 0 59
-2.8497868 2.1739972 0.96170151 0 60
-2.8594749 2.1813877 1.0005205 0 61
-2.8535838 2.1768937 1.0341176 0 62
-2.8482907 2.1728559 1.0679808 0 63
-1.9814317 1.4733754 -0.73609889 0 0
-2.0358577 1.5138462 -0.73097855 0 1
-2.1197627 1.5762372 -0.73486048 0 2
-2.1846976 1.6245222 -0.73046124 0 3
-2.2887554 1.7018987 -0.73720014 0 4
-2.3662724 1.7595396 -0.73330235 0 5
-2.4676356 1.8349124 -0.73474973 0 6
-2.5752544 1.9149369 -0.73565924 0 7
-2.7050667 2.0114641 -0.74017566 0 8
-2.8191381 2.0962865 -0.73758566 0 9
-2.9152834 2.1677794 -0.72791976 0 10
-2.9104049 2.1641517 -0.69206691 0 11
-2.9136579 2.1665707 -0.65828854 0 12
-2.9061763 2.1610076 -0.62224972 0 13
-2.9129732 2.1660616 -0.58938485 0 14
-2.9126451 2.1658175 -0.55510449 0 15
-2.9075396 2.1620212 -0.52007347 0 16
-2.9215775 2.1724596 -0.48845223 0 17
-2.9071219 2.1617105 -0.45215577 0 18
-2.9053833 2.1604178 -0.41810369 0 19
-2.9050181 2.1601462 -0.38434535 0 20
-2.9112535 2.1647828 -0.35145807 0 21
-2.9209659 2.1720049 -0.31886616 0 22
-2.9055994 2.1605785 -0.28365588 0 23
-2.914134 2.1669247 -0.25090626 0 24
-2.9072559 2.1618102 -0.21685305 0 25
-2.9122968 2.1655586 -0.18374693 0 26
-2.9119384 2.1652923 -0.15027748 0 27
-2.9061613 2.1609962 -0.11662426 0 28
-2.9013107 2.1573894 -0.083149925 0 29
-2.9155364 2.1679676 -0.050128922 0 30
-2.914037 2.1668525 -0.016700104 0 31
-2.908082 2.1624246 0.016665976 0 32
-2.9211235 2.1721222 0.050224986 0 33
-2.9065797 2.1613076 0.083300941 0 34
-2.9087329 2.1629086 0.11672746 0 35
-2.9048209 2.1599996 0.14991015 0 36
-2.9119956 2.1653347 0.18372792 0 37
-2.9070072 2.1616254 0.2168345 0 38
-2.9075222 2.1620083 0.25033697 0 39
-2.9053686 2.1604068 0.28363335 0 40
-2.9176192 2.1695163 0.31850082 0 41
-2.9114316 2.1649151 0.35147956 0 42
-2.90992 2.1637912 0.38499388 0 43
-2.9149997 2.1675684 0.41948757 0 44
-2.9126282 2.1658051 0.45301223 0 45
-2.9112833 2.1648049 0.48673111 0 46
-2.9121568 2.1654544 0.5208993 0 47
-2.913487 2.1664436 0.55526495 0 48
-2.9160535 2.1683521 0.59000814 0 49
-2.9095232 2.1634963 0.62296629 0 50
-2.917402 2.1693549 0.65913445 0 51
-2.9085536 2.162775 0.69162667 0 52
-2.9127038 2.1658611 0.72727567 0 53
-2.9248564 2.1748979 0.76524532 0 54
-2.9074068 2.1619225 0.79554105 0 55
-2.9121788 2.1654708 0.83190662 0 56
-2.9061785 2.1610091 0.86532784 0 57
-2.8997126 2.1562011 0.89861423 0 58
-2.9297016 2.1785007 0.94364667 0 59
-2.9200969 2.1713586 0.97634453 0 60
-2.9128151 2.1659441 1.0097888 0 61
-2.9099624 2.1638227 1.0448275 0 62
-2.915524 2.1679583 1.0831127 0 63
-1.9962927 1.446651 -0.73495567 0 0
-2.0602677 1.4930117 -0.73309582 0 1
-2.1449704 1.5543931 -0.73691738 0 2
-2.2185028 1.6076797 -0.73509878 0 3
-2.3028803 1.6688255 -0.73508453 0 4
-2.3980401 1.7377849 -0.73646933 0 5
-2.4928713 1.8065062 -0.73559397 0 6
-2.6106999 1.8918928 -0.73908323 0 7
-2.7142642 1.9669425 -0.73601866 0 8
-2.8376305 2.0563424 -0.7357527 0 9
-2.9610734 2.1457975 -0.73270947 0 10
-2.9738855 2.155082 -0.70080763 0 11
-2.9688981 2.1514678 -0.66474164 0 12
-2.9816635 2.1607184 -0.63267583 0 13
-2.9836445 2.162154 -0.59825927 0 14
-2.9816144 2.1606829 -0.56314284 0 15
-2.9627452 2.1470091 -0.52518612 0 16
-2.9775252 2.1577196 -0.4933328 0 17
-2.9716249 2.1534438 -0.45803505 0 18
-2.9733748 2.154712 -0.42404321 0 19
-2.9643943 2.1482041 -0.38867682 0 20
-2.9760749 2.1566687 -0.35605514 0 21
-2.9687378 2.1513517 -0.32116902 0 22
-2.9715636 2.1533995 -0.28748885 0 23
-2.9642906 2.148129 -0.25293136 0 24
-2.9665093 2.1497369 -0.21928449 0 25
-2.9796598 2.1592665 -0.18630779 0 26
-2.9875627 2.1649935 -0.15279481 0 27
-2.969867 2.1521699 -0.11810984 0 28
-2.9754934 2.1562471 -0.084509693 0 29
-2.9780703 2.1581147 -0.050744001 0 30
-2.9726186 2.1541638 -0.016882751 0 31
-2.9800608 2.1595571 0.016925018 0 32
-2.9753911 2.156173 0.050698351 0 33
-2.9701889 2.1524031 0.084359035 0 34
-2.980957 2.1602066 0.11855088 0 35
-2.9705813 2.1526875 0.15192632 0 36
-2.9769735 2.1573198 0.18613982 0 37
-2.9643106 2.1481433 0.21912195 0 38
-2.9691973 2.1516845 0.25334999 0 39
-2.9647343 2.1484506 0.28682813 0 40
-2.9691265 2.1516333 0.32121104 0 41
-2.9769218 2.1572824 0.35615644 0 42
-2.9664733 2.1497107 0.38894942 0 43
-2.9663587 2.1496274 0.42304257 0 44
-2.9820976 2.1610332 0.45964926 0 45
-2.9686151 2.1512628 0.49185655 0 46
-2.9733863 2.1547203 0.52707237 0 47
-2.9682229 2.1509783 0.56061351 0 48
-2.9739234 2.1551096 0.59631008 0 49
-2.9899056 2.1666913 0.63442475 0 50
-2.9749081 2.155823 0.66608733 0 51
-2.9786117 2.1585071 0.70192134 0 52
-2.9814959 2.1605971 0.73776293 0 53
-2.9697425 2.1520798 0.77000725 0 54
-2.9700451 2.1522992 0.80537796 0 55
-2.9752693 2.1560848 0.84229201 0 56
-2.9712625 2.1531813 0.87675714 0 57
-2.9712963 2.1532059 0.91252381 0 58
-2.9793484 2.1590409 0.95101464 0 59
-2.9663563 2.1496258 0.98289931 0 60
-2.9717677 2.1535473 1.0209686 0 61
-2.979912 2.1594493 1.0603288 0 62
-2.9742355 2.1553357 1.0949954 0 63
-2.0038617 1.4148877 -0.73128164 0 0
-2.0747592 1.4649471 -0.73178726 0 1
-2.1599593 1.5251052 -0.73556846 0 2
-2.2364435 1.5791093 -0.73455393 0 3
-2.3151309 1.6346688 -0.73252338 0 4
-2.3973966 1.6927551 -0.72982401 0 5
-2.5063605 1.7696924 -0.73309773 0 6
-2.6303344 1.857228 -0.73812073 0 7
-2.7175949 1.9188409 -0.73046839 0 8
-2.8542626 2.0153394 -0.73358423 0 9
-3.0089436 2.1245565 -0.73803455 0 10
-3.0322473 2.141011 -0.70830321 0 11
-3.0394068 2.146066 -0.67456913 0 12
-3.0318122 2.1407034 -0.63768315 0 13
-3.0352547 2.1431344 -0.6032781 0 14
-3.0366549 2.1441228 -0.56851578 0 15
-3.0240383 2.1352146 -0.53135681 0 16
-3.0395491 2.1461663 -0.49919903 0 17
-3.0375404 2.1447482 -0.46409494 0 18
-3.0396438 2.1462333 -0.42969781 0 19
-3.0373898 2.1446419 -0.39476007 0 20
-3.0245509 2.1355765 -0.35868591 0 21
-3.0333064 2.1417587 -0.32528058 0 22
-3.0278258 2.1378889 -0.29036677 0 23
-3.0428221 2.1484776 -0.25735849 0 24
-3.0219457 2.1337371 -0.22142613 0 25
-3.0357559 2.1434882 -0.18815303 0 26
-3.0315053 2.140487 -0.15368445 0 27
-3.0240839 2.1352468 -0.11921281 0 28
-3.03439 2.1425238 -0.085427754 0 29
-3.0274639 2.1376333 -0.051133886 0 30
-3.0424831 2.1482382 -0.01712822 0 31
-3.0322652 2.1410234 0.017070698 0 32
-3.0314822 2.1404707 0.051201753 0 33
-3.0368752 2.1442785 0.085497715 0 34
-3.0287724 2.1385572 0.11939764 0 35
-3.0418644 2.1478014 0.15420961 0 36
-3.029017 2.13873 0.18773535 0 37
-3.0303707 2.1396856 0.22204344 0 38
-3.0358737 2.1435714 0.25677076 0 39
-3.0416784 2.14767 0.29169521 0 40
-3.0358658 2.1435659 0.32555503 0 41
-3.0476255 2.1518691 0.36142236 0 42
-3.0329468 2.1415048 0.39418262 0 43
-3.0268986 2.1372342 0.42789608 0 44
-3.0357432 2.1434791 0.46382034 0 45
-3.0290403 2.1387465 0.49747315 0 46
-3.0273545 2.1375561 0.53193951 0 47
-3.0344169 2.1425428 0.56809682 0 48
-3.0413914 2.1474674 0.60449779 0 49
-3.0314443 2.1404438 0.63760579 0 50
-3.023973 2.1351686 0.67114377 0 51
-3.0311556 2.14024 0.70804816 0 52
-3.0267932 2.1371598 0.74241275 0 53
-3.0363789 2.1439281 0.78039056 0 54
-3.0431998 2.1487441 0.81798851 0 55
-3.0281711 2.1381326 0.84976107 0 56
-3.0415158 2.1475551 0.88962793 0 57
-3.0267603 2.1371367 0.92141718 0 58
-3.0438321 2.1491907 0.96308941 0 59
-3.0155196 2.1291997 0.99043941 0 60
-3.0360272 2.1436796 1.033911 0 61
-3.0186121 2.1313832 1.0646931 0 62
-3.025681 2.1363745 1.1041806 0 63
-2.033478 1.3986512 -0.73575783 0 0
-2.1048441 1.4477377 -0.7360639 0 1
-2.1848948 1.5027975 -0.73771143 0 2
-2.2574873 1.5527275 -0.73513901 0 3
-2.3354242 1.6063334 -0.73263919 0 4
-2.4348452 1.6747165 -0.7348997 0 5
-2.5350833 1.7436614 -0.73517203 0 6
-2.6438668 1.8184839 -0.73558766 0 7
-2.7625282 1.9001007 -0.73621029 0 8
-2.8642151 1.9700423 -0.7298609 0 9
-3.0288095 2.0832524 -0.73656833 0 10
-3.0906453 2.1257837 -0.71578431 0 11
-3.1021168 2.1336739 -0.68261248 0 12
-3.0941598 2.128201 -0.64524376 0 13
-3.0978675 2.1307514 -0.6104691 0 14
-3.0958686 2.1293764 -0.57465613 0 15
-3.0920789 2.1267698 -0.53867638 0 16
-3.1051977 2.135793 -0.5056293 0 17
-3.100316 2.1324356 -0.46964443 0 18
-3.0994589 2.131846 -0.43441495 0 19
-3.089874 2.1252534 -0.39815477 0 20
-3.0992687 2.1317151 -0.36441067 0 21
-3.0900438 2.12537 -0.32853746 0 22
-3.0831842 2.120652 -0.29315272 0 23
-3.1025457 2.1339691 -0.26017079 0 24
-3.0912836 2.1262228 -0.224574 0 25
-3.096396 2.1297393 -0.19027393 0 26
-3.107409 2.1373141 -0.15618829 0 27
-3.0909545 2.1259966 -0.12080924 0 28
-3.095315 2.1289957 -0.086399421 0 29
-3.1017761 2.1334395 -0.051942002 0 30
-3.1017733 2.1334379 -0.017313009 0 31
-3.0986829 2.1313121 0.017295759 0 32
-3.0973754 2.1304128 0.051868308 0 33
-3.0990503 2.1315649 0.086503685 0 34
-3.0983238 2.1310651 0.12109726 0 35
-3.0911734 2.126147 0.15537223 0 36
-3.098047 2.1308746 0.19037539 0 37
-3.0998609 2.1321225 0.22519712 0 38
-3.1040378 2.1349955 0.2602959 0 39
-3.0833137 2.1207409 0.29316503 0 40
-3.0907247 2.1258383 0.32860985 0 41
-3.1066563 2.1367962 0.36527929 0 42
-3.1038444 2.1348622 0.39995492 0 43
-3.0984292 2.1311376 0.43427065 0 44
-3.100177 2.1323397 0.46962336 0 45
-3.0968866 2.1300766 0.50427604 0 46
-3.090848 2.1259232 0.53846198 0 47
-3.0922132 2.1268623 0.57397759 0 48
-3.0959554 2.129436 0.61009222 0 49
-3.0924675 2.1270373 0.6448909 0 50
-3.088443 2.124269 0.67960358 0 51
-3.0924418 2.1270194 0.71620041 0 52
-3.1001008 2.1322873 0.75390548 0 53
-3.1059213 2.1362908 0.79145265 0 54
-3.0936046 2.1278193 0.82444173 0 55
-3.0921643 2.1268287 0.86031491 0 56
-3.0953381 2.1290116 0.89764547 0 57
-3.0904331 2.125638 0.93277317 0 58
-3.0993423 2.1317658 0.97228575 0 59
-3.1022243 2.1337481 1.0102233 0 60
-3.0947633 2.1286161 1.0449208 0 61
-3.0929673 2.1273808 1.0816104 0 62
-3.0922148 2.1268635 1.1188325 0 63
-2.0601091 1.3799649 -0.73919797 0 0
-2.1219401 1.4213825 -0.73587465 0 1
-2.2032924 1.4758763 -0.73773986 0 2
-2.2672212 1.518699 -0.73217219 0 3
-2.358377 1.5797598 -0.73369026 0 4
-2.4439528 1.6370828 -0.73151737 0 5
-2.5575981 1.7132082 -0.73553646 0 6
-2.6660061 1.7858254 -0.73558211 0 7
-2.7745001 1.8585001 -0.73325509 0 8
-2.9097633 1.9491062 -0.73530459 0 9
-3.0383425 2.0352349 -0.73274517 0 10
-3.1649408 2.1200371 -0.72689855 0 11
-3.1553137 2.1135883 -0.68854731 0 12
-3.1653676 2.1203229 -0.65460664 0 13
-3.1665354 2.1211052 -0.61881429 0 14
-3.1533244 2.1122558 -0.58045608 0 15
-3.1651604 2.1201842 -0.54682493 0 16
-3.160207 2.1168661 -0.51030952 0 17
-3.1565502 2.1144166 -0.47418854 0 18
-3.1650338 2.1200993 -0.4399187 0 19
-3.162504 2.1184046 -0.40412652 0 20
-3.1631799 2.1188574 -0.36883399 0 21
-3.1549647 2.1133544 -0.33265185 0 22
-3.1469805 2.1080062 -0.2967315 0 23
-3.1636415 2.1191666 -0.26308903 0 24
-3.1458273 2.1072338 -0.22663693 0 25
-3.1660895 2.1208065 -0.1929395 0 26
-3.1521482 2.1114678 -0.15712014 0 27
-3.168148 2.1221852 -0.12279711 0 28
-3.1619985 2.1180661 -0.087527156 0 29
-3.1634879 2.1190636 -0.052535102 0 30
-3.1541433 2.1128042 -0.017458988 0 31
-3.1733904 2.1256969 0.017565526 0 32
-3.162709 2.118542 0.052522168 0 33
-3.1559901 2.1140413 0.087360837 0 34
-3.1584754 2.1157062 0.1224222 0 35
-3.1577609 2.1152275 0.15739989 0 36
-3.1575308 2.1150734 0.19241793 0 37
-3.1573021 2.1149201 0.22746362 0 38
-3.1647613 2.1199167 0.26318216 0 39
-3.1666694 2.1211948 0.29858798 0 40
-3.1552637 2.1135547 0.33268335 0 41
-3.1633146 2.1189475 0.36884966 0 42
-3.1632433 2.1189001 0.404221 0 43
-3.1632185 2.1188834 0.43966636 0 44
-3.1544504 2.1130099 0.47387311 0 45
-3.1588058 2.1159275 0.51008326 0 46
-3.1703506 2.1236606 0.54772156 0 47
-3.162266 2.1182451 0.582102 0 48
-3.1634207 2.1190188 0.61820561 0 49
-3.16048 2.117049 0.65359586 0 50
-3.1562972 2.1142471 0.68876189 0 51
-3.1734245 2.1257198 0.72884697 0 52
-3.1608365 2.1172876 0.7622866 0 53
-3.161202 2.1175325 0.79884386 0 54
-3.1650105 2.1200838 0.83646059 0 55
-3.1616921 2.1178608 0.87234771 0 56
