# .PCD v0.7 - Point Cloud Data file format
VERSION 0.7
FIELDS x y z intensity ring
SIZE 4 4 4 4 2
TYPE F F F F U
COUNT 1 1 1 1 1
WIDTH 1262
HEIGHT 1
VIEWPOINT 0 0 0 1 0 0 0
POINTS 1262
DATA ascii
2.2485554 -0.94965416 -0.72765571 0 0
2.3154013 -0.97788578 -0.7241838 0 1
2.4007144 -1.013917 -0.72497565 0 2
2.5070462 -1.058825 -0.73018599 0 3
2.5848415 -1.0916811 -0.72524589 0 4
2.6850958 -1.1340225 -0.72484213 0 5
2.8078063 -1.185848 -0.72826743 0 6
2.9146552 -1.2309744 -0.72528553 0 7
2.943409 -1.2431184 -0.70157278 0 8
2.9565113 -1.248652 -0.67381549 0 9
2.9541118 -1.2476386 -0.64253229 0 10
2.9515076 -1.2465388 -0.61136967 0 11
2.9509213 -1.2462912 -0.58076531 0 12
2.9539232 -1.247559 -0.55094373 0 13
2.9642959 -1.2519398 -0.52245557 0 14
2.9520319 -1.2467601 -0.49008742 0 15
2.9533868 -1.2473325 -0.46017677 0 16
2.9641902 -1.2518951 -0.43169403 0 17
2.9536254 -1.2474332 -0.40017098 0 18
2.9531021 -1.2472122 -0.3701897 0 19
2.9492114 -1.245569 -0.33989438 0 20
2.9524112 -1.2469203 -0.31048146 0 21
2.9562674 -1.248549 -0.28111947 0 22
2.9407711 -1.2420043 -0.25008211 0 23
2.9471214 -1.2446862 -0.22103718 0 24
2.958003 -1.249282 -0.19219683 0 25
2.9541376 -1.2476494 -0.16236053 0 26
2.9450996 -1.2438325 -0.13239665 0 27
2.9670668 -1.2531099 -0.10371984 0 28
2.9563904 -1.248601 -0.073806524 0 29
2.9651194 -1.2522875 -0.044409655 0 30
2.9594183 -1.2498797 -0.014773923 0 31
2.9597166 -1.2500056 0.014775411 0 32
2.9538662 -1.2475349 0.044241112 0 33
2.9467843 -1.2445439 0.073566705 0 34
2.9655669 -1.2524766 0.10366741 0 35
2.9676366 -1.2533506 0.1334098 0 36
2.9579153 -1.249245 0.16256817 0 37
2.9494271 -1.2456601 0.1916396 0 38
2.9599693 -1.2501124 0.22200079 0 39
2.9565384 -1.2486634 0.25142294 0 40
2.9602849 -1.2502458 0.28150153 0 41
2.9577699 -1.2491835 0.31104499 0 42
2.966186 -1.252738 0.3418507 0 43
2.9430285 -1.2429576 0.36892688 0 44
2.9444568 -1.2435609 0.39892879 0 45
2.9619045 -1.2509297 0.43136114 0 46
2.9630699 -1.2514219 0.46168551 0 47
2.9523838 -1.2469088 0.49014583 0 48
2.9651027 -1.2522805 0.52259773 0 49
2.9408114 -1.2420213 0.54849821 0 50
2.9545906 -1.2478409 0.58148748 0 51
2.9520419 -1.2467644 0.61148036 0 52
2.9701662 -1.254419 0.64602423 0 53
2.9514263 -1.2465044 0.67265654 0 54
2.9537666 -1.2474928 0.7040416 0 55
2.9506338 -1.2461697 0.73423851 0 56
2.9507716 -1.246228 0.76534867 0 57
2.9607034 -1.2504225 0.7992425 0 58
2.9583731 -1.2494383 0.83005005 0 59
2.9642155 -1.2519058 0.86333817 0 60
2.9676244 -1.2533455 0.89617306 0 61
2.9566212 -1.2486984 0.92473698 0 62
2.9651303 -1.2522922 0.9595468 0 63
2.2526729 -0.91892099 -0.72527677 0 0
2.3364608 -0.9531002 -0.72705007 0 1
2.4226201 -0.98824662 -0.72786611 0 2
2.5084972 -1.0232781 -0.7268889 0 3
2.5999796 -1.060596 -0.72577924 0 4
2.7088056 -1.1049888 -0.72751969 0 5
2.7982349 -1.1414692 -0.72208971 0 6
2.9454665 -1.2015285 -0.72922099 0 7
2.9481461 -1.2026217 -0.69912428 0 8
2.9385736 -1.1987168 -0.66631758 0 9
2.9477174 -1.2024468 -0.63787729 0 10
2.9457684 -1.2016518 -0.60707432 0 11
2.934788 -1.1971726 -0.57464951 0 12
2.9557972 -1.2057427 -0.54848653 0 13
2.9366245 -1.1979218 -0.51494336 0 14
2.9447322 -1.2012291 -0.48638654 0 15
2.9588757 -1.2069986 -0.4586848 0 16
2.9489665 -1.2029563 -0.42729032 0 17
2.9399712 -1.1992869 -0.39629307 0 18
2.9457421 -1.2016411 -0.36738706 0 19
2.9544675 -1.2052003 -0.33876657 0 20
2.9397547 -1.1991986 -0.30757651 0 21
2.955054 -1.2054396 -0.27957344 0 22
2.9510283 -1.2037975 -0.2496767 0 23
2.9541066 -1.2050531 -0.22043304 0 24
2.9518359 -1.2041268 -0.19081964 0 25
2.9603121 -1.2075845 -0.16187154 0 26
2.9552784 -1.2055311 -0.13217784 0 27
2.9412668 -1.1998155 -0.10229447 0 28
2.9546971 -1.205294 -0.073388703 0 29
2.9572508 -1.2063357 -0.044066302 0 30
2.951683 -1.2040645 -0.014660286 0 31
2.9409263 -1.1996765 0.01460686 0 32
2.9379447 -1.1984602 0.043778621 0 33
2.9346282 -1.1971074 0.07289023 0 34
2.9368362 -1.1980081 0.10214038 0 35
2.9571567 -1.2062974 0.13226186 0 36
2.9448705 -1.2012855 0.16102719 0 37
2.9443467 -1.2010719 0.1903355 0 38
2.9456007 -1.2015834 0.21979836 0 39
2.9314427 -1.1958081 0.24801965 0 40
2.9548576 -1.2053595 0.27955484 0 41
2.9400582 -1.1993225 0.30760828 0 42
2.9373178 -1.1982045 0.33680016 0 43
2.9289906 -1.1948076 0.36529782 0 44
2.9543953 -1.2051709 0.39823738 0 45
2.9446921 -1.2012128 0.426671 0 46
2.9383171 -1.1986122 0.4554978 0 47
2.9533215 -1.2047329 0.48780525 0 48
2.9454496 -1.2015218 0.51649088 0 49
2.9458108 -1.2016691 0.54663342 0 50
2.9519601 -1.2041775 0.57801187 0 51
2.9475832 -1.2023921 0.60744834 0 52
2.9528141 -1.2045258 0.63898021 0 53
2.9329569 -1.1964257 0.66504401 0 54
2.954787 -1.2053307 0.70069909 0 55
2.9438033 -1.2008501 0.72880924 0 56
2.9369211 -1.1980428 0.75787789 0 57
2.9447212 -1.2012246 0.79088092 0 58
2.9493158 -1.2030989 0.82329577 0 59
2.9265597 -1.1938161 0.84803116 0 60
2.937145 -1.1981341 0.88245296 0 61
2.9496007 -1.203215 0.9178443 0 62
2.9510686 -1.2038138 0.95013416 0 63
2.2681479 -0.89286482 -0.72666937 0 0
2.3647923 -0.93090922 -0.73224872 0 1
2.4376493 -0.9595896 -0.72878134 0 2
2.5420616 -1.0006919 -0.73299378 0 3
2.6187465 -1.0308791 -0.72742444 0 4
2.7179523 -1.0699319 -0.72638786 0 5
2.8343837 -1.1157656 -0.72782248 0 6
2.9387534 -1.1568511 -0.72398251 0 7
2.9400494 -1.1573613 -0.69377691 0 8
2.9260871 -1.151865 -0.6602248 0 9
2.9273815 -1.1523745 -0.63036263 0 10
2.9304004 -1.1535629 -0.60093856 0 11
2.9141366 -1.1471606 -0.56780088 0 12
2.9388411 -1.1568855 -0.54265928 0 13
2.9298921 -1.1533629 -0.51123726 0 14
2.9404266 -1.1575097 -0.4832879 0 15
2.9320121 -1.1541973 -0.45228609 0 16
2.9206614 -1.1497291 -0.42110878 0 17
2.9348154 -1.1553009 -0.39365345 0 18
2.933852 -1.1549217 -0.36410543 0 19
2.9323683 -1.1543375 -0.3345798 0 20
2.9369206 -1.1561296 -0.30576947 0 21
2.9354887 -1.1555659 -0.27635717 0 22
2.9263897 -1.1519841 -0.24637501 0 23
2.9325593 -1.1544127 -0.21774951 0 24
2.9304662 -1.1535888 -0.18850698 0 25
2.9279468 -1.1525971 -0.15931478 0 26
2.9378052 -1.1564778 -0.13075042 0 27
2.9308596 -1.1537436 -0.10143144 0 28
2.9160376 -1.1479089 -0.072072431 0 29
2.9278162 -1.1525456 -0.043413229 0 30
2.9277518 -1.1525203 -0.014469943 0 31
2.9355516 -1.1555907 0.014508492 0 32
2.9554479 -1.1634229 0.043822952 0 33
2.9346225 -1.1552249 0.072531775 0 34
2.9465508 -1.1599206 0.10197449 0 35
2.9389648 -1.1569343 0.13080204 0 36
2.9549828 -1.1632398 0.16078585 0 37
2.9361906 -1.1558422 0.1888752 0 38
2.9422202 -1.1582158 0.21846686 0 39
2.9373953 -1.1563165 0.24730159 0 40
2.9441242 -1.1589653 0.27717015 0 41
2.9311497 -1.1538578 0.30516866 0 42
2.9254677 -1.1516211 0.33379245 0 43
2.9396279 -1.1571953 0.36482224 0 44
2.9317791 -1.1541057 0.39324617 0 45
2.9307585 -1.1537038 0.42256457 0 46
2.9351563 -1.1554351 0.4527711 0 47
2.9453216 -1.1594367 0.48409247 0 48
2.9301436 -1.1534618 0.51128113 0 49
2.9274879 -1.1524163 0.54056293 0 50
2.9416559 -1.1579937 0.57316279 0 51
2.9331522 -1.1546462 0.6015029 0 52
2.932229 -1.1542828 0.63140655 0 53
2.9392931 -1.1570636 0.66320449 0 54
2.9399619 -1.1573268 0.69375628 0 55
2.9453471 -1.1594467 0.72560686 0 56
2.9444311 -1.1590861 0.75608075 0 57
2.9344215 -1.1551459 0.78424048 0 58
2.9437261 -1.1588086 0.81769592 0 59
2.9409142 -1.1577016 0.84800142 0 60
2.9323261 -1.154321 0.87667435 0 61
2.9350519 -1.155394 0.90882742 0 62
2.9428394 -1.1584595 0.94282705 0 63
2.2787309 -0.86482424 -0.72659796 0 0
2.3665521 -0.89815414 -0.72931874 0 1
2.4331868 -0.92344338 -0.72399765 0 2
2.5358658 -0.96241206 -0.72773987 0 3
2.6329172 -0.99924499 -0.72789258 0 4
2.7360911 -1.0384017 -0.72776806 0 5
2.8507969 -1.0819348 -0.72856581 0 6
2.934444 -1.1136805 -0.71949279 0 7
2.9040589 -1.1021488 -0.68203449 0 8
2.9223206 -1.1090795 -0.65624815 0 9
2.9295912 -1.1118388 -0.62784702 0 10
2.9244902 -1.1099029 -0.59688264 0 11
2.9319544 -1.1127356 -0.56856352 0 12
2.9309661 -1.1123606 -0.53863883 0 13
2.9384689 -1.115208 -0.51030248 0 14
2.9244809 -1.1098994 -0.47838777 0 15
2.9272447 -1.1109482 -0.44940943 0 16
2.9384923 -1.1152169 -0.42167059 0 17
2.9237535 -1.1096232 -0.39030999 0 18
2.9093642 -1.1041623 -0.35935423 0 19
2.9135416 -1.1057476 -0.33085528 0 20
2.927274 -1.1109594 -0.30331996 0 21
2.9229507 -1.1093186 -0.27387193 0 22
2.9233806 -1.1094817 -0.24495456 0 23
2.9240336 -1.1097296 -0.21608689 0 24
2.9190481 -1.1078376 -0.18688208 0 25
2.9268441 -1.1107962 -0.15849958 0 26
2.9282727 -1.1113384 -0.12970816 0 27
2.9181619 -1.1075011 -0.10051309 0 28
2.924535 -1.1099199 -0.071939692 0 29
2.9233668 -1.1094766 -0.043141704 0 30
2.925283 -1.1102037 -0.014389182 0 31
2.9289916 -1.1116112 0.014407424 0 32
2.9195652 -1.1080337 0.043085601 0 33
2.9211097 -1.1086199 0.071855433 0 34
2.9382527 -1.115126 0.1012051 0 35
2.9372246 -1.1147358 0.13010468 0 36
2.9279928 -1.1112322 0.1585618 0 37
2.9199076 -1.1081636 0.18693709 0 38
2.9262495 -1.1105705 0.21625064 0 39
2.9290092 -1.1116179 0.24542619 0 40
2.928138 -1.1112872 0.27435794 0 41
2.9290149 -1.1116201 0.30350032 0 42
2.9292724 -1.1117178 0.33264163 0 43
2.9355352 -1.1140946 0.36258674 0 44
2.9281399 -1.1112881 0.39089561 0 45
2.9325051 -1.1129446 0.42081141 0 46
2.9153531 -1.1064352 0.44758373 0 47
2.9474618 -1.1186211 0.48214701 0 48
2.9294913 -1.1118008 0.50874335 0 49
2.9218605 -1.1089048 0.53696537 0 50
2.9236758 -1.1095937 0.56695819 0 51
2.9174285 -1.1072228 0.59544134 0 52
2.9300573 -1.1120156 0.62794691 0 53
2.939029 -1.1154207 0.66000026 0 54
2.9106076 -1.1046342 0.68357247 0 55
2.9308257 -1.1123073 0.71860564 0 56
2.9210415 -1.1085941 0.7465179 0 57
2.926125 -1.1105233 0.77831483 0 58
2.9315047 -1.112565 0.81043971 0 59
2.9203243 -1.1083218 0.83807141 0 60
2.9182885 -1.1075492 0.86834025 0 61
2.9205599 -1.1084113 0.90005165 0 62
2.9219878 -1.1089531 0.93170738 0 63
2.2998142 -0.84062314 -0.72996944 0 0
2.3790536 -0.86958659 -0.72982097 0 1
2.4709647 -0.90318179 -0.73187864 0 2
2.5405998 -0.92863464 -0.72576666 0 3
2.6458342 -0.96709967 -0.72812098 0 4
2.7409685 -1.0018729 -0.72573364 0 5
2.8622708 -1.0462111 -0.72815526 0 6
2.915787 -1.0657723 -0.71165127 0 7
2.9237213 -1.0686723 -0.68351442 0 8
2.9111841 -1.0640898 -0.65075976 0 9
2.9158571 -1.0657979 -0.62204796 0 10
2.9058373 -1.0621355 -0.59036535 0 11
2.9064317 -1.0623527 -0.56103855 0 12
2.9162433 -1.0659391 -0.53348398 0 13
2.9105597 -1.0638616 -0.50314581 0 14
2.9281869 -1.0703046 -0.47680506 0 15
2.9064593 -1.0623628 -0.44417918 0 16
2.9139807 -1.065112 -0.41624233 0 17
2.9168921 -1.0661762 -0.38761458 0 18
2.9255025 -1.0693234 -0.35969624 0 19
2.9235339 -1.0686039 -0.33047286 0 20
2.91855 -1.0667822 -0.301034 0 21
2.9170899 -1.0662484 -0.27207372 0 22
2.9188879 -1.0669057 -0.24346043 0 23
2.9275782 -1.0700821 -0.21536016 0 24
2.9280987 -1.0702723 -0.18660483 0 25
2.9121749 -1.0644519 -0.15698451 0 26
2.923003 -1.0684098 -0.12888306 0 27
2.9038289 -1.0614014 -0.099562339 0 28
2.9163303 -1.0659708 -0.07141003 0 29
2.919395 -1.067091 -0.042886209 0 30
2.9133749 -1.0648905 -0.014265119 0 31
2.9094093 -1.0634412 0.014245703 0 32
2.9319971 -1.0716974 0.043071333 0 33
2.9124854 -1.0645654 0.071315885 0 34
2.9302182 -1.0710471 0.10046714 0 35
2.9284039 -1.0703839 0.1291212 0 36
2.9058697 -1.0621473 0.15664463 0 37
2.9281144 -1.0702782 0.18660583 0 38
2.9085376 -1.0631225 0.2139595 0 39
2.9143083 -1.0652317 0.24307846 0 40
2.9214122 -1.0678283 0.27247685 0 41
2.9203069 -1.0674244 0.30121523 0 42
2.9156828 -1.0657341 0.32958537 0 43
2.9206479 -1.067549 0.35909936 0 44
2.9035602 -1.0613031 0.38584295 0 45
2.9183652 -1.0667146 0.4168686 0 46
2.9106963 -1.0639116 0.44482669 0 47
2.9182725 -1.0666808 0.4751907 0 48
2.9165699 -1.0660584 0.50418484 0 49
2.9203253 -1.0674311 0.53423071 0 50
2.9062219 -1.062276 0.56099808 0 51
2.9135168 -1.0649424 0.59192556 0 52
2.9290571 -1.0706227 0.62486392 0 53
2.9076216 -1.0627877 0.64996344 0 54
2.9104538 -1.0638229 0.68041271 0 55
2.9100618 -1.0636796 0.71025389 0 56
2.9090729 -1.0633181 0.74006164 0 57
2.9133663 -1.0648874 0.77137995 0 58
2.9192362 -1.0670331 0.80335993 0 59
2.9304175 -1.07112 0.83712488 0 60
2.9247618 -1.0690527 0.86628938 0 61
2.9174564 -1.0663824 0.89498645 0 62
2.913053 -1.064773 0.92461371 0 63
2.3024018 -0.80961871 -0.7275759 0 0
2.3821256 -0.8376528 -0.72754854 0 1
2.4724324 -0.86940837 -0.7290917 0 2
2.5643659 -0.90173596 -0.7293331 0 3
2.6438811 -0.9296968 -0.7243827 0 4
2.754688 -0.96866107 -0.72615761 0 5
2.8594353 -1.0054945 -0.72423387 0 6
2.890126 -1.0162866 -0.70228505 0 7
2.8848984 -1.0144483 -0.6714713 0 8
2.8891602 -1.015947 -0.64299542 0 9
2.9085736 -1.0227735 -0.61776447 0 10
2.9113185 -1.0237387 -0.5888769 0 11
2.9183724 -1.0262191 -0.56086528 0 12
2.9212074 -1.0272161 -0.53204119 0 13
2.8980258 -1.0190644 -0.49877521 0 14
2.9026737 -1.0206988 -0.4705714 0 15
2.9077241 -1.0224748 -0.44241759 0 16
2.9103851 -1.0234106 -0.41389984 0 17
2.9090233 -1.0229317 -0.38486832 0 18
2.9099846 -1.0232697 -0.35621428 0 19
2.9016514 -1.0203394 -0.32655635 0 20
2.9039867 -1.0211606 -0.29821417 0 21
2.9074256 -1.0223699 -0.26997942 0 22
2.8923795 -1.017079 -0.24018809 0 23
2.9024422 -1.0206174 -0.21257181 0 24
2.90504 -1.0215309 -0.18432087 0 25
2.8957348 -1.0182588 -0.15541157 0 26
2.8928297 -1.0172373 -0.12699151 0 27
2.9060624 -1.0218904 -0.099200584 0 28
2.914758 -1.0249481 -0.071057551 0 29
2.9034684 -1.0209783 -0.04246461 0 30
2.9029295 -1.0207888 -0.014151444 0 31
2.9018784 -1.0204191 0.01414632 0 32
2.8970714 -1.0187289 0.04237105 0 33
2.9019675 -1.0204505 0.070745744 0 34
2.9033587 -1.0209397 0.099108294 0 35
2.9218223 -1.0274323 0.12826425 0 36
2.8876514 -1.0154164 0.15497774 0 37
2.9053011 -1.0216227 0.18433744 0 38
2.9047737 -1.0214373 0.21274258 0 39
2.9066532 -1.0220982 0.2413734 0 40
2.9068832 -1.022179 0.26992905 0 41
2.8946114 -1.0178639 0.2972514 0 42
2.9153223 -1.0251466 0.32809487 0 43
2.8983951 -1.0191944 0.35479563 0 44
2.8904428 -1.016398 0.38241011 0 45
2.8956029 -1.0182124 0.41179758 0 46
2.9148979 -1.0249974 0.4435091 0 47
2.918649 -1.0263164 0.47316125 0 48
2.905196 -1.0215857 0.50000924 0 49
2.9121161 -1.0240192 0.53038538 0 50
2.9099784 -1.0232674 0.55925208 0 51
2.9067948 -1.0221479 0.58796185 0 52
2.9114866 -1.0237979 0.61838317 0 53
2.8952806 -1.0180992 0.64435756 0 54
2.9027324 -1.0207195 0.67562222 0 55
2.8918421 -1.0168899 0.70270205 0 56
2.8980842 -1.0190849 0.73402274 0 57
2.896383 -1.0184869 0.76350957 0 58
2.9043097 -1.0212741 0.79573613 0 59
2.9104691 -1.02344 0.82776862 0 60
2.8934302 -1.0174484 0.85323906 0 61
2.8955832 -1.0182055 0.88436872 0 62
2.9035301 -1.0209999 0.9175368 0 63
2.3164556 -0.78269202 -0.72892046 0 0
2.3879504 -0.80684888 -0.72624248 0 1
2.4803057 -0.83805424 -0.72831953 0 2
2.5733876 -0.86950511 -0.72880304 0 3
2.6551366 -0.89712673 -0.72438931 0 4
2.7694883 -0.93576425 -0.72697085 0 5
2.8828096 -0.97405374 -0.7270655 0 6
2.9081085 -0.9826017 -0.70366549 0 7
2.8816023 -0.97364575 -0.667867 0 8
2.8965423 -0.97869372 -0.64191151 0 9
2.8836644 -0.97434247 -0.60988307 0 10
2.8917298 -0.97706771 -0.5824405 0 11
2.8957553 -0.97842777 -0.55416453 0 12
2.8921573 -0.97721207 -0.52452207 0 13
2.8916488 -0.97704029 -0.49557245 0 14
2.8907099 -0.97672302 -0.46664953 0 15
2.8956788 -0.97840196 -0.43872115 0 16
2.8964596 -0.97866577 -0.41017696 0 17
2.8996184 -0.97973305 -0.38200128 0 18
2.9034772 -0.9810369 -0.35391429 0 19
2.9003885 -0.97999322 -0.32503346 0 20
2.8821995 -0.97384757 -0.29472482 0 21
2.8929334 -0.97747427 -0.26749733 0 22
2.8919644 -0.97714692 -0.23913777 0 23
2.8941839 -0.97789681 -0.21107034 0 24
2.897913 -0.97915679 -0.1830909 0 25
2.8976636 -0.97907257 -0.15485725 0 26
2.9024012 -0.98067337 -0.12687273 0 27
2.8764439 -0.97190279 -0.097774193 0 28
2.9032824 -0.9809711 -0.070478402 0 29
2.8984458 -0.97933686 -0.042211834 0 30
2.9076672 -0.98245263 -0.014114581 0 31
2.8932161 -0.97756988 0.014044431 0 32
2.892339 -0.97727352 0.042122897 0 33
2.9030571 -0.98089492 0.070472933 0 34
2.8999932 -0.97985971 0.098574661 0 35
2.8954215 -0.97831506 0.12656763 0 36
2.8837121 -0.97435862 0.15411165 0 37
2.9070485 -0.98224354 0.18366808 0 38
2.9076772 -0.98245603 0.2120544 0 39
2.907465 -0.98238432 0.24041952 0 40
2.9062765 -0.98198277 0.26873112 0 41
2.8921616 -0.97721362 0.2957435 0 42
2.9004333 -0.98000842 0.32503849 0 43
2.9058268 -0.98183078 0.35420069 0 44
2.8992312 -0.97960228 0.38195029 0 45
2.905628 -0.98176366 0.41147536 0 46
2.8979497 -0.97916925 0.43906519 0 47
2.8917482 -0.97707385 0.46681714 0 48
2.8950584 -0.97819233 0.49615681 0 49
2.892843 -0.97744375 0.52464646 0 50
2.8982911 -0.97928458 0.55464977 0 51
2.9080305 -0.98257542 0.5857237 0 52
2.8966861 -0.9787423 0.61263716 0 53
2.8905594 -0.97667223 0.6405856 0 54
2.9085696 -0.98275757 0.67411721 0 55
2.8976514 -0.97906846 0.70113522 0 56
2.8905067 -0.97665441 0.72900671 0 57
2.8905609 -0.97667271 0.75875157 0 58
2.9007604 -0.98011893 0.79140174 0 59
2.8914402 -0.97696978 0.81887794 0 60
2.9008121 -0.98013645 0.85179752 0 61
2.8945341 -0.97801518 0.88030875 0 62
2.9091976 -0.9829697 0.91543895 0 63
2.3305819 -0.75566751 -0.7303865 0 0
2.4056435 -0.78000546 -0.7286514 0 1
2.4902804 -0.80744809 -0.72827798 0 2
2.5739634 -0.83458149 -0.7260049 0 3
2.6616924 -0.86302674 -0.72322792 0 4
2.7830017 -0.90236002 -0.72755045 0 5
2.8843944 -0.93523556 -0.72450995 0 6
2.8810275 -0.9341439 -0.69428092 0 7
2.8828492 -0.93473452 -0.66544175 0 8
2.8762922 -0.93260854 -0.63483441 0 9
2.8740978 -0.93189704 -0.60539049 0 10
2.8930342 -0.93803698 -0.58033609 0 11
2.8843391 -0.93521768 -0.54973751 0 12
2.8823819 -0.93458301 -0.52062565 0 13
2.9005194 -0.9404639 -0.49507335 0 14
2.8733408 -0.93165159 -0.46196133 0 15
2.8900661 -0.9370746 -0.43609202 0 16
2.8884339 -0.93654537 -0.40737879 0 17
2.8862615 -0.93584096 -0.37869698 0 18
2.8849216 -0.93540651 -0.35022396 0 19
2.8748569 -0.93214315 -0.32086349 0 20
2.8983715 -0.93976748 -0.29517451 0 21
2.8958614 -0.93895364 -0.26668033 0 22
2.8882096 -0.93647259 -0.23785709 0 23
2.8827829 -0.93471307 -0.20938484 0 24
2.8894544 -0.93687624 -0.18181489 0 25
2.8759065 -0.93248343 -0.15307015 0 26
2.8873568 -0.93619609 -0.12570237 0 27
2.8849885 -0.9354282 -0.097666264 0 28
2.8853166 -0.9355346 -0.069757745 0 29
2.888962 -0.93671662 -0.041902799 0 30
2.879009 -0.93348938 -0.013918693 0 31
2.8909423 -0.93735868 0.013976386 0 32
2.8925006 -0.93786395 0.041954126 0 33
2.884232 -0.93518293 0.069731519 0 34
2.8913386 -0.93748719 0.097881235 0 35
2.885334 -0.9355402 0.1256143 0 36
2.8864856 -0.93591362 0.15363322 0 37
2.8750894 -0.93221855 0.18091099 0 38
2.8948491 -0.9386254 0.21026124 0 39
2.8834484 -0.93492889 0.23746499 0 40
2.871124 -0.93093282 0.26440227 0 41
2.8914235 -0.93751472 0.29446694 0 42
2.8805137 -0.93397725 0.32149485 0 43
2.8913851 -0.93750221 0.35100862 0 44
2.8843212 -0.9352119 0.37844241 0 45
2.8847146 -0.93533939 0.40685421 0 46
2.881608 -0.93433213 0.43481576 0 47
2.887645 -0.93628955 0.46426108 0 48
2.8930719 -0.9380492 0.49380222 0 49
2.8697467 -0.9304862 0.51834345 0 50
2.8926327 -0.93790674 0.55131817 0 51
2.8823051 -0.93455809 0.57818383 0 52
2.8922026 -0.93776733 0.60920399 0 53
2.8658404 -0.92921966 0.63252753 0 54
2.8939755 -0.93834221 0.66801006 0 55
2.884908 -0.9354021 0.69521606 0 56
2.8784285 -0.93330115 0.72301143 0 57
2.8991306 -0.94001365 0.75790966 0 58
2.8882017 -0.93647003 0.78477442 0 59
2.9001057 -0.94032985 0.81799567 0 60
2.8977077 -0.93955225 0.84742934 0 61
2.8825114 -0.93462503 0.8730911 0 62
2.8811817 -0.93419391 0.90294027 0 63
2.3279896 -0.72331709 -0.72673178 0 0
2.4095438 -0.74865633 -0.72698939 0 1
2.5058393 -0.77857578 -0.7299732 0 2
2.5886006 -0.80429012 -0.7272889 0 3
2.6861331 -0.83459395 -0.72702545 0 4
2.7918179 -0.86743063 -0.7270118 0 5
2.8850496 -0.89639813 -0.72185129 0 6
2.8788536 -0.89447302 -0.69105422 0 7
2.8709173 -0.89200717 -0.66010582 0 8
2.8701668 -0.891774 -0.63101447 0 9
2.8668683 -0.8907491 -0.60151505 0 10
2.8669996 -0.89078993 -0.572873 0 11
2.8679862 -0.89109647 -0.54449111 0 12
2.8810902 -0.89516789 -0.51836497 0 13
2.8627026 -0.88945478 -0.48671502 0 14
2.8711758 -0.89208752 -0.45981488 0 15
2.8808992 -0.89510858 -0.4330152 0 16
2.8637741 -0.88978773 -0.40232727 0 17
2.8657215 -0.89039284 -0.37453714 0 18
2.87397 -0.89295566 -0.34753522 0 19
2.8849108 -0.89635503 -0.32073119 0 20
2.8676407 -0.89098912 -0.29090708 0 21
2.8771963 -0.89395809 -0.26392922 0 22
2.8715978 -0.89221859 -0.2355677 0 23
2.8693955 -0.89153433 -0.20760052 0 24
2.8893669 -0.89773959 -0.18110108 0 25
2.8752258 -0.89334583 -0.15243773 0 26
2.8688891 -0.89137703 -0.12441178 0 27
2.8759639 -0.89357519 -0.096981451 0 28
2.8727984 -0.89259171 -0.069184512 0 29
2.8820949 -0.8954801 -0.041640334 0 30
2.8744638 -0.89310908 -0.01384258 0 31
2.8786356 -0.89440531 0.01386267 0 32
2.8916159 -0.89843833 0.041777894 0 33
2.8738921 -0.8929314 0.069210842 0 34
2.8810632 -0.89515954 0.097153403 0 35
2.8854716 -0.89652932 0.12513089 0 36
2.8732917 -0.89274496 0.15233518 0 37
2.8649547 -0.8901546 0.17957096 0 38
2.8845298 -0.89623666 0.20869549 0 39
2.8722701 -0.89242744 0.23562285 0 40
2.8793044 -0.89461309 0.26412258 0 41
2.865186 -0.89022642 0.29065806 0 42
2.87818 -0.89426374 0.31998292 0 43
2.8829868 -0.89575726 0.34862557 0 44
2.8706961 -0.89193845 0.37518728 0 45
2.8731127 -0.89268929 0.40363923 0 46
2.8774385 -0.89403337 0.43249509 0 47
2.8832886 -0.89585102 0.46175474 0 48
2.8707902 -0.89196765 0.48809007 0 49
2.8695107 -0.89157009 0.51628155 0 50
2.8748081 -0.89321607 0.54578626 0 51
2.8717253 -0.89225823 0.57381731 0 52
2.8739893 -0.89296174 0.60300922 0 53
2.8742812 -0.89305234 0.63191903 0 54
2.8726635 -0.89254975 0.66050726 0 55
2.8652759 -0.89025438 0.68779498 0 56
2.8758783 -0.89354861 0.71955663 0 57
2.8819575 -0.89543742 0.75048494 0 58
2.8696027 -0.89159876 0.77668309 0 59
2.8804054 -0.89495516 0.80927384 0 60
2.8778117 -0.8941493 0.838332 0 61
2.871305 -0.89212763 0.86630851 0 62
2.8799555 -0.89481544 0.89903975 0 63
2.3410587 -0.69593209 -0.7280851 0 0
2.4238749 -0.72055101 -0.72858495 0 1
2.5029957 -0.74407142 -0.72642452 0 2
2.6165032 -0.77781409 -0.73238575 0 3
2.7132926 -0.80658692 -0.73163658 0 4
2.8069835 -0.83443862 -0.72823405 0 5
2.8639281 -0.8513667 -0.71389329 0 6
2.8680563 -0.8525939 -0.68589395 0 7
2.8602941 -0.85028642 -0.65520966 0 8
2.8470323 -0.84634399 -0.62359309 0 9
2.8584864 -0.84974903 -0.59751892 0 10
2.8636143 -0.85127342 -0.57006186 0 11
2.8623374 -0.8508938 -0.54139137 0 12
2.8770859 -0.85527813 -0.51571333 0 13
2.8666539 -0.85217696 -0.48556852 0 14
2.8745286 -0.854518 -0.45863441 0 15
2.8893125 -0.85891277 -0.43265963 0 16
2.8622377 -0.85086423 -0.40061128 0 17
2.864068 -0.85140824 -0.37292454 0 18
2.8711483 -0.85351306 -0.34589872 0 19
2.8584263 -0.84973121 -0.31660122 0 20
2.8728774 -0.85402709 -0.29035103 0 21
2.8641012 -0.85141814 -0.26174781 0 22
2.8622153 -0.8508575 -0.23392205 0 23
2.8643649 -0.85149652 -0.20646343 0 24
2.8628507 -0.85104644 -0.17876965 0 25
2.8628118 -0.85103482 -0.15121332 0 26
2.8665509 -0.85214633 -0.12384661 0 27
2.877738 -0.85547197 -0.09667924 0 28
2.8645835 -0.85156155 -0.068729304 0 29
2.8699355 -0.85315251 -0.041309964 0 30
2.8679404 -0.85255945 -0.01375964 0 31
2.8658965 -0.85195178 0.013749832 0 32
2.8585427 -0.84976572 0.041145973 0 33
2.8753576 -0.85476434 0.068987802 0 34
2.8683312 -0.85267562 0.096363217 0 35
2.8563623 -0.84911764 0.12340643 0 36
2.8747039 -0.85457003 0.15184146 0 37
2.8687396 -0.85279697 0.17913736 0 38
2.8639772 -0.85138124 0.20643547 0 39
2.8687017 -0.85278577 0.23445219 0 40
2.883271 -0.85711676 0.26349971 0 41
2.870389 -0.85328734 0.29009956 0 42
2.8665063 -0.85213315 0.31749615 0 43
2.8644946 -0.85153514 0.34509712 0 44
2.8659644 -0.85197204 0.37317148 0 45
2.861774 -0.85072637 0.40054637 0 46
2.8750615 -0.85467637 0.4305256 0 47
2.8702166 -0.85323614 0.45794642 0 48
2.8658328 -0.85193294 0.48542947 0 49
2.8633034 -0.85118103 0.51324284 0 50
2.8701699 -0.85322219 0.54287285 0 51
2.8553777 -0.84882492 0.5684222 0 52
2.8767376 -0.8551746 0.60133404 0 53
2.8634994 -0.8512392 0.62719995 0 54
2.862644 -0.85098493 0.65574795 0 55
2.8651385 -0.85172653 0.68519616 0 56
2.8650942 -0.8517133 0.71418399 0 57
2.8611987 -0.8505553 0.74229944 0 58
2.8650913 -0.85171247 0.772569 0 59
2.8680387 -0.85258865 0.80279309 0 60
2.8667002 -0.85219073 0.83197957 0 61
2.8622873 -0.85087895 0.86036599 0 62
2.8740947 -0.85438895 0.89386296 0 63
2.3618193 -0.67061025 -0.73192185 0 0
2.4272382 -0.68918514 -0.72699362 0 1
2.5119572 -0.71324009 -0.72642511 0 2
2.6020377 -0.73881733 -0.72573888 0 3
2.7183301 -0.77183717 -0.73038059 0 4
2.8182425 -0.80020607 -0.72854716 0 5
2.8665411 -0.8139199 -0.71199602 0 6
2.8569314 -0.81119132 -0.6807965 0 7
2.8611765 -0.81239671 -0.65307409 0 8
2.8568311 -0.81116289 -0.6235075 0 9
2.8642771 -0.81327707 -0.59659386 0 10
2.8518066 -0.80973625 -0.56568646 0 11
2.8617001 -0.81254536 -0.5393402 0 12
2.8639627 -0.81318784 -0.51152998 0 13
2.8625081 -0.81277478 -0.48313686 0 14
2.8640049 -0.81319976 -0.45532545 0 15
2.8527129 -0.80999357 -0.42565536 0 16
2.8561893 -0.81098068 -0.39833882 0 17
2.8590868 -0.81180334 -0.37094811 0 18
2.8625827 -0.812796 -0.34363672 0 19
2.8584812 -0.81163144 -0.31547803 0 20
2.8540857 -0.81038338 -0.28742301 0 21
2.8522384 -0.80985886 -0.25973395 0 22
2.8601096 -0.81209373 -0.23291622 0 23
2.8488762 -0.80890417 -0.20461456 0 24
2.874871 -0.81628507 -0.17887993 0 25
2.8635416 -0.81306827 -0.15071239 0 26
2.8539512 -0.81034517 -0.12286247 0 27
2.8583763 -0.81160158 -0.095686257 0 28
2.8483431 -0.80875283 -0.0680959 0 29
2.856009 -0.81092948 -0.040962879 0 30
2.8510885 -0.80953234 -0.013629999 0 31
2.8603253 -0.81215501 0.013674158 0 32
2.8568988 -0.81118214 0.040975641 0 33
2.8458455 -0.80804366 0.068036184 0 34
2.8589571 -0.81176651 0.095705703 0 35
2.8636346 -0.81309462 0.12327933 0 36
2.8621352 -0.81266892 0.15063837 0 37
2.8588789 -0.81174433 0.17788488 0 38
2.8604646 -0.81219453 0.20544687 0 39
2.8572972 -0.81129521 0.23268721 0 40
2.8557208 -0.81084758 0.26005107 0 41
2.8537309 -0.81028259 0.28738725 0 42
2.8503923 -0.8093347 0.3145853 0 43
2.8697236 -0.81482351 0.34449396 0 44
2.8647439 -0.81340963 0.37168211 0 45
2.8565941 -0.81109554 0.39839527 0 46
2.8662691 -0.81384271 0.42767808 0 47
2.8607917 -0.81228745 0.45481461 0 48
2.8588848 -0.811746 0.48252535 0 49
2.8527067 -0.80999184 0.50951958 0 50
2.8588331 -0.81173134 0.53879994 0 51
2.8634391 -0.81303912 0.56799382 0 52
2.8737202 -0.81595832 0.59856069 0 53
2.8573365 -0.81130636 0.62361777 0 54
2.8607774 -0.81228334 0.65298295 0 55
2.8551424 -0.81068337 0.68037015 0 56
2.8663559 -0.81386733 0.71195 0 57
2.874907 -0.81629533 0.74319559 0 58
2.8622038 -0.81268841 0.7690376 0 59
2.8467805 -0.80830914 0.79400057 0 60
2.8600805 -0.81208551 0.82709777 0 61
2.8586135 -0.81166899 0.85619694 0 62
2.8593764 -0.8118856 0.88611352 0 63
2.3443007 -0.63459378 -0.72402 0 0
2.4503992 -0.66331422 -0.73143244 0 1
2.5473413 -0.68955612 -0.73415017 0 2
2.6414359 -0.71502721 -0.73421979 0 3
2.7429299 -0.74250132 -0.73448157 0 4
2.8310452 -0.76635373 -0.72936559 0 5
2.8511705 -0.77180159 -0.70576763 0 6
2.8458791 -0.77036917 -0.67585433 0 7
2.8568425 -0.77333701 -0.64986521 0 8
2.840528 -0.76892072 -0.61783904 0 9
2.8514769 -0.7718845 -0.59190601 0 10
2.8528903 -0.77226716 -0.5639751 0 11
2.8465209 -0.77054298 -0.53465331 0 12
2.8588939 -0.77389222 -0.50888646 0 13
2.8481584 -0.7709862 -0.47907859 0 14
2.8576293 -0.77354991 -0.45276538 0 15
2.8466892 -0.77058852 -0.4233107 0 16
2.8520644 -0.77204353 -0.39640957 0 17
2.8587246 -0.77384651 -0.36963862 0 18
2.8474014 -0.77078128 -0.34065077 0 19
2.8609917 -0.77446014 -0.31468028 0 20
2.8535614 -0.77244878 -0.286392 0 21
2.8473105 -0.77075672 -0.25840262 0 22
2.8571212 -0.77341241 -0.23188086 0 23
2.8406644 -0.76895761 -0.20333028 0 24
2.8517871 -0.77196848 -0.1768396 0 25
2.8434954 -0.76972395 -0.1491479 0 26
2.8565385 -0.77325469 -0.12255526 0 27
2.8364346 -0.76781261 -0.094628528 0 28
2.873023 -0.77771699 -0.06845212 0 29
2.8526988 -0.77221531 -0.040776126 0 30
2.8554544 -0.77296126 -0.013604404 0 31
2.8541143 -0.77259845 0.013598019 0 32
2.8519671 -0.77201718 0.040765665 0 33
2.8540068 -0.77256936 0.067999043 0 34
2.8521519 -0.77206725 0.095152885 0 35
2.8444304 -0.76997709 0.12203577 0 36
2.8454213 -0.77024525 0.14924891 0 37
2.8490791 -0.77123547 0.17667168 0 38
2.8563294 -0.77319813 0.20445156 0 39
2.8517151 -0.77194905 0.23144211 0 40
2.8403683 -0.76887745 0.25777259 0 41
2.8509314 -0.77173686 0.28612804 0 42
2.8483908 -0.77104914 0.31329429 0 43
2.8481479 -0.7709834 0.34074011 0 44
2.8494191 -0.7713275 0.36843538 0 45
2.8547497 -0.77277046 0.39678282 0 46
2.8339372 -0.76713657 0.42141443 0 47
2.8676758 -0.7762695 0.45435715 0 48
2.852154 -0.77206784 0.47975069 0 49
2.8454058 -0.77024108 0.50648558 0 50
2.8437977 -0.76980579 0.53414178 0 51
2.8294761 -0.76592898 0.55934644 0 52
2.8572428 -0.77344537 0.59310293 0 53
2.8537724 -0.77250594 0.62071985 0 54
2.8584745 -0.77377874 0.65023643 0 55
2.8400497 -0.76879126 0.67446995 0 56
2.8596833 -0.77410597 0.70787489 0 57
2.8628275 -0.77495712 0.73755378 0 58
2.8435075 -0.76972729 0.76141351 0 59
2.8484941 -0.7710771 0.79177415 0 60
2.846921 -0.77065128 0.82048982 0 61
2.8611956 -0.77451533 0.8540532 0 62
2.8467884 -0.77061534 0.87920952 0 63
2.3702362 -0.61043698 -0.72965652 0 0
2.4420295 -0.62892681 -0.72657079 0 1
2.5470026 -0.65596181 -0.73167259 0 2
2.6276777 -0.6767391 -0.72802734 0 3
2.7207642 -0.70071286 -0.72618407 0 4
2.8262084 -0.72786927 -0.72575879 0 5
2.8408523 -0.7316407 -0.70093358 0 6
2.8518665 -0.73447728 -0.67508036 0 7
2.8340883 -0.72989863 -0.64259887 0 8
2.855705 -0.73546588 -0.61912632 0 9
2.8350642 -0.73014998 -0.58659101 0 10
2.8324008 -0.72946405 -0.55810916 0 11
2.840975 -0.73167235 -0.53188157 0 12
2.8410261 -0.73168546 -0.50406641 0 13
2.8524511 -0.73462784 -0.47824502 0 14
2.8497851 -0.73394126 -0.45005861 0 15
2.8444371 -0.73256391 -0.42160442 0 16
2.8463109 -0.73304647 -0.39432722 0 17
2.837678 -0.7308231 -0.3657276 0 18
2.833102 -0.72964466 -0.33784115 0 19
2.8274276 -0.72818321 -0.30998027 0 20
2.8470914 -0.73324752 -0.28481624 0 21
2.8446538 -0.73261976 -0.25732449 0 22
2.8249269 -0.72753918 -0.22852466 0 23
2.8483703 -0.73357689 -0.20322083 0 24
2.8523412 -0.73459953 -0.1763005 0 25
2.8413036 -0.73175693 -0.14854974 0 26
2.8373215 -0.73073137 -0.1213361 0 27
2.8191373 -0.72604817 -0.093746535 0 28
2.8432529 -0.73225898 -0.067523189 0 29
2.8360913 -0.73041451 -0.040407304 0 30
2.8282161 -0.72838628 -0.013430944 0 31
2.8423476 -0.73202574 0.013498053 0 32
2.8414371 -0.73179126 0.040483471 0 33
2.8507309 -0.73418486 0.067700773 0 34
2.8338423 -0.72983533 0.094235525 0 35
2.835911 -0.73036808 0.12127578 0 36
2.8433955 -0.73229569 0.14865911 0 37
2.8317204 -0.72928882 0.17502595 0 38
2.8363924 -0.73049212 0.20236626 0 39
2.8472486 -0.73328799 0.23033039 0 40
2.8339899 -0.7298733 0.25635985 0 41
2.8463156 -0.73304772 0.2847386 0 42
2.8426795 -0.73211122 0.31165236 0 43
2.8503165 -0.73407811 0.33989394 0 44
2.8443038 -0.73252958 0.36658156 0 45
2.8502333 -0.73405671 0.39487067 0 46
2.8399165 -0.73139966 0.42093438 0 47
2.8453207 -0.73279154 0.44935358 0 48
2.8420804 -0.73195696 0.47650626 0 49
2.8382618 -0.73097354 0.50357592 0 50
2.8391922 -0.73121309 0.53154773 0 51
2.8410101 -0.73168135 0.55980563 0 52
2.8466811 -0.73314184 0.58899462 0 53
2.8427126 -0.73211986 0.61630952 0 54
2.8375309 -0.73078531 0.64337951 0 55
2.8293929 -0.72868937 0.66976058 0 56
2.8568697 -0.73576581 0.70488554 0 57
2.8394098 -0.73126918 0.72914886 0 58
2.8479466 -0.73346782 0.76012963 0 59
2.8349879 -0.73013037 0.785465 0 60
2.8418415 -0.73189545 0.81637037 0 61
2.8365352 -0.73052883 0.84394699 0 62
2.8339336 -0.72985882 0.87240171 0 63
2.3727798 -0.58007818 -0.72818869 0 0
2.4619992 -0.60188979 -0.73025501 0 1
2.5283587 -0.61811292 -0.72407866 0 2
2.6504316 -0.64795631 -0.73206884 0 3
2.7476208 -0.67171633 -0.73109239 0 4
2.819582 -0.68930882 -0.72182596 0 5
2.8374195 -0.69366956 -0.6979292 0 6
2.8192112 -0.68921816 -0.66529393 0 7
2.8233438 -0.69022846 -0.63819003 0 8
2.8330047 -0.6925903 -0.61231214 0 9
2.8338742 -0.69280285 -0.58453798 0 10
2.8366618 -0.69348437 -0.55722642 0 11
2.8314855 -0.6922189 -0.52847141 0 12
2.8261635 -0.69091785 -0.49988428 0 13
2.8353341 -0.69315976 -0.4739103 0 14
2.8190262 -0.68917298 -0.44382909 0 15
2.8378475 -0.69377422 -0.41933155 0 16
2.829205 -0.69166142 -0.3907496 0 17
2.8215883 -0.68979931 -0.36253333 0 18
2.833842 -0.69279504 -0.33688807 0 19
2.8277686 -0.69131017 -0.30906233 0 20
2.8357024 -0.69324982 -0.28280273 0 21
2.8388543 -0.69402039 -0.25600854 0 22
2.8343017 -0.69290739 -0.22857651 0 23
2.839901 -0.69427627 -0.20199221 0 24
2.8374567 -0.69367868 -0.17484008 0 25
2.8227704 -0.69008827 -0.147126 0 26
2.8461223 -0.6957972 -0.12133741 0 27
2.8426709 -0.69495344 -0.094237819 0 28
2.8286636 -0.69152898 -0.0669697 0 29
2.8211887 -0.68970162 -0.040071119 0 30
2.8306124 -0.69200546 -0.013400901 0 31
2.8330715 -0.69260663 0.013412543 0 32
2.8428156 -0.69498879 0.040378299 0 33
2.8434775 -0.69515055 0.067320429 0 34
2.8408442 -0.69450682 0.094177254 0 35
2.8390882 -0.69407755 0.12103752 0 36
2.8356199 -0.69322962 0.14779574 0 37
2.8322072 -0.69239533 0.1745166 0 38
2.8291481 -0.69164747 0.2012274 0 39
2.8172121 -0.68872947 0.2271983 0 40
2.8310611 -0.69211519 0.25530577 0 41
2.8345053 -0.69295716 0.28268334 0 42
2.844707 -0.6954512 0.31091362 0 43
2.8297894 -0.69180429 0.33640629 0 44
2.8344994 -0.69295573 0.36419222 0 45
2.8396132 -0.69420594 0.39218709 0 46
2.8402379 -0.69435859 0.41968474 0 47
2.8336058 -0.69273722 0.44612449 0 48
2.8332517 -0.69265068 0.47356227 0 49
2.834796 -0.69302821 0.50141114 0 50
2.8181002 -0.68894655 0.5259732 0 51
2.8385324 -0.69394165 0.55759388 0 52
2.8257389 -0.69081402 0.58285993 0 53
2.8180351 -0.68893069 0.60907668 0 54
2.8326144 -0.69249493 0.64028561 0 55
2.8314157 -0.69220179 0.66817403 0 56
2.8300323 -0.69186366 0.69611222 0 57
2.8296766 -0.69177669 0.7244103 0 58
2.8321078 -0.69237107 0.75357288 0 59
2.8395464 -0.69418955 0.78430367 0 60
2.8331215 -0.69261891 0.81135756 0 61
2.8111756 -0.68725371 0.83382446 0 62
2.8375673 -0.69370574 0.87082857 0 63
2.3763368 -0.55007362 -0.72714955 0 0
2.4760549 -0.5731563 -0.73227829 0 1
2.5539083 -0.59117782 -0.72925872 0 2
2.652657 -0.61403608 -0.73054272 0 3
2.7464523 -0.63574785 -0.72864628 0 4
2.8311174 -0.6553461 -0.72266144 0 5
2.8128688 -0.65112191 -0.68986893 0 6
2.8196542 -0.65269262 -0.66345435 0 7
2.8262572 -0.65422106 -0.63698202 0 8
2.8210528 -0.65301633 -0.60794741 0 9
2.8169158 -0.65205866 -0.57934231 0 10
2.8252888 -0.65399688 -0.55337077 0 11
2.8291996 -0.6549021 -0.52650195 0 12
2.8153369 -0.65169322 -0.49651435 0 13
2.8154645 -0.65172279 -0.46921426 0 14
2.8230619 -0.65348142 -0.44316584 0 15
2.8038623 -0.64903706 -0.41309926 0 16
2.8240566 -0.65371168 -0.38889894 0 17
2.8181005 -0.6523329 -0.36102727 0 18
2.8210268 -0.65301031 -0.33438471 0 19
2.8152604 -0.65167552 -0.30679622 0 20
2.8213849 -0.65309322 -0.28055274 0 21
2.8275707 -0.6545251 -0.25424597 0 22
2.8390918 -0.65719199 -0.22829384 0 23
2.8267658 -0.65433878 -0.20047051 0 24
2.8169847 -0.65207464 -0.17307146 0 25
2.8165216 -0.65196747 -0.14637141 0 26
2.8271763 -0.65443379 -0.12017753 0 27
2.8332226 -0.65583342 -0.09365017 0 28
2.8215444 -0.65313017 -0.066605978 0 29
2.8235192 -0.65358728 -0.039987046 0 30
2.8182526 -0.65236813 -0.013303403 0 31
2.8188324 -0.65250236 0.01330614 0 32
2.8085639 -0.65012544 0.039775249 0 33
2.8275211 -0.6545136 0.066747062 0 34
2.8333912 -0.6558724 0.093655743 0 35
2.8324075 -0.65564471 0.12039989 0 36
2.8241622 -0.65373611 0.14676848 0 37
2.8304796 -0.65519845 0.17390056 0 38
2.8368123 -0.65666431 0.20118299 0 39
2.8182671 -0.65237153 0.22661932 0 40
2.8094621 -0.65033334 0.25261769 0 41
2.8205986 -0.65291119 0.28047454 0 42
2.8211989 -0.65305018 0.30744338 0 43
2.8142993 -0.65145302 0.33358729 0 44
2.8202422 -0.65282869 0.36130163 0 45
2.8149934 -0.65161371 0.38765082 0 46
2.8045921 -0.64920604 0.41320679 0 47
2.8232903 -0.65353429 0.44320169 0 48
2.8074729 -0.6498729 0.46788245 0 49
2.8207476 -0.6529457 0.49746856 0 50
2.8225691 -0.65336734 0.52526808 0 51
2.8109531 -0.65067852 0.55056292 0 52
2.8217402 -0.65317541 0.58033454 0 53
2.8334424 -0.65588427 0.61061746 0 54
2.8286388 -0.65477234 0.63751876 0 55
2.8148737 -0.651586 0.66232955 0 56
2.8160055 -0.65184796 0.69063818 0 57
2.8222899 -0.65330267 0.7204082 0 58
2.8192143 -0.65259075 0.74795038 0 59
2.8259375 -0.65414703 0.77826422 0 60
2.814764 -0.6515606 0.80374497 0 61
2.8273809 -0.65448117 0.83618087 0 62
2.8242867 -0.65376496 0.86422044 0 63
2.4005101 -0.52465808 -0.73251694 0 0
2.4779534 -0.54158419 -0.73081499 0 1
2.5510151 -0.55755264 -0.72641993 0 2
2.6544528 -0.58016008 -0.7290175 0 3
2.7478955 -0.60058296 -0.7270149 0 4
2.8083999 -0.6138069 -0.71488208 0 5
2.8243771 -0.6172989 -0.69077748 0 6
2.8225334 -0.61689597 -0.66229689 0 7
2.8148623 -0.6152193 -0.63266098 0 8
2.8083601 -0.6137982 -0.60353994 0 9
2.8091812 -0.61397767 -0.5761553 0 10
2.8138883 -0.61500645 -0.54961509 0 11
2.8269429 -0.61785966 -0.52462846 0 12
2.8070195 -0.61350518 -0.4936797 0 13
2.8005862 -0.61209911 -0.46544516 0 14
2.8088636 -0.61390829 -0.43971872 0 15
2.8025141 -0.61252046 -0.41175979 0 16
2.8088746 -0.61391062 -0.38573948 0 17
2.8123412 -0.61466837 -0.359294 0 18
2.8173296 -0.6157586 -0.33302382 0 19
2.8014042 -0.61227793 -0.30444276 0 20
2.8080442 -0.61372912 -0.27845469 0 21
2.8169665 -0.61567926 -0.25259265 0 22
2.8162017 -0.61551207 -0.22582756 0 23
2.8226488 -0.61692119 -0.19962546 0 24
2.8297591 -0.6184752 -0.17337595 0 25
2.8240194 -0.61722076 -0.14635557 0 26
2.8073034 -0.61356723 -0.11900306 0 27
2.818346 -0.61598074 -0.092901044 0 28
2.8293085 -0.61837667 -0.066604726 0 29
2.823796 -0.61717188 -0.039880473 0 30
2.8055079 -0.61317486 -0.013206652 0 31
2.8125336 -0.61471033 0.013239725 0 32
2.8108249 -0.61433691 0.039697282 0 33
2.8055449 -0.6131829 0.066045307 0 34
2.8096251 -0.61407471 0.092613578 0 35
2.8139639 -0.61502296 0.1192854 0 36
2.8076766 -0.61364883 0.14550859 0 37
2.8127227 -0.6147517 0.17233214 0 38
2.8311362 -0.6187762 0.20022571 0 39
2.8145673 -0.61515486 0.2256965 0 40
2.8133147 -0.6148811 0.25226519 0 41
2.8076565 -0.61364442 0.27841625 0 42
2.8183789 -0.61598796 0.3062875 0 43
2.8275566 -0.61799383 0.33423272 0 44
2.8152397 -0.61530185 0.35966429 0 45
2.8126938 -0.61474544 0.386264 0 46
2.8017814 -0.61236036 0.41165215 0 47
2.8275881 -0.61800069 0.44264996 0 48
2.8128505 -0.61477959 0.4674834 0 49
2.8104763 -0.61426067 0.49428764 0 50
2.8030891 -0.61264616 0.52020162 0 51
2.8064859 -0.6133886 0.5481692 0 52
2.8104789 -0.61426127 0.5764215 0 53
2.829627 -0.61844635 0.60811037 0 54
2.8188729 -0.6160959 0.63356245 0 55
2.8110178 -0.61437905 0.65959477 0 56
2.8077104 -0.61365622 0.68670118 0 57
2.8340096 -0.6194042 0.72140104 0 58
2.8134606 -0.61491299 0.74436164 0 59
2.8021619 -0.61244351 0.76958424 0 60
2.8202286 -0.6163922 0.80308038 0 61
2.8179424 -0.61589253 0.83108681 0 62
2.8254287 -0.61752874 0.86218113 0 63
2.394711 -0.49262017 -0.72884381 0 0
2.4810848 -0.51038831 -0.72983241 0 1
2.5677392 -0.52821416 -0.72927755 0 2
2.6691184 -0.54906905 -0.73113573 0 3
2.7515838 -0.56603312 -0.72609437 0 4
2.8106258 -0.57817876 -0.71358496 0 5
2.8067412 -0.57737964 -0.68467599 0 6
2.8031325 -0.57663733 -0.65603119 0 7
2.8086414 -0.57777053 -0.62961841 0 8
2.8118415 -0.57842886 -0.602714 0 9
2.8217368 -0.58046442 -0.57722288 0 10
2.8154006 -0.57916099 -0.54847795 0 11
2.8139236 -0.57885712 -0.52085197 0 12
2.7985809 -0.57570094 -0.49091342 0 13
2.8020215 -0.57640874 -0.46447062 0 14
2.7994425 -0.5758782 -0.43710226 0 15
2.8103669 -0.57812548 -0.41183797 0 16
2.8068044 -0.57739264 -0.38445112 0 17
2.7993987 -0.5758692 -0.35670888 0 18
2.8088775 -0.57781911 -0.33115983 0 19
2.8025732 -0.57652223 -0.30377641 0 20
2.8063178 -0.57729256 -0.27755859 0 21
2.8124745 -0.57855904 -0.25153291 0 22
2.7969975 -0.57537526 -0.22370335 0 23
2.8060288 -0.57723314 -0.19793311 0 24
2.8144996 -0.57897562 -0.17199183 0 25
2.8074145 -0.57751817 -0.145116 0 26
2.8104947 -0.57815176 -0.11882799 0 27
2.8064756 -0.57732505 -0.09226878 0 28
2.8038652 -0.57678801 -0.065833822 0 29
2.7996976 -0.57593071 -0.039437134 0 30
2.7956095 -0.57508969 -0.013125775 0 31
2.8042893 -0.57687527 0.013166528 0 32
2.8118951 -0.57843989 0.039608952 0 33
2.8089554 -0.57783514 0.065953337 0 34
2.7954159 -0.57504988 0.091905162 0 35
2.8144276 -0.57896084 0.11899428 0 36
2.8082991 -0.57770014 0.14516173 0 37
2.8043675 -0.57689136 0.17137265 0 38
2.8108985 -0.57823485 0.19827659 0 39
2.8058603 -0.57719845 0.22441219 0 40
2.8086281 -0.57776779 0.2511889 0 41
2.827327 -0.58161438 0.2796365 0 42
2.8098826 -0.57802588 0.30456868 0 43
2.8097749 -0.5780037 0.33126563 0 44
2.8136699 -0.57880497 0.35852736 0 45
2.8188446 -0.57986945 0.38610026 0 46
2.8015058 -0.57630265 0.41053942 0 47
2.8137939 -0.57883042 0.43934307 0 48
2.8109179 -0.57823884 0.4659453 0 49
2.8186033 -0.5798198 0.49442565 0 50
2.7997656 -0.57594466 0.51823139 0 51
2.801409 -0.57628274 0.54575223 0 52
2.8065948 -0.57734954 0.57412541 0 53
2.8022454 -0.57645482 0.60065711 0 54
2.8008335 -0.57616431 0.62786806 0 55
2.7998257 -0.57595706 0.65525723 0 56
2.8044875 -0.57691604 0.6841262 0 57
2.8141859 -0.57891113 0.7144888 0 58
2.8077841 -0.57759416 0.74092466 0 59
2.8097343 -0.57799536 0.7696538 0 60
2.8124313 -0.57855016 0.79877388 0 61
2.8078282 -0.57760328 0.82594675 0 62
2.8017089 -0.57634449 0.85271597 0 63
2.381999 -0.45955256 -0.72320026 0 0
2.5020957 -0.48272249 -0.73421139 0 1
2.5778799 -0.49734333 -0.73036551 0 2
2.6674473 -0.51462334 -0.72888947 0 3
2.7594016 -0.53236377 -0.72637504 0 4
2.7949553 -0.53922307 -0.70786947 0 5
2.7940218 -0.53904301 -0.67990494 0 6
2.7942502 -0.53908706 -0.65235168 0 7
2.8067708 -0.54150265 -0.62765896 0 8
2.7909858 -0.53845727 -0.59677929 0 9
2.8085802 -0.5418517 -0.57312524 0 10
2.8046358 -0.54109073 -0.54504347 0 11
2.8090179 -0.54193616 -0.51867127 0 12
2.8005078 -0.54029429 -0.49004897 0 13
2.7880297 -0.53788692 -0.46102008 0 14
2.7891281 -0.53809887 -0.4344258 0 15
2.820641 -0.54417855 -0.41233182 0 16
2.7950025 -0.53923213 -0.38189751 0 17
2.7974432 -0.53970307 -0.35558718 0 18
2.7923372 -0.53871793 -0.32840395 0 19
2.7930779 -0.53886092 -0.30200616 0 20
2.7816913 -0.53666407 -0.2744495 0 21
2.8012547 -0.54043841 -0.24991626 0 22
2.8169107 -0.54345888 -0.22474454 0 23
2.790801 -0.53842163 -0.1963771 0 24
2.7982035 -0.53984976 -0.17057744 0 25
2.8075991 -0.54166245 -0.14477032 0 26
2.8031158 -0.54079747 -0.11822592 0 27
2.8103371 -0.54219067 -0.092169575 0 28
2.7959025 -0.53940582 -0.065486178 0 29
2.8040547 -0.54097861 -0.039401829 0 30
2.7846684 -0.53723848 -0.013042403 0 31
2.8005972 -0.54031152 0.013117007 0 32
2.7995851 -0.54011631 0.039339021 0 33
2.7937336 -0.5389874 0.06543538 0 34
2.795912 -0.53940767 0.091696478 0 35
2.7917237 -0.53859961 0.11774544 0 36
2.7874293 -0.53777111 0.14373028 0 37
2.7986159 -0.53992933 0.17060256 0 38
2.7947335 -0.53918028 0.1966538 0 39
2.793963 -0.53903162 0.22291368 0 40
2.7993166 -0.54006451 0.24974334 0 41
2.8078535 -0.54171151 0.27703074 0 42
2.7991874 -0.5400396 0.30266675 0 43
2.7883983 -0.53795809 0.3279407 0 44
2.7895803 -0.53818607 0.3545877 0 45
2.7958939 -0.53940415 0.38201931 0 46
2.8203528 -0.54412293 0.41228965 0 47
2.8032036 -0.5408144 0.43661818 0 48
2.7937722 -0.53899479 0.46196964 0 49
2.8078327 -0.54170746 0.49133074 0 50
2.8021536 -0.5406118 0.51740384 0 51
2.7922413 -0.53869951 0.54263479 0 52
2.8026111 -0.54070008 0.57190716 0 53
2.8041062 -0.54098856 0.59958476 0 54
2.7965927 -0.53953898 0.6253829 0 55
2.7999129 -0.54017955 0.65367371 0 56
2.8107665 -0.54227346 0.68397957 0 57
2.8037729 -0.54092425 0.71010268 0 58
2.8014712 -0.5404802 0.73744929 0 59
2.8042691 -0.54101998 0.76627648 0 60
2.7894161 -0.53815442 0.79029799 0 61
2.7970548 -0.53962815 0.82076377 0 62
2.7923064 -0.53871208 0.84777403 0 63
2.4117775 -0.43461025 -0.73056358 0 0
2.4906821 -0.44882914 -0.72918761 0 1
2.5801704 -0.46495518 -0.72933948 0 2
2.6949654 -0.48564163 -0.73472154 0 3
2.7775631 -0.50052601 -0.7294805 0 4
2.7767999 -0.50038844 -0.70165986 0 5
2.7953537 -0.50373191 -0.67867035 0 6
2.7922478 -0.50317222 -0.65039051 0 7
2.7925761 -0.50323141 -0.62305379 0 8
2.7865863 -0.50215203 -0.5944733 0 9
2.7718847 -0.49950275 -0.56434101 0 10
2.7798426 -0.50093681 -0.5389874 0 11
2.7905989 -0.50287509 -0.51408964 0 12
2.7711205 -0.49936503 -0.48379555 0 13
2.7752016 -0.50010049 -0.45784742 0 14
2.7890377 -0.50259376 -0.43341637 0 15
2.7932677 -0.50335604 -0.40739468 0 16
2.7904336 -0.50284535 -0.38039964 0 17
2.7783735 -0.50067204 -0.35235399 0 18
2.8000555 -0.50457925 -0.32855716 0 19
2.7730901 -0.49971998 -0.29915792 0 20
2.7824306 -0.50140315 -0.27389342 0 21
2.7826774 -0.50144762 -0.24769001 0 22
2.7815092 -0.50123709 -0.22141157 0 23
2.7866745 -0.50216788 -0.19563743 0 24
2.7787077 -0.5007323 -0.16900085 0 25
2.7894802 -0.50267351 -0.14350647 0 26
2.7754471 -0.50014466 -0.11679073 0 27
2.7939975 -0.50348759 -0.091423735 0 28
2.7873275 -0.5022856 -0.065135747 0 29
2.7931871 -0.5033415 -0.039159186 0 30
2.7860539 -0.50205606 -0.013018993 0 31
2.7848065 -0.50183129 0.013013164 0 32
2.7939742 -0.50348336 0.03917022 0 33
2.806267 -0.50569856 0.065578334 0 34
2.8029532 -0.50510138 0.091716774 0 35
2.7891283 -0.50261009 0.11736644 0 36
2.7838192 -0.50165337 0.14321524 0 37
2.7951136 -0.50368869 0.16999866 0 38
2.7896509 -0.50270432 0.19584639 0 39
2.7882562 -0.50245297 0.22194865 0 40
2.7908781 -0.5029254 0.24841997 0 41
2.7702255 -0.49920374 0.27269197 0 42
2.7829123 -0.50148994 0.30021751 0 43
2.7816808 -0.50126803 0.32640105 0 44
2.7824159 -0.50140053 0.35286668 0 45
2.7972631 -0.50407606 0.38133067 0 46
2.7899454 -0.50275737 0.40691012 0 47
2.7884192 -0.50248235 0.43332028 0 48
2.778729 -0.50073612 0.45842934 0 49
2.78546 -0.50194907 0.48629904 0 50
2.782656 -0.50144374 0.51262641 0 51
2.7832022 -0.50154221 0.53963882 0 52
2.7866721 -0.50216746 0.56735164 0 53
2.7972155 -0.50406748 0.5967409 0 54
2.8040664 -0.50530201 0.62561738 0 55
2.7760429 -0.50025207 0.64661598 0 56
2.7936506 -0.50342506 0.67825693 0 57
2.7904148 -0.50284195 0.70510018 0 58
2.7846072 -0.50179541 0.73133051 0 59
2.8001215 -0.50459111 0.76338995 0 60
2.7907083 -0.50289482 0.78885251 0 61
2.7959237 -0.50383466 0.81855196 0 62
2.7808619 -0.50112045 0.84236479 0 63
2.409384 -0.40365756 -0.72827995 0 0
2.4864185 -0.41656357 -0.72638476 0 1
2.5897593 -0.43387684 -0.73048669 0 2
2.6833129 -0.44955039 -0.7299825 0 3
2.7878084 -0.46705711 -0.73060769 0 4
2.7795906 -0.46568033 -0.70086515 0 5
2.7752995 -0.46496144 -0.67236263 0 6
2.786675 -0.46686724 -0.64770633 0 7
2.8027158 -0.4695546 -0.6239807 0 8
2.7970762 -0.46860981 -0.59543687 0 9
2.7864933 -0.46683681 -0.56610376 0 10
2.7869923 -0.46692041 -0.53921968 0 11
2.7791224 -0.46560189 -0.51088208 0 12
2.7843349 -0.46647516 -0.48506451 0 13
2.7937617 -0.4680545 -0.45992512 0 14
2.7833691 -0.46631336 -0.43161175 0 15
2.794421 -0.46816492 -0.4066925 0 16
2.7960784 -0.46844262 -0.38035515 0 17
2.7852046 -0.46662089 -0.35246602 0 18
2.7847252 -0.46654055 -0.32606047 0 19
2.7832973 -0.46630135 -0.29961783 0 20
2.7789168 -0.46556747 -0.27296337 0 21
2.7750556 -0.46492055 -0.24648409 0 22
2.7778006 -0.46538043 -0.22064415 0 23
2.7783744 -0.46547657 -0.19463818 0 24
2.7840629 -0.46642962 -0.16896495 0 25
2.7853072 -0.46663809 -0.14298578 0 26
2.7706523 -0.46418285 -0.11633999 0 27
2.7809992 -0.46591634 -0.090804078 0 28
2.7867632 -0.46688199 -0.064983487 0 29
2.7740684 -0.46475515 -0.038808096 0 30
2.7746415 -0.4648512 -0.012937976 0 31
2.7866552 -0.4668639 0.012993994 0 32
2.7838056 -0.46638653 0.038944319 0 33
2.7799532 -0.4657411 0.064824685 0 34
2.7860091 -0.46675563 0.090967655 0 35
2.7868698 -0.46689987 0.11702096 0 36
2.7854638 -0.46666428 0.14299381 0 37
2.78877 -0.46721819 0.16925062 0 38
2.7845323 -0.46650827 0.19506958 0 39
2.7757437 -0.46503586 0.22048078 0 40
2.776988 -0.46524432 0.24665573 0 41
2.779537 -0.46567133 0.27302426 0 42
2.7813647 -0.46597755 0.29940978 0 43
2.7797728 -0.46571085 0.32548061 0 44
2.7895548 -0.46734971 0.35301653 0 45
