# .PCD v0.7 - Point Cloud Data file format
VERSION 0.7
FIELDS x y z intensity ring
SIZE 4 4 4 4 2
TYPE F F F F U
COUNT 1 1 1 1 1
WIDTH 1244
HEIGHT 1
VIEWPOINT 0 0 0 1 0 0 0
POINTS 1244
DATA ascii
-0.20058069 -2.8323464 -0.73391038 0 4
-0.20823343 -2.9404087 -0.73305523 0 5
-0.21723451 -3.0675106 -0.73477626 0 6
-0.22596997 -3.1908617 -0.733289 0 7
-0.2372791 -3.3505549 -0.73753762 0 8
-0.24785231 -3.4998562 -0.7366429 0 9
-0.25911805 -3.6589367 -0.73496777 0 10
-0.27191174 -3.8395934 -0.7344979 0 11
-0.28752461 -4.0600586 -0.73793936 0 12
-0.3013097 -4.254714 -0.73286462 0 13
-0.31790245 -4.4890156 -0.73067498 0 14
-0.33782458 -4.7703309 -0.73138547 0 15
-0.36200452 -5.1117692 -0.73556483 0 16
-0.37441531 -5.2870188 -0.71109259 0 17
-0.37319514 -5.2697892 -0.65936935 0 18
-0.37374228 -5.2775149 -0.61097109 0 19
-0.37346777 -5.2736392 -0.56129843 0 20
-0.37512198 -5.2969975 -0.51443905 0 21
-0.37297493 -5.2666798 -0.46251887 0 22
-0.37451974 -5.2884932 -0.41533515 0 23
-0.37370139 -5.2769375 -0.36550605 0 24
-0.3738308 -5.2787647 -0.31675628 0 25
-0.37365273 -5.2762508 -0.26780614 0 26
-0.37404308 -5.2817626 -0.21928111 0 27
-0.3742277 -5.2843699 -0.17059764 0 28
-0.37304521 -5.2676721 -0.12144986 0 29
-0.37339312 -5.2725844 -0.072929643 0 30
-0.37296984 -5.2666073 -0.024280954 0 31
-0.37374228 -5.2775154 0.024331242 0 32
-0.37416616 -5.2835007 0.073080629 0 33
-0.37281606 -5.2644362 0.12137526 0 34
-0.37503284 -5.2957392 0.17096467 0 35
-0.37464979 -5.2903299 0.2196368 0 36
-0.37362352 -5.2758384 0.26778519 0 37
-0.37412119 -5.2828655 0.31700236 0 38
-0.37416095 -5.2834268 0.36595553 0 39
-0.37367335 -5.2765417 0.41439652 0 40
-0.37355968 -5.2749367 0.46324399 0 41
-0.37383619 -5.278841 0.5126757 0 42
-0.37330818 -5.2713852 0.56105852 0 43
-0.37254372 -5.2605906 0.60901177 0 44
-0.3736206 -5.2757969 0.66012102 0 45
-0.37358144 -5.2752438 0.7095089 0 46
-0.37348986 -5.2739506 0.75890213 0 47
-0.37354437 -5.2747207 0.80871832 0 48
-0.37382355 -5.2786627 0.85920548 0 49
-0.37346646 -5.2736201 0.90836889 0 50
-0.37428918 -5.2852378 0.96062285 0 51
-0.37395716 -5.2805495 1.0101467 0 52
-0.37422276 -5.2842999 1.0614531 0 53
-0.37395802 -5.2805614 1.1114422 0 54
-0.37399825 -5.2811298 1.1625036 0 55
-0.37393194 -5.2801933 1.2134364 0 56
-0.37335616 -5.2720633 1.2628438 0 57
-0.37450761 -5.288322 1.3183991 0 58
-0.37339282 -5.2725801 1.3662176 0 59
-0.37351087 -5.2742476 1.4186556 0 60
-0.37374455 -5.2775474 1.4718393 0 61
-0.37376589 -5.2778487 1.5244907 0 62
-0.37478229 -5.2922006 1.5816268 0 63
-0.1429781 -2.4453046 -0.73022294 0 0
-0.14897893 -2.5479348 -0.73537862 0 1
-0.15394694 -2.632901 -0.73369843 0 2
-0.15987602 -2.734304 -0.73488277 0 3
-0.16624169 -2.8431737 -0.73613065 0 4
-0.17238303 -2.9482069 -0.73441541 0 5
-0.17984448 -3.0758176 -0.73618072 0 6
-0.18693665 -3.1971126 -0.73414171 0 7
-0.19629978 -3.3572469 -0.73842353 0 8
-0.20369683 -3.4837561 -0.7326715 0 9
-0.21311842 -3.6448903 -0.73156452 0 10
-0.22464617 -3.8420453 -0.73438299 0 11
-0.23745395 -4.0610924 -0.73754078 0 12
-0.24999517 -4.2755804 -0.7358737 0 13
-0.2650958 -4.5338411 -0.73738486 0 14
-0.28189594 -4.8211684 -0.73859257 0 15
-0.29849151 -5.1049967 -0.73400658 0 16
-0.30744246 -5.2580814 -0.70663869 0 17
-0.30736765 -5.2568021 -0.65722179 0 18
-0.30653366 -5.2425385 -0.60643971 0 19
-0.30731878 -5.2559662 -0.55897295 0 20
-0.30799654 -5.2675576 -0.51117343 0 21
-0.30756804 -5.2602291 -0.46158537 0 22
-0.30765072 -5.2616434 -0.41289815 0 23
-0.30810001 -5.2693276 -0.36468896 0 24
-0.3070319 -5.25106 -0.31484348 0 25
-0.3069436 -5.2495494 -0.26623917 0 26
-0.30747211 -5.2585883 -0.21814553 0 27
-0.30787918 -5.2655501 -0.16985503 0 28
-0.30732551 -5.2560816 -0.12108635 0 29
-0.30667228 -5.2449093 -0.072489209 0 30
-0.3077004 -5.2624931 -0.024242708 0 31
-0.3080658 -5.2687421 0.024271496 0 32
-0.30703813 -5.2511663 0.072575681 0 33
-0.30717838 -5.2535648 0.12102837 0 34
-0.30782861 -5.2646856 0.16982713 0 35
-0.30676669 -5.2465243 0.21764506 0 36
-0.30714557 -5.2530036 0.26641434 0 37
-0.30689508 -5.2487197 0.31470317 0 38
-0.30764791 -5.2615952 0.3641538 0 39
-0.30773094 -5.2630153 0.41300583 0 40
-0.30711094 -5.2524118 0.46089938 0 41
-0.30845192 -5.2753458 0.51192921 0 42
-0.30764192 -5.2614927 0.55956072 0 43
-0.30744717 -5.258162 0.60824698 0 44
-0.30818728 -5.2708201 0.65897429 0 45
-0.30753013 -5.2595811 0.70684022 0 46
-0.30721989 -5.2542748 0.7554701 0 47
-0.308294 -5.272645 0.80775779 0 48
-0.30777869 -5.2638321 0.85611075 0 49
-0.30797035 -5.2671099 0.90652663 0 50
-0.30736414 -5.256742 0.95468438 0 51
-0.30815536 -5.2702742 1.00738 0 52
-0.30710551 -5.2523189 1.0541909 0 53
-0.30697897 -5.250155 1.1041642 0 54
-0.30690122 -5.2488251 1.1544745 0 55
-0.30748031 -5.258729 1.2075435 0 56
-0.30693007 -5.2493181 1.2563967 0 57
-0.30783218 -5.2647471 1.3114789 0 58
-0.30833799 -5.2733974 1.3653437 0 59
-0.30737397 -5.2569103 1.4128689 0 60
-0.3075451 -5.2598367 1.4657346 0 61
-0.30731383 -5.2558818 1.5169394 0 62
-0.30795074 -5.2667742 1.5727772 0 63
-0.11362132 -2.4624903 -0.73488218 0 0
-0.11745927 -2.5456696 -0.73425245 0 1
-0.12161643 -2.6357667 -0.73402476 0 2
-0.12589501 -2.7284954 -0.73285019 0 3
-0.13066962 -2.8319745 -0.73275954 0 4
-0.13603349 -2.9482243 -0.73394752 0 5
-0.14175004 -3.072118 -0.73482251 0 6
-0.14718673 -3.1899462 -0.73202515 0 7
-0.15412207 -3.3402543 -0.73421371 0 8
-0.16104107 -3.4902081 -0.73355657 0 9
-0.16955937 -3.6748238 -0.73709828 0 10
-0.17724888 -3.8414767 -0.73380226 0 11
-0.18626687 -4.036922 -0.73267978 0 12
-0.19784433 -4.2878375 -0.73750877 0 13
-0.20814191 -4.5110145 -0.73320067 0 14
-0.22053301 -4.7795644 -0.73174816 0 15
-0.23533273 -5.1003156 -0.73286206 0 16
-0.24215905 -5.248261 -0.70486546 0 17
-0.24207363 -5.2464094 -0.65550071 0 18
-0.24216436 -5.2483759 -0.60672462 0 19
-0.24164906 -5.2372079 -0.55661994 0 20
-0.24262686 -5.2583995 -0.5099566 0 21
-0.24186347 -5.2418551 -0.45967731 0 22
-0.24171607 -5.2386603 -0.41083032 0 23
-0.24186155 -5.2418132 -0.36255148 0 24
-0.2427347 -5.2607369 -0.31522089 0 25
-0.24254748 -5.2566791 -0.26642936 0 26
-0.24231692 -5.2516823 -0.21771897 0 27
-0.2420496 -5.2458892 -0.169112 0 28
-0.24217694 -5.2486486 -0.12083738 0 29
-0.24224846 -5.2501988 -0.072515659 0 30
-0.24227098 -5.2506866 -0.024172768 0 31
-0.2425456 -5.2566385 0.024200169 0 32
-0.24204092 -5.2457008 0.072453529 0 33
-0.24189976 -5.2426414 0.12069907 0 34
-0.24214911 -5.2480454 0.16918153 0 35
-0.24281587 -5.262496 0.21816728 0 36
-0.24265353 -5.2589779 0.26654586 0 37
-0.24191764 -5.2430291 0.31415987 0 38
-0.24152371 -5.2344913 0.36204505 0 39
-0.24200873 -5.2450032 0.41132772 0 40
-0.24168144 -5.2379098 0.45933133 0 41
-0.24233112 -5.2519903 0.50933504 0 42
-0.24172126 -5.2387724 0.55678618 0 43
-0.24239469 -5.2533679 0.60730171 0 44
-0.24256933 -5.2571526 0.65684301 0 45
-0.24264298 -5.258749 0.70627403 0 46
-0.24184337 -5.2414193 0.75313717 0 47
-0.24270724 -5.2601418 0.80532426 0 48
-0.24278642 -5.261858 0.85523951 0 49
-0.24245624 -5.2547021 0.90380967 0 50
-0.24157095 -5.2355151 0.95021802 0 51
-0.24193321 -5.2433662 1.0015924 0 52
-0.24184646 -5.2414861 1.0513403 0 53
-0.24266843 -5.2593007 1.1053766 0 54
-0.24217422 -5.24859 1.1536806 0 55
-0.24209826 -5.2469435 1.2040626 0 56
-0.24244367 -5.2544293 1.2568114 0 57
-0.2422343 -5.2498918 1.3069376 0 58
-0.24201968 -5.2452402 1.3571804 0 59
-0.24205385 -5.2459812 1.4090251 0 60
-0.24225308 -5.250299 1.462136 0 61
-0.2419066 -5.2427893 1.512188 0 62
-0.24238093 -5.2530699 1.5676762 0 63
-0.082881629 -2.4502954 -0.73088348 0 0
-0.086797491 -2.5660632 -0.73977083 0 1
-0.08951313 -2.6463478 -0.73660928 0 2
-0.09218207 -2.7252519 -0.73161924 0 3
-0.096403383 -2.85005 -0.73707402 0 4
-0.099785805 -2.9500473 -0.73404038 0 5
-0.10399732 -3.0745556 -0.73504412 0 6
-0.1073498 -3.1736677 -0.72793162 0 7
-0.1130692 -3.3427548 -0.73440218 0 8
-0.11839265 -3.5001364 -0.73528165 0 9
-0.12418848 -3.6714828 -0.73606622 0 10
-0.12991206 -3.840694 -0.7332921 0 11
-0.13720064 -4.0561719 -0.73581171 0 12
-0.14488551 -4.2833657 -0.73637754 0 13
-0.15286815 -4.5193624 -0.73419648 0 14
-0.16331148 -4.8281074 -0.7388168 0 15
-0.17360158 -5.1323218 -0.73709857 0 16
-0.17742451 -5.2453418 -0.70412719 0 17
-0.17655125 -5.2195253 -0.6518212 0 18
-0.17716682 -5.2377238 -0.60519564 0 19
-0.17684129 -5.2280998 -0.55537879 0 20
-0.17679131 -5.2266221 -0.50662577 0 21
-0.17697378 -5.2320166 -0.45858905 0 22
-0.17657503 -5.2202282 -0.40918359 0 23
-0.17650141 -5.2180514 -0.36073062 0 24
-0.17688566 -5.2294116 -0.31318992 0 25
-0.17711931 -5.2363195 -0.26526701 0 26
-0.17667504 -5.2231846 -0.21643111 0 27
-0.17646319 -5.2169213 -0.16809551 0 28
-0.17694886 -5.2312799 -0.12037831 0 29
-0.17714298 -5.2370191 -0.072298065 0 30
-0.17724393 -5.2400036 -0.024111729 0 31
-0.17625979 -5.2109084 0.02397785 0 32
-0.17632423 -5.2128139 0.071963906 0 33
-0.17617244 -5.2083259 0.11985011 0 34
-0.17679794 -5.2268186 0.1684144 0 35
-0.17680751 -5.2271013 0.21659341 0 36
-0.17657706 -5.2202883 0.26445487 0 37
-0.17633964 -5.2132692 0.31222314 0 38
-0.1765056 -5.2181754 0.36073917 0 39
-0.17747179 -5.2467399 0.41126168 0 40
-0.17674924 -5.2253785 0.45800722 0 41
-0.17667423 -5.2231612 0.50629026 0 42
-0.17771238 -5.2538524 0.55811447 0 43
-0.17686646 -5.2288437 0.60416961 0 44
-0.17639509 -5.2149086 0.65124464 0 45
-0.17669405 -5.2237468 0.70122826 0 46
-0.17705879 -5.23453 0.75177759 0 47
-0.17679511 -5.2267346 0.79981637 0 48
-0.17728072 -5.2410908 0.85144544 0 49
-0.1766479 -5.2223825 0.89780927 0 50
-0.17698064 -5.2322197 0.94915318 0 51
-0.1768862 -5.2294273 0.99843884 0 52
-0.17702192 -5.2334399 1.0492105 0 53
-0.17692535 -5.2305846 1.0988009 0 54
-0.17676969 -5.2259831 1.1481469 0 55
-0.17702489 -5.2335277 1.2003937 0 56
-0.17680092 -5.2269063 1.2496136 0 57
-0.17715095 -5.2372541 1.3031508 0 58
-0.17657769 -5.2203069 1.350065 0 59
-0.17689963 -5.2298245 1.4039952 0 60
-0.17655879 -5.219748 1.4529136 0 61
-0.17656167 -5.2198334 1.5048267 0 62
-0.17673622 -5.2249937 1.558531 0 63
-0.053182699 -2.4713457 -0.73691159 0 0
-0.054834861 -2.5481198 -0.734348 0 1
-0.056859478 -2.6422019 -0.73520505 0 2
-0.058607504 -2.7234306 -0.73088163 0 3
-0.061203469 -2.8440626 -0.73527539 0 4
-0.063597903 -2.9553294 -0.73510456 0 5
-0.066047318 -3.0691512 -0.73350245 0 6
-0.068820693 -3.1980271 -0.73326939 0 7
-0.071876377 -3.3400214 -0.73355204 0 8
-0.075195841 -3.4942737 -0.73380035 0 9
-0.07893534 -3.6680446 -0.73512673 0 10
-0.082497142 -3.8335578 -0.73168063 0 11
-0.087314889 -4.0574336 -0.73579025 0 12
-0.091613501 -4.2571855 -0.73162776 0 13
-0.096818179 -4.4990416 -0.73064661 0 14
-0.10336373 -4.8032069 -0.73475635 0 15
-0.11006556 -5.114634 -0.73430836 0 16
-0.11225777 -5.2165036 -0.70001775 0 17
-0.11243566 -5.2247701 -0.65225422 0 18
-0.11200782 -5.2048883 -0.60119706 0 19
-0.11222332 -5.2149024 -0.55378836 0 20
-0.11208018 -5.208251 -0.50467324 0 21
-0.11235453 -5.2210002 -0.45746773 0 22
-0.11230391 -5.218648 -0.40892056 0 23
-0.11220614 -5.2141042 -0.36033511 0 24
-0.11228806 -5.2179112 -0.31239483 0 25
-0.11234922 -5.2207532 -0.26438847 0 26
-0.11204021 -5.2063937 -0.21566197 0 27
-0.11219928 -5.2137856 -0.16793732 0 28
-0.11222331 -5.2149024 -0.11996062 0 29
-0.11213047 -5.210588 -0.071908712 0 30
-0.11237323 -5.221869 -0.024020111 0 31
-0.1120858 -5.2085128 0.023958672 0 32
-0.11275424 -5.239574 0.072308734 0 33
-0.11199991 -5.2045207 0.11972181 0 34
-0.11208762 -5.2085972 0.16777019 0 35
-0.11224947 -5.2161179 0.21606477 0 36
-0.11207248 -5.2078934 0.2637372 0 37
-0.1122262 -5.2150364 0.31222272 0 38
-0.11201201 -5.2050838 0.35971171 0 39
-0.11221196 -5.214375 0.40858573 0 40
-0.1123341 -5.2200508 0.45738459 0 41
-0.1121731 -5.2125692 0.50509167 0 42
-0.11212666 -5.2104111 0.55331141 0 43
-0.11171054 -5.1910744 0.59960145 0 44
-0.11191618 -5.2006307 0.64924067 0 45
-0.11229213 -5.2181001 0.70023203 0 46
-0.112412 -5.2236705 0.74996275 0 47
-0.11191744 -5.2006888 0.79555994 0 48
-0.11219587 -5.2136273 0.8466956 0 49
-0.11216053 -5.2119846 0.89571685 0 50
-0.11215882 -5.2119055 0.9451465 0 51
-0.11212468 -5.210319 0.99445212 0 52
-0.11247711 -5.226696 1.047502 0 53
-0.11214475 -5.2112522 1.0943673 0 54
-0.11211588 -5.2099104 1.1442263 0 55
-0.11234258 -5.2204447 1.1969855 0 56
-0.11243661 -5.2248144 1.2486886 0 57
-0.11217074 -5.2124596 1.29654 0 58
-0.11196964 -5.2031145 1.3451611 0 59
-0.11202145 -5.2055221 1.3969955 0 60
-0.11213471 -5.2107854 1.4499254 0 61
-0.11210094 -5.2092156 1.5012548 0 62
-0.11210147 -5.2092404 1.5533035 0 63
-0.022740817 -2.4662459 -0.73525196 0 0
-0.023461994 -2.5444577 -0.73315406 0 1
-0.024298692 -2.6351979 -0.73311758 0 2
-0.025366602 -2.751013 -0.73814428 0 3
-0.026036339 -2.8236458 -0.72985911 0 4
-0.027348023 -2.9658983 -0.73759401 0 5
-0.028332705 -3.0726871 -0.7342087 0 6
-0.029425461 -3.1911969 -0.731565 0 7
-0.030849203 -3.345602 -0.73463881 0 8
-0.032202642 -3.4923825 -0.73326463 0 9
-0.03392968 -3.6796801 -0.73731929 0 10
-0.035336267 -3.8322248 -0.73128802 0 11
-0.037349291 -4.0505376 -0.73440087 0 12
-0.039338805 -4.2663007 -0.73305577 0 13
-0.041798461 -4.533051 -0.73603058 0 14
-0.044207856 -4.7943506 -0.73326296 0 15
-0.04741225 -5.1418676 -0.73807883 0 16
-0.047793444 -5.1832085 -0.6954183 0 17
-0.047906615 -5.1954813 -0.64847529 0 18
-0.047992267 -5.2047701 -0.60106981 0 19
-0.04786922 -5.1914263 -0.55119115 0 20
-0.047757369 -5.1792955 -0.50177264 0 21
-0.047805045 -5.1844664 -0.45418081 0 22
-0.04801099 -5.2068009 -0.40791517 0 23
-0.047955565 -5.2007904 -0.35934708 0 24
-0.047809027 -5.1848979 -0.31035969 0 25
-0.047954287 -5.2006516 -0.26332068 0 26
-0.047757339 -5.1792922 -0.21449882 0 27
-0.048005749 -5.2062325 -0.16766235 0 28
-0.047913823 -5.1962633 -0.11950926 0 29
-0.047839817 -5.1882372 -0.071586728 0 30
-0.047954086 -5.2006297 -0.023917891 0 31
-0.047944594 -5.1996002 0.023913156 0 32
-0.047898658 -5.1946187 0.071674779 0 33
-0.047944803 -5.1996231 0.11958653 0 34
-0.047972821 -5.2026615 0.16754735 0 35
-0.047930419 -5.1980634 0.21527621 0 36
-0.047943607 -5.1994934 0.26326206 0 37
-0.047856718 -5.1900702 0.3106693 0 38
-0.047816634 -5.1857228 0.35830602 0 39
-0.04787121 -5.1916418 0.40672755 0 40
-0.04790207 -5.1949887 0.45510259 0 41
-0.047987059 -5.204206 0.50418597 0 42
-0.047947876 -5.1999564 0.55209684 0 43
-0.047763769 -5.1799898 0.59820807 0 44
-0.047822624 -5.1863728 0.64733839 0 45
-0.047998048 -5.2053976 0.69839537 0 46
-0.047959451 -5.2012115 0.74659723 0 47
-0.048000608 -5.2056751 0.7961722 0 48
-0.047949303 -5.2001109 0.84434098 0 49
-0.047819126 -5.1859932 0.89108163 0 50
-0.047916502 -5.1965537 0.94218445 0 51
-0.047824852 -5.1866145 0.98974073 0 52
-0.047874261 -5.1919727 1.0403464 0 53
-0.047860947 -5.1905284 1.0898093 0 54
-0.047837075 -5.1879396 1.1391858 0 55
-0.048020713 -5.2078552 1.1938733 0 56
-0.047927681 -5.1977658 1.2419895 0 57
-0.048019044 -5.2076745 1.295105 0 58
-0.048082009 -5.2145028 1.3478506 0 59
-0.047839295 -5.1881804 1.3920785 0 60
-0.047882307 -5.1928453 1.4446604 0 61
-0.048000123 -5.2056222 1.4999357 0 62
-0.047895305 -5.1942549 1.5485424 0 63
0.0075586326 -2.4578528 -0.7327221 0 0
0.007821382 -2.5432913 -0.73279035 0 1
0.008108696 -2.6367176 -0.73351264 0 2
0.0084278369 -2.7404933 -0.73529392 0 3
0.0087691536 -2.8514795 -0.7370258 0 4
0.0090579437 -2.9453859 -0.73246515 0 5
0.0094536487 -3.0740581 -0.73450857 0 6
0.0098936381 -3.2171302 -0.73748219 0 7
0.010325382 -3.3575213 -0.73722827 0 8
0.010721336 -3.486274 -0.7319544 0 9
0.011288072 -3.6705604 -0.73546416 0 10
0.011868191 -3.8591986 -0.73640746 0 11
0.012487896 -4.060709 -0.7362172 0 12
0.013149903 -4.2759752 -0.73469025 0 13
0.013953414 -4.5372539 -0.73668522 0 14
0.014715927 -4.7852015 -0.73183608 0 15
0.015755983 -5.1233983 -0.7353999 0 16
0.015947189 -5.1855731 -0.69570929 0 17
0.015932171 -5.1806893 -0.6466046 0 18
0.015952954 -5.1874475 -0.59904665 0 19
0.015959596 -5.1896076 -0.55097729 0 20
0.015951313 -5.186914 -0.50249171 0 21
0.015911318 -5.1739087 -0.45323879 0 22
0.015943153 -5.1842604 -0.40613392 0 23
0.015936011 -5.1819382 -0.35803097 0 24
0.015904333 -5.1716375 -0.30955425 0 25
0.01595388 -5.1877484 -0.26265746 0 26
0.015941234 -5.1836367 -0.21467063 0 27
0.015994903 -5.201088 -0.16749035 0 28
0.015975859 -5.1948957 -0.1194733 0 29
0.015930919 -5.1802826 -0.071474276 0 30
0.015909517 -5.1733232 -0.023791408 0 31
0.015937285 -5.1823525 0.023832934 0 32
0.015975282 -5.1947079 0.071673304 0 33
0.015927674 -5.1792274 0.11911296 0 34
0.015888767 -5.1665759 0.16637895 0 35
0.015919317 -5.1765094 0.21437548 0 36
0.015957713 -5.1889949 0.26272058 0 37
0.015932644 -5.1808434 0.31010526 0 38
0.015955484 -5.1882701 0.35846847 0 39
0.016000051 -5.2027621 0.40758336 0 40
0.015939288 -5.1830039 0.45403552 0 41
0.01587031 -5.160574 0.49994004 0 42
0.015945612 -5.18506 0.55049443 0 43
0.015967818 -5.1922812 0.59960485 0 44
0.015939441 -5.183053 0.64689964 0 45
0.01591629 -5.1755252 0.69436127 0 46
0.015925992 -5.1786804 0.74333489 0 47
0.01594894 -5.1861424 0.7931549 0 48
0.015957171 -5.1888185 0.84247565 0 49
0.015932381 -5.180758 0.8901484 0 50
0.015956886 -5.1887259 0.94072968 0 51
0.015966892 -5.1919799 0.99072719 0 52
0.01593251 -5.1808 1.0380683 0 53
0.015918965 -5.1763954 1.0868008 0 54
0.015934341 -5.1813951 1.1377057 0 55
0.015945677 -5.185081 1.1886076 0 56
0.015938977 -5.1829028 1.2383913 0 57
0.015956458 -5.1885867 1.2903093 0 58
0.015950773 -5.1867385 1.3406233 0 59
0.015941598 -5.1837549 1.3908384 0 60
0.015906997 -5.1725035 1.4389471 0 61
0.015954811 -5.1880512 1.4948164 0 62
0.015954038 -5.1878004 1.5465597 0 63
0.038030207 -2.4739356 -0.73760027 0 0
0.039248552 -2.5531909 -0.73572612 0 1
0.04045416 -2.6316183 -0.73217708 0 2
0.04221319 -2.7460465 -0.73686743 0 3
0.043628313 -2.8381028 -0.73365146 0 4
0.045545042 -2.9627895 -0.73687661 0 5
0.047028787 -3.05931 -0.7310676 0 6
0.04926718 -3.2049215 -0.73476684 0 7
0.051614594 -3.3576252 -0.73733467 0 8
0.053753018 -3.4967337 -0.73423374 0 9
0.056183573 -3.6548457 -0.73239851 0 10
0.059602089 -3.8772266 -0.73993146 0 11
0.062073946 -4.0380254 -0.73218769 0 12
0.066026978 -4.2951775 -0.73807329 0 13
0.069617771 -4.5287652 -0.73539037 0 14
0.074309506 -4.833971 -0.73937863 0 15
0.078578591 -5.1116834 -0.73380154 0 16
0.079227947 -5.1539249 -0.69154173 0 17
0.079392038 -5.1645994 -0.64466947 0 18
0.079287671 -5.1578102 -0.59569168 0 19
0.0793778 -5.1636734 -0.54828602 0 20
0.079562716 -5.1757026 -0.50146252 0 21
0.07928881 -5.1578841 -0.45188627 0 22
0.079470553 -5.1697073 -0.40503976 0 23
0.079305977 -5.1590009 -0.35648662 0 24
0.079244673 -5.1550131 -0.30859414 0 25
0.07936015 -5.1625247 -0.26141003 0 26
0.079486147 -5.1707211 -0.21416004 0 27
0.07941407 -5.1660328 -0.16638033 0 28
0.079607554 -5.1786189 -0.11911248 0 29
0.079465128 -5.1693544 -0.071331576 0 30
0.079626411 -5.1798458 -0.023824107 0 31
0.079251818 -5.1554775 0.023712028 0 32
0.079359882 -5.1625075 0.071237102 0 33
0.07950978 -5.1722589 0.11896618 0 34
0.07939776 -5.1649714 0.16634615 0 35
0.079513952 -5.1725302 0.21423496 0 36
0.079582721 -5.1770034 0.26214316 0 37
0.07942488 -5.1667356 0.30929592 0 38
0.079601951 -5.1782551 0.35781705 0 39
0.079399571 -5.1650891 0.40467796 0 40
0.079334818 -5.1608772 0.45214847 0 41
0.079327665 -5.1604118 0.49998102 0 42
0.079301789 -5.1587286 0.54776096 0 43
0.079328366 -5.1604571 0.59599739 0 44
0.079438187 -5.1676016 0.64504427 0 45
0.079371899 -5.1632895 0.69279826 0 46
0.079398118 -5.1649952 0.74145466 0 47
0.079200469 -5.1521373 0.78804362 0 48
0.079314202 -5.1595364 0.83781624 0 49
0.079305567 -5.1589746 0.8865062 0 50
0.079516262 -5.1726804 0.93792695 0 51
0.079532802 -5.1737566 0.98736179 0 52
0.079634018 -5.1803408 1.038094 0 53
0.079536237 -5.1739798 1.0864168 0 54
0.079555541 -5.1752357 1.1364821 0 55
0.079569757 -5.1761603 1.1866971 0 56
0.079611607 -5.1788831 1.237571 0 57
0.079455741 -5.1687436 1.2855204 0 58
0.079562731 -5.175703 1.3379227 0 59
0.0795452 -5.1745629 1.3885297 0 60
0.07941296 -5.1659603 1.4372897 0 61
0.079287462 -5.1577964 1.4862678 0 62
0.079419456 -5.1663833 1.5403496 0 63
0.068588331 -2.4784346 -0.73913723 0 0
0.070225567 -2.537596 -0.73142576 0 1
0.073207185 -2.6453366 -0.73618865 0 2
0.0760139 -2.746757 -0.73725319 0 3
0.078770563 -2.8463688 -0.73598295 0 4
0.08184503 -2.9574645 -0.73574692 0 5
0.084888652 -3.0674455 -0.73320568 0 6
0.088579662 -3.2008197 -0.73402071 0 7
0.092741296 -3.3512003 -0.73611856 0 8
0.096567713 -3.4894676 -0.73290193 0 9
0.10132103 -3.6612284 -0.7338717 0 10
0.10665666 -3.8540311 -0.73569947 0 11
0.11175413 -4.0382276 -0.73241812 0 12
0.11856949 -4.2845001 -0.73643345 0 13
0.12460903 -4.502739 -0.73135763 0 14
0.13310407 -4.8097067 -0.73586196 0 15
0.14122333 -5.1030951 -0.73276258 0 16
0.14272423 -5.15733 -0.69218177 0 17
0.14252277 -5.1500502 -0.64302355 0 18
0.14286694 -5.162487 -0.59638965 0 19
0.14280695 -5.1603193 -0.5480749 0 20
0.14255692 -5.1512842 -0.49922875 0 21
0.14275265 -5.1583567 -0.45204729 0 22
0.14292286 -5.1645079 -0.4047395 0 23
0.14217173 -5.1373653 -0.35508558 0 24
0.14244157 -5.1471162 -0.30820298 0 25
0.14223859 -5.1397815 -0.26032728 0 26
0.14253059 -5.1503329 -0.21337205 0 27
0.14239155 -5.1453085 -0.16575673 0 28
0.14254175 -5.1507363 -0.11850251 0 29
0.14262079 -5.1535921 -0.071132898 0 30
0.1424554 -5.1476159 -0.023682136 0 31
0.14206041 -5.1333432 0.023616472 0 32
0.14283334 -5.161273 0.071238913 0 33
0.14245373 -5.1475554 0.11842932 0 34
0.14251371 -5.1497231 0.16589895 0 35
0.14272399 -5.1573215 0.2136616 0 36
0.14271328 -5.1569347 0.26119608 0 37
0.14254126 -5.1507182 0.30841866 0 38
0.14298654 -5.1668086 0.35712063 0 39
0.14240472 -5.1457844 0.40327218 0 40
0.14233488 -5.143261 0.45072436 0 41
0.14250448 -5.1493893 0.49904513 0 42
0.1428145 -5.1605921 0.54810387 0 43
0.14262903 -5.1538901 0.59539646 0 44
0.14251187 -5.1496568 0.64297444 0 45
0.14192018 -5.1282759 0.68828231 0 46
0.14292374 -5.1645393 0.74158549 0 47
0.14246537 -5.1479759 0.78761554 0 48
0.14232238 -5.1428089 0.83532107 0 49
0.14266488 -5.1551857 0.88608956 0 50
0.14267433 -5.1555266 0.93506402 0 51
0.14251894 -5.1499119 0.98307139 0 52
0.1427488 -5.1582184 1.0339345 0 53
0.14251435 -5.1497459 1.0816145 0 54
0.14256154 -5.1514511 1.1315584 0 55
0.14247699 -5.148396 1.1806443 0 56
0.14282277 -5.1608906 1.233598 0 57
0.14234047 -5.1434627 1.2795713 0 58
0.14240317 -5.1457286 1.3305264 0 59
0.14230175 -5.1420636 1.3801742 0 60
0.14221841 -5.1390519 1.4301817 0 61
0.14239366 -5.1453853 1.4830837 0 62
0.14269799 -5.1563816 1.5377746 0 63
0.098901637 -2.4735222 -0.73797911 0 0
0.10153051 -2.5392702 -0.73221284 0 1
0.10623503 -2.6569297 -0.73972261 0 2
0.10957647 -2.740499 -0.73587954 0 3
0.11327423 -2.8329797 -0.73282576 0 4
0.11806598 -2.9528208 -0.73489732 0 5
0.12293357 -3.0745592 -0.73521179 0 6
0.12845454 -3.2126379 -0.73703742 0 7
0.13342124 -3.3368549 -0.73327243 0 8
0.14040579 -3.5115378 -0.73784423 0 9
0.14682382 -3.6720526 -0.73634756 0 10
0.15421484 -3.8569012 -0.73655367 0 11
0.16129737 -4.0340343 -0.73196203 0 12
0.17088832 -4.2739034 -0.73491764 0 13
0.17993638 -4.500195 -0.73124856 0 14
0.1914466 -4.7880645 -0.73285556 0 15
0.20553358 -5.140379 -0.73842329 0 16
0.20511495 -5.1299086 -0.68878794 0 17
0.205082 -5.1290846 -0.64067227 0 18
0.20543469 -5.1379056 -0.59379685 0 19
0.20469983 -5.1195269 -0.54396856 0 20
0.20612332 -5.155128 -0.49980915 0 21
0.20572245 -5.1451025 -0.45107335 0 22
0.20524347 -5.1331229 -0.40244725 0 23
0.20597242 -5.1513543 -0.35620058 0 24
0.20548812 -5.1392417 -0.30785948 0 25
0.20520152 -5.1320739 -0.26004505 0 26
0.20493236 -5.1253424 -0.21242508 0 27
0.20584448 -5.1481543 -0.16591741 0 28
0.20544344 -5.1381245 -0.11826153 0 29
0.20516658 -5.1312003 -0.0708533 0 30
0.20557687 -5.1414614 -0.023663662 0 31
0.20489743 -5.1244688 0.023585452 0 32
0.20499523 -5.1269145 0.07079412 0 33
0.20550576 -5.1396828 0.1182974 0 34
0.20535907 -5.136014 0.16552615 0 35
0.20542099 -5.1375628 0.21293157 0 36
0.20517094 -5.1313095 0.26000631 0 37
0.20534299 -5.1356125 0.30764207 0 38
0.20543903 -5.1380143 0.35527813 0 39
0.20514932 -5.1307688 0.40226269 0 40
0.2050648 -5.128655 0.44963136 0 41
0.20494573 -5.1256766 0.4969537 0 42
0.20529345 -5.1343732 0.54554605 0 43
0.2054131 -5.1373658 0.59373444 0 44
0.20530549 -5.1346741 0.64137048 0 45
0.20595263 -5.1508594 0.69160092 0 46
0.20483015 -5.122786 0.73589611 0 47
0.2056184 -5.1424999 0.78710502 0 48
0.20547441 -5.1388988 0.8350333 0 49
0.20534086 -5.1355586 0.88308328 0 50
0.20529726 -5.1344686 0.93163204 0 51
0.20535813 -5.1359906 0.98082185 0 52
0.20487072 -5.1238008 1.027463 0 53
0.20550159 -5.1395788 1.0799282 0 54
0.20507459 -5.1288996 1.1270735 0 55
0.20522676 -5.1327052 1.1775357 0 56
0.20518947 -5.1317725 1.2271482 0 57
0.20565267 -5.1433573 1.2800775 0 58
0.20551035 -5.1397982 1.3295457 0 59
0.20548409 -5.1391411 1.3799635 0 60
0.20558915 -5.1417685 1.431533 0 61
0.20495906 -5.1260104 1.4781139 0 62
0.20490612 -5.1246862 1.528958 0 63
0.12833539 -2.4535348 -0.73243135 0 0
0.13295759 -2.541903 -0.73338807 0 1
0.13815382 -2.6412454 -0.73577327 0 2
0.14321719 -2.7380476 -0.7356385 0 3
0.14899446 -2.8484983 -0.7372582 0 4
0.1548053 -2.9595907 -0.73700023 0 5
0.16023022 -3.0633054 -0.73293644 0 6
0.16680081 -3.1889226 -0.73201191 0 7
0.17390212 -3.3246868 -0.73101312 0 8
0.18241963 -3.4875255 -0.73321468 0 9
0.19239882 -3.6783092 -0.73802084 0 10
0.20064513 -3.8359635 -0.73297095 0 11
0.21199201 -4.0528951 -0.73580152 0 12
0.22344843 -4.2719202 -0.73499352 0 13
0.23713315 -4.5335469 -0.73708606 0 14
0.25039482 -4.7870855 -0.73312157 0 15
0.26761243 -5.1162543 -0.73537487 0 16
0.26795021 -5.1227121 -0.68821198 0 17
0.26769239 -5.1177831 -0.6396234 0 18
0.26841354 -5.1315699 -0.59340119 0 19
0.26755956 -5.1152434 -0.54382193 0 20
0.26840818 -5.1314673 -0.49779752 0 21
0.26763335 -5.1166539 -0.44883385 0 22
0.26741159 -5.1124144 -0.40105116 0 23
0.26828003 -5.1290174 -0.35485736 0 24
0.26689914 -5.1026173 -0.30583903 0 25
0.26793188 -5.1223617 -0.25970021 0 26
0.26825187 -5.128479 -0.21267572 0 27
0.26765788 -5.1171231 -0.16501091 0 28
0.26743707 -5.1129017 -0.11774778 0 29
0.2679525 -5.122756 -0.070776843 0 30
0.26761264 -5.1162581 -0.023561027 0 31
0.26770234 -5.1179733 0.023568926 0 32
0.26760712 -5.1161528 0.07068561 0 33
0.26813284 -5.1262035 0.11805411 0 34
0.26805332 -5.1246829 0.1652547 0 35
0.26743686 -5.1128979 0.21202958 0 36
0.26724505 -5.1092305 0.25903448 0 37
0.26769117 -5.1177597 0.30674663 0 38
0.26683494 -5.1013904 0.35294589 0 39
0.26796207 -5.1229386 0.40187675 0 40
0.26768729 -5.1176853 0.4489243 0 41
0.26670605 -5.0989256 0.49464068 0 42
0.26830763 -5.1295452 0.54534239 0 43
0.26775038 -5.1188917 0.5919351 0 44
0.26745042 -5.1131573 0.63904524 0 45
0.26763597 -5.116704 0.68740487 0 46
0.26781398 -5.1201077 0.73592877 0 47
0.26763874 -5.1167569 0.78360939 0 48
0.26738432 -5.1118937 0.8311165 0 49
0.26734507 -5.1111431 0.87938368 0 50
0.26800552 -5.1237693 0.9302184 0 51
0.26864994 -5.1360893 0.98139733 0 52
0.2674334 -5.1128316 1.0258453 0 53
0.26785156 -5.1208258 1.0765985 0 54
0.26778552 -5.1195631 1.1256603 0 55
0.2679171 -5.1220789 1.1757647 0 56
0.26808459 -5.1252809 1.2262915 0 57
0.2680724 -5.1250477 1.2762445 0 58
0.26773161 -5.1185331 1.3247964 0 59
0.26762545 -5.1165037 1.3746645 0 60
0.26783311 -5.1204734 1.4264132 0 61
0.26849964 -5.1332164 1.4810319 0 62
0.26736286 -5.1114831 1.5258843 0 63
0.15863134 -2.453908 -0.7330696 0 0
0.16428962 -2.5414376 -0.7337811 0 1
0.17118102 -2.6480424 -0.73819727 0 2
0.17651643 -2.7305772 -0.73415905 0 3
0.18326598 -2.8349876 -0.73428905 0 4
0.19002956 -2.939615 -0.73255241 0 5
0.19794816 -3.0621099 -0.73317736 0 6
0.20669581 -3.1974297 -0.73449254 0 7
0.21548431 -3.3333809 -0.7334519 0 8
0.22642244 -3.5025856 -0.73691058 0 9
0.23717654 -3.6689434 -0.73667109 0 10
0.24718836 -3.8238189 -0.73117596 0 11
0.26148996 -4.045054 -0.7349062 0 12
0.27546778 -4.2612805 -0.7336902 0 13
0.29390055 -4.5464215 -0.73971093 0 14
0.3090879 -4.7813587 -0.73277116 0 15
0.33026895 -5.1090131 -0.73486227 0 16
0.32994291 -5.1039696 -0.68618721 0 17
0.32905373 -5.0902147 -0.63663548 0 18
0.32999945 -5.1048446 -0.59073532 0 19
0.32953081 -5.0975947 -0.54233545 0 20
0.32996699 -5.1043425 -0.49552229 0 21
0.32915521 -5.0917845 -0.44697353 0 22
0.33120853 -5.123548 -0.4022136 0 23
0.33000606 -5.1049471 -0.35344601 0 24
0.33019614 -5.1078873 -0.30637512 0 25
0.33042181 -5.1113777 -0.25932974 0 26
0.3302767 -5.1091337 -0.21202585 0 27
0.33076069 -5.1166205 -0.16511337 0 28
0.32936996 -5.0951071 -0.11742236 0 29
0.32986626 -5.1027842 -0.070551619 0 30
0.32931063 -5.0941892 -0.023476269 0 31
0.32978317 -5.1014991 0.023509957 0 32
0.32934216 -5.094677 0.070439525 0 33
0.32957539 -5.0982847 0.1174956 0 34
0.33030188 -5.1095228 0.16488434 0 35
0.32939973 -5.0955672 0.21146286 0 36
0.32951036 -5.0972786 0.25861439 0 37
0.32978955 -5.1015973 0.30599782 0 38
0.33082062 -5.1175475 0.35431841 0 39
0.33102912 -5.1207728 0.40199578 0 40
0.32975665 -5.1010885 0.44779027 0 41
0.3287743 -5.0858922 0.49373117 0 42
0.32954687 -5.0978436 0.54236192 0 43
0.33034718 -5.1102238 0.59135783 0 44
0.32951623 -5.0973692 0.63753033 0 45
0.3306438 -5.1148124 0.6876449 0 46
0.3300533 -5.1056776 0.73438251 0 47
0.32903782 -5.0899687 0.7800675 0 48
0.33043677 -5.1116095 0.83166808 0 49
0.3301371 -5.1069741 0.87929839 0 50
0.32997128 -5.1044087 0.92737001 0 51
0.32960615 -5.0987601 0.97496527 0 52
0.33010444 -5.1064687 1.0253055 0 53
0.32943484 -5.0961103 1.0721729 0 54
0.32988381 -5.103056 1.1228378 0 55
0.33016825 -5.1074557 1.1732512 0 56
0.3292211 -5.092804 1.2193974 0 57
0.33013237 -5.1069007 1.2726402 0 58
0.3300668 -5.1058865 1.3224736 0 59
0.32961601 -5.0989132 1.3709238 0 60
0.33039632 -5.1109838 1.4247938 0 61
0.32997483 -5.1044636 1.4737954 0 62
0.32994819 -5.1040516 1.5247618 0 63
0.18953188 -2.4613874 -0.73594457 0 0
0.19638601 -2.5503998 -0.73701024 0 1
0.20233808 -2.6276975 -0.73316383 0 2
0.20919017 -2.7166834 -0.73105985 0 3
0.21830954 -2.8351133 -0.73496139 0 4
0.22661239 -2.9429398 -0.73401982 0 5
0.23660269 -3.0726805 -0.73634928 0 6
0.24623914 -3.1978259 -0.73522353 0 7
0.25712177 -3.339155 -0.73536247 0 8
0.26939201 -3.4985046 -0.73669314 0 9
0.28040984 -3.6415894 -0.73181581 0 10
0.29495037 -3.8304222 -0.73307669 0 11
0.30999699 -4.0258279 -0.73205042 0 12
0.32910228 -4.273942 -0.73651135 0 13
0.34917113 -4.5345697 -0.73842537 0 14
0.36690542 -4.7648787 -0.73088175 0 15
0.39168787 -5.08672 -0.73229313 0 16
0.39187008 -5.0890865 -0.68478239 0 17
0.39200136 -5.0907917 -0.63726228 0 18
0.39225355 -5.0940666 -0.59000164 0 19
0.39112145 -5.0793643 -0.54086667 0 20
0.39245236 -5.0966482 -0.49520639 0 21
0.39257562 -5.098249 -0.4479309 0 22
0.39119241 -5.0802855 -0.39916486 0 23
0.39218333 -5.0931549 -0.35293677 0 24
0.39251214 -5.0974245 -0.30601391 0 25
0.39212957 -5.0924563 -0.25859484 0 26
0.39228088 -5.0944214 -0.2115995 0 27
0.39147025 -5.0838943 -0.16420023 0 28
0.39367414 -5.1125154 -0.11792621 0 29
0.39140552 -5.0830536 -0.070340045 0 30
0.39167953 -5.0866117 -0.023461772 0 31
0.39159578 -5.0855241 0.023456754 0 32
0.3919208 -5.089745 0.070432648 0 33
0.39125037 -5.0810385 0.11720016 0 34
0.39134535 -5.0822721 0.16414782 0 35
0.39217213 -5.093009 0.21154083 0 36
0.39162344 -5.0858836 0.25826105 0 37
0.39311469 -5.1052499 0.30648369 0 38
0.39172664 -5.0872235 0.35252577 0 39
0.39244241 -5.096519 0.40044034 0 40
0.39217424 -5.0930367 0.44747296 0 41
0.39177454 -5.0878458 0.49435112 0 42
0.39074627 -5.074492 0.54034781 0 43
0.39200327 -5.090816 0.58962518 0 44
0.39117086 -5.0800056 0.63591218 0 45
0.39199176 -5.0906668 0.684995 0 46
0.39135924 -5.0824523 0.73167872 0 47
0.39215598 -5.0927992 0.78118122 0 48
0.39236641 -5.0955319 0.8297745 0 49
0.39196759 -5.0903525 0.87720013 0 50
0.39227623 -5.0943608 0.92635083 0 51
0.39262822 -5.0989323 0.97584754 0 52
0.3907133 -5.0740638 1.0196867 0 53
0.39263037 -5.0989604 1.0737071 0 54
0.39244798 -5.0965915 1.1223923 0 55
0.39226711 -5.0942426 1.1712354 0 56
0.39073092 -5.0742927 1.2160234 0 57
0.39172721 -5.0872312 1.2688429 0 58
0.39160547 -5.08565 1.3183799 0 59
0.39164624 -5.0861793 1.3686916 0 60
0.39192113 -5.0897493 1.4201103 0 61
0.39203539 -5.0912333 1.4712561 0 62
0.39159229 -5.0854788 1.5205369 0 63
0.21906371 -2.450839 -0.73354059 0 0
0.22815134 -2.5525093 -0.73837483 0 1
0.23548773 -2.6345875 -0.73583853 0 2
0.24399741 -2.7297921 -0.73533916 0 3
0.25312993 -2.8319645 -0.73489642 0 4
0.26328257 -2.9455502 -0.73542279 0 5
0.27310681 -3.0554621 -0.73297238 0 6
0.28299046 -3.166038 -0.72866005 0 7
0.29754776 -3.328902 -0.73385477 0 8
0.31185958 -3.4890199 -0.73544782 0 9
0.32606128 -3.6479053 -0.73383528 0 10
0.34303924 -3.8378513 -0.73525017 0 11
0.36081657 -4.0367403 -0.73478591 0 12
0.38223004 -4.2763095 -0.73767352 0 13
0.4049283 -4.5302529 -0.73847747 0 14
0.42483908 -4.7530107 -0.72980744 0 15
0.45345601 -5.0731711 -0.73109001 0 16
0.45381868 -5.0772285 -0.68388593 0 17
0.45291176 -5.0670819 -0.63494349 0 18
0.45295319 -5.0675454 -0.58753061 0 19
0.45349321 -5.0735874 -0.54080439 0 20
0.45348021 -5.0734415 -0.49345607 0 21
0.45326513 -5.0710354 -0.4459959 0 22
0.45340309 -5.0725789 -0.39896721 0 23
0.4539285 -5.0784569 -0.35227844 0 24
0.45380121 -5.077033 -0.30510166 0 25
0.45288289 -5.0667591 -0.25755322 0 26
0.4538953 -5.0780859 -0.21113685 0 27
0.45397985 -5.0790315 -0.16421106 0 28
0.45358741 -5.0746412 -0.11717239 0 29
0.45343944 -5.0729856 -0.070272565 0 30
0.45450243 -5.084878 -0.023477778 0 31
0.45408729 -5.0802336 0.023456333 0 32
0.45313442 -5.0695729 0.070225298 0 33
0.45272869 -5.0650339 0.11695056 0 34
0.45156437 -5.0520077 0.16333735 0 35
0.45326173 -5.0709972 0.21084212 0 36
0.45373744 -5.0763197 0.25803921 0 37
0.45293972 -5.0673947 0.30452245 0 38
0.45334676 -5.0719485 0.35182697 0 39
0.45257699 -5.0633364 0.3982403 0 40
0.45224747 -5.0596499 0.44499457 0 41
0.45393491 -5.0785289 0.49395084 0 42
0.45318612 -5.0701518 0.54043818 0 43
0.45316967 -5.0699673 0.58781141 0 44
0.45312816 -5.0695028 0.63524687 0 45
0.45296043 -5.0676265 0.68259257 0 46
0.4533312 -5.071775 0.73088884 0 47
0.45280313 -5.0658665 0.77784532 0 48
0.45267695 -5.064455 0.82555783 0 49
0.45317358 -5.0700111 0.87458891 0 50
0.45350349 -5.0737023 0.92353851 0 51
0.45339924 -5.072536 0.9717893 0 52
0.45229426 -5.0601735 1.017936 0 53
0.45282474 -5.0661082 1.0678811 0 54
0.45338461 -5.072372 1.1182019 0 55
0.45470253 -5.0871167 1.1707941 0 56
0.45429027 -5.0825047 1.219238 0 57
0.45352885 -5.0739861 1.2668346 0 58
0.45447922 -5.0846186 1.3194613 0 59
0.4531233 -5.0694489 1.3655854 0 60
0.45405057 -5.079823 1.4187912 0 61
0.45300129 -5.0680838 1.4660653 0 62
0.45393071 -5.0784817 1.5199988 0 63
0.2514843 -2.4705825 -0.74031943 0 0
0.25751567 -2.5298345 -0.73267621 0 1
0.26770329 -2.6299179 -0.73539817 0 2
0.27717054 -2.7229242 -0.73435175 0 3
0.28827611 -2.8320253 -0.73577642 0 4
0.29981688 -2.9454017 -0.73625052 0 5
0.3125369 -3.0703633 -0.73741323 0 6
0.32457939 -3.1886687 -0.7347315 0 7
0.33923277 -3.3326237 -0.7355392 0 8
0.35429803 -3.4806249 -0.73454106 0 9
0.3712627 -3.6472857 -0.73457348 0 10
0.39055586 -3.836822 -0.73591739 0 11
0.41098315 -4.0374994 -0.7357884 0 12
0.43228608 -4.2467794 -0.733441 0 13
0.45939732 -4.5131202 -0.73654979 0 14
0.48780456 -4.7921934 -0.73668915 0 15
0.51424873 -5.051981 -0.72889256 0 16
0.51489794 -5.0583587 -0.68214554 0 17
0.51436478 -5.0531211 -0.63393873 0 18
0.51470888 -5.0565014 -0.58693963 0 19
0.51553112 -5.0645795 -0.54047906 0 20
0.51462936 -5.0557203 -0.4923107 0 21
0.51542228 -5.0635099 -0.44585773 0 22
0.51446378 -5.0540938 -0.39798081 0 23
0.51600856 -5.0692692 -0.35205466 0 24
0.51630622 -5.0721936 -0.30516931 0 25
0.51517552 -5.0610857 -0.25756738 0 26
0.51449817 -5.0544314 -0.21040048 0 27
0.51424181 -5.0519128 -0.16352636 0 28
0.51441973 -5.0536609 -0.11682519 0 29
0.5172773 -5.0817332 -0.070476532 0 30
0.51386124 -5.0481744 -0.023335721 0 31
0.51477319 -5.0571337 0.023377135 0 32
0.51381582 -5.0477281 0.070004925 0 33
0.51533991 -5.0627007 0.11703416 0 34
0.51629454 -5.0720792 0.16417912 0 35
0.51517344 -5.0610652 0.21067663 0 36
0.51402324 -5.0497656 0.2569913 0 37
0.51286656 -5.0384026 0.30313626 0 38
0.5165962 -5.0750422 0.35245559 0 39
0.51503927 -5.0597472 0.39842597 0 40
0.51589096 -5.0681143 0.44626316 0 41
0.51363224 -5.0459247 0.49135682 0 42
0.51581329 -5.0673513 0.54077488 0 43
0.51529717 -5.0622811 0.58761048 0 44
0.51444095 -5.0538692 0.63403261 0 45
0.51627421 -5.0718794 0.68396878 0 46
0.51568121 -5.0660534 0.73092288 0 47
0.51407915 -5.0503149 0.77636933 0 48
0.51594913 -5.068686 0.82721919 0 49
0.51413685 -5.0508814 0.87231362 0 50
0.51321644 -5.0418396 0.91881794 0 51
0.51441526 -5.0536175 0.96930349 0 52
0.51361275 -5.045733 1.0162246 0 53
0.51614296 -5.07059 1.0700827 0 54
0.51454335 -5.0548754 1.1156552 0 55
0.51565242 -5.0657711 1.1672524 0 56
0.51451999 -5.054646 1.2139809 0 57
0.51491153 -5.0584922 1.2644515 0 58
0.51544511 -5.0637341 1.3155873 0 59
0.51582372 -5.0674539 1.3666534 0 60
0.5141027 -5.0505462 1.4122732 0 61
0.51504642 -5.0598173 1.4653952 0 62
0.51457351 -5.055172 1.5148014 0 63
0.27992889 -2.4505522 -0.73529309 0 0
0.29025546 -2.5409527 -0.7368741 0 1
0.29770422 -2.6061606 -0.72972345 0 2
0.31157592 -2.7275963 -0.73658931 0 3
0.32268158 -2.8248172 -0.73487908 0 4
0.33533287 -2.9355693 -0.73476791 0 5
0.34872726 -3.0528262 -0.73417568 0 6
0.36309677 -3.1786199 -0.73338938 0 7
0.37793699 -3.3085339 -0.73119283 0 8
0.39814857 -3.4854701 -0.73654109 0 9
0.41743624 -3.6543181 -0.73696792 0 10
0.43716493 -3.8270268 -0.73501414 0 11
0.45936221 -4.0213461 -0.73381853 0 12
0.48699647 -4.2632618 -0.73726612 0 13
0.5145942 -4.5048575 -0.73617834 0 14
0.54325449 -4.7557559 -0.73205924 0 15
0.57578415 -5.0405264 -0.72820634 0 16
0.57599497 -5.0423717 -0.68089324 0 17
0.57462776 -5.0304036 -0.63192737 0 18
0.57532966 -5.0365477 -0.5854004 0 19
0.57473433 -5.0313363 -0.53764498 0 20
0.57648665 -5.0466762 -0.4920831 0 21
0.57535249 -5.0367475 -0.4440906 0 22
0.57603198 -5.042696 -0.39761099 0 23
0.57751328 -5.0556641 -0.35157636 0 24
0.57609874 -5.0432806 -0.30383301 0 25
0.5764634 -5.0464725 -0.25716501 0 26
0.57688457 -5.0501595 -0.21050203 0 27
0.57583982 -5.0410142 -0.16339043 0 28
0.5762518 -5.0446205 -0.11677117 0 29
0.57563221 -5.0391965 -0.069979481 0 30
0.57600969 -5.042501 -0.023340471 0 31
0.57748348 -5.0554028 0.023400193 0 32
0.5761342 -5.043591 0.070040502 0 33
0.57685536 -5.0499043 0.11689348 0 34
0.57615203 -5.0437474 0.16347902 0 35
0.5767206 -5.0487247 0.21044222 0 36
0.57582176 -5.0408559 0.25687879 0 37
0.57572466 -5.0400062 0.30363572 0 38
0.57495397 -5.0332594 0.35001832 0 39
0.57727772 -5.0536017 0.39847088 0 40
0.57675058 -5.0489869 0.44516975 0 41
0.57723141 -5.053196 0.49271882 0 42
0.57645196 -5.0463729 0.5392518 0 43
0.57681769 -5.0495744 0.58691448 0 44
0.57796621 -5.059629 0.63559872 0 45
0.5777154 -5.0574331 0.68292701 0 46
0.57610893 -5.0433698 0.72861707 0 47
0.57627302 -5.044806 0.77655309 0 48
0.57551855 -5.0382018 0.82333678 0 49
0.57631487 -5.0451727 0.87248564 0 50
0.57446212 -5.0289536 0.91768754 0 51
0.57773024 -5.0575628 0.97134936 0 52
0.57591045 -5.0416322 1.0167482 0 53
0.57704431 -5.051558 1.0674831 0 54
0.57480311 -5.0319386 1.1120688 0 55
0.57763606 -5.0567384 1.1667197 0 56
0.57519156 -5.0353394 1.2109512 0 57
0.57437402 -5.028182 1.2585453 0 58
0.57492054 -5.0329661 1.3093313 0 59
0.57465899 -5.0306764 1.3585378 0 60
0.57525527 -5.0358968 1.4100481 0 61
0.57530814 -5.0363593 1.4605399 0 62
0.57547879 -5.0378532 1.511618 0 63
0.31031799 -2.4491298 -0.73595566 0 0
0.32104728 -2.5338089 -0.73589164 0 1
0.33196437 -2.6199703 -0.73467755 0 2
0.34392625 -2.7143772 -0.73410606 0 3
0.35712737 -2.8185647 -0.73433936 0 4
0.37172866 -2.9338028 -0.73541427 0 5
0.38691857 -3.0536864 -0.73547113 0 6
0.40422651 -3.1902864 -0.73717225 0 7
0.4206807 -3.3201482 -0.73484725 0 8
0.43866006 -3.4620471 -0.73267591 0 9
0.46101037 -3.638443 -0.73485404 0 10
0.4849751 -3.8275805 -0.73621017 0 11
0.50796044 -4.0089879 -0.73264784 0 12
0.53683364 -4.2368646 -0.73378718 0 13
0.56620181 -4.468648 -0.73134351 0 14
0.60106725 -4.7438169 -0.73130393 0 15
0.63809681 -5.0360665 -0.72864044 0 16
0.63781053 -5.0338068 -0.68074429 0 17
0.63726455 -5.0294981 -0.63275021 0 18
0.63649231 -5.0234032 -0.58473808 0 19
0.6366359 -5.0245366 -0.5377143 0 20
0.63690943 -5.0266953 -0.49086136 0 21
0.63643217 -5.0229287 -0.44352868 0 22
0.63690406 -5.0266533 -0.39693353 0 23
0.63695425 -5.0270486 -0.35010463 0 24
0.63644052 -5.0229945 -0.3030594 0 25
0.63890821 -5.0424705 -0.25734195 0 26
0.63608468 -5.0201859 -0.20956284 0 27
0.63751966 -5.0315118 -0.16332416 0 28
0.63762414 -5.0323362 -0.11665948 0 29
0.63747197 -5.0311351 -0.069971092 0 30
0.63894266 -5.0427423 -0.023376189 0 31
0.63653475 -5.0237384 0.023288094 0 32
0.63683027 -5.0260706 0.069900662 0 33
0.63741106 -5.0306544 0.1166205 0 34
0.63644576 -5.0230355 0.16304904 0 35
0.63689005 -5.0265427 0.2098282 0 36
0.63604879 -5.0199027 0.25619021 0 37
0.63726676 -5.0295153 0.30345285 0 38
0.63654596 -5.0238266 0.34988022 0 39
0.63567424 -5.0169468 0.39616704 0 40
0.63554662 -5.0159392 0.44291151 0 41
0.63754714 -5.0317283 0.49135286 0 42
0.63766837 -5.0326853 0.53858632 0 43
0.63687038 -5.0263872 0.58508539 0 44
0.63481671 -5.0101786 0.63031965 0 45
0.63752323 -5.0315394 0.68043768 0 46
0.63650107 -5.0234723 0.72681826 0 47
0.63700843 -5.0274763 0.7750327 0 48
0.6345259 -5.0078835 0.81959534 0 49
0.63590056 -5.018733 0.86919981 0 50
0.63865006 -5.0404329 0.92114574 0 51
0.63656312 -5.023962 0.96632636 0 52
0.63559616 -5.0163307 1.0131452 0 53
0.63761669 -5.0322771 1.0649849 0 54
0.63698655 -5.0273042 1.1126914 0 55
0.63588411 -5.0186033 1.1596373 0 56
0.63746464 -5.0310774 1.2117198 0 57
0.63867795 -5.0406532 1.2635369 0 58
0.63739341 -5.0305152 1.3106335 0 59
0.63729227 -5.029717 1.3602921 0 60
0.63774973 -5.0333271 1.4114177 0 61
0.63832831 -5.0378938 1.4631505 0 62
0.63758951 -5.032063 1.5121187 0 63
0.33879748 -2.4335618 -0.73247397 0 0
0.35124573 -2.5229769 -0.73394454 0 1
0.36385563 -2.6135528 -0.7340771 0 2
0.37681714 -2.7066545 -0.73321521 0 3
0.39239988 -2.8185844 -0.73554605 0 4
0.40584621 -2.9151685 -0.73193884 0 5
0.42409369 -3.0462394 -0.73487794 0 6
0.44052911 -3.1642938 -0.73236251 0 7
0.45931873 -3.2992585 -0.73141849 0 8
0.48487076 -3.4827971 -0.7382732 0 9
0.50508118 -3.6279674 -0.7339372 0 10
0.53142941 -3.8172252 -0.73541969 0 11
0.55850333 -4.0116954 -0.7343421 0 12
0.58955461 -4.234735 -0.73461831 0 13
0.6223833 -4.4705415 -0.73285049 0 14
0.66130275 -4.7500978 -0.73347026 0 15
0.69977623 -5.0264502 -0.72843903 0 16
0.6984235 -5.0167336 -0.6795454 0 17
0.69780833 -5.0123148 -0.63162011 0 18
0.69722778 -5.0081449 -0.58391577 0 19
0.69797391 -5.013504 -0.53741145 0 20
0.6954475 -4.995357 -0.4885993 0 21
0.69854176 -5.0175829 -0.44378158 0 22
0.69789147 -5.0129123 -0.39649615 0 23
0.69648576 -5.0028148 -0.34898695 0 24
0.69853258 -5.0175171 -0.30322427 0 25
0.6979093 -5.0130401 -0.25625858 0 26
0.6981557 -5.0148101 -0.20968094 0 27
0.69705451 -5.0069003 -0.16279119 0 28
0.69739985 -5.0093808 -0.11631734 0 29
0.69840103 -5.016572 -0.069882713 0 30
0.69701427 -5.0066113 -0.023246672 0 31
0.69597578 -4.9991517 0.023212036 0 32
0.69807923 -5.0142608 0.069850512 0 33
0.69875419 -5.0191092 0.11654323 0 34
0.69724321 -5.0082555 0.16283526 0 35
0.69814652 -5.0147438 0.20967819 0 36
0.70060736 -5.0324197 0.25724924 0 37
0.69875389 -5.0191069 0.30332032 0 38
0.69865084 -5.0183663 0.35007179 0 39
0.69648236 -5.0027905 0.39569554 0 40
0.69751692 -5.0102215 0.44313049 0 41
0.69941473 -5.0238533 0.49138653 0 42
0.69959885 -5.025176 0.53866261 0 43
0.69895387 -5.0205431 0.58536136 0 44
0.69720727 -5.007997 0.6310761 0 45
0.69727921 -5.0085139 0.67843205 0 46
0.69539505 -4.9949803 0.72387838 0 47
0.69734508 -5.0089869 0.77344579 0 48
0.69841522 -5.016674 0.82237738 0 49
0.69733655 -5.0089259 0.86892068 0 50
0.69782066 -5.0124035 0.91752207 0 51
0.69673878 -5.004632 0.96418339 0 52
0.6977458 -5.0118656 1.0138996 0 53
0.69647038 -5.0027041 1.0604587 0 54
0.69931126 -5.0231099 1.1135823 0 55
0.69789726 -5.0129538 1.1602271 0 56
0.69687158 -5.0055861 1.2075529 0 57
0.69614607 -5.0003748 1.2554913 0 58
0.69766891 -5.011313 1.3077669 0 59
0.69871455 -5.0188241 1.3595669 0 60
0.6995132 -5.0245605 1.4112648 0 61
0.69665545 -5.0040336 1.4556944 0 62
0.69799542 -5.0136585 1.5090533 0 63
0.36919382 -2.4325063 -0.73346728 0 0
0.38311493 -2.5242283 -0.73562342 0 1
0.3950496 -2.6028624 -0.73238343 0 2
0.40970844 -2.6994448 -0.73257148 0 3
0.42572269 -2.8049579 -0.73330069 0 4
0.44306898 -2.9192474 -0.7342754 0 5
0.46180379 -3.0426855 -0.73533493 0 6
0.48220012 -3.1770706 -0.73663628 0 7
0.50153697 -3.3044755 -0.73388678 0 8
0.52263314 -3.4434714 -0.73124403 0 9
0.54693139 -3.6035652 -0.73030597 0 10
0.58053803 -3.8249893 -0.738235 0 11
0.60835278 -4.0082521 -0.73502564 0 12
0.64247316 -4.2330613 -0.73564285 0 13
0.67625469 -4.4556375 -0.73171514 0 14
0.72125649 -4.7521405 -0.73509961 0 15
0.75830191 -4.9962215 -0.72535479 0 16
0.75802159 -4.9943748 -0.67772812 0 17
0.75797647 -4.9940772 -0.63044882 0 18
0.75759804 -4.9915843 -0.58302701 0 19
0.75901115 -5.0008945 -0.53701967 0 20
0.75666153 -4.985414 -0.48849988 0 21
0.7580021 -4.994246 -0.44250846 0 22
0.75938874 -5.0033822 -0.396451 0 23
0.75896251 -5.0005741 -0.34945527 0 24
0.75852591 -4.9976978 -0.3025673 0 25
0.75924891 -5.0024614 -0.2561757 0 26
0.75664026 -4.9852738 -0.2088192 0 27
0.75938958 -5.0033879 -0.16296828 0 28
0.7590887 -5.0014057 -0.11634011 0 29
0.75700426 -4.9876719 -0.069604531 0 30
0.75914705 -5.00179 -0.023265872 0 31
0.75827622 -4.9960523 0.023239182 0 32
0.75784284 -4.993197 0.069681637 0 33
0.75820732 -4.9955983 0.11620502 0 34
0.75737083 -4.9900875 0.16253506 0 35
0.75729346 -4.9895773 0.20899945 0 36
0.75516224 -4.9755354 0.2547968 0 37
0.75897169 -5.0006347 0.30274513 0 38
0.75933737 -5.0030441 0.34962785 0 39
0.75704813 -4.9879608 0.39522904 0 40
0.76020694 -5.0087733 0.44379562 0 41
0.75863266 -4.9984012 0.48977241 0 42
0.75862575 -4.9983554 0.53674704 0 43
0.76004881 -5.0077314 0.58491307 0 44
0.75547683 -4.9776082 0.62836975 0 45
0.75975668 -5.0058069 0.67927945 0 46
0.75783563 -4.9931493 0.72490877 0 47
0.75881535 -4.9996047 0.77337933 0 48
0.75844616 -4.9971719 0.82064724 0 49
0.75829077 -4.9961481 0.86825597 0 50
0.75653255 -4.9845638 0.91405982 0 51
0.75831431 -4.9963036 0.9643023 0 52
0.75829518 -4.9961772 1.0125356 0 53
0.75714147 -4.9885759 1.0593572 0 54
0.75855994 -4.9979215 1.1099821 0 55
0.75826967 -4.9960093 1.1583759 0 56
0.75797081 -4.99404 1.2069247 0 57
0.75796044 -4.9939718 1.2561288 0 58
0.75951391 -5.0042071 1.3082509 0 59
0.75848264 -4.9974127 1.3561907 0 60
0.75853091 -4.9977303 1.4062424 0 61
0.75914109 -5.0017505 1.4576356 0 62
0.75877988 -4.9993711 1.5074472 0 63
0.40110469 -2.4401312 -0.73719788 0 0
0.41377366 -2.5172033 -0.73500335 0 1
0.42890242 -2.6092396 -0.73560625 0 2
0.44456428 -2.704519 -0.73537642 0 3
0.46031246 -2.8003235 -0.73351341 0 4
0.4796437 -2.9179256 -0.73537081 0 5
0.49700528 -3.023545 -0.73213083 0 6
0.51977819 -3.1620846 -0.73458803 0 7
0.54184479 -3.2963274 -0.73350149 0 8
0.56953228 -3.4647651 -0.73719734 0 9
0.59456962 -3.6170805 -0.73447114 0 10
0.62447608 -3.7990172 -0.73464876 0 11
0.65347224 -3.9754162 -0.7304225 0 12
0.69593823 -4.2337589 -0.73719555 0 13
0.73573953 -4.4758916 -0.73647135 0 14
0.78080785 -4.7500658 -0.7362082 0 15
0.82314324 -5.0076146 -0.72842324 0 16
0.81717891 -4.9713302 -0.67591351 0 17
0.82127184 -4.9962296 -0.63194764 0 18
0.81780517 -4.9751401 -0.58223683 0 19
0.81828392 -4.9780526 -0.5356068 0 20
0.81977636 -4.9871321 -0.48961893 0 21
0.8197611 -4.9870391 -0.44272953 0 22
0.81883276 -4.9813914 -0.39547643 0 23
0.81805933 -4.9766865 -0.34846252 0 24
0.81974679 -4.9869518 -0.30250412 0 25
0.81849599 -4.9793429 -0.25548789 0 26
0.82042307 -4.991066 -0.20946856 0 27
0.81963831 -4.9862919 -0.16272742 0 28
0.81640214 -4.9666047 -0.11575535 0 29
0.81957996 -4.9859366 -0.069715686 0 30
0.82081777 -4.9934673 -0.023272347 0 31
