# .PCD v0.7 - Point Cloud Data file format
VERSION 0.7
FIELDS x y z intensity ring
SIZE 4 4 4 4 2
TYPE F F F F U
COUNT 1 1 1 1 1
WIDTH 1397
HEIGHT 1
VIEWPOINT 0 0 0 1 0 0 0
POINTS 1397
DATA ascii
3.3077371 0.47086406 -0.73361546 0 8
3.4783657 0.49515343 -0.73765284 0 9
3.6299758 0.51673549 -0.73466122 0 10
3.8043482 0.54155779 -0.73325592 0 11
4.0114193 0.57103479 -0.73460925 0 12
4.2203302 0.60077375 -0.73243624 0 13
4.4813771 0.63793445 -0.73494464 0 14
4.7809253 0.68057579 -0.73854983 0 15
5.0602002 0.72033125 -0.73364747 0 16
5.2277193 0.74417794 -0.70843101 0 17
5.2262688 0.74397147 -0.65886623 0 18
5.232543 0.74486458 -0.61034304 0 19
5.2314973 0.74471575 -0.56102139 0 20
5.2356124 0.74530154 -0.5123204 0 21
5.2411852 0.74609482 -0.46375868 0 22
5.2424088 0.74626905 -0.41482759 0 23
5.237606 0.74558532 -0.36552364 0 24
5.2343721 0.745125 -0.31646636 0 25
5.2258177 0.74390727 -0.26725101 0 26
5.2233591 0.74355727 -0.21849537 0 27
5.2293768 0.74441385 -0.17009822 0 28
5.2302818 0.74454278 -0.1214992 0 29
5.223856 0.74362797 -0.072801732 0 30
5.2347283 0.74517572 -0.024316382 0 31
5.2278423 0.74419546 0.024284394 0 32
5.23248 0.74485564 0.072921924 0 33
5.2302256 0.74453473 0.12149788 0 34
5.2348776 0.74519694 0.17027715 0 35
5.2373805 0.74555326 0.21908188 0 36
5.2457056 0.74673831 0.26826808 0 37
5.2234306 0.74356747 0.31580484 0 38
5.2165747 0.7425915 0.3640559 0 39
5.2375464 0.74557686 0.41444281 0 40
5.2436376 0.74644399 0.46397573 0 41
5.2345781 0.74515432 0.51221919 0 42
5.240643 0.74601769 0.56200218 0 43
5.2253885 0.74384618 0.60950851 0 44
5.2328887 0.74491382 0.65970075 0 45
5.2319775 0.74478412 0.7090081 0 46
5.2396636 0.74587822 0.75966668 0 47
5.2246013 0.74373412 0.8070882 0 48
5.2314997 0.74471611 0.85796452 0 49
5.2279563 0.74421167 0.90730929 0 50
5.2334452 0.74499309 0.95839834 0 51
5.2358747 0.74533886 1.0091705 0 52
5.2426434 0.74630243 1.0610448 0 53
5.2243977 0.74370509 1.1079317 0 54
5.2341843 0.74509829 1.1608777 0 55
5.2372961 0.74554127 1.2126747 0 56
5.2232952 0.74354821 1.2606184 0 57
5.2428584 0.74633306 1.3169434 0 58
5.2295399 0.74443716 1.3653065 0 59
5.2429438 0.74634522 1.420894 0 60
5.2364964 0.74542737 1.4714282 0 61
5.2271008 0.7440899 1.5212435 0 62
5.2391005 0.74579811 1.5775911 0 63
2.4363086 0.37743285 -0.73496002 0 0
2.5187125 0.39019886 -0.73436195 0 1
2.6143103 0.40500885 -0.73595136 0 2
2.6952605 0.41754967 -0.73178071 0 3
2.8132024 0.43582121 -0.73580265 0 4
2.9081752 0.4505344 -0.73183519 0 5
3.0458453 0.47186223 -0.73644549 0 6
3.1733902 0.49162149 -0.7361297 0 7
3.3190062 0.5141803 -0.73746133 0 8
3.4438074 0.5335145 -0.73166001 0 9
3.6369267 0.56343257 -0.73741442 0 10
3.8095176 0.59017032 -0.73559541 0 11
4.0256453 0.62365282 -0.738563 0 12
4.2064729 0.65166664 -0.73136669 0 13
4.4861541 0.69499481 -0.73707384 0 14
4.7765198 0.73997831 -0.73921901 0 15
5.0559392 0.78326589 -0.73437053 0 16
5.2662144 0.81584173 -0.71495312 0 17
5.2639856 0.81549644 -0.66483504 0 18
5.2658448 0.81578451 -0.61535108 0 19
5.2677546 0.81608039 -0.56594294 0 20
5.2782936 0.81771308 -0.51744169 0 21
5.2783942 0.81772858 -0.4679054 0 22
5.2601771 0.81490648 -0.41699499 0 23
5.260262 0.81491959 -0.36777627 0 24
5.2692242 0.81630796 -0.3191562 0 25
5.2669559 0.81595665 -0.26984757 0 26
5.272593 0.81682992 -0.22095829 0 27
5.2809305 0.81812155 -0.17208935 0 28
5.2791653 0.81784809 -0.12285908 0 29
5.2808561 0.81811005 -0.073730744 0 30
5.2634201 0.81540883 -0.024494383 0 31
5.2810082 0.81813359 0.024576236 0 32
5.284771 0.81871653 0.073785394 0 33
5.2772751 0.81755525 0.12281509 0 34
5.2816253 0.81822914 0.17211199 0 35
5.2757673 0.81732166 0.2210913 0 36
5.2605481 0.81496394 0.26951924 0 37
5.2738929 0.81703126 0.31943899 0 38
5.2748175 0.81717449 0.36879393 0 39
5.2667174 0.81591964 0.41751343 0 40
5.2810488 0.81813985 0.46814075 0 41
5.2757812 0.81732386 0.5171954 0 42
5.2694831 0.81634814 0.56612867 0 43
5.2865043 0.8189851 0.61776531 0 44
5.2689552 0.81626636 0.66546267 0 45
5.2759523 0.81735033 0.71627516 0 46
5.2506247 0.81342661 0.76264846 0 47
5.2788301 0.81779617 0.81695706 0 48
5.2837958 0.81856543 0.86812615 0 49
5.2859697 0.81890225 0.91905558 0 50
5.2891002 0.8193872 0.97036219 0 51
5.2748246 0.81717563 1.0185375 0 52
5.2736697 0.81699669 1.0692765 0 53
5.271997 0.81673759 1.1200713 0 54
5.2754869 0.81727821 1.1721784 0 55
5.2676644 0.81606638 1.2219374 0 56
5.2816005 0.81822538 1.2770219 0 57
5.268178 0.8161459 1.325724 0 58
5.2830024 0.81844252 1.3817872 0 59
5.2799225 0.81796539 1.4335331 0 60
5.2706242 0.81652486 1.483727 0 61
5.2722645 0.81677902 1.5371943 0 62
5.2628965 0.8153277 1.5876553 0 63
2.4218035 0.40573826 -0.73203403 0 0
2.5091844 0.42037764 -0.73303556 0 1
2.5970399 0.43509659 -0.73254031 0 2
2.6939476 0.45133209 -0.73287565 0 3
2.8005176 0.46918634 -0.7339384 0 4
2.9119711 0.48785877 -0.73424447 0 5
3.0432951 0.50986022 -0.73728901 0 6
3.163624 0.53001958 -0.73532051 0 7
3.2836437 0.55012715 -0.73105174 0 8
3.4438355 0.57696497 -0.73311788 0 9
3.6151352 0.60566378 -0.73445058 0 10
3.7973723 0.636195 -0.73470527 0 11
3.9821191 0.66714668 -0.73202729 0 12
4.2230973 0.70751905 -0.73571414 0 13
4.4741488 0.74957907 -0.73656005 0 14
4.7209387 0.79092526 -0.73206705 0 15
5.0665913 0.84883434 -0.73737806 0 16
5.3200393 0.89129585 -0.72369367 0 17
5.3223972 0.89169097 -0.67354625 0 18
5.3064771 0.88902378 -0.62132972 0 19
5.3097143 0.88956606 -0.57158285 0 20
5.3204246 0.89136046 -0.52260685 0 21
5.3238783 0.89193904 -0.47287387 0 22
5.3354721 0.89388144 -0.42380321 0 23
5.3181891 0.89098591 -0.37256414 0 24
5.3200812 0.89130294 -0.32287607 0 25
5.3027515 0.88839954 -0.27222061 0 26
5.3307185 0.89308506 -0.22383744 0 27
5.3052158 0.88881242 -0.17322379 0 28
5.3272619 0.89250594 -0.12422442 0 29
5.338274 0.89435089 -0.074680306 0 30
5.3268204 0.89243197 -0.024838621 0 31
5.3191676 0.89114988 0.024802938 0 32
5.3218341 0.89159662 0.074450314 0 33
5.3308396 0.89310533 0.12430785 0 34
5.3249779 0.89212328 0.17386904 0 35
5.3250465 0.89213473 0.22359927 0 36
5.3235207 0.89187914 0.27328682 0 37
5.3315139 0.89321834 0.32356992 0 38
5.3350129 0.89380455 0.37374273 0 39
5.3105726 0.88970989 0.42182541 0 40
5.3182664 0.89099884 0.47237539 0 41
5.3356161 0.89390558 0.52409905 0 42
5.3257861 0.89225864 0.573313 0 43
5.3285642 0.8927241 0.62391585 0 44
5.3126216 0.89005315 0.67230916 0 45
5.3041291 0.88863033 0.72152936 0 46
5.3215613 0.8915509 0.77448577 0 47
5.3223939 0.89169037 0.82533354 0 48
5.3286724 0.89274222 0.87723666 0 49
5.3188801 0.89110166 0.92661262 0 50
5.2991986 0.88780433 0.9741441 0 51
5.3285861 0.89272773 1.0309603 0 52
5.330739 0.89308846 1.0829924 0 53
5.2993908 0.88783652 1.1281254 0 54
5.3102412 0.8896544 1.1822419 0 55
5.3217387 0.89158064 1.2369307 0 56
5.327002 0.89246243 1.2905551 0 57
5.3422003 0.89500868 1.3470193 0 58
5.3147378 0.89040774 1.3928462 0 59
5.2963891 0.88733369 1.4408575 0 60
5.3320527 0.89330858 1.5039983 0 61
5.3249369 0.89211643 1.5556324 0 62
5.3184786 0.89103448 1.6076065 0 63
2.4229119 0.43661669 -0.73393631 0 0
2.5128028 0.45281532 -0.73566377 0 1
2.5958498 0.46778068 -0.73377162 0 2
2.6866353 0.48414052 -0.73245049 0 3
2.7999134 0.50455362 -0.73535043 0 4
2.9039214 0.52329618 -0.73378181 0 5
3.0050268 0.54151571 -0.72957587 0 6
3.1474128 0.56717414 -0.73311812 0 7
3.2812505 0.59129214 -0.73208237 0 8
3.4382715 0.61958784 -0.73349983 0 9
3.6116319 0.65082794 -0.73530912 0 10
3.762141 0.6779502 -0.72944653 0 11
3.9841754 0.71796155 -0.73397273 0 12
4.2221313 0.76084197 -0.73712003 0 13
4.4421172 0.80048418 -0.73285192 0 14
4.7188826 0.85035813 -0.73331416 0 15
5.0583196 0.91152585 -0.73774976 0 16
5.3592072 0.96574682 -0.730582 0 17
5.7874322 1.0429143 -0.73396355 0 18
6.3008976 1.1354425 -0.73934424 0 19
6.4842772 1.1684881 -0.69951671 0 20
6.4635868 1.1647596 -0.63625443 0 21
6.4608464 1.1642659 -0.57508904 0 22
6.473619 1.1665674 -0.51530808 0 23
6.4685984 1.1656626 -0.45412549 0 24
6.4581852 1.1637863 -0.39278647 0 25
6.4655261 1.165109 -0.33262283 0 26
6.4569793 1.1635689 -0.27170947 0 27
6.4753089 1.1668719 -0.21188167 0 28
6.4796715 1.1676581 -0.15142038 0 29
6.4687967 1.1656984 -0.090689525 0 30
6.4574175 1.1636479 -0.030174963 0 31
6.4461379 1.1616153 0.030122254 0 32
6.4643369 1.1648948 0.090627 0 33
6.4636102 1.1647638 0.15104507 0 34
6.4728503 1.1664289 0.21180123 0 35
6.4674664 1.1654587 0.27215078 0 36
6.4819431 1.1680675 0.33346742 0 37
6.4704757 1.166001 0.39353397 0 38
6.4678197 1.1655225 0.45407087 0 39
6.471909 1.1662593 0.51517195 0 40
6.4789143 1.1675217 0.57669723 0 41
6.4590726 1.1639462 0.63581008 0 42
6.4771323 1.1672006 0.69874591 0 43
6.4732327 1.1664978 0.75956595 0 44
6.4542198 1.1630718 0.81852573 0 45
6.463675 1.1647755 0.88114601 0 46
6.4688931 1.1657158 0.94348007 0 47
6.4681182 1.1655762 1.0051453 0 48
6.4698253 1.1658838 1.0673792 0 49
6.4824467 1.1681582 1.1317368 0 50
6.4649129 1.1649985 1.190979 0 51
6.4743743 1.1667036 1.2553252 0 52
6.475069 1.1668288 1.3182898 0 53
6.4635434 1.1647518 1.3788929 0 54
6.4686046 1.1656638 1.4432154 0 55
6.4755344 1.1669127 1.5083283 0 56
6.4703474 1.1659778 1.5709044 0 57
6.47578 1.1669569 1.6363424 0 58
6.4802222 1.1677574 1.7019221 0 59
6.4634051 1.1647269 1.7621017 0 60
0 0 0 0 61
0 0 0 0 62
0 0 0 0 63
2.3954628 0.46215007 -0.72728801 0 0
2.5150099 0.48521397 -0.73800087 0 1
2.5852716 0.49876934 -0.73245972 0 2
2.6868384 0.51836437 -0.73418808 0 3
2.7680466 0.53403169 -0.72865075 0 4
2.8893332 0.55743116 -0.7317723 0 5
3.0239363 0.58339971 -0.7358529 0 6
3.1491115 0.60754949 -0.73519838 0 7
3.2877092 0.63428879 -0.73520797 0 8
3.4370322 0.6630972 -0.73491937 0 9
3.5776491 0.69022602 -0.7300632 0 10
3.7885497 0.73091453 -0.73625392 0 11
3.9853599 0.76888454 -0.73587698 0 12
4.2252712 0.81516999 -0.7393623 0 13
4.4252639 0.8537541 -0.73174816 0 14
4.7248225 0.91154706 -0.73592347 0 15
5.0382009 0.97200626 -0.73650295 0 16
5.3757148 1.0371219 -0.73451531 0 17
5.7977414 1.1185423 -0.73695952 0 18
6.2170734 1.199443 -0.73118371 0 19
6.5342569 1.2606363 -0.70652729 0 20
6.5196881 1.2578256 -0.64325076 0 21
6.5251379 1.258877 -0.58214557 0 22
6.5290494 1.2596316 -0.52091396 0 23
6.524374 1.2587296 -0.45909315 0 24
6.5413513 1.262005 -0.39875829 0 25
6.5105319 1.2560591 -0.33570737 0 26
6.5456553 1.2628354 -0.27607355 0 27
6.5148702 1.256896 -0.21366575 0 28
6.5263782 1.2591163 -0.15286212 0 29
6.5311437 1.2600358 -0.091773883 0 30
6.5192881 1.2577484 -0.03053404 0 31
6.5297756 1.2597717 0.030583162 0 32
6.5383959 1.2614348 0.091875784 0 33
6.5234437 1.2585502 0.15279338 0 34
6.5263972 1.2591199 0.2140438 0 35
6.5229845 1.2584616 0.27511737 0 36
6.524581 1.2587695 0.3364318 0 37
6.5249343 1.2588377 0.39775753 0 38
6.5222774 1.2583251 0.4589456 0 39
6.5276546 1.2593626 0.52080274 0 40
6.5339174 1.2605708 0.58292884 0 41
6.5295453 1.2597272 0.64422327 0 42
6.5377765 1.2613153 0.70690787 0 43
6.5391793 1.261586 0.76906627 0 44
6.5197587 1.2578392 0.82873631 0 45
6.5329785 1.2603897 0.89263904 0 46
6.5295362 1.2597256 0.95451194 0 47
6.525022 1.2588546 1.0163169 0 48
6.5182877 1.2575554 1.0778441 0 49
6.5329847 1.2603909 1.1431793 0 50
6.5265107 1.2591418 1.2050879 0 51
6.5348206 1.260745 1.2699549 0 52
6.531096 1.2600265 1.3327503 0 53
6.5355201 1.26088 1.3974499 0 54
6.5297985 1.2597762 1.4602143 0 55
6.5228882 1.2584429 1.5228475 0 56
6.5179272 1.2574859 1.5860902 0 57
6.5209746 1.2580738 1.6515466 0 58
6.5297256 1.259762 1.7188617 0 59
0 0 0 0 60
0 0 0 0 61
0 0 0 0 62
0 0 0 0 63
2.4099634 0.49575779 -0.733486 0 0
2.4897444 0.51216966 -0.73237967 0 1
2.5789456 0.53051943 -0.73246038 0 2
2.6855862 0.55245668 -0.73564667 0 3
2.7789812 0.5716691 -0.73332405 0 4
2.8848431 0.59344614 -0.73242784 0 5
3.0189233 0.62102795 -0.73643559 0 6
3.1423445 0.6464172 -0.73541868 0 7
3.2706447 0.67281002 -0.73318654 0 8
3.4223132 0.70401001 -0.73356766 0 9
3.5805132 0.73655367 -0.73244047 0 10
3.7799366 0.7775774 -0.7363826 0 11
3.9890003 0.82058424 -0.73835653 0 12
4.1818013 0.86024565 -0.7335512 0 13
4.4430304 0.91398352 -0.73648864 0 14
4.7238541 0.97175229 -0.73757803 0 15
4.9854441 1.0255644 -0.73057908 0 16
5.353838 1.1013473 -0.73332113 0 17
5.8071032 1.1945894 -0.73996079 0 18
6.1962247 1.2746363 -0.73051989 0 19
6.5761886 1.3527992 -0.71280599 0 20
6.5586596 1.3491933 -0.64868361 0 21
6.5807223 1.3537319 -0.58854514 0 22
6.5572553 1.3489044 -0.52444804 0 23
6.581625 1.3539176 -0.46425804 0 24
6.5720959 1.3519573 -0.40161553 0 25
6.5689321 1.3513066 -0.33954984 0 26
6.5876579 1.3551587 -0.27852684 0 27
6.58531 1.3546757 -0.21650589 0 28
6.582581 1.3541143 -0.15455683 0 29
6.5790448 1.3533868 -0.092673816 0 30
6.5758286 1.3527253 -0.030874431 0 31
6.5827303 1.3541449 0.030906834 0 32
6.5792165 1.3534222 0.092676237 0 33
6.5710144 1.3517349 0.15428524 0 34
6.5851302 1.3546386 0.21649997 0 35
6.5687718 1.3512735 0.27772835 0 36
6.583653 1.3543348 0.34031078 0 37
6.5783095 1.3532356 0.40199524 0 38
6.5717196 1.35188 0.46355933 0 39
6.5863743 1.3548946 0.52677703 0 40
6.5844002 1.3544885 0.5888741 0 41
6.5756755 1.3526937 0.65036654 0 42
6.5783901 1.3532521 0.71304458 0 43
6.592926 1.3562423 0.77728999 0 44
6.5857229 1.3547606 0.83917516 0 45
6.5837822 1.3543614 0.90178794 0 46
6.5862241 1.3548636 0.9651612 0 47
6.5757079 1.3527004 1.0267247 0 48
6.572691 1.3520797 1.089507 0 49
6.5922298 1.3560991 1.1563768 0 50
6.5834365 1.3542902 1.2185818 0 51
6.571197 1.3517724 1.2801577 0 52
6.5819373 1.3539819 1.3464208 0 53
6.5719032 1.3519177 1.4086776 0 54
6.586668 1.354955 1.4765457 0 55
6.5828643 1.3541725 1.5406207 0 56
6.583992 1.3544044 1.6060978 0 57
6.5885658 1.3553455 1.6727597 0 58
6.5825286 1.3541034 1.7370131 0 59
0 0 0 0 60
0 0 0 0 61
0 0 0 0 62
0 0 0 0 63
2.4189818 0.52869523 -0.73815358 0 0
2.4890642 0.54401255 -0.73409182 0 1
2.5795071 0.56377983 -0.73453325 0 2
2.6809478 0.58595079 -0.73629403 0 3
2.7800958 0.60762072 -0.73553425 0 4
2.9062264 0.63518798 -0.73978388 0 5
2.9931822 0.6541931 -0.73206329 0 6
3.1231458 0.68259811 -0.73283446 0 7
3.2665517 0.71394104 -0.73418152 0 8
3.4156866 0.74653614 -0.73405945 0 9
3.5848293 0.78350413 -0.73523861 0 10
3.7682028 0.82358247 -0.73601395 0 11
3.963402 0.86624539 -0.73553431 0 12
4.1799331 0.9135707 -0.73513854 0 13
4.4376683 0.96990156 -0.73752105 0 14
4.6743221 1.0216249 -0.73175031 0 15
4.9882426 1.0902357 -0.73289829 0 16
5.3548789 1.1703681 -0.73537928 0 17
5.7173061 1.2495806 -0.73042125 0 18
6.2054672 1.3562735 -0.73352027 0 19
6.6457639 1.4525052 -0.72222877 0 20
6.6378412 1.4507737 -0.65822965 0 21
6.6412215 1.4515126 -0.59550714 0 22
6.638413 1.4508986 -0.53232574 0 23
6.6363974 1.4504582 -0.46934423 0 24
6.639163 1.4510626 -0.40677357 0 25
6.6419058 1.4516621 -0.34421855 0 26
6.6424079 1.4517719 -0.28157514 0 27
6.6388721 1.450999 -0.21883692 0 28
6.6378412 1.4507737 -0.15626137 0 29
6.6383743 1.4508903 -0.09375377 0 30
6.6432581 1.4519576 -0.031272482 0 31
6.6375284 1.4507054 0.031245513 0 32
6.6455364 1.4524555 0.093854919 0 33
6.6332355 1.4497671 0.15615293 0 34
6.6430368 1.4519093 0.2189742 0 35
6.6396823 1.4511762 0.2814596 0 36
6.6389079 1.4510069 0.34406316 0 37
6.6425185 1.4517959 0.40697914 0 38
6.6467447 1.4527197 0.47007599 0 39
6.6245112 1.4478602 0.53121096 0 40
6.6520119 1.4538709 0.59647471 0 41
6.6398878 1.4512211 0.65843266 0 42
6.6427283 1.4518418 0.72189885 0 43
6.6486254 1.4531307 0.78590399 0 44
6.6460075 1.4525586 0.84906858 0 45
6.6361475 1.4504036 0.91133446 0 46
6.65868 1.4553283 0.97832757 0 47
6.6455393 1.4524562 1.0403382 0 48
6.6390004 1.451027 1.1033728 0 49
6.6503677 1.4535116 1.1696219 0 50
6.6482663 1.4530522 1.2337956 0 51
6.6417384 1.4516255 1.2972795 0 52
6.6467724 1.4527258 1.3632348 0 53
6.6434283 1.4519949 1.4277281 0 54
6.6526814 1.4540173 1.495239 0 55
6.6370444 1.4505997 1.5573577 0 56
6.6532502 1.4541415 1.6272316 0 57
6.6379242 1.4507918 1.6896926 0 58
6.633163 1.4497513 1.7549461 0 59
0 0 0 0 60
0 0 0 0 61
0 0 0 0 62
0 0 0 0 63
2.3963926 0.55471617 -0.73328656 0 0
2.4803884 0.57415944 -0.73355991 0 1
2.5696754 0.59482759 -0.73376089 0 2
2.6669235 0.61733854 -0.73447168 0 3
2.7609541 0.63910472 -0.7324937 0 4
2.855655 0.66102606 -0.72892487 0 5
2.9958117 0.69346946 -0.73473644 0 6
3.119566 0.72211605 -0.7340225 0 7
3.2652314 0.75583464 -0.73591805 0 8
3.4090643 0.78912908 -0.73466611 0 9
3.5655096 0.82534289 -0.73330224 0 10
3.7400398 0.86574316 -0.73253703 0 11
3.9474852 0.91376251 -0.73461014 0 12
4.173358 0.96604741 -0.73601562 0 13
4.3943448 1.0172014 -0.73234427 0 14
4.6731677 1.0817432 -0.7335965 0 15
5.0018177 1.157819 -0.73692894 0 16
5.3511925 1.2386922 -0.73690909 0 17
5.704339 1.3204384 -0.7307837 0 18
6.2061663 1.4366013 -0.7356354 0 19
6.6876836 1.5480627 -0.72879797 0 20
6.6887989 1.5483209 -0.66512048 0 21
6.6983724 1.550537 -0.60229588 0 22
6.6892457 1.5484242 -0.53788805 0 23
6.6986518 1.5506016 -0.47505954 0 24
6.6933012 1.549363 -0.41122672 0 25
6.6937299 1.5494622 -0.34786546 0 26
6.7028809 1.5515805 -0.28492588 0 27
6.694901 1.5497334 -0.22129522 0 28
6.6857309 1.5476106 -0.15782478 0 29
6.7080746 1.5527828 -0.095000625 0 30
6.6905813 1.5487335 -0.031582512 0 31
6.6946578 1.549677 0.031601757 0 32
6.6917748 1.5490098 0.094769791 0 33
6.7035398 1.5517331 0.15824519 0 34
6.7104125 1.553324 0.22180794 0 35
6.6865845 1.5478083 0.28423312 0 36
6.7042603 1.5518999 0.34841272 0 37
6.7048049 1.5520259 0.41193351 0 38
6.7025232 1.5514978 0.47533411 0 39
6.6879687 1.5481287 0.53778541 0 40
6.699831 1.5508746 0.60242701 0 41
6.7115388 1.5535847 0.6673817 0 42
6.6975522 1.5503471 0.72987342 0 43
6.6765056 1.5454752 0.79138613 0 44
6.700345 1.5509936 0.85838223 0 45
6.7033224 1.5516828 0.92311001 0 46
6.6893172 1.5484408 0.98555195 0 47
6.6973214 1.5502937 1.0513492 0 48
6.7023234 1.5514516 1.1169829 0 49
6.690475 1.5487088 1.1799358 0 50
6.6940646 1.5495397 1.2457367 0 51
6.6884341 1.5482365 1.3100196 0 52
6.6925831 1.5491968 1.3764334 0 53
6.6926808 1.5492195 1.4422978 0 54
6.6925998 1.5492007 1.5083785 0 55
6.7022548 1.5514357 1.5770161 0 56
6.6859059 1.5476512 1.6397489 0 57
6.6968217 1.5501781 1.709408 0 58
0 0 0 0 59
0 0 0 0 60
0 0 0 0 61
0 0 0 0 62
0 0 0 0 63
2.4014947 0.58709818 -0.73700106 0 0
2.5002286 0.61123586 -0.74159425 0 1
2.5768576 0.62996948 -0.73796785 0 2
2.6594143 0.65015233 -0.73454988 0 3
2.7556431 0.67367756 -0.73322695 0 4
2.8739564 0.70260179 -0.73574609 0 5
2.9944217 0.73205221 -0.73654759 0 6
3.0992756 0.75768608 -0.73138517 0 7
3.2524836 0.79514116 -0.73519301 0 8
3.403378 0.83203059 -0.73558986 0 9
3.5550737 0.86911595 -0.73329848 0 10
3.7374473 0.91370118 -0.73417437 0 11
3.9459441 0.9646728 -0.73647511 0 12
4.1394606 1.0119821 -0.73217672 0 13
4.3869114 1.072477 -0.73324782 0 14
4.6591158 1.1390233 -0.7335338 0 15
4.9928012 1.2206001 -0.73775607 0 16
5.2998309 1.2956603 -0.73197478 0 17
5.7061863 1.3950027 -0.73316252 0 18
6.1985631 1.5153751 -0.73688722 0 19
6.6802125 1.6331248 -0.73011702 0 20
6.7544823 1.6512817 -0.67362005 0 21
6.75667 1.6518165 -0.60931808 0 22
6.7620921 1.6531421 -0.54533905 0 23
6.7660775 1.6541165 -0.4812474 0 24
6.7498312 1.6501447 -0.41591507 0 25
6.75243 1.65078 -0.35194433 0 26
6.7641106 1.6536356 -0.28837118 0 27
6.7545209 1.6512913 -0.22392015 0 28
6.7575216 1.6520247 -0.15998693 0 29
6.7629194 1.6533443 -0.096058004 0 30
6.7661657 1.654138 -0.032032896 0 31
6.7659974 1.6540968 0.032032099 0 32
6.7453651 1.6490529 0.09580867 0 33
6.7662497 1.6541585 0.16019358 0 34
6.7496829 1.6501085 0.22375977 0 35
6.7504592 1.6502981 0.28778917 0 36
6.7505012 1.6503084 0.3518438 0 37
6.7601938 1.652678 0.41655359 0 38
6.7581692 1.6521831 0.48068491 0 39
6.7578869 1.652114 0.54499996 0 40
6.7666273 1.6542509 0.61021602 0 41
6.7599196 1.652611 0.67416233 0 42
6.7579255 1.6521236 0.73861074 0 43
6.7623534 1.653206 0.80391079 0 44
6.7616749 1.6530402 0.86877751 0 45
6.7725372 1.6556957 0.9353745 0 46
6.7437096 1.648648 0.99647713 0 47
6.7504306 1.6502912 1.0627916 0 48
6.7453012 1.6490371 1.1274395 0 49
6.7559695 1.6516453 1.1949779 0 50
6.7588634 1.6523528 1.2614813 0 51
6.7630796 1.6533835 1.3285216 0 52
6.7541494 1.6512003 1.3931658 0 53
6.7460542 1.6492213 1.45806 0 54
6.7444477 1.6488285 1.5245184 0 55
6.7586093 1.6522907 1.5949361 0 56
6.7520051 1.6506761 1.6608125 0 57
6.7513785 1.6505229 1.728384 0 58
0 0 0 0 59
0 0 0 0 60
0 0 0 0 61
0 0 0 0 62
0 0 0 0 63
2.3879538 0.61499995 -0.7351107 0 0
2.4696643 0.63604397 -0.73479289 0 1
2.5595462 0.65919238 -0.73527598 0 2
2.6520767 0.68302292 -0.7347874 0 3
2.7495155 0.70811754 -0.73385787 0 4
2.8629749 0.73733819 -0.73520029 0 5
2.970381 0.76499987 -0.73289263 0 6
3.10691 0.8001619 -0.73545313 0 7
3.2393153 0.83426195 -0.73447978 0 8
3.3872185 0.87235326 -0.73436016 0 9
3.5591269 0.91662699 -0.73640376 0 10
3.7363687 0.96227437 -0.73623115 0 11
3.9331729 1.0129598 -0.73636061 0 12
4.1472173 1.0680854 -0.73581618 0 13
4.3801761 1.1280823 -0.73438507 0 14
4.6578798 1.1996027 -0.73560596 0 15
4.9395776 1.2721521 -0.73214763 0 16
5.3032012 1.3658006 -0.73470426 0 17
5.7127194 1.471269 -0.73627073 0 18
6.1261153 1.5777361 -0.73052573 0 19
6.6796436 1.7202933 -0.73231149 0 20
6.834785 1.7602488 -0.68373555 0 21
6.8158474 1.7553715 -0.61655462 0 22
6.8192954 1.7562596 -0.55165225 0 23
6.810708 1.754048 -0.48591918 0 24
6.8266168 1.7581452 -0.4219467 0 25
6.8160548 1.7554249 -0.35635865 0 26
6.8218493 1.7569174 -0.29173169 0 27
6.828321 1.758584 -0.22706643 0 28
6.8261433 1.7580231 -0.16211113 0 29
6.8311291 1.7593073 -0.097326741 0 30
6.8228278 1.7571692 -0.032400995 0 31
6.833992 1.7600446 0.032454014 0 32
6.8211489 1.7567369 0.097184546 0 33
6.8279834 1.7584971 0.16215484 0 34
6.8271461 1.7582814 0.22702734 0 35
6.8259196 1.7579656 0.29190576 0 36
6.837069 1.7608371 0.35745734 0 37
6.8272328 1.7583038 0.42198479 0 38
6.826684 1.7581625 0.487059 0 39
6.8189287 1.756165 0.55162257 0 40
6.8186893 1.7561034 0.61681169 0 41
6.8162961 1.7554871 0.68188596 0 42
6.8300915 1.75904 0.74880558 0 43
6.8340769 1.7600665 0.81494856 0 44
6.8081217 1.7533817 0.8774491 0 45
6.805738 1.7527679 0.94286531 0 46
6.8157778 1.7553536 1.0102392 0 47
6.8296866 1.7589357 1.0785934 0 48
6.8257394 1.7579191 1.1444108 0 49
6.8253889 1.757829 1.2109883 0 50
6.8210115 1.7567015 1.2770158 0 51
6.81917 1.7562273 1.3436804 0 52
6.8215137 1.7568309 1.4114103 0 53
6.8159051 1.7553864 1.4777108 0 54
6.830801 1.7592227 1.5488104 0 55
6.8170424 1.7556792 1.6136981 0 56
6.8140512 1.7549089 1.681255 0 57
6.8204284 1.7565513 1.7514582 0 58
0 0 0 0 59
0 0 0 0 60
0 0 0 0 61
0 0 0 0 62
0 0 0 0 63
2.3631406 0.63969362 -0.72983843 0 0
2.4662066 0.66759324 -0.73615086 0 1
2.5530014 0.69108826 -0.73578143 0 2
2.6441336 0.71575743 -0.73496962 0 3
2.751781 0.74489719 -0.73685157 0 4
2.8857195 0.78115392 -0.74345148 0 5
2.9617498 0.80173504 -0.73314005 0 6
3.1143157 0.84303409 -0.73960412 0 7
3.2167943 0.87077457 -0.73174578 0 8
3.3768404 0.91409856 -0.73449159 0 9
3.5314734 0.95595711 -0.73305881 0 10
3.6973546 1.0008606 -0.7309134 0 11
3.919343 1.0609521 -0.73615819 0 12
4.1465659 1.1224605 -0.73809367 0 13
4.3993196 1.1908799 -0.73999393 0 14
4.6131859 1.2487729 -0.73091739 0 15
4.9273453 1.3338146 -0.73271018 0 16
5.3015532 1.4351114 -0.73686504 0 17
5.7109766 1.5459408 -0.73844028 0 18
6.1048198 1.6525527 -0.73035419 0 19
6.6781378 1.807748 -0.73452795 0 20
6.8856692 1.8639259 -0.69106644 0 21
6.8830094 1.8632058 -0.62465531 0 22
6.8917432 1.8655701 -0.55932641 0 23
6.8884425 1.8646766 -0.49306387 0 24
6.8929591 1.8658992 -0.4274331 0 25
6.8916717 1.8655506 -0.36148408 0 26
6.878068 1.8618681 -0.29509258 0 27
6.8848476 1.8637034 -0.22969083 0 28
6.8974071 1.8671032 -0.16433635 0 29
6.8939657 1.8661717 -0.098541498 0 30
6.8855133 1.8638837 -0.032805044 0 31
6.8911328 1.8654048 0.032831818 0 32
6.8933964 1.8660176 0.098533362 0 33
6.8844719 1.8636018 0.16402817 0 34
6.8806591 1.8625697 0.22955111 0 35
6.8918443 1.8655975 0.29568365 0 36
6.8830285 1.863211 0.36103073 0 37
6.8897285 1.8650247 0.42723277 0 38
6.8797927 1.8623351 0.49244469 0 39
6.8854303 1.8638612 0.55881405 0 40
6.8798447 1.8623492 0.62436807 0 41
6.9005656 1.8679583 0.69256151 0 42
6.8887534 1.8647608 0.75769353 0 43
6.8853316 1.8638345 0.8237313 0 44
6.8906999 1.8652877 0.89098078 0 45
6.8888621 1.8647902 0.95748574 0 46
6.8835063 1.8633404 1.0235968 0 47
6.8896666 1.8650079 1.0916051 0 48
6.8905578 1.8652492 1.1590363 0 49
6.8786697 1.8620311 1.2244114 0 50
6.891644 1.8655432 1.2944363 0 51
6.8800917 1.862416 1.3600944 0 52
6.8925862 1.8657984 1.4307544 0 53
6.8775005 1.8617146 1.4959151 0 54
6.8946795 1.866365 1.568379 0 55
6.8916793 1.8655528 1.6366723 0 56
6.8973446 1.8670864 1.7073418 0 57
0 0 0 0 58
0 0 0 0 59
0 0 0 0 60
0 0 0 0 61
0 0 0 0 62
0 0 0 0 63
2.3589263 0.66978884 -0.73102534 0 0
2.434535 0.691257 -0.72917914 0 1
2.5374141 0.72046828 -0.73378694 0 2
2.6271653 0.74595201 -0.73274732 0 3
2.7280853 0.774607 -0.73300165 0 4
2.8470845 0.80839545 -0.73600316 0 5
2.9678183 0.8426764 -0.73715144 0 6
3.080874 0.87477714 -0.7341612 0 7
3.2037823 0.90967548 -0.73127514 0 8
3.3640573 0.95518363 -0.73421037 0 9
3.5319414 1.0028523 -0.73566014 0 10
3.6912999 1.0481004 -0.73220891 0 11
3.9168098 1.1121311 -0.73819518 0 12
4.0984035 1.1636925 -0.73201239 0 13
4.3379354 1.2317047 -0.73216099 0 14
4.6168876 1.3109097 -0.73400241 0 15
4.9373446 1.4018997 -0.73670477 0 16
5.2859144 1.5008719 -0.7372008 0 17
5.6446061 1.6027181 -0.73235136 0 18
6.1260529 1.7394191 -0.73539776 0 19
6.6679792 1.8932925 -0.73591554 0 20
6.9364061 1.9695092 -0.6985364 0 21
6.9504743 1.9735036 -0.63293242 0 22
6.9411898 1.9708675 -0.56526357 0 23
6.9331651 1.9685889 -0.49796006 0 24
6.9321427 1.9682987 -0.4313311 0 25
6.9502139 1.9734298 -0.36579993 0 26
6.9432282 1.9714463 -0.29890564 0 27
6.9408722 1.9707774 -0.23235083 0 28
6.9404426 1.9706553 -0.16592652 0 29
6.9469371 1.9724994 -0.099637829 0 30
6.9404421 1.9706551 -0.033179685 0 31
6.958271 1.9757175 0.03326492 0 32
6.9341583 1.9688709 0.099454544 0 33
6.9387207 1.9701664 0.16588536 0 34
6.939703 1.9704454 0.2323117 0 35
6.9412069 1.9708724 0.29881865 0 36
6.9123826 1.962688 0.36380881 0 37
6.9381895 1.9700155 0.43170735 0 38
6.9486804 1.9729943 0.4990744 0 39
6.9485331 1.9729525 0.56586158 0 40
6.9417019 1.9710129 0.6321336 0 41
6.9313064 1.9680612 0.69802278 0 42
6.9450541 1.9719646 0.76649511 0 43
6.961194 1.9765474 0.83565164 0 44
6.9537358 1.9744298 0.90220255 0 45
6.9434495 1.9715091 0.96836913 0 46
6.9509974 1.9736521 1.0371634 0 47
6.958333 1.9757351 1.1062503 0 48
6.9530611 1.9742382 1.1735444 0 49
6.9558063 1.9750177 1.2423707 0 50
6.9419179 1.9710742 1.3083327 0 51
6.9442854 1.9717464 1.3774735 0 52
6.9417787 1.9710346 1.4458874 0 53
6.9485927 1.9729694 1.5165404 0 54
6.9519529 1.9739236 1.5868089 0 55
6.9602513 1.9762797 1.658603 0 56
6.9409332 1.9707947 1.724 0 57
0 0 0 0 58
0 0 0 0 59
0 0 0 0 60
0 0 0 0 61
0 0 0 0 62
0 0 0 0 63
2.3757312 0.70623928 -0.73886847 0 0
2.4280803 0.72180116 -0.72984904 0 1
2.5228288 0.74996728 -0.73218054 0 2
2.6252816 0.7804237 -0.73484296 0 3
2.7246065 0.80995029 -0.73468745 0 4
2.8339555 0.8424567 -0.73523164 0 5
2.9437313 0.87509 -0.73378593 0 6
3.069334 0.9124282 -0.73402941 0 7
3.223089 0.95813531 -0.73831534 0 8
3.368892 1.0014784 -0.7378974 0 9
3.4970601 1.0395793 -0.73100209 0 10
3.6846869 1.0953556 -0.73351341 0 11
3.8863785 1.1553129 -0.73508167 0 12
4.0876422 1.215143 -0.73270369 0 13
4.3458867 1.291912 -0.73612851 0 14
4.6159148 1.3721839 -0.73647451 0 15
4.8860173 1.4524779 -0.73165578 0 16
5.2322736 1.5554103 -0.73233175 0 17
5.6296487 1.6735389 -0.73302525 0 18
6.1071301 1.8154809 -0.73575038 0 19
6.6737528 1.9839224 -0.73918933 0 20
7.0108399 2.0841291 -0.70855957 0 21
6.9929399 2.0788078 -0.63907892 0 22
7.0045695 2.0822649 -0.57246685 0 23
7.0037599 2.0820241 -0.50483096 0 24
7.0138869 2.0850348 -0.43797955 0 25
7.0140262 2.0850761 -0.37047988 0 26
7.0134254 2.0848975 -0.30300838 0 27
7.0286865 2.0894344 -0.23613271 0 28
7.010417 2.0840032 -0.16819933 0 29
6.9986305 2.0804994 -0.10073856 0 30
7.0072179 2.0830524 -0.033618826 0 31
7.0094113 2.0837045 0.03362935 0 32
7.0043578 2.082202 0.100821 0 33
7.0113029 2.0842667 0.16822059 0 34
7.0087328 2.0835025 0.23546234 0 35
7.0128932 2.0847394 0.3029854 0 36
7.0145097 2.0852199 0.37050542 0 37
7.0053725 2.0825038 0.43744788 0 38
7.0177522 2.0861838 0.50583953 0 39
7.0233493 2.0878477 0.57400161 0 40
7.0228496 2.0876992 0.64181238 0 41
7.0098429 2.0838325 0.70845878 0 42
7.0221009 2.0874765 0.77777255 0 43
7.0208993 2.0871193 0.8458358 0 44
6.9994469 2.0807421 0.91138393 0 45
7.0149198 2.0853417 0.9818387 0 46
7.0086198 2.0834692 1.0495046 0 47
7.0054712 2.0825331 1.1177311 0 48
7.0152349 2.0854354 1.1882764 0 49
7.0066824 2.0828931 1.2559373 0 50
7.0043025 2.0821855 1.3248155 0 51
7.0039892 2.0820925 1.3942895 0 52
7.0114341 2.0843058 1.4656234 0 53
7.0253978 2.0884566 1.5387917 0 54
7.0074997 2.0831361 1.6052132 0 55
7.008832 2.0835321 1.676158 0 56
7.0132594 2.0848482 1.7481999 0 57
0 0 0 0 58
0 0 0 0 59
0 0 0 0 60
0 0 0 0 61
0 0 0 0 62
0 0 0 0 63
2.3482611 0.72961551 -0.73305994 0 0
2.4336267 0.75613892 -0.73425549 0 1
2.5201359 0.78301775 -0.73413783 0 2
2.6354496 0.81884634 -0.74045151 0 3
2.7078815 0.84135115 -0.73291177 0 4
2.82342 0.8772496 -0.73524129 0 5
2.9352586 0.91199833 -0.7344138 0 6
3.0592811 0.95053267 -0.73436499 0 7
3.1901481 0.99119365 -0.73350602 0 8
3.3393176 1.0375413 -0.73415864 0 9
3.5008411 1.0877274 -0.73453277 0 10
3.6653235 1.1388328 -0.73239106 0 11
3.8802619 1.2056152 -0.73667312 0 12
4.0806794 1.2678858 -0.73419476 0 13
4.3007469 1.3362619 -0.73121053 0 14
4.5659447 1.4186599 -0.73122978 0 15
4.8699808 1.5131253 -0.73198527 0 16
5.2161884 1.6206937 -0.73281437 0 17
5.6360569 1.7511487 -0.73660773 0 18
6.1044612 1.8966842 -0.73818284 0 19
6.5797162 2.044348 -0.73150277 0 20
7.0914769 2.2033544 -0.71939307 0 21
7.068923 2.1963468 -0.64844209 0 22
7.0845227 2.2011936 -0.58116937 0 23
7.0766735 2.198755 -0.51199675 0 24
7.0705819 2.1968622 -0.4431732 0 25
7.0787945 2.1994138 -0.37530106 0 26
7.0855327 2.2015076 -0.30727005 0 27
7.0792298 2.1995492 -0.23872134 0 28
7.0902834 2.2029836 -0.17075258 0 29
7.0884376 2.20241 -0.10241333 0 30
7.0744419 2.1980615 -0.03406845 0 31
7.0936689 2.2040355 0.034161042 0 32
7.0911007 2.2032375 0.1024518 0 33
7.0669699 2.19574 0.17019112 0 34
7.0915394 2.2033739 0.23913643 0 35
7.0734658 2.1977582 0.30674675 0 36
7.0823922 2.2005317 0.3754918 0 37
7.0806541 2.1999917 0.44380453 0 38
7.0959835 2.2047546 0.51339382 0 39
7.0847197 2.2012548 0.58118552 0 40
7.0752892 2.1983247 0.6490261 0 41
7.0874929 2.2021165 0.7189889 0 42
7.0811205 2.2001367 0.78724664 0 43
7.0834584 2.2008631 0.85656822 0 44
7.0759563 2.1985321 0.92479622 0 45
7.0746465 2.1981251 0.99390632 0 46
7.0966058 2.2049479 1.0666595 0 47
7.0902905 2.2029858 1.1355003 0 48
7.0805278 2.1999526 1.2038273 0 49
7.0884404 2.2024109 1.2753503 0 50
7.0849872 2.2013381 1.3450946 0 51
7.0722032 2.197366 1.4131409 0 52
7.0756121 2.1984251 1.4845772 0 53
7.0822821 2.2004976 1.5570602 0 54
7.0749426 2.1982172 1.6267312 0 55
7.0912962 2.2032983 1.7022299 0 56
0 0 0 0 57
0 0 0 0 58
0 0 0 0 59
0 0 0 0 60
0 0 0 0 61
0 0 0 0 62
0 0 0 0 63
2.3409848 0.75904059 -0.73364669 0 0
2.4232244 0.78570592 -0.73397654 0 1
2.5048656 0.81217718 -0.73254335 0 2
2.6003549 0.84313864 -0.73344874 0 3
2.6846704 0.87047714 -0.7294715 0 4
2.8160007 0.91305959 -0.73617727 0 5
2.9089739 0.94320524 -0.73068386 0 6
3.0606468 0.9923836 -0.73756623 0 7
3.1845069 1.032544 -0.73507273 0 8
3.3379891 1.082309 -0.73673677 0 9
3.4673686 1.124259 -0.73035508 0 10
3.6525846 1.1843134 -0.73270011 0 11
3.8436315 1.2462585 -0.73257279 0 12
4.0589681 1.3160791 -0.7331447 0 13
4.2942281 1.3923597 -0.73295766 0 14
4.5546608 1.4768025 -0.73227555 0 15
4.8754077 1.5808015 -0.73566705 0 16
5.2323461 1.696535 -0.73795933 0 17
5.5650129 1.8043988 -0.73016721 0 18
6.0281062 1.9545523 -0.73180062 0 19
6.579906 2.1334677 -0.73438495 0 20
7.1375833 2.3142889 -0.72690225 0 21
7.1466022 2.3172131 -0.65813172 0 22
7.1555061 2.3201003 -0.58928823 0 23
7.140625 2.3152752 -0.51864421 0 24
7.1544447 2.319756 -0.45018345 0 25
7.153204 2.3193538 -0.38072935 0 26
7.1547728 2.3198624 -0.31148624 0 27
7.1495509 2.3181694 -0.24203561 0 28
7.1490035 2.3179917 -0.17284007 0 29
7.1553426 2.3200471 -0.10378429 0 30
7.1390085 2.3147511 -0.034513846 0 31
7.155972 2.3202512 0.034595855 0 32
7.1458845 2.3169804 0.10364711 0 33
7.1505985 2.3185091 0.17287865 0 34
7.1484852 2.3178236 0.24199952 0 35
7.1545439 2.3197882 0.31147626 0 36
7.1463442 2.3171296 0.38036424 0 37
7.1555772 2.3201232 0.45025471 0 38
7.1444616 2.316519 0.51892287 0 39
7.1582355 2.3209851 0.589513 0 40
7.1482649 2.3177524 0.65828484 0 41
7.1575937 2.3207769 0.72894013 0 42
7.1474957 2.317503 0.79773378 0 43
7.1561956 2.3203237 0.86874849 0 44
7.1654768 2.323333 0.94015884 0 45
7.1504068 2.3184469 1.0084788 0 46
7.144383 2.3164937 1.0780406 0 47
7.1589661 2.3212221 1.1509827 0 48
7.1563535 2.320375 1.2214777 0 49
7.1536527 2.319499 1.2921171 0 50
7.1480608 2.3176861 1.3623768 0 51
7.1723795 2.3255711 1.4387629 0 52
7.1402802 2.3151634 1.5040051 0 53
7.1520653 2.3189845 1.5785521 0 54
7.1428757 2.316005 1.6487744 0 55
7.1445298 2.3165412 1.7217158 0 56
0 0 0 0 57
0 0 0 0 58
0 0 0 0 59
0 0 0 0 60
0 0 0 0 61
0 0 0 0 62
0 0 0 0 63
2.3321071 0.78798044 -0.73384559 0 0
2.4124372 0.81512266 -0.73368961 0 1
2.4932516 0.84242845 -0.73212093 0 2
2.6042683 0.87993914 -0.73754865 0 3
2.7041459 0.91368616 -0.73776031 0 4
2.7955842 0.94458169 -0.73382086 0 5
2.9098163 0.98317873 -0.73387671 0 6
3.0293458 1.0235658 -0.73300087 0 7
3.1664548 1.0698928 -0.73388708 0 8
3.3128824 1.1193681 -0.73417783 0 9
3.4685321 1.1719596 -0.73358017 0 10
3.6424339 1.2307181 -0.73364425 0 11
3.8348792 1.2957423 -0.73388588 0 12
4.0670309 1.3741823 -0.73759735 0 13
4.3015299 1.4534159 -0.73719871 0 14
4.5676455 1.5433319 -0.73735851 0 15
4.8201942 1.6286639 -0.73030239 0 16
5.1659489 1.7454886 -0.73156661 0 17
5.5622425 1.8793898 -0.73278052 0 18
6.0249419 2.0357282 -0.7343998 0 19
6.5698814 2.2198541 -0.73625702 0 20
7.213882 2.4374514 -0.73766923 0 21
7.2215052 2.440027 -0.66774213 0 22
7.2239146 2.4408412 -0.59734857 0 23
7.2091837 2.4358637 -0.52575958 0 24
7.2197847 2.4394457 -0.45614788 0 25
7.2111821 2.4365389 -0.38538077 0 26
7.2401509 2.4463272 -0.31648889 0 27
7.2379227 2.4455743 -0.24602671 0 28
7.225472 2.4413674 -0.17540137 0 29
7.233171 2.4439688 -0.10534108 0 30
7.2301106 2.4429348 -0.035096858 0 31
7.2088528 2.4357519 0.034993663 0 32
7.2281017 2.442256 0.10526725 0 33
7.2103715 2.4362652 0.17503481 0 34
7.2352595 2.4446745 0.24593619 0 35
7.2249808 2.4412014 0.31582576 0 36
7.2271662 2.4419398 0.386235 0 37
7.2165694 2.4383593 0.45594475 0 38
7.2233844 2.4406621 0.52679521 0 39
7.2244482 2.4410214 0.59739268 0 40
7.2224455 2.4403448 0.66782904 0 41
7.2282195 2.4422958 0.73913538 0 42
7.2116885 2.4367104 0.80818146 0 43
7.2201166 2.439558 0.88008356 0 44
7.2340837 2.444277 0.95303208 0 45
7.2290306 2.44257 1.0237263 0 46
7.2100134 2.4361441 1.0923812 0 47
7.2229223 2.440506 1.1660019 0 48
7.2193446 2.4392972 1.2372556 0 49
7.2288737 2.4425168 1.3110297 0 50
7.227932 2.4421985 1.3832189 0 51
7.2288089 2.4424949 1.4559972 0 52
7.2244072 2.4410076 1.5279323 0 53
7.2326288 2.4437857 1.6028446 0 54
7.2225237 2.4403713 1.6739595 0 55
7.2251267 2.4412508 1.7482402 0 56
0 0 0 0 57
0 0 0 0 58
0 0 0 0 59
0 0 0 0 60
0 0 0 0 61
0 0 0 0 62
0 0 0 0 63
2.3211932 0.81622648 -0.73351407 0 0
2.3975694 0.8430835 -0.73226541 0 1
2.4821222 0.87281567 -0.73194909 0 2
2.5834711 0.90845418 -0.7347669 0 3
2.6796412 0.94227147 -0.73418039 0 4
2.7877436 0.98028469 -0.73487127 0 5
2.8875036 1.0153644 -0.73134291 0 6
3.0053034 1.0567876 -0.73027253 0 7
3.1525095 1.1085513 -0.73375881 0 8
3.29356 1.1581504 -0.7329964 0 9
3.4292233 1.2058553 -0.72834748 0 10
3.6131701 1.2705384 -0.73084152 0 11
3.8093069 1.3395082 -0.73208886 0 12
4.0121179 1.4108248 -0.73072928 0 13
4.2518158 1.4951123 -0.73177409 0 14
4.5194006 1.5892062 -0.73266959 0 15
4.8174114 1.6939991 -0.73298132 0 16
5.163383 1.8156568 -0.73430949 0 17
5.5621424 1.9558768 -0.73588014 0 18
6.0338693 2.1217554 -0.73861235 0 19
6.4827309 2.2795935 -0.72957659 0 20
7.1125307 2.5010567 -0.73039496 0 21
7.2885723 2.5629601 -0.67680645 0 22
7.2987514 2.5665395 -0.60610068 0 23
7.2885427 2.5629499 -0.53380519 0 24
7.2974563 2.5660841 -0.46301377 0 25
7.2935557 2.5647125 -0.39143881 0 26
7.286592 2.562264 -0.31987202 0 27
7.2947173 2.5651212 -0.24901058 0 28
7.2927275 2.5644214 -0.17778608 0 29
7.2919822 2.5641592 -0.10664871 0 30
7.2973242 2.5660379 -0.035573609 0 31
7.2917175 2.5640664 0.035546277 0 32
7.2930088 2.5645201 0.10666373 0 33
7.2930932 2.5645499 0.17779499 0 34
7.3015389 2.5675197 0.24924342 0 35
7.3006701 2.5672145 0.32049003 0 36
7.3015642 2.5675287 0.39186859 0 37
7.3045936 2.568594 0.46346664 0 38
7.2966638 2.5658054 0.53439999 0 39
7.287394 2.5625458 0.60515755 0 40
7.2809219 2.5602701 0.67609602 0 41
7.2841301 2.561398 0.74801672 0 42
7.2954254 2.5653701 0.82103848 0 43
7.2984481 2.566433 0.89341074 0 44
7.2820415 2.5606637 0.96342546 0 45
7.3027124 2.5679326 1.0385537 0 46
7.3028517 2.5679815 1.1111473 0 47
7.2893219 2.5632238 1.1817197 0 48
7.3016567 2.5675611 1.256678 0 49
7.2937903 2.564795 1.3284222 0 50
7.3114433 2.5710025 1.4051443 0 51
7.2914658 2.5639777 1.4748561 0 52
7.2948008 2.5651505 1.5493741 0 53
7.2880273 2.5627685 1.6219827 0 54
7.2959743 2.5655632 1.6981664 0 55
0 0 0 0 56
0 0 0 0 57
0 0 0 0 58
0 0 0 0 59
0 0 0 0 60
0 0 0 0 61
0 0 0 0 62
0 0 0 0 63
2.3092458 0.84407061 -0.73296309 0 0
2.4009888 0.87760431 -0.73655003 0 1
2.4878933 0.90936947 -0.7368927 0 2
2.5695298 0.93920904 -0.73403096 0 3
2.6689019 0.97553134 -0.73446912 0 4
2.7561443 1.0074199 -0.72975177 0 5
2.8949039 1.0581391 -0.73645711 0 6
3.0063319 1.098868 -0.7337504 0 7
3.1369402 1.1466076 -0.73336124 0 8
3.2877162 1.2017189 -0.73492891 0 9
3.4502044 1.2611113 -0.73604172 0 10
3.6047945 1.3176168 -0.73236924 0 11
3.8087487 1.3921658 -0.73521596 0 12
4.0361843 1.4752975 -0.73836076 0 13
4.2504463 1.5536141 -0.73477083 0 14
4.5203667 1.6522748 -0.73606431 0 15
4.8200483 1.7618138 -0.73662305 0 16
5.1583142 1.8854561 -0.73683012 0 17
5.4863777 2.0053692 -0.72906363 0 18
5.9543982 2.176439 -0.7321049 0 19
6.4700389 2.3649147 -0.73136562 0 20
7.1135936 2.6001456 -0.73373199 0 21
7.3798103 2.6974525 -0.68830669 0 22
7.3908815 2.7014992 -0.61646324 0 23
7.3745975 2.6955471 -0.54249436 0 24
7.3765378 2.6962564 -0.47009945 0 25
7.3946581 2.7028797 -0.39861849 0 26
7.3845105 2.6991706 -0.32560292 0 27
7.4075217 2.7075815 -0.25397852 0 28
7.3746309 2.6955593 -0.18057716 0 29
7.3903823 2.7013168 -0.10856546 0 30
7.3729072 2.6949294 -0.036100883 0 31
7.3887596 2.7007236 0.036178503 0 32
7.3811336 2.6979363 0.1084296 0 33
7.3858876 2.6996739 0.1808528 0 34
7.3914294 2.7016995 0.25342676 0 35
7.3800368 2.6975353 0.32540566 0 36
7.3817453 2.6981597 0.3979224 0 37
7.3929629 2.70226 0.47114623 0 38
7.378612 2.6970146 0.54278964 0 39
7.3720636 2.6946208 0.61489373 0 40
7.3780494 2.6968088 0.68814248 0 41
7.380321 2.6976392 0.76124364 0 42
7.3764839 2.6962366 0.8338291 0 43
7.3872795 2.7001827 0.90828043 0 44
7.3918252 2.7018442 0.98227125 0 45
7.3782134 2.6968689 1.0539275 0 46
7.3752079 2.6957703 1.1271149 0 47
7.3740325 2.6953406 1.2007349 0 48
7.3871017 2.7001176 1.2770016 0 49
7.3888688 2.7007635 1.3516853 0 50
7.3797507 2.6974306 1.4245389 0 51
7.3775849 2.6966391 1.4988694 0 52
7.3944054 2.7027872 1.5774692 0 53
7.3903756 2.7013144 1.6520284 0 54
7.3925834 2.7021213 1.7282554 0 55
0 0 0 0 56
0 0 0 0 57
0 0 0 0 58
0 0 0 0 59
0 0 0 0 60
0 0 0 0 61
0 0 0 0 62
0 0 0 0 63
2.2981551 0.87219608 -0.7327916 0 0
2.3778167 0.90242928 -0.73279023 0 1
2.4551854 0.93179226 -0.73054338 0 2
2.5701144 0.97541016 -0.73756856 0 3
2.6524298 1.0066504 -0.73328704 0 4
2.7536576 1.0450684 -0.73244047 0 5
2.8642015 1.0870221 -0.73199153 0 6
2.9999664 1.1385477 -0.73555815 0 7
3.1267154 1.1866513 -0.7343266 0 8
3.2633257 1.2384977 -0.73282564 0 9
3.408293 1.2935157 -0.73043865 0 10
3.5885952 1.3619441 -0.73242509 0 11
3.7762804 1.4331744 -0.73229498 0 12
3.9992514 1.5177963 -0.73496312 0 13
4.2046957 1.5957665 -0.7301988 0 14
4.4728289 1.6975285 -0.7316671 0 15
4.7723012 1.8111843 -0.7326743 0 16
5.1088119 1.9388969 -0.73310918 0 17
5.497304 2.0863373 -0.73386925 0 18
5.9410772 2.2547584 -0.7338205 0 19
6.4866481 2.4618134 -0.73660928 0 20
7.100235 2.6946819 -0.73571616 0 21
7.4637856 2.8326569 -0.69933486 0 22
7.4554572 2.8294959 -0.62470424 0 23
7.4378262 2.8228047 -0.5496574 0 24
7.4530692 2.8285897 -0.47715726 0 25
7.4549613 2.8293078 -0.40371412 0 26
7.4602866 2.8313289 -0.33045423 0 27
7.448082 2.8266971 -0.25654155 0 28
7.459548 2.8310485 -0.183495 0 29
7.4568253 2.8300152 -0.1100444 0 30
7.4467702 2.8261991 -0.036629938 0 31
7.4644461 2.8329074 0.036716882 0 32
7.4609694 2.831588 0.11010556 0 33
7.4528627 2.8285115 0.18333057 0 34
7.4619427 2.8319573 0.25701895 0 35
7.4633689 2.8324986 0.33059072 0 36
7.4649711 2.8331068 0.40425619 0 37
7.4680753 2.8342848 0.47811797 0 38
7.4681935 2.8343296 0.55190158 0 39
7.4547825 2.8292398 0.62464768 0 40
7.4472089 2.8263657 0.69778162 0 41
7.4625359 2.8321826 0.77325732 0 42
7.4681783 2.8343239 0.84806967 0 43
7.4655242 2.8333166 0.92211467 0 44
7.4555559 2.8295333 0.99528843 0 45
7.4674163 2.8340347 1.0715665 0 46
7.4749885 2.8369086 1.1476083 0 47
7.4569802 2.8300741 1.2198159 0 48
7.4560556 2.8297231 1.2948388 0 49
7.4724278 2.8359365 1.3732467 0 50
7.456068 2.8297279 1.445878 0 51
7.4511189 2.8278496 1.5207586 0 52
7.4588685 2.8307905 1.5985262 0 53
7.4679446 2.8342352 1.6770319 0 54
7.4658012 2.8334217 1.7533852 0 55
0 0 0 0 56
0 0 0 0 57
0 0 0 0 58
0 0 0 0 59
0 0 0 0 60
0 0 0 0 61
0 0 0 0 62
0 0 0 0 63
2.303215 0.90666902 -0.73790413 0 0
2.3693986 0.93272245 -0.73367506 0 1
2.4504812 0.96464092 -0.73261768 0 2
2.5539458 1.0053701 -0.73642057 0 3
2.6416385 1.0398906 -0.7337833 0 4
2.7472675 1.081472 -0.73422253 0 5
2.8555884 1.1241128 -0.73326749 0 6
2.9819272 1.1738466 -0.73461866 0 7
3.108866 1.2238165 -0.73361331 0 8
3.2643435 1.2850208 -0.73654687 0 9
3.4185979 1.3457437 -0.73613793 0 10
3.601886 1.4178957 -0.73864037 0 11
3.7546778 1.4780427 -0.73157489 0 12
3.9881432 1.5699472 -0.73641378 0 13
4.2228518 1.662341 -0.73684597 0 14
4.472229 1.7605093 -0.73505461 0 15
4.765079 1.875791 -0.73505116 0 16
5.109241 2.0112715 -0.73666406 0 17
5.4864564 2.1597636 -0.73591083 0 18
5.9263563 2.332932 -0.7354899 0 19
6.4566793 2.5416956 -0.73669958 0 20
6.9928012 2.7527421 -0.72803646 0 21
7.534133 2.9658391 -0.70928961 0 22
7.530643 2.9644651 -0.63401061 0 23
7.5240812 2.9618821 -0.55868095 0 24
7.5349703 2.9661689 -0.48469913 0 25
7.5363693 2.9667194 -0.4100672 0 26
7.5283289 2.9635544 -0.33505699 0 27
7.5324416 2.9651735 -0.26068339 0 28
7.5285101 2.9636257 -0.18607374 0 29
7.5319533 2.9649811 -0.11168271 0 30
7.5376573 2.9672265 -0.037253659 0 31
7.5370259 2.9669778 0.037250537 0 32
7.5384679 2.9675455 0.1117793 0 33
7.5353446 2.966316 0.18624265 0 34
7.5358644 2.9665208 0.26080185 0 35
7.5235586 2.9616764 0.33484468 0 36
7.5267091 2.9629166 0.40954155 0 37
7.536706 2.9668519 0.48481077 0 38
7.5471454 2.9709613 0.56039351 0 39
7.53757 2.9671922 0.63459384 0 40
7.5253868 2.9623961 0.70846623 0 41
7.5284958 2.9636199 0.78380877 0 42
7.5501027 2.9721258 0.86145788 0 43
7.5400534 2.9681697 0.93575764 0 44
7.5416193 2.9687862 1.0115745 0 45
7.5412855 2.9686549 1.0873227 0 46
7.5342598 2.965889 1.1622192 0 47
7.5313945 2.9647613 1.2378585 0 48
7.5395255 2.967962 1.3155729 0 49
7.5267673 2.9629397 1.3898234 0 50
7.5334473 2.9655693 1.467844 0 51
7.5277863 2.9633408 1.5437266 0 52
7.5500832 2.9721179 1.6257842 0 53
7.5365462 2.9667892 1.7005011 0 54
0 0 0 0 55
0 0 0 0 56
0 0 0 0 57
0 0 0 0 58
0 0 0 0 59
0 0 0 0 60
0 0 0 0 61
0 0 0 0 62
0 0 0 0 63
2.283309 0.93141818 -0.73514044 0 0
2.3529539 0.95982814 -0.73218232 0 1
2.427027 0.9900443 -0.72919017 0 2
2.5291526 1.0317038 -0.73287421 0 3
2.6309562 1.0732321 -0.73442626 0 4
2.7278111 1.1127416 -0.73262411 0 5
2.8287773 1.1539282 -0.72997123 0 6
2.9649057 1.2094584 -0.7340337 0 7
3.1000137 1.2645723 -0.73513818 0 8
3.2453799 1.3238707 -0.7358855 0 9
3.4062564 1.3894962 -0.73710376 0 10
3.5480168 1.4473238 -0.73118776 0 11
3.7325842 1.5226134 -0.73086286 0 12
3.942934 1.6084204 -0.73166257 0 13
4.1666989 1.6996995 -0.73063958 0 14
4.4255252 1.805281 -0.73097169 0 15
4.7045827 1.9191155 -0.72930419 0 16
5.02529 2.0499401 -0.72813916 0 17
5.4232121 2.2122624 -0.73102129 0 18
5.8632698 2.3917727 -0.73125529 0 19
6.3848042 2.6045196 -0.73209751 0 20
7.0044961 2.8573072 -0.73285657 0 21
7.620945 3.1087718 -0.72100669 0 22
7.6151681 3.1064153 -0.64429408 0 23
7.62253 3.1094184 -0.56878704 0 24
7.6359949 3.1149111 -0.49362424 0 25
7.6201921 3.108465 -0.41667643 0 26
7.6188607 3.1079218 -0.34076133 0 27
7.6215129 3.1090035 -0.26506901 0 28
7.6250811 3.1104591 -0.18939158 0 29
7.6268682 3.1111882 -0.11364876 0 30
7.6274066 3.1114078 -0.037883457 0 31
7.6344323 3.1142738 0.037918352 0 32
7.6221061 3.1092455 0.11357781 0 33
7.6090393 3.1039152 0.18899314 0 34
7.6143785 3.1060932 0.26482087 0 35
7.628129 3.1117024 0.34117585 0 36
7.6320257 3.113292 0.4173235 0 37
7.623641 3.1098716 0.49282563 0 38
7.6266212 3.1110873 0.56909233 0 39
7.6404471 3.1167271 0.64643288 0 40
7.624227 3.1101108 0.72131723 0 41
7.6243029 3.1101418 0.79770488 0 42
7.6392713 3.1162477 0.87593782 0 43
7.6326423 3.1135435 0.95192784 0 44
7.622189 3.1092794 1.0274321 0 45
7.6281829 3.1117244 1.1052852 0 46
7.627492 3.1114426 1.1824135 0 47
7.6131907 3.1056087 1.257484 0 48
7.6323733 3.1134338 1.3383529 0 49
7.6287069 3.1119382 1.4156055 0 50
7.6204405 3.108566 1.492129 0 51
7.6286111 3.1118991 1.5721309 0 52
7.631681 3.1131513 1.6514732 0 53
7.6228704 3.1095574 1.7284756 0 54
0 0 0 0 55
0 0 0 0 56
0 0 0 0 57
0 0 0 0 58
0 0 0 0 59
0 0 0 0 60
0 0 0 0 61
0 0 0 0 62
0 0 0 0 63
2.2609665 0.95489585 -0.73167211 0 0
2.3478627 0.99159557 -0.73433667 0 1
2.4283242 1.0255777 -0.73331338 0 2
2.5238543 1.0659238 -0.73508137 0 3
2.6022129 1.0990177 -0.73011988 0 4
2.6962218 1.1387215 -0.72784561 0 5
2.8323393 1.1962092 -0.73463058 0 6
2.8634212 1.2093363 -0.71253639 0 7
2.8463404 1.2021224 -0.6784361 0 8
2.8432217 1.2008053 -0.64799577 0 9
2.8460772 1.2020113 -0.61903435 0 10
2.8431287 1.200766 -0.5889203 0 11
2.8448765 1.2015042 -0.55989486 0 12
2.8628757 1.209106 -0.53396225 0 13
2.8569636 1.2066091 -0.50353831 0 14
2.8471789 1.2024766 -0.47268003 0 15
2.853749 1.2052513 -0.44465187 0 16
2.8465006 1.2021902 -0.41455418 0 17
2.8407464 1.19976 -0.38487759 0 18
2.8452406 1.201658 -0.35666859 0 19
2.8494272 1.2034262 -0.32839435 0 20
2.8462636 1.20209 -0.29931876 0 21
2.855195 1.2058622 -0.27150825 0 22
2.8421092 1.2003355 -0.24169195 0 23
2.8374701 1.1983762 -0.21281321 0 24
2.8445535 1.2013679 -0.18482544 0 25
2.8481224 1.202875 -0.1565339 0 26
2.8454354 1.2017403 -0.12791625 0 27
2.8572841 1.2067444 -0.099882163 0 28
2.8533475 1.2050818 -0.071234047 0 29
2.849369 1.2034016 -0.04267602 0 30
2.8444149 1.2013092 -0.014199806 0 31
2.8376622 1.1984572 0.014166095 0 32
2.8472588 1.2025104 0.042644415 0 33
2.8551953 1.2058622 0.071280174 0 34
2.8566537 1.2064781 0.099860124 0 35
2.8525114 1.2047287 0.12823436 0 36
2.8450065 1.2015591 0.15636265 0 37
2.8439763 1.2011241 0.18478793 0 38
2.8487198 1.2031274 0.21365696 0 39
2.8629482 1.2091366 0.24346407 0 40
2.8564441 1.2063897 0.27162701 0 41
2.8445268 1.2013565 0.29913613 0 42
2.8525894 1.2047616 0.32875878 0 43
2.8425705 1.2005303 0.35633388 0 44
2.8512959 1.2042154 0.38630691 0 45
2.8420029 1.2002906 0.41389909 0 46
2.8510349 1.2041051 0.44422898 0 47
2.8346214 1.1971731 0.4705953 0 48
2.8412235 1.1999613 0.50076407 0 49
2.838212 1.1986895 0.52936214 0 50
2.852253 1.2046195 0.56134653 0 51
2.8405361 1.199671 0.58838326 0 52
2.8428137 1.200633 0.61832452 0 53
2.84605 1.2019998 0.64864033 0 54
2.8552704 1.2058939 0.68056464 0 55
2.8585467 1.2072777 0.71132344 0 56
2.8693914 1.2118578 0.74424088 0 57
2.8427536 1.2006077 0.76740193 0 58
2.8391936 1.1991041 0.79661107 0 59
2.8480327 1.2028371 0.82949948 0 60
