# .PCD v0.7 - Point Cloud Data file format
VERSION 0.7
FIELDS x y z intensity ring
SIZE 4 4 4 4 2
TYPE F F F F U
COUNT 1 1 1 1 1
WIDTH 1363
HEIGHT 1
VIEWPOINT 0 0 0 1 0 0 0
POINTS 1363
DATA ascii
2.0099978 -6.2646508 1.1928215 0 51
2.0052063 -6.2497168 1.2524371 0 52
2.0071716 -6.2558422 1.3164047 0 53
2.0109034 -6.2674732 1.3819411 0 54
2.0114095 -6.2690506 1.4456378 0 55
2.0081656 -6.2589402 1.506809 0 56
2.006923 -6.2550673 1.5696083 0 57
2.0116568 -6.2698216 1.6374741 0 58
2.0095406 -6.2632256 1.7001411 0 59
2.0092185 -6.2622223 1.764555 0 60
0 0 0 0 61
0 0 0 0 62
0 0 0 0 63
0.77475113 -2.3163991 -0.72815019 0 0
0.80720067 -2.4134188 -0.73323035 0 1
0.83378088 -2.4928901 -0.73125911 0 2
0.86408466 -2.5834942 -0.73090988 0 3
0.90156144 -2.6955445 -0.73465437 0 4
0.93670797 -2.8006279 -0.73438585 0 5
0.96823275 -2.8948827 -0.72935659 0 6
1.0120246 -3.0258141 -0.73139048 0 7
1.0565315 -3.1588838 -0.73137647 0 8
1.108658 -3.3147345 -0.73382992 0 9
1.1590227 -3.4653182 -0.73214382 0 10
1.2184674 -3.6430495 -0.73301065 0 11
1.2821027 -3.8333104 -0.73282832 0 12
1.3575227 -4.0588059 -0.73534572 0 13
1.4290615 -4.272697 -0.73150128 0 14
1.524688 -4.5586071 -0.73513973 0 15
1.6164904 -4.8330836 -0.73149925 0 16
1.7261652 -5.160996 -0.7301107 0 17
1.8615317 -5.5657234 -0.73248214 0 18
2.0096729 -6.0086455 -0.73165721 0 19
2.104517 -6.2922158 -0.70441228 0 20
2.1062434 -6.2973781 -0.64328557 0 21
2.1079214 -6.3023944 -0.58215415 0 22
2.1084964 -6.3041134 -0.52075166 0 23
2.1037652 -6.289968 -0.45824841 0 24
2.1111567 -6.312068 -0.39838639 0 25
2.1077178 -6.3017855 -0.33643302 0 26
2.1108103 -6.3110318 -0.27558947 0 27
2.106112 -6.2969842 -0.21382198 0 28
2.1072693 -6.3004451 -0.15278806 0 29
2.1030655 -6.2878761 -0.091479629 0 30
2.1116698 -6.3136015 -0.030616239 0 31
2.1060081 -6.2966738 0.030534152 0 32
2.1057303 -6.2958436 0.091595553 0 33
2.1076353 -6.3015394 0.1528146 0 34
2.1049957 -6.2936468 0.21370865 0 35
2.1051469 -6.2940989 0.27485004 0 36
2.1077368 -6.3018432 0.33643609 0 37
2.1094654 -6.3070111 0.39806724 0 38
2.1073561 -6.300704 0.45903057 0 39
2.1092577 -6.3063898 0.52093965 0 40
2.1075304 -6.3012252 0.58204621 0 41
2.1111748 -6.3121214 0.64479166 0 42
2.1054666 -6.2950554 0.70473015 0 43
2.1064458 -6.2979827 0.7668891 0 44
2.1032095 -6.2883062 0.82757825 0 45
2.1048491 -6.2932091 0.89028156 0 46
2.1033294 -6.2886653 0.95180523 0 47
2.1070464 -6.2997785 1.0159281 0 48
2.1038587 -6.2902479 1.0769134 0 49
2.1090944 -6.3059015 1.1424586 0 50
2.1122711 -6.3153996 1.2073387 0 51
2.1081381 -6.3030424 1.2682225 0 52
2.1079237 -6.302402 1.3315558 0 53
2.1005125 -6.2802434 1.3903468 0 54
2.1044216 -6.2919307 1.4567709 0 55
2.104018 -6.2907238 1.5205745 0 56
2.1042485 -6.2914133 1.5851018 0 57
2.110189 -6.3091741 1.6544033 0 58
2.1051021 -6.2939653 1.7153822 0 59
0 0 0 0 60
0 0 0 0 61
0 0 0 0 62
0 0 0 0 63
0.80584824 -2.3143785 -0.73057473 0 0
0.83939397 -2.4107211 -0.73549098 0 1
0.86408561 -2.4816351 -0.73101908 0 2
0.89715081 -2.5765977 -0.73202455 0 3
0.93222815 -2.6773388 -0.73276132 0 4
0.96727097 -2.7779813 -0.73151094 0 5
1.0056487 -2.8882012 -0.73073351 0 6
1.0537033 -3.0262129 -0.73456323 0 7
1.0920569 -3.1363635 -0.72921634 0 8
1.1440088 -3.2855682 -0.73043203 0 9
1.2045797 -3.4595265 -0.73399413 0 10
1.2595174 -3.6173065 -0.73089194 0 11
1.3286383 -3.8158202 -0.73255259 0 12
1.4049274 -4.0349207 -0.73409277 0 13
1.4775785 -4.2435732 -0.72957069 0 14
1.5772142 -4.5297246 -0.73355418 0 15
1.6727986 -4.8042412 -0.73019195 0 16
1.7943695 -5.1533899 -0.73210073 0 17
1.9241648 -5.5261593 -0.73033381 0 18
2.0857639 -5.9902687 -0.7324872 0 19
2.202395 -6.3252301 -0.71108627 0 20
2.2100604 -6.3472452 -0.65110642 0 21
2.209048 -6.3443379 -0.58849311 0 22
2.2066574 -6.337472 -0.52570891 0 23
2.2065959 -6.3372951 -0.46363807 0 24
2.2014699 -6.3225737 -0.40072769 0 25
2.2046926 -6.3318291 -0.33945861 0 26
2.201046 -6.3213563 -0.27720121 0 27
2.2063265 -6.3365211 -0.2160694 0 28
2.2036858 -6.3289371 -0.15412447 0 29
2.2052975 -6.3335662 -0.092531882 0 30
2.1998856 -6.3180237 -0.030766534 0 31
2.2103126 -6.3479695 0.030912358 0 32
2.203541 -6.3285222 0.092458189 0 33
2.2030895 -6.3272247 0.15408278 0 34
2.2038574 -6.3294301 0.2158276 0 35
2.2114446 -6.3512206 0.27851081 0 36
2.2078805 -6.3409848 0.33994946 0 37
2.2094862 -6.3455963 0.4021869 0 38
2.2094312 -6.345438 0.46423382 0 39
2.2005107 -6.319819 0.52424455 0 40
2.2054884 -6.334115 0.58754486 0 41
2.2051942 -6.3332701 0.64967281 0 42
2.2068076 -6.337903 0.71251094 0 43
2.2045693 -6.3314753 0.77420974 0 44
2.2007842 -6.3206038 0.83532721 0 45
2.2014809 -6.3226051 0.89820176 0 46
2.1995628 -6.3170967 0.96012938 0 47
2.2066233 -6.3373737 1.026289 0 48
2.2051277 -6.3330784 1.088806 0 49
2.2043972 -6.3309808 1.1518261 0 50
2.2044988 -6.3312726 1.2154635 0 51
2.2060971 -6.3358626 1.2801876 0 52
2.2057049 -6.3347363 1.3440161 0 53
2.2053444 -6.3337011 1.4080786 0 54
2.2057536 -6.3348761 1.4728826 0 55
2.2027533 -6.3262596 1.5355951 0 56
2.2002258 -6.3190007 1.598748 0 57
2.2084012 -6.3424802 1.6701313 0 58
2.2055197 -6.3342047 1.7336096 0 59
0 0 0 0 60
0 0 0 0 61
0 0 0 0 62
0 0 0 0 63
0.83617979 -2.3096426 -0.73227006 0 0
0.86712193 -2.3951089 -0.73392546 0 1
0.89656305 -2.4764295 -0.73267776 0 2
0.92794907 -2.5631218 -0.73138243 0 3
0.96440732 -2.6638246 -0.7322529 0 4
1.0042382 -2.7738431 -0.73361748 0 5
1.0419081 -2.8778925 -0.7313115 0 6
1.0940884 -3.0220213 -0.73675567 0 7
1.1313084 -3.1248281 -0.72971356 0 8
1.1883546 -3.2823975 -0.73292029 0 9
1.2461474 -3.442029 -0.73347735 0 10
1.3021494 -3.5967143 -0.72991127 0 11
1.3786467 -3.8080103 -0.73425221 0 12
1.4503944 -4.0061874 -0.73205453 0 13
1.5330848 -4.2345891 -0.73121178 0 14
1.6326584 -4.509625 -0.73349482 0 15
1.7285303 -4.7744365 -0.72883737 0 16
1.8578529 -5.1316428 -0.7322014 0 17
1.9921272 -5.5025268 -0.73039281 0 18
2.1519003 -5.9438419 -0.72999054 0 19
2.3055854 -6.3683414 -0.71906567 0 20
2.3050218 -6.3667846 -0.65596867 0 21
2.3078945 -6.3747191 -0.59389877 0 22
2.3044276 -6.3651433 -0.53031474 0 23
2.3058231 -6.3689981 -0.46799645 0 24
2.3058372 -6.3690367 -0.40543896 0 25
2.3040578 -6.3641219 -0.34268287 0 26
2.3047767 -6.3661075 -0.2803852 0 27
2.3042183 -6.3645654 -0.21797535 0 28
2.3053362 -6.3676529 -0.15574585 0 29
2.3065424 -6.370985 -0.093485855 0 30
2.3095996 -6.3794293 -0.031201497 0 31
2.3055425 -6.3682227 0.031146687 0 32
2.310164 -6.3809881 0.093632638 0 33
2.3084381 -6.3762207 0.1559554 0 34
2.3083658 -6.3760214 0.2183677 0 35
2.3086767 -6.3768802 0.28085968 0 36
2.3084736 -6.3763189 0.34333962 0 37
2.3081253 -6.3753562 0.40584126 0 38
2.3089683 -6.3776855 0.46863478 0 39
2.3091364 -6.3781495 0.53139836 0 40
2.3074343 -6.3734484 0.5937804 0 41
2.3085439 -6.376513 0.65697104 0 42
2.3052399 -6.3673873 0.7189579 0 43
2.3035746 -6.3627868 0.78144312 0 44
2.308394 -6.3760986 0.8463487 0 45
2.305897 -6.3692017 0.90878075 0 46
2.307034 -6.3723426 0.97276425 0 47
2.3042228 -6.3645778 1.0352046 0 48
2.307282 -6.3730273 1.1004688 0 49
2.3081644 -6.3754649 1.164995 0 50
2.3060431 -6.3696051 1.2281734 0 51
2.3077059 -6.3741984 1.2935693 0 52
2.3028185 -6.3606987 1.3554298 0 53
2.3106859 -6.3824291 1.4251205 0 54
2.3045473 -6.3654742 1.486473 0 55
2.3062773 -6.3702521 1.5530398 0 56
2.3090813 -6.3779974 1.6207358 0 57
2.3023632 -6.3594413 1.6819255 0 58
2.3019245 -6.3582292 1.7477998 0 59
0 0 0 0 60
0 0 0 0 61
0 0 0 0 62
0 0 0 0 63
0.86197019 -2.292419 -0.73011464 0 0
0.89337772 -2.3759477 -0.73136485 0 1
0.92757642 -2.4668996 -0.73317742 0 2
0.95922947 -2.5510812 -0.73125714 0 3
0.99836975 -2.6551752 -0.73319447 0 4
1.033622 -2.7489288 -0.73033452 0 5
1.0727259 -2.8529263 -0.72826415 0 6
1.1171048 -2.9709523 -0.7275992 0 7
1.1690958 -3.1092229 -0.72937131 0 8
1.2268116 -3.2627189 -0.73183942 0 9
1.2789907 -3.4014897 -0.72813499 0 10
1.3442594 -3.5750725 -0.72881871 0 11
1.4216723 -3.7809532 -0.73235053 0 12
1.501174 -3.9923882 -0.73285073 0 13
1.5828445 -4.2095919 -0.73020107 0 14
1.6887056 -4.4911308 -0.7338087 0 15
1.7879064 -4.7549562 -0.7291646 0 16
1.911926 -5.0847878 -0.72881532 0 17
2.0664794 -5.4958243 -0.73282063 0 18
2.2166791 -5.8952818 -0.7273193 0 19
2.4093885 -6.407795 -0.72681075 0 20
2.4047852 -6.3955522 -0.66192919 0 21
2.403825 -6.3929987 -0.59831035 0 22
2.4092772 -6.4074988 -0.53627139 0 23
2.4074414 -6.402616 -0.47260621 0 24
2.406709 -6.4006686 -0.40930554 0 25
2.4098256 -6.408957 -0.34666646 0 26
2.4085832 -6.405653 -0.28340995 0 27
2.4047027 -6.3953328 -0.22002515 0 28
2.4045599 -6.3949528 -0.15712489 0 29
2.4098198 -6.4089417 -0.094470501 0 30
2.4101508 -6.409822 -0.031492714 0 31
2.40345 -6.3920012 0.031405158 0 32
2.4070599 -6.4016023 0.094362311 0 33
2.4092274 -6.4073663 0.15742989 0 34
2.4110057 -6.4120955 0.22060186 0 35
2.4090691 -6.4069452 0.28346711 0 36
2.410624 -6.4110808 0.34678134 0 37
2.4071426 -6.4018221 0.40937927 0 38
2.4081006 -6.4043698 0.47273567 0 39
2.4071345 -6.4018002 0.53579444 0 40
2.4011922 -6.3859963 0.597655 0 41
2.4098871 -6.4091206 0.66333354 0 42
2.410639 -6.4111209 0.72718805 0 43
2.4121568 -6.4151573 0.79145795 0 44
2.4110689 -6.4122634 0.85501987 0 45
2.4070532 -6.4015841 0.91755503 0 46
2.4095459 -6.4082131 0.98268878 0 47
2.4085343 -6.4055233 1.0466025 0 48
2.4092627 -6.4074602 1.111446 0 49
2.4101856 -6.409915 1.1766167 0 50
2.4062903 -6.3995552 1.2395599 0 51
2.4137733 -6.419456 1.3086783 0 52
2.4056289 -6.3977957 1.369535 0 53
2.4051743 -6.3965869 1.434777 0 54
2.413959 -6.41995 1.5060121 0 55
2.4107873 -6.4115148 1.570208 0 56
2.4117827 -6.4141626 1.637338 0 57
2.4100776 -6.4096274 1.7029077 0 58
0 0 0 0 59
0 0 0 0 60
0 0 0 0 61
0 0 0 0 62
0 0 0 0 63
0.89092416 -2.2837818 -0.73079759 0 0
0.92847228 -2.3800321 -0.73608077 0 1
0.95857567 -2.4571984 -0.73374188 0 2
0.99034178 -2.5386274 -0.73112267 0 3
1.0333161 -2.648787 -0.73488355 0 4
1.070255 -2.7434757 -0.73232681 0 5
1.1128645 -2.8527 -0.73164433 0 6
1.1638734 -2.9834557 -0.73411077 0 7
1.2110267 -3.1043274 -0.73166084 0 8
1.2639525 -3.2399969 -0.73017371 0 9
1.3251475 -3.3968632 -0.73057747 0 10
1.3987455 -3.5855234 -0.73440003 0 11
1.4683543 -3.7639575 -0.73250043 0 12
1.5428764 -3.9549861 -0.7294125 0 13
1.6338327 -4.1881423 -0.72991008 0 14
1.7324493 -4.4409347 -0.72903275 0 15
1.8519729 -4.7473197 -0.73143035 0 16
1.9807432 -5.0774074 -0.73119318 0 17
2.1306479 -5.4616709 -0.73170471 0 18
2.3001714 -5.896225 -0.73086989 0 19
2.5086482 -6.4306312 -0.73284453 0 20
2.5146933 -6.4461269 -0.6703133 0 21
2.5176187 -6.4536262 -0.60683578 0 22
2.5124867 -6.4404707 -0.54157573 0 23
2.5140309 -6.4444289 -0.47793838 0 24
2.5202754 -6.4604363 -0.41507789 0 25
2.5179462 -6.4544654 -0.35077628 0 26
2.5214863 -6.4635406 -0.28732118 0 27
2.5183077 -6.4553924 -0.22313994 0 28
2.5154552 -6.4480801 -0.15917818 0 29
2.5142264 -6.4449306 -0.095449492 0 30
2.51684 -6.4516296 -0.031847771 0 31
2.5191307 -6.4575019 0.031876758 0 32
2.5150075 -6.4469328 0.095479138 0 33
2.5080624 -6.4291291 0.15871036 0 34
2.5172753 -6.4527454 0.22304845 0 35
2.5113077 -6.437449 0.28616133 0 36
2.5133665 -6.4427261 0.35013828 0 37
2.5118754 -6.4389033 0.41369444 0 38
2.5139313 -6.4441738 0.47791946 0 39
2.5151038 -6.4471793 0.54213983 0 40
2.5111508 -6.4370465 0.60527682 0 41
2.5095704 -6.4329948 0.66894776 0 42
2.5122261 -6.4398026 0.73388976 0 43
2.5171242 -6.4523582 0.7998057 0 44
2.5131342 -6.4421306 0.86305773 0 45
2.5095987 -6.4330678 0.92642075 0 46
2.5116968 -6.438446 0.9919861 0 47
2.5117435 -6.4385662 1.056968 0 48
2.5118053 -6.4387245 1.122142 0 49
2.5186222 -6.4561982 1.1907074 0 50
2.5124893 -6.4404774 1.2533756 0 51
2.5097711 -6.4335098 1.3177351 0 52
2.5153821 -6.4478927 1.386775 0 53
2.5144207 -6.4454284 1.4525577 0 54
2.5186677 -6.4563155 1.5216929 0 55
2.5149922 -6.4468932 1.5863261 0 56
2.5175314 -6.4534025 1.6551319 0 57
2.5171201 -6.4523478 1.7223507 0 58
0 0 0 0 59
0 0 0 0 60
0 0 0 0 61
0 0 0 0 62
0 0 0 0 63
0.92429143 -2.2858965 -0.73505569 0 0
0.94862294 -2.3460715 -0.72913015 0 1
0.99098766 -2.4508452 -0.73542792 0 2
1.0238094 -2.5320179 -0.73278952 0 3
1.0633655 -2.6298454 -0.73320067 0 4
1.1020114 -2.7254219 -0.73106956 0 5
1.1505353 -2.845428 -0.73335224 0 6
1.1972393 -2.9609332 -0.73213595 0 7
1.2515785 -3.0953212 -0.73311001 0 8
1.3065233 -3.2312071 -0.73175812 0 9
1.3741118 -3.3983624 -0.73447841 0 10
1.4377097 -3.5556486 -0.73184669 0 11
1.5124418 -3.7404709 -0.73149371 0 12
1.5980229 -3.9521246 -0.73245341 0 13
1.6913016 -4.1828151 -0.73255086 0 14
1.793815 -4.4363446 -0.73184496 0 15
1.9080249 -4.718801 -0.73059607 0 16
2.0378056 -5.0397658 -0.72932589 0 17
2.1914566 -5.4197655 -0.72964561 0 18
2.3674719 -5.8550749 -0.72932249 0 19
2.5757997 -6.3702979 -0.72952324 0 20
2.6215024 -6.4833264 -0.67748237 0 21
2.6181741 -6.4750953 -0.61183554 0 22
2.6229327 -6.4868636 -0.5481475 0 23
2.6216886 -6.4837871 -0.48321158 0 24
2.6197448 -6.4789801 -0.41830739 0 25
2.6188648 -6.4768033 -0.3537136 0 26
2.6266699 -6.4961066 -0.29018265 0 27
2.6217175 -6.4838581 -0.22522122 0 28
2.6218131 -6.4840946 -0.16085094 0 29
2.6210918 -6.4823112 -0.096473135 0 30
2.625124 -6.4922829 -0.032205362 0 31
2.6193292 -6.477952 0.032134276 0 32
2.6257603 -6.4938569 0.096644968 0 33
2.6224976 -6.4857879 0.16089293 0 34
2.6268117 -6.4964571 0.22565885 0 35
2.623379 -6.4879675 0.28981906 0 36
2.6204629 -6.4807558 0.35392946 0 37
2.6198242 -6.479176 0.41832003 0 38
2.622812 -6.4865656 0.48341867 0 39
2.6219096 -6.484334 0.54793376 0 40
2.6237795 -6.4889579 0.61314541 0 41
2.6208112 -6.481617 0.67730379 0 42
2.6249375 -6.4918222 0.74344015 0 43
2.6210477 -6.4822016 0.80743897 0 44
2.6229424 -6.4868879 0.87330884 0 45
2.619874 -6.4792995 0.93764693 0 46
2.6276762 -6.4985952 1.0061556 0 47
2.6169529 -6.472075 1.0676707 0 48
2.6228271 -6.4866028 1.1360211 0 49
2.6244278 -6.490561 1.2029058 0 50
2.6255243 -6.4932733 1.269837 0 51
2.6241288 -6.4898219 1.3357773 0 52
2.6250806 -6.4921761 1.4031355 0 53
2.6190271 -6.4772048 1.4668658 0 54
2.6269393 -6.4967728 1.5387253 0 55
2.6226234 -6.4860992 1.6037871 0 56
2.6171713 -6.4726152 1.6681873 0 57
2.6181772 -6.4751024 1.7368872 0 58
0 0 0 0 59
0 0 0 0 60
0 0 0 0 61
0 0 0 0 62
0 0 0 0 63
0.94879043 -2.2659109 -0.73232526 0 0
0.98480368 -2.351918 -0.73465514 0 1
1.0153596 -2.4248922 -0.73133135 0 2
1.0528224 -2.5143609 -0.73137075 0 3
1.0928164 -2.609875 -0.73132408 0 4
1.1378915 -2.7175241 -0.73264885 0 5
1.1860182 -2.8324606 -0.73371339 0 6
1.2312381 -2.9404552 -0.73076075 0 7
1.2913446 -3.0840023 -0.73413455 0 8
1.3492719 -3.2223446 -0.73345298 0 9
1.4061571 -3.3581986 -0.72947979 0 10
1.4820967 -3.5395579 -0.7322306 0 11
1.559231 -3.7237711 -0.73192209 0 12
1.6494451 -3.9392211 -0.73376542 0 13
1.7439811 -4.1649933 -0.73312992 0 14
1.8457263 -4.4079819 -0.73085487 0 15
1.9697526 -4.7041826 -0.73202747 0 16
2.1043568 -5.0256462 -0.73097193 0 17
2.2570636 -5.3903418 -0.72936565 0 18
2.4363396 -5.818491 -0.72844213 0 19
2.6415114 -6.3084846 -0.72610921 0 20
2.7323244 -6.5253644 -0.68533421 0 21
2.7348957 -6.5315056 -0.62029654 0 22
2.7302213 -6.5203419 -0.5537715 0 23
2.7358377 -6.5337553 -0.48940566 0 24
2.7307889 -6.5216975 -0.42320141 0 25
2.726146 -6.5106087 -0.35736352 0 26
2.7348473 -6.5313897 -0.29323882 0 27
2.7329807 -6.5269318 -0.22786751 0 28
2.7277026 -6.5143266 -0.16242068 0 29
2.7292747 -6.5180812 -0.097497575 0 30
2.7306371 -6.5213346 -0.032513581 0 31
2.7292886 -6.5181141 0.032497525 0 32
2.7345941 -6.5307851 0.097687602 0 33
2.728219 -6.5155602 0.16245143 0 34
2.7303824 -6.5207267 0.22765088 0 35
2.7275915 -6.5140615 0.2924608 0 36
2.7306848 -6.5214486 0.3579585 0 37
2.7319615 -6.524498 0.42338312 0 38
2.7310216 -6.522253 0.48854411 0 39
2.7284052 -6.516005 0.55340314 0 40
2.734982 -6.5317116 0.62031615 0 41
2.732625 -6.526082 0.68540961 0 42
2.7308922 -6.521944 0.75067854 0 43
2.7326283 -6.5260906 0.8170296 0 44
2.7329881 -6.5269499 0.88315976 0 45
2.7315891 -6.5236082 0.94884813 0 46
2.7309139 -6.521996 1.0149012 0 47
2.7351627 -6.5321431 1.0830463 0 48
2.7329862 -6.5269451 1.148885 0 49
2.7281594 -6.5154176 1.2136379 0 50
2.7282321 -6.5155916 1.2806655 0 51
2.7298241 -6.519393 1.348671 0 52
2.7343991 -6.5303192 1.418539 0 53
2.7361717 -6.5345526 1.4873601 0 54
2.7334337 -6.5280142 1.5539678 0 55
2.7284074 -6.5160098 1.6193563 0 56
2.7288599 -6.5170908 1.6881706 0 57
2.7305067 -6.5210233 1.7580785 0 58
0 0 0 0 59
0 0 0 0 60
0 0 0 0 61
0 0 0 0 62
0 0 0 0 63
0.9759109 -2.2525308 -0.73182404 0 0
1.0105791 -2.3325496 -0.73243141 0 1
1.0456278 -2.4134467 -0.73170191 0 2
1.0871978 -2.5093956 -0.73375964 0 3
1.1279025 -2.6033475 -0.73332596 0 4
1.1740034 -2.7097542 -0.73439062 0 5
1.2161012 -2.8069215 -0.73091614 0 6
1.272372 -2.9368021 -0.73368573 0 7
1.32524 -3.0588284 -0.73196578 0 8
1.3896037 -3.2073884 -0.73388255 0 9
1.4535295 -3.3549373 -0.73259848 0 10
1.5237637 -3.5170472 -0.73139459 0 11
1.6009123 -3.6951163 -0.73010397 0 12
1.6894909 -3.8995674 -0.73019361 0 13
1.7965473 -4.146668 -0.73373729 0 14
1.9004315 -4.386446 -0.73110348 0 15
2.0261106 -4.6765304 -0.73154604 0 16
2.1690338 -5.0064158 -0.73199892 0 17
2.3250742 -5.3665771 -0.72996342 0 18
2.5037537 -5.7789931 -0.72729665 0 19
2.7433081 -6.3319163 -0.73263353 0 20
2.8430831 -6.5622101 -0.69282335 0 21
2.8475807 -6.5725913 -0.62747639 0 22
2.8417685 -6.559176 -0.55999511 0 23
2.8417256 -6.5590773 -0.49388242 0 24
2.8450735 -6.5668044 -0.42836621 0 25
2.8423455 -6.5605078 -0.36199349 0 26
2.846947 -6.5711284 -0.29657224 0 27
2.8381386 -6.5507975 -0.22990172 0 28
2.8405032 -6.5562553 -0.16432452 0 29
2.8473639 -6.5720906 -0.0988217 0 30
2.8449943 -6.5666218 -0.032911297 0 31
2.8456142 -6.5680523 0.032918468 0 32
2.8440642 -6.5644746 0.098707177 0 33
2.8457587 -6.5683856 0.16462855 0 34
2.8424191 -6.5606775 0.23024847 0 35
2.8442712 -6.5649524 0.2962935 0 36
2.8417492 -6.5591311 0.36191756 0 37
2.841738 -6.5591054 0.42786399 0 38
2.8366592 -6.5473828 0.49300188 0 39
2.8423562 -6.5605326 0.56011093 0 40
2.8447011 -6.5659442 0.62684184 0 41
2.8429871 -6.5619888 0.69279993 0 42
2.8382897 -6.551146 0.75799954 0 43
2.8437874 -6.5638356 0.82607049 0 44
2.8426893 -6.5613008 0.89247012 0 45
2.8414664 -6.5584788 0.95892942 0 46
2.8476181 -6.5726771 1.0281589 0 47
2.8473587 -6.5720787 1.0953901 0 48
2.848182 -6.5739789 1.1632408 0 49
2.844316 -6.5650558 1.2293061 0 50
2.8472703 -6.5718746 1.2985116 0 51
2.8411365 -6.5577173 1.3637233 0 52
2.8460841 -6.5691366 1.4344648 0 53
2.8406334 -6.5565557 1.5002055 0 54
2.8397238 -6.5544567 1.5684561 0 55
2.846812 -6.570817 1.6415524 0 56
2.8410833 -6.5575943 1.707583 0 57
0 0 0 0 58
0 0 0 0 59
0 0 0 0 60
0 0 0 0 61
0 0 0 0 62
0 0 0 0 63
1.0057341 -2.2452745 -0.73342896 0 0
1.0423747 -2.3270738 -0.73468119 0 1
1.0810927 -2.4135108 -0.73569602 0 2
1.1152167 -2.4896917 -0.73195261 0 3
1.1535038 -2.5751665 -0.72932798 0 4
1.2102869 -2.7019331 -0.73624867 0 5
1.251963 -2.7949741 -0.73175848 0 6
1.3109686 -2.9267027 -0.7351343 0 7
1.3598461 -3.0358205 -0.73040622 0 8
1.4279164 -3.1877854 -0.73335928 0 9
1.49079 -3.3281491 -0.73069662 0 10
1.5686288 -3.5019221 -0.73220509 0 11
1.653949 -3.6923974 -0.73352969 0 12
1.7409264 -3.8865719 -0.73171341 0 13
1.8397628 -4.1072216 -0.73070514 0 14
1.9566487 -4.368166 -0.7320115 0 15
2.0755289 -4.633563 -0.72876197 0 16
2.2298417 -4.9780622 -0.73180699 0 17
2.3862214 -5.3271756 -0.72854006 0 18
2.5707674 -5.7391696 -0.72620827 0 19
2.8120315 -6.2777853 -0.73031598 0 20
2.9593596 -6.6066918 -0.70130849 0 21
2.9648497 -6.618948 -0.63533455 0 22
2.9606979 -6.6096792 -0.5673722 0 23
2.9596405 -6.6073189 -0.50021738 0 24
2.958251 -6.6042166 -0.43314686 0 25
2.9593885 -6.6067562 -0.36652559 0 26
2.9605749 -6.6094046 -0.29992011 0 27
2.9581118 -6.6039062 -0.23302452 0 28
2.9611044 -6.6105866 -0.16658628 0 29
2.9613435 -6.6111207 -0.099948563 0 30
2.9574106 -6.6023402 -0.033270061 0 31
2.9613588 -6.611155 0.033314481 0 32
2.9622245 -6.6130877 0.099978298 0 33
2.9560332 -6.5992656 0.16630098 0 34
2.9616778 -6.6118665 0.23330542 0 35
2.962322 -6.6133051 0.30009711 0 36
2.9575295 -6.6026063 0.36629537 0 37
2.9582593 -6.6042352 0.43314806 0 38
2.9593678 -6.60671 0.5001713 0 39
2.9582937 -6.6043119 0.56691146 0 40
2.957062 -6.6015625 0.63366574 0 41
2.9556305 -6.5983667 0.70042485 0 42
2.9577777 -6.6031599 0.76816791 0 43
2.9576335 -6.6028385 0.83549291 0 44
2.9570954 -6.6016364 0.90283424 0 45
2.9602919 -6.6087728 0.97153187 0 46
2.956471 -6.6002426 1.0380793 0 47
2.9609394 -6.6102185 1.1077316 0 48
2.9654989 -6.6203971 1.1778177 0 49
2.9559941 -6.5991783 1.2424078 0 50
2.9642041 -6.6175065 1.3146304 0 51
2.9629879 -6.6147914 1.3830644 0 52
2.9585271 -6.6048331 1.450094 0 53
2.9611151 -6.610611 1.5207901 0 54
2.9571645 -6.6017914 1.5883645 0 55
2.9556589 -6.5984302 1.6574053 0 56
2.9628532 -6.614491 1.7317548 0 57
0 0 0 0 58
0 0 0 0 59
0 0 0 0 60
0 0 0 0 61
0 0 0 0 62
0 0 0 0 63
1.0277408 -2.2208021 -0.72950792 0 0
1.0691686 -2.3103216 -0.73348755 0 1
1.1066049 -2.3912163 -0.73299253 0 2
1.1491328 -2.4831131 -0.73411727 0 3
1.1838092 -2.5580437 -0.72854614 0 4
1.2398694 -2.6791816 -0.73414797 0 5
1.2926031 -2.7931318 -0.7353819 0 6
1.3461883 -2.9089217 -0.73477042 0 7
1.4012133 -3.027823 -0.73257214 0 8
1.462726 -3.1607432 -0.73122066 0 9
1.5294358 -3.3048937 -0.72966468 0 10
1.6088991 -3.4766026 -0.73099238 0 11
1.7003818 -3.6742837 -0.73402947 0 12
1.7883803 -3.8644359 -0.7316308 0 13
1.889076 -4.0820251 -0.73029995 0 14
2.0115976 -4.346777 -0.73251688 0 15
2.1507242 -4.6474094 -0.73504359 0 16
2.2928224 -4.954464 -0.73242712 0 17
2.4621327 -5.3203192 -0.73168755 0 18
2.6517 -5.7299476 -0.72911209 0 19
2.8853481 -6.2348275 -0.72939086 0 20
3.015893 -6.5169168 -0.6956628 0 21
3.0139234 -6.5126605 -0.62864208 0 22
3.0151014 -6.5152063 -0.56240267 0 23
3.0123303 -6.5092182 -0.49555734 0 24
3.016448 -6.518116 -0.42990005 0 25
3.014611 -6.5141468 -0.36341688 0 26
3.0108359 -6.5059886 -0.29688489 0 27
3.0138772 -6.5125604 -0.23109154 0 28
3.0150526 -6.5151005 -0.16510183 0 29
3.0147991 -6.5145531 -0.099041596 0 30
3.0196922 -6.5251265 -0.033065584 0 31
3.0164001 -6.518012 0.03302953 0 32
3.0219393 -6.5299821 0.099276163 0 33
3.0129683 -6.5105968 0.1649877 0 34
3.0125201 -6.5096278 0.23098749 0 35
3.0131044 -6.510891 0.29710859 0 36
3.0101812 -6.5045743 0.36288282 0 37
3.0121346 -6.5087953 0.42928529 0 38
3.0158691 -6.5168648 0.4961395 0 39
3.0068855 -6.4974532 0.56087017 0 40
3.0215633 -6.5291696 0.63023567 0 41
3.0119393 -6.5083733 0.69475085 0 42
3.0099061 -6.5039797 0.76087803 0 43
3.0126903 -6.5099959 0.82837003 0 44
3.0117915 -6.5080538 0.89503312 0 45
3.0143039 -6.5134826 0.96289968 0 46
3.0102208 -6.5046597 1.02879 0 47
3.0130098 -6.5106864 1.0971779 0 48
3.016418 -6.5180511 1.1661203 0 49
3.0032284 -6.4895501 1.228628 0 50
3.0154865 -6.5160384 1.3017405 0 51
3.0106251 -6.5055332 1.367857 0 52
3.0162597 -6.5177088 1.439 0 53
3.015584 -6.5162487 1.5074985 0 54
3.0129969 -6.5106583 1.5752331 0 55
3.0158455 -6.5168142 1.6460953 0 56
3.0124905 -6.5095644 1.7138525 0 57
0 0 0 0 58
0 0 0 0 59
0 0 0 0 60
0 0 0 0 61
0 0 0 0 62
0 0 0 0 63
1.0625784 -2.2239234 -0.73476976 0 0
1.0940931 -2.2898822 -0.73121434 0 1
1.1391431 -2.3841696 -0.73507077 0 2
1.176118 -2.4615562 -0.73196441 0 3
1.2256422 -2.5652077 -0.73482335 0 4
1.271315 -2.6607988 -0.73333889 0 5
1.313475 -2.7490373 -0.72796988 0 6
1.374629 -2.8770297 -0.73092908 0 7
1.441027 -3.0159976 -0.73394269 0 8
1.5133178 -3.1672983 -0.7369864 0 9
1.5779803 -3.3026338 -0.73339432 0 10
1.6534075 -3.460499 -0.73182595 0 11
1.7464045 -3.6551373 -0.73443907 0 12
1.8294508 -3.828949 -0.72911608 0 13
1.9379449 -4.0560217 -0.7298559 0 14
2.058043 -4.3073807 -0.73008734 0 15
2.1929851 -4.589808 -0.73014307 0 16
2.3532321 -4.9251971 -0.73232299 0 17
2.5285225 -5.2920713 -0.7320233 0 18
2.7215219 -5.6960092 -0.72899675 0 19
2.9599454 -6.1950178 -0.72893649 0 20
3.0564055 -6.396904 -0.68681175 0 21
3.0638633 -6.4125128 -0.62256473 0 22
3.0529821 -6.389739 -0.55477077 0 23
3.0544524 -6.3928161 -0.48951787 0 24
3.0560272 -6.396112 -0.42429969 0 25
3.0548561 -6.393661 -0.35876364 0 26
3.0613265 -6.4072032 -0.2940726 0 27
3.0509369 -6.3854585 -0.22789544 0 28
3.0587513 -6.4018135 -0.16317177 0 29
3.0518649 -6.3874006 -0.097671628 0 30
3.0603802 -6.4052229 -0.032646209 0 31
3.0553238 -6.39464 0.032592271 0 32
3.0537713 -6.3913903 0.097732633 0 33
3.062587 -6.4098411 0.16337638 0 34
3.057353 -6.3988867 0.2283747 0 35
3.0567586 -6.3976426 0.29363379 0 36
3.0534472 -6.3907123 0.3585982 0 37
3.0535314 -6.3908887 0.42395318 0 38
3.0624549 -6.409565 0.49080041 0 39
3.0560822 -6.3962274 0.55533409 0 40
3.0529799 -6.3897338 0.62035322 0 41
3.0622168 -6.4090662 0.68811756 0 42
3.0565441 -6.3971939 0.75272554 0 43
3.0598202 -6.4040508 0.81961459 0 44
3.0602207 -6.4048886 0.88595325 0 45
3.0527554 -6.3892641 0.9500137 0 46
3.0534172 -6.3906493 1.0166194 0 47
3.0534799 -6.3907804 1.083217 0 48
3.0561388 -6.3963456 1.1509826 0 49
3.0585518 -6.4013963 1.2189666 0 50
3.0571334 -6.3984275 1.2856576 0 51
3.0553739 -6.3947449 1.3523598 0 52
3.0514047 -6.3864374 1.4181944 0 53
3.0519149 -6.3875051 1.4862838 0 54
3.0514355 -6.3865018 1.5541545 0 55
3.0579135 -6.4000602 1.6259791 0 56
3.0555348 -6.3950815 1.6934752 0 57
3.0498352 -6.3831525 1.7592515 0 58
0 0 0 0 59
0 0 0 0 60
0 0 0 0 61
0 0 0 0 62
0 0 0 0 63
1.0846605 -2.2001791 -0.73127604 0 0
1.1257907 -2.2836096 -0.73357642 0 1
1.1637458 -2.3605995 -0.73216033 0 2
1.2110564 -2.4565668 -0.73485339 0 3
1.2531456 -2.5419426 -0.73251754 0 4
1.3029069 -2.6428807 -0.73276073 0 5
1.3577583 -2.7541442 -0.73368794 0 6
1.4145317 -2.8693061 -0.73333043 0 7
1.4687135 -2.9792113 -0.72933054 0 8
1.5406719 -3.1251755 -0.73153788 0 9
1.623333 -3.2928488 -0.7355985 0 10
1.6879029 -3.423826 -0.72840452 0 11
1.7818092 -3.61431 -0.73058277 0 12
1.8849442 -3.8235142 -0.73243946 0 13
1.9914714 -4.0395989 -0.73125196 0 14
2.1096094 -4.2792358 -0.7296586 0 15
2.2463338 -4.5565748 -0.72919524 0 16
2.4027019 -4.8737593 -0.72901261 0 17
2.5837407 -5.2409873 -0.72929668 0 18
2.7877574 -5.6548252 -0.72805804 0 19
3.04199 -6.1705236 -0.7304005 0 20
3.096303 -6.2806945 -0.67837131 0 21
3.0965049 -6.2811041 -0.61345708 0 22
3.0929108 -6.2738132 -0.54796642 0 23
3.0990486 -6.2862635 -0.4842402 0 24
3.0984161 -6.2849803 -0.41942325 0 25
3.1060557 -6.3004775 -0.35565114 0 26
3.10186 -6.2919664 -0.2905122 0 27
3.0995965 -6.287375 -0.22573808 0 28
3.097302 -6.2827206 -0.16109486 0 29
3.0987949 -6.285749 -0.096692592 0 30
3.0943708 -6.2767754 -0.032183036 0 31
3.0998437 -6.2878761 0.032239955 0 32
3.0953081 -6.278676 0.096583791 0 33
3.0993092 -6.2867923 0.16119926 0 34
3.1035655 -6.2954259 0.22602713 0 35
3.0973523 -6.2828226 0.29009002 0 36
3.092303 -6.2725806 0.35407642 0 37
3.0914085 -6.2707663 0.41847467 0 38
3.098536 -6.2852235 0.4841601 0 39
3.100106 -6.2884088 0.54924119 0 40
3.0957558 -6.2795844 0.61330867 0 41
3.0974193 -6.282959 0.67861587 0 42
3.0938022 -6.2756214 0.74284089 0 43
3.0889745 -6.2658291 0.80672473 0 44
3.100215 -6.2886295 0.87507874 0 45
3.093879 -6.2757773 0.93872523 0 46
3.1014977 -6.2912316 1.0067949 0 47
3.0966554 -6.2814093 1.071052 0 48
3.1000166 -6.2882271 1.1383007 0 49
3.0958419 -6.2797589 1.2029623 0 50
3.0959213 -6.2799196 1.2693988 0 51
3.1012843 -6.2907987 1.3383409 0 52
3.0888824 -6.2656417 1.3996989 0 53
3.0998282 -6.2878451 1.4718523 0 54
3.0973985 -6.2829165 1.5380994 0 55
3.0968177 -6.2817383 1.6054717 0 56
3.0972869 -6.28269 1.6736718 0 57
3.0936923 -6.2753987 1.7399067 0 58
0 0 0 0 59
0 0 0 0 60
0 0 0 0 61
0 0 0 0 62
0 0 0 0 63
1.1195217 -2.2021983 -0.73646694 0 0
1.1530195 -2.2680912 -0.73309046 0 1
1.1886053 -2.3380916 -0.72965735 0 2
1.2410188 -2.4411936 -0.73476404 0 3
1.2812661 -2.5203638 -0.73078406 0 4
1.3343972 -2.6248772 -0.73226315 0 5
1.3934934 -2.7411249 -0.73472875 0 6
1.4477578 -2.8478677 -0.7323457 0 7
1.5098331 -2.9699752 -0.73155916 0 8
1.5766382 -3.1013868 -0.7304523 0 9
1.6551052 -3.2557385 -0.73179942 0 10
1.7324604 -3.4079027 -0.72949398 0 11
1.8269819 -3.5938351 -0.73092979 0 12
1.9306297 -3.7977192 -0.73199046 0 13
2.0412192 -4.0152588 -0.73133415 0 14
2.1688309 -4.2662821 -0.73194188 0 15
2.3084435 -4.5409122 -0.73117608 0 16
2.4763231 -4.8711462 -0.73312098 0 17
2.6598029 -5.2320676 -0.73255128 0 18
2.8707848 -5.6470876 -0.73155147 0 19
3.1136374 -6.1248002 -0.72946507 0 20
3.1439779 -6.1844826 -0.6721043 0 21
3.1334805 -6.1638331 -0.605721 0 22
3.1354244 -6.1676569 -0.54202104 0 23
3.13588 -6.1685534 -0.47810704 0 24
3.1331203 -6.163125 -0.41383106 0 25
3.1371138 -6.17098 -0.35049227 0 26
3.1407158 -6.1780658 -0.28701463 0 27
3.1411443 -6.1789083 -0.22321366 0 28
3.1365478 -6.169867 -0.15917808 0 29
3.1427882 -6.1821418 -0.095686063 0 30
3.1326578 -6.1622148 -0.031790752 0 31
3.1378975 -6.1725221 0.031843927 0 32
3.1326959 -6.1622901 0.095378801 0 33
3.1375773 -6.1718917 0.15923032 0 34
3.1422858 -6.1811543 0.22329478 0 35
3.1345897 -6.1660147 0.28645477 0 36
3.1433861 -6.1833186 0.35119304 0 37
3.130091 -6.1571655 0.41343093 0 38
3.139792 -6.1762481 0.47870344 0 39
3.1400251 -6.1767073 0.54281634 0 40
3.1412971 -6.1792088 0.60723197 0 41
3.1368456 -6.1704526 0.67057961 0 42
3.1317291 -6.1603885 0.73370367 0 43
3.1385324 -6.1737704 0.79978055 0 44
3.138926 -6.1745448 0.86450922 0 45
3.1389909 -6.1746726 0.92930532 0 46
3.1387627 -6.1742239 0.99417138 0 47
3.1430964 -6.1827488 1.0607392 0 48
3.132163 -6.1612415 1.1222007 0 49
3.1341414 -6.165133 1.188297 0 50
3.1412935 -6.1792021 1.256753 0 51
3.1322188 -6.1613512 1.3188957 0 52
3.1336198 -6.1641068 1.3855199 0 53
3.1448693 -6.1862364 1.4570097 0 54
3.1412373 -6.1790915 1.5220231 0 55
3.1406131 -6.1778636 1.5886735 0 56
3.1449199 -6.1863356 1.6581801 0 57
3.1382718 -6.1732583 1.7221564 0 58
0 0 0 0 59
0 0 0 0 60
0 0 0 0 61
0 0 0 0 62
0 0 0 0 63
1.148133 -2.1913562 -0.73750675 0 0
1.1722677 -2.2374203 -0.72778106 0 1
1.2208909 -2.3302236 -0.73183167 0 2
1.2714739 -2.4267678 -0.73507226 0 3
1.3105571 -2.5013628 -0.72989219 0 4
1.3657283 -2.6066639 -0.73181176 0 5
1.419174 -2.7086716 -0.73065233 0 6
1.4844126 -2.8331878 -0.73320919 0 7
1.5403119 -2.9398787 -0.72875613 0 8
1.6200633 -3.0920942 -0.7329002 0 9
1.699236 -3.2432053 -0.73362339 0 10
1.7771058 -3.3918297 -0.73067576 0 11
1.8749194 -3.5785193 -0.73244846 0 12
1.9710423 -3.761982 -0.72971863 0 13
2.0946846 -3.9979687 -0.73282093 0 14
2.219332 -4.2358737 -0.73135155 0 15
2.3636584 -4.5113392 -0.73103893 0 16
2.5347967 -4.8379779 -0.73276472 0 17
2.7153118 -5.1825137 -0.73023272 0 18
2.9257298 -5.5841231 -0.72800022 0 19
3.1784942 -6.0665555 -0.72712815 0 20
3.166966 -6.0445523 -0.66107941 0 21
3.1730363 -6.0561385 -0.59892678 0 22
3.1768849 -6.0634842 -0.53625864 0 23
3.1788752 -6.0672827 -0.4732517 0 24
3.1731579 -6.0563703 -0.4092519 0 25
3.1798959 -6.0692306 -0.34690782 0 26
3.1711853 -6.0526052 -0.28297627 0 27
3.1781104 -6.0658226 -0.22052351 0 28
3.1694815 -6.0493536 -0.15706253 0 29
3.1828899 -6.0749454 -0.094625518 0 30
3.1736472 -6.0573044 -0.031448472 0 31
3.1752977 -6.0604544 0.031464826 0 32
3.1746719 -6.0592599 0.094381198 0 33
3.1803894 -6.0701728 0.15760307 0 34
3.1732574 -6.0565605 0.22018677 0 35
3.1667178 -6.0440788 0.28257763 0 36
3.1748018 -6.0595083 0.3463521 0 37
3.1777997 -6.0652299 0.40985057 0 38
3.1756275 -6.0610838 0.47276822 0 39
3.1795552 -6.0685806 0.53670937 0 40
3.1710625 -6.052371 0.59855419 0 41
3.1733754 -6.0567856 0.66241735 0 42
3.1802299 -6.0698681 0.72752517 0 43
3.1809082 -6.0711632 0.79149544 0 44
3.1744878 -6.0589089 0.85371959 0 45
3.1764224 -6.0626011 0.91824728 0 46
3.1750822 -6.0600433 0.98199832 0 47
3.1801617 -6.0697379 1.0479803 0 48
3.1857576 -6.0804186 1.1145306 0 49
3.1693568 -6.0491157 1.1733582 0 50
3.1781719 -6.0659399 1.2415718 0 51
3.1762455 -6.0622635 1.3059468 0 52
3.1784339 -6.0664401 1.3722482 0 53
3.1786988 -6.066946 1.4380112 0 54
3.1732097 -6.0564694 1.5013167 0 55
3.177587 -6.0648241 1.5695339 0 56
3.1760428 -6.0618768 1.6351647 0 57
3.1822596 -6.0737424 1.7051818 0 58
0 0 0 0 59
0 0 0 0 60
0 0 0 0 61
0 0 0 0 62
0 0 0 0 63
1.1670759 -2.1624095 -0.73253918 0 0
1.2075064 -2.2373211 -0.7325232 0 1
1.249235 -2.3146377 -0.73170578 0 2
1.2986269 -2.4061532 -0.73360956 0 3
1.3450962 -2.4922535 -0.73200506 0 4
1.4084715 -2.609678 -0.73746455 0 5
1.45522 -2.6962957 -0.73208547 0 6
1.5220518 -2.8201246 -0.73461652 0 7
1.5833749 -2.9337468 -0.73200709 0 8
1.6539029 -3.0644243 -0.73110688 0 9
1.7371618 -3.2186899 -0.73285443 0 10
1.8215258 -3.3750033 -0.73182082 0 11
1.9272447 -3.570884 -0.73568058 0 12
2.0106611 -3.7254417 -0.72737163 0 13
2.1402459 -3.9655421 -0.73164582 0 14
2.2729955 -4.2115064 -0.7319147 0 15
2.4130247 -4.4709582 -0.72924846 0 16
2.5897529 -4.7984085 -0.73153943 0 17
2.7752831 -5.1421671 -0.72930115 0 18
3.0057325 -5.5691538 -0.73081189 0 19
3.2179816 -5.9624181 -0.71933478 0 20
3.2155488 -5.9579105 -0.65587842 0 21
3.2185142 -5.9634051 -0.59362489 0 22
3.2174294 -5.9613948 -0.5306887 0 23
3.2156379 -5.9580755 -0.46778235 0 24
3.2153764 -5.9575911 -0.40521809 0 25
3.2164104 -5.959507 -0.34287092 0 26
3.2152305 -5.9573207 -0.28034869 0 27
3.221036 -5.9680772 -0.21839339 0 28
3.2210271 -5.9680614 -0.15596846 0 29
3.2135167 -5.9541454 -0.093352333 0 30
3.211936 -5.9512162 -0.031100383 0 31
3.2145092 -5.9559846 0.031125301 0 32
3.2116745 -5.9507322 0.093298823 0 33
3.2189412 -5.9641962 0.15586744 0 34
3.208946 -5.9456763 0.21757366 0 35
3.2065115 -5.9411659 0.27958846 0 36
3.2135572 -5.9542203 0.34256676 0 37
3.2195611 -5.9653449 0.40574548 0 38
3.2167802 -5.9601922 0.46794856 0 39
3.2158995 -5.95856 0.53043634 0 40
3.2093267 -5.946382 0.59193027 0 41
3.2150681 -5.9570198 0.65578038 0 42
3.2143993 -5.955781 0.71853405 0 43
3.2086184 -5.9450693 0.78014141 0 44
3.221453 -5.9688501 0.8465476 0 45
3.2054625 -5.9392219 0.90546167 0 46
3.2203193 -5.9667497 0.97322381 0 47
3.2133341 -5.9538074 1.034708 0 48
3.2116926 -5.9507656 1.0979213 0 49
3.2148001 -5.9565234 1.1629779 0 50
3.2125478 -5.9523501 1.226315 0 51
3.2084503 -5.9447584 1.2890351 0 52
3.2066669 -5.9414539 1.352793 0 53
3.2201583 -5.9664516 1.4234693 0 54
3.2184703 -5.9633241 1.4879251 0 55
3.2132685 -5.9536853 1.5508802 0 56
3.214982 -5.9568605 1.6173786 0 57
3.2123547 -5.9519925 1.6819634 0 58
3.2236588 -5.9729371 1.7543241 0 59
0 0 0 0 60
0 0 0 0 61
0 0 0 0 62
0 0 0 0 63
1.1954504 -2.1512702 -0.73368984 0 0
1.2444236 -2.2393997 -0.73815799 0 1
1.2828395 -2.308531 -0.7347064 0 2
1.3239496 -2.3825104 -0.73130935 0 3
1.3724464 -2.4697828 -0.73030674 0 4
1.4281629 -2.5700474 -0.73117268 0 5
1.4878396 -2.6774385 -0.73187751 0 6
1.5495304 -2.7884538 -0.7312746 0 7
1.6258962 -2.9258778 -0.73497659 0 8
1.6973168 -3.0544026 -0.73363984 0 9
1.7804537 -3.2040114 -0.73444164 0 10
1.8673801 -3.3604395 -0.73358643 0 11
1.9683121 -3.5420716 -0.73467553 0 12
2.0666833 -3.7190952 -0.73103899 0 13
2.1896656 -3.940408 -0.7319209 0 14
2.3243959 -4.1828613 -0.73184842 0 15
2.4756131 -4.4549842 -0.73155284 0 16
2.6460598 -4.7617111 -0.73084992 0 17
2.8310378 -5.0945878 -0.72743535 0 18
3.0753143 -5.5341749 -0.73112887 0 19
3.2524338 -5.8529096 -0.71089441 0 20
3.2496579 -5.8479142 -0.64811939 0 21
3.2434876 -5.8368106 -0.58494902 0 22
3.2495918 -5.8477955 -0.52409351 0 23
3.2531064 -5.8541203 -0.46272624 0 24
3.250411 -5.8492699 -0.40053868 0 25
3.254638 -5.8568764 -0.33924308 0 26
3.2568328 -5.860826 -0.27767131 0 27
3.260546 -5.8675079 -0.21616401 0 28
3.24547 -5.8403783 -0.15366293 0 29
3.2537467 -5.8552723 -0.092422456 0 30
3.2497208 -5.8480277 -0.030767633 0 31
3.2498755 -5.8483062 0.030769099 0 32
3.2518351 -5.8518324 0.092368163 0 33
3.2605577 -5.8675294 0.15437728 0 34
3.256722 -5.8606267 0.21591049 0 35
3.2548802 -5.8573122 0.27750486 0 36
3.249083 -5.84688 0.33866408 0 37
3.2514591 -5.8511562 0.40066782 0 38
3.252023 -5.8521705 0.46257213 0 39
3.2450294 -5.8395853 0.52335769 0 40
3.2554502 -5.8583384 0.58710647 0 41
3.2530632 -5.8540425 0.64879853 0 42
3.2468863 -5.842927 0.70968193 0 43
3.2520931 -5.8522964 0.7731564 0 44
3.2471786 -5.8434525 0.83436269 0 45
3.2511046 -5.8505177 0.89796513 0 46
3.2526357 -5.8532734 0.9611659 0 47
3.2528927 -5.8537354 1.0241907 0 48
3.2447884 -5.8391514 1.0846078 0 49
3.2464929 -5.8422189 1.148368 0 50
3.2484703 -5.8457775 1.2124965 0 51
3.2542908 -5.8562512 1.2784239 0 52
3.2515109 -5.8512487 1.3412564 0 53
3.2553158 -5.8580961 1.4070617 0 54
3.2483654 -5.8455882 1.4684039 0 55
3.2508602 -5.8500781 1.5341884 0 56
3.2574639 -5.8619618 1.6023667 0 57
3.2442136 -5.8381171 1.6609312 0 58
3.2533119 -5.8544903 1.7311536 0 59
0 0 0 0 60
0 0 0 0 61
0 0 0 0 62
0 0 0 0 63
1.2202283 -2.133641 -0.73273933 0 0
1.2653997 -2.212626 -0.73440617 0 1
1.3115814 -2.2933774 -0.73496085 0 2
1.3584093 -2.3752587 -0.73415518 0 3
1.4130477 -2.4707971 -0.73568892 0 4
1.458284 -2.5498955 -0.73048592 0 5
1.5229555 -2.6629777 -0.7329883 0 6
1.5884875 -2.7775643 -0.73348582 0 7
1.6560087 -2.8956289 -0.73243791 0 8
1.7213808 -3.0099359 -0.72798842 0 9
1.8171186 -3.1773393 -0.73339409 0 10
1.9012095 -3.3243768 -0.73076212 0 11
2.0014558 -3.4996636 -0.7309289 0 12
2.1139548 -3.6963747 -0.73162717 0 13
2.2319195 -3.9026432 -0.72994882 0 14
2.3639002 -4.133419 -0.72822857 0 15
2.5167229 -4.4006386 -0.72765553 0 16
2.6951079 -4.7125554 -0.72833675 0 17
2.8939435 -5.0602312 -0.72755575 0 18
3.1273713 -5.4683933 -0.72746378 0 19
3.2960184 -5.7632828 -0.70487773 0 20
3.2906008 -5.7538095 -0.64212573 0 21
3.2839489 -5.7421784 -0.57946831 0 22
3.2881558 -5.7495346 -0.51887155 0 23
3.2915051 -5.7553911 -0.45808694 0 24
3.287673 -5.7486906 -0.39638963 0 25
3.2904625 -5.7535682 -0.33557746 0 26
3.2870054 -5.7475228 -0.27419749 0 27
3.2917001 -5.7557316 -0.21352111 0 28
3.2894733 -5.7518382 -0.15238611 0 29
3.2911508 -5.7547712 -0.091467969 0 30
3.2919688 -5.7562017 -0.030495182 0 31
3.2936161 -5.7590818 0.030510442 0 32
3.2885597 -5.7502408 0.091395959 0 33
3.2846985 -5.7434893 0.15216492 0 34
3.2825041 -5.7396522 0.2129246 0 35
3.2916899 -5.7557139 0.27458826 0 36
3.290648 -5.7538919 0.33559638 0 37
3.2861664 -5.7460561 0.39620799 0 38
3.2866566 -5.746913 0.45741212 0 39
3.291296 -5.7550254 0.5193671 0 40
3.2876189 -5.7485952 0.58011585 0 41
3.2845445 -5.7432199 0.64094394 0 42
3.2901037 -5.7529402 0.7036128 0 43
3.2861919 -5.7461004 0.76440734 0 44
3.2884901 -5.7501192 0.8267473 0 45
3.2941682 -5.7600474 0.89022917 0 46
3.2899535 -5.7526779 0.95121831 0 47
3.2887743 -5.7506156 1.0131474 0 48
3.285311 -5.7445602 1.0744603 0 49
3.2867362 -5.7470522 1.1375198 0 50
3.2823248 -5.7393384 1.1987004 0 51
3.2853816 -5.7446837 1.2627922 0 52
3.293932 -5.759634 1.32944 0 53
3.2886269 -5.7503581 1.3907918 0 54
3.2827055 -5.7400041 1.4519114 0 55
3.2919326 -5.7561383 1.5200534 0 56
3.2916837 -5.755703 1.5842652 0 57
3.2870982 -5.7476854 1.6465784 0 58
3.2913721 -5.7551584 1.7136195 0 59
0 0 0 0 60
0 0 0 0 61
0 0 0 0 62
0 0 0 0 63
1.2527877 -2.1293843 -0.73651212 0 0
1.2940533 -2.1995242 -0.73528343 0 1
1.3332064 -2.2660732 -0.73140913 0 2
1.3887142 -2.3604207 -0.73479146 0 3
1.4350401 -2.4391618 -0.7314682 0 4
1.4933774 -2.5383186 -0.73237467 0 5
1.5582076 -2.6485116 -0.73422492 0 6
1.6242809 -2.7608175 -0.73428226 0 7
1.6820263 -2.8589683 -0.72834134 0 8
1.7659453 -3.0016069 -0.73117065 0 9
1.8517791 -3.1475 -0.73170716 0 10
1.9465442 -3.3085737 -0.73249441 0 11
2.048836 -3.4824407 -0.73253822 0 12
2.1544576 -3.6619678 -0.73000538 0 13
2.2846956 -3.8833354 -0.73153687 0 14
2.4259667 -4.1234565 -0.7316736 0 15
2.5857809 -4.3950953 -0.73194116 0 16
2.7694705 -4.707315 -0.73273468 0 17
2.9535363 -5.020175 -0.72696334 0 18
3.1896217 -5.4214535 -0.72638202 0 19
3.3313193 -5.6622992 -0.69748425 0 20
3.322216 -5.6468263 -0.63469744 0 21
3.3180046 -5.639668 -0.57319748 0 22
3.3272555 -5.6553917 -0.51402897 0 23
3.3234789 -5.648973 -0.45283532 0 24
3.3273973 -5.655633 -0.39276457 0 25
3.324419 -5.6505709 -0.3319293 0 26
3.3199503 -5.6429749 -0.27113691 0 27
3.315614 -5.6356044 -0.21056129 0 28
3.3254464 -5.652317 -0.1508214 0 29
3.3252726 -5.6520214 -0.090477899 0 30
3.3295536 -5.6592979 -0.030196425 0 31
3.3250411 -5.651628 0.0301555 0 32
3.3261871 -5.6535759 0.090502791 0 33
3.3212872 -5.6452475 0.15063277 0 34
3.3241324 -5.6500835 0.21110225 0 35
3.3195195 -5.6422429 0.27110174 0 36
3.317879 -5.6394544 0.3312763 0 37
3.3239019 -5.6496921 0.39235198 0 38
3.3255274 -5.6524544 0.45311442 0 39
3.3156672 -5.635695 0.51223868 0 40
3.3230026 -5.6481633 0.57406092 0 41
3.3281686 -5.6569438 0.63583469 0 42
3.3210852 -5.6449041 0.69534153 0 43
3.3279917 -5.6566434 0.7578935 0 44
3.329519 -5.6592393 0.81950521 0 45
3.3308029 -5.6614213 0.88124967 0 46
3.3248708 -5.6513386 0.94115072 0 47
3.3264112 -5.6539569 1.0032485 0 48
3.3266513 -5.6543651 1.0651608 0 49
3.3261309 -5.6534801 1.1270092 0 50
3.3262041 -5.653605 1.1892468 0 51
3.3271782 -5.6552606 1.2520341 0 52
3.320987 -5.6447372 1.3122461 0 53
3.3267229 -5.6544862 1.3773937 0 54
3.3259656 -5.6531997 1.4401906 0 55
3.3264461 -5.654016 1.5037733 0 56
3.3299916 -5.6600423 1.5690866 0 57
3.3186858 -5.6408257 1.6275331 0 58
3.3300164 -5.6600847 1.6973748 0 59
3.3271432 -5.655201 1.760446 0 60
0 0 0 0 61
0 0 0 0 62
0 0 0 0 63
1.2667282 -2.0937426 -0.72951674 0 0
1.3158761 -2.174978 -0.73243147 0 1
1.3626976 -2.252368 -0.73233855 0 2
1.4121994 -2.3341882 -0.73197567 0 3
1.4707737 -2.431004 -0.73438984 0 4
1.5159264 -2.505636 -0.72826803 0 5
1.5799825 -2.6115127 -0.72929877 0 6
1.6563798 -2.7377877 -0.73351878 0 7
1.7270322 -2.8545673 -0.73257488 0 8
1.8055642 -2.9843707 -0.73232496 0 9
1.8932381 -3.1292846 -0.73282915 0 10
1.9868557 -3.2840228 -0.73241258 0 11
2.1015196 -3.4735479 -0.73604769 0 12
2.209816 -3.6525481 -0.73348904 0 13
2.3383348 -3.8649735 -0.73343891 0 14
2.4742866 -4.089685 -0.73102456 0 15
2.6302156 -4.3474159 -0.72933185 0 16
2.8272495 -4.6730881 -0.73276311 0 17
3.0173998 -4.9873829 -0.72753268 0 18
3.2760236 -5.4148555 -0.73084009 0 19
3.3552833 -5.5458612 -0.68817157 0 20
3.3576539 -5.5497799 -0.62838268 0 21
3.363369 -5.5592265 -0.5691821 0 22
3.3555727 -5.54634 -0.50782901 0 23
3.3623393 -5.5575242 -0.44878495 0 24
3.3637664 -5.5598831 -0.38895819 0 25
3.3627901 -5.5582695 -0.32891145 0 26
3.3549304 -5.5452785 -0.26840463 0 27
3.3656738 -5.563036 -0.20938039 0 28
3.365396 -5.5625768 -0.14951976 0 29
3.3637156 -5.5597992 -0.089656949 0 30
3.3680172 -5.5669093 -0.02992218 0 31
3.3673787 -5.5658541 0.029916508 0 32
3.3513753 -5.5394025 0.089328028 0 33
3.3551602 -5.5456581 0.149065 0 34
3.3594379 -5.5527287 0.20899245 0 35
3.3611753 -5.5556002 0.26890421 0 36
3.3665843 -5.5645409 0.32928255 0 37
3.3540704 -5.5438571 0.38783702 0 38
3.3663764 -5.5641971 0.4493238 0 39
3.3580647 -5.5504589 0.50820613 0 40
3.3674958 -5.5660472 0.56988043 0 41
3.3593249 -5.5525422 0.62869543 0 42
3.3664403 -5.5643029 0.69045991 0 43
3.3579121 -5.5502067 0.74910837 0 44
3.3672724 -5.5656781 0.81189126 0 45
3.3574259 -5.5494032 0.87017351 0 46
3.3621981 -5.557291 0.93230313 0 47
3.3662579 -5.5640011 0.99455625 0 48
3.3609085 -5.5551591 1.054178 0 49
3.3655455 -5.5628238 1.1171024 0 50
3.3557367 -5.5466113 1.1753315 0 51
3.3549218 -5.5452638 1.2367213 0 52
3.3555343 -5.5462766 1.2988507 0 53
3.3553665 -5.5459991 1.3609146 0 54
3.3617013 -5.5564694 1.425971 0 55
3.3623977 -5.5576205 1.4890194 0 56
3.3631268 -5.558826 1.5523741 0 57
3.3626714 -5.558073 1.6154649 0 58
3.353971 -5.5436926 1.6747119 0 59
3.3610117 -5.5553298 1.7420902 0 60
0 0 0 0 61
0 0 0 0 62
0 0 0 0 63
1.2941058 -2.0807903 -0.73049307 0 0
1.3385112 -2.1521897 -0.73024487 0 1
1.3943362 -2.2419505 -0.73447061 0 2
1.4485654 -2.3291457 -0.73592448 0 3
1.4967335 -2.406595 -0.73252052 0 4
1.563043 -2.5132139 -0.73600125 0 5
1.6215889 -2.6073496 -0.73364919 0 6
1.6848208 -2.7090201 -0.73130667 0 7
1.7552829 -2.8223162 -0.7297821 0 8
1.8398454 -2.9582839 -0.73141986 0 9
1.9293909 -3.1022639 -0.73200196 0 10
2.0134861 -3.2374804 -0.72749931 0 11
2.1291795 -3.4235034 -0.73093581 0 12
2.2608824 -3.6352684 -0.73554629 0 13
2.3738871 -3.8169684 -0.7298134 0 14
2.5199387 -4.0518045 -0.72973716 0 15
2.6918364 -4.3281984 -0.73160553 0 16
2.875371 -4.6233034 -0.73044556 0 17
3.0907185 -4.9695606 -0.7304216 0 18
3.3481216 -5.3834386 -0.73210108 0 19
3.3947122 -5.4583516 -0.68244088 0 20
3.3918881 -5.4538107 -0.62219185 0 21
3.3916099 -5.4533634 -0.56257069 0 22
3.3985276 -5.4644861 -0.50412261 0 23
3.3972969 -5.4625072 -0.4444519 0 24
3.3921697 -5.4542632 -0.38445821 0 25
3.396666 -5.4614925 -0.32563162 0 26
3.4037967 -5.4729581 -0.26690984 0 27
3.4008892 -5.4682832 -0.2073724 0 28
3.3879082 -5.4474111 -0.14753279 0 29
3.3951087 -5.4589887 -0.088697799 0 30
3.3870811 -5.4460812 -0.029494364 0 31
3.3938363 -5.4569426 0.029553186 0 32
3.4012656 -5.4688888 0.088858657 0 33
3.3908608 -5.4521589 0.14766137 0 34
3.3965859 -5.4613643 0.20711 0 35
3.3915477 -5.4532633 0.26594934 0 36
3.3968449 -5.4617805 0.32564878 0 37
3.3953187 -5.4593267 0.38481513 0 38
3.3972197 -5.4623828 0.4444418 0 39
3.3891561 -5.4494176 0.50273246 0 40
3.3962615 -5.4608426 0.56334227 0 41
3.3896291 -5.4501781 0.62177747 0 42
3.3924994 -5.4547935 0.68199605 0 43
3.3980739 -5.4637566 0.74302363 0 44
3.3996487 -5.4662886 0.80343026 0 45
3.3992252 -5.4656076 0.86352295 0 46
3.3938913 -5.4570312 0.92241484 0 47
3.3958602 -5.460197 0.98339105 0 48
3.3986495 -5.4646821 1.04486 0 49
3.3907239 -5.4519386 1.1031243 0 50
3.3941834 -5.4575009 1.1652049 0 51
3.3915043 -5.4531937 1.2253957 0 52
3.3991339 -5.4654608 1.2896156 0 53
3.392684 -5.45509 1.3487418 0 54
3.3957129 -5.45996 1.4118125 0 55
3.3931403 -5.4558239 1.472813 0 56
3.3955011 -5.45962 1.5362135 0 57
3.3828802 -5.4393268 1.592921 0 58
3.3944106 -5.4578667 1.661268 0 59
3.3914728 -5.4531426 1.7229928 0 60
0 0 0 0 61
0 0 0 0 62
0 0 0 0 63
1.3221281 -2.0686886 -0.73189676 0 0
1.3715585 -2.1460309 -0.73382217 0 1
1.4237366 -2.2276721 -0.73547262 0 2
1.4688404 -2.2982445 -0.7318123 0 3
1.5326799 -2.3981318 -0.73562545 0 4
1.5874045 -2.4837577 -0.7330358 0 5
1.6544268 -2.5886252 -0.73404932 0 6
1.7208885 -2.6926155 -0.73253524 0 7
1.7935613 -2.8063242 -0.73129451 0 8
1.8835821 -2.9471767 -0.73434466 0 9
1.9708114 -3.0836613 -0.73327529 0 10
2.0712624 -3.2408335 -0.73392057 0 11
2.1779106 -3.4077022 -0.73322457 0 12
2.286895 -3.5782268 -0.72963935 0 13
2.4297712 -3.8017802 -0.7325666 0 14
2.5767028 -4.0316792 -0.7317636 0 15
2.7406042 -4.2881298 -0.73047376 0 16
2.9412944 -4.6021428 -0.73276114 0 17
3.1564507 -4.9387908 -0.73154855 0 18
3.4051397 -5.3279057 -0.73018807 0 19
3.4238136 -5.3571243 -0.67499751 0 20
3.4284186 -5.3643298 -0.61674637 0 21
3.4227421 -5.3554478 -0.55676937 0 22
3.4274783 -5.3628583 -0.49859744 0 23
3.4322777 -5.370368 -0.44035575 0 24
3.4254899 -5.3597469 -0.38073626 0 25
3.4278796 -5.3634863 -0.32227698 0 26
3.4266734 -5.361599 -0.26351398 0 27
3.424618 -5.3583832 -0.20478615 0 28
3.4403543 -5.3830051 -0.14692309 0 29
3.4294918 -5.3660088 -0.087865606 0 30
3.4279017 -5.3635211 -0.029273307 0 31
3.4259357 -5.3604445 0.029256515 0 32
3.4272087 -5.3624363 0.087807111 0 33
3.428601 -5.364615 0.14642116 0 34
3.4230475 -5.3559256 0.20469223 0 35
3.4397724 -5.3820944 0.2645213 0 36
3.4307134 -5.3679204 0.32254341 0 37
3.426398 -5.3611684 0.3808372 0 38
3.4321377 -5.3701491 0.44033778 0 39
3.4362679 -5.3766108 0.49987605 0 40
3.4327095 -5.3710432 0.55839074 0 41
3.4257045 -5.3600831 0.61625814 0 42
3.4338286 -5.3727946 0.67697191 0 43
3.429322 -5.3657432 0.73537362 0 44
3.4294486 -5.365941 0.7948193 0 45
3.429148 -5.3654709 0.85429949 0 46
3.4336698 -5.3725462 0.91520172 0 47
3.4326866 -5.3710074 0.97485626 0 48
3.4251587 -5.3592291 1.0326722 0 49
3.4250259 -5.3590212 1.0927627 0 50
3.4226539 -5.35531 1.1522851 0 51
3.4335861 -5.3724151 1.2166394 0 52
3.4324954 -5.3707085 1.2771207 0 53
3.4273014 -5.3625817 1.3361884 0 54
3.423471 -5.3565884 1.3958628 0 55
3.4335938 -5.372427 1.4615871 0 56
3.432606 -5.3708816 1.5230061 0 57
3.4255917 -5.3599062 1.5818788 0 58
3.4270647 -5.3622112 1.6448548 0 59
3.4420595 -5.385673 1.7149185 0 60
3.4251275 -5.3591805 1.7693495 0 61
0 0 0 0 62
0 0 0 0 63
1.3408276 -2.0421686 -0.72829223 0 0
1.3926542 -2.121104 -0.73109901 0 1
1.4407973 -2.1944292 -0.73029143 0 2
1.4982575 -2.2819448 -0.73243314 0 3
1.5605773 -2.376862 -0.73493171 0 4
1.6186271 -2.4652755 -0.73339987 0 5
