# .PCD v0.7 - Point Cloud Data file format
VERSION 0.7
FIELDS x y z intensity ring
SIZE 4 4 4 4 2
TYPE F F F F U
COUNT 1 1 1 1 1
WIDTH 1331
HEIGHT 1
VIEWPOINT 0 0 0 1 0 0 0
POINTS 1331
DATA ascii
5.0178914 0.96808803 0.070510067 0 33
5.0189853 0.96829915 0.11755566 0 34
5.0237665 0.96922153 0.16476259 0 35
5.0148458 0.96750045 0.21150918 0 36
5.0221214 0.9689042 0.25895938 0 37
5.0213356 0.96875256 0.30609873 0 38
5.0270681 0.96985847 0.35373393 0 39
5.0091271 0.96639723 0.39964846 0 40
5.0071988 0.96602523 0.44672137 0 41
5.022718 0.96901923 0.49555549 0 42
5.0135446 0.96724939 0.54209775 0 43
5.0305324 0.97052687 0.59163582 0 44
5.0361352 0.97160774 0.64015067 0 45
5.0164719 0.96781415 0.68542981 0 46
5.0086627 0.96630764 0.73218501 0 47
5.0203085 0.96855438 0.78194743 0 48
5.019484 0.96839535 0.8300066 0 49
5.0134954 0.96723992 0.87729031 0 50
5.0134449 0.9672302 0.92570782 0 51
5.0135818 0.96725661 0.97432256 0 52
5.0274744 0.96993685 1.0259178 0 53
5.0283632 0.97010839 1.0751839 0 54
5.0145602 0.96744543 1.1213719 0 55
5.0231876 0.96910983 1.1727241 0 56
5.033535 0.97110611 1.2248741 0 57
5.0154243 0.96761209 1.2702405 0 58
5.0143189 0.96739888 1.3199515 0 59
5.0128231 0.96711028 1.3697717 0 60
5.0036631 0.96534306 1.417639 0 61
4.989398 0.96259087 1.4640818 0 62
5.0319614 0.97080261 1.5277572 0 63
2.4158349 0.49696559 -0.73527294 0 0
2.4886115 0.5119366 -0.73204643 0 1
2.5765245 0.53002137 -0.73177272 0 2
2.6765273 0.55059314 -0.7331652 0 3
2.7807693 0.57203692 -0.73379594 0 4
2.8906672 0.59464419 -0.73390651 0 5
3.0136466 0.61994255 -0.73514843 0 6
3.1436758 0.64669102 -0.73573023 0 7
3.2730503 0.67330492 -0.73372579 0 8
3.4149082 0.70248669 -0.73198044 0 9
3.5788565 0.73621285 -0.73210156 0 10
3.7677374 0.77506781 -0.73400599 0 11
3.9831929 0.81938958 -0.73728156 0 12
4.1747971 0.85880476 -0.73232257 0 13
4.4373198 0.91280878 -0.73554206 0 14
4.7378063 0.97462243 -0.73975652 0 15
4.9130554 1.0106733 -0.71997106 0 16
4.9000149 1.0079906 -0.67116046 0 17
4.9166508 1.0114129 -0.62649632 0 18
4.9126649 1.0105929 -0.57919127 0 19
4.9112906 1.0103102 -0.53234446 0 20
4.9021821 1.0084364 -0.48484984 0 21
4.9086752 1.0097722 -0.43900606 0 22
4.9110365 1.0102578 -0.39278376 0 23
4.9101748 1.0100807 -0.34635642 0 24
4.920639 1.0122333 -0.30069631 0 25
4.9042535 1.0088625 -0.25350216 0 26
4.9008079 1.0081537 -0.20720664 0 27
4.9157472 1.0112269 -0.16161551 0 28
4.9075785 1.0095465 -0.11522831 0 29
4.9030571 1.0086164 -0.069065496 0 30
4.9107966 1.0102086 -0.023056874 0 31
4.913362 1.0107362 0.023068918 0 32
4.9020967 1.0084189 0.069051974 0 33
4.8953009 1.007021 0.11494004 0 34
4.9036908 1.0087469 0.16121913 0 35
4.9101281 1.010071 0.20760071 0 36
4.9062886 1.0092813 0.25360736 0 37
4.9086289 1.0097626 0.29996237 0 38
4.8869977 1.0053128 0.34472156 0 39
4.9203253 1.0121688 0.39352673 0 40
4.8991456 1.0078118 0.4381538 0 41
4.9012012 1.0082346 0.48475283 0 42
4.904007 1.0088118 0.53155494 0 43
4.9101138 1.0100681 0.57889044 0 44
4.9084492 1.0097257 0.62545127 0 45
4.9032836 1.0086631 0.67160821 0 46
4.9035649 1.0087209 0.71858025 0 47
4.8998303 1.0079527 0.76505482 0 48
4.9053202 1.0090821 0.81311911 0 49
4.8939562 1.0067443 0.85847396 0 50
4.9066086 1.009347 0.90820402 0 51
4.9043708 1.0088867 0.95543748 0 52
4.914485 1.0109673 1.0053216 0 53
4.9020648 1.0084124 1.0507501 0 54
4.910078 1.0100608 1.1007015 0 55
4.9103346 1.0101136 1.1491903 0 56
4.9028673 1.0085773 1.1960046 0 57
4.9070401 1.0094358 1.24584 0 58
4.8916759 1.0062753 1.2908269 0 59
4.8818407 1.004252 1.3372536 0 60
4.9046102 1.0089359 1.392985 0 61
4.9074235 1.0095146 1.4435607 0 62
4.9163842 1.011358 1.4963293 0 63
2.4148641 0.52779531 -0.73689711 0 0
2.5064635 0.54781538 -0.73922336 0 1
2.5895901 0.56598359 -0.73740441 0 2
2.6706645 0.58370334 -0.7334699 0 3
2.7777283 0.60710329 -0.73490787 0 4
2.894212 0.6325621 -0.73672563 0 5
2.9999127 0.65566415 -0.73370951 0 6
3.1342785 0.68503129 -0.73544669 0 7
3.2789233 0.716645 -0.73696208 0 8
3.4145033 0.74627751 -0.73380518 0 9
3.5822973 0.78295076 -0.73471928 0 10
3.7837141 0.8269726 -0.73904365 0 11
3.9285271 0.85862315 -0.7290622 0 12
4.1672235 0.91079283 -0.73290318 0 13
4.4270825 0.96758795 -0.73576176 0 14
4.655282 1.0174634 -0.72876966 0 15
4.7802954 1.0447865 -0.70234561 0 16
4.7784033 1.0443729 -0.65621257 0 17
4.7781043 1.0443076 -0.61043239 0 18
4.788631 1.0466083 -0.56604248 0 19
4.7901821 1.0469474 -0.52057332 0 20
4.7790198 1.0445077 -0.47390297 0 21
4.7831306 1.0454061 -0.42889526 0 22
4.7954216 1.0480925 -0.38453862 0 23
4.7691898 1.0423592 -0.33729017 0 24
4.78865 1.0466125 -0.29339483 0 25
4.796515 1.0483315 -0.24858068 0 26
4.7829752 1.0453722 -0.20275283 0 27
4.7819228 1.0451423 -0.15762636 0 28
4.7901683 1.0469444 -0.11276531 0 29
4.7907858 1.0470793 -0.067660272 0 30
4.7790403 1.0445122 -0.02249686 0 31
4.7819118 1.0451398 0.02251038 0 32
4.7833447 1.0454531 0.067555189 0 33
4.7774806 1.0441712 0.11246663 0 34
4.7961946 1.0482614 0.15809679 0 35
4.789546 1.0468084 0.20303136 0 36
4.7805419 1.0448403 0.24775285 0 37
4.770268 1.0425949 0.2922686 0 38
4.7697563 1.0424831 0.33733022 0 39
4.7820129 1.045162 0.38346341 0 40
4.7858062 1.0459909 0.42913517 0 41
4.778512 1.0443966 0.4738526 0 42
4.7823949 1.0452453 0.51972699 0 43
4.7885208 1.0465842 0.56602943 0 44
4.7942328 1.0478327 0.61249292 0 45
4.7754574 1.0437291 0.65580803 0 46
4.7664146 1.0417527 0.70030618 0 47
4.7894416 1.0467855 0.74977189 0 48
4.7720318 1.0429804 0.79309082 0 49
4.7792463 1.0445572 0.84054166 0 50
4.7674279 1.0419742 0.88474667 0 51
4.7736955 1.043344 0.93240911 0 52
4.7754927 1.0437368 0.97944045 0 53
4.7971067 1.0484608 1.0309381 0 54
4.7810316 1.0449474 1.074572 0 55
4.7749195 1.0436116 1.120417 0 56
4.7807064 1.0448763 1.1692505 0 57
4.7645845 1.0413527 1.2128315 0 58
4.7753959 1.0437156 1.2634338 0 59
4.7819786 1.0451543 1.3133199 0 60
4.7750249 1.0436345 1.3597227 0 61
4.7812357 1.0449921 1.4101148 0 62
4.7799177 1.044704 1.4585946 0 63
2.3920262 0.55370539 -0.7319504 0 0
2.4891303 0.57618302 -0.7361452 0 1
2.5638959 0.59348971 -0.73211056 0 2
2.6684608 0.61769444 -0.73489511 0 3
2.7627115 0.63951153 -0.73295993 0 4
2.8687997 0.66406882 -0.73228014 0 5
2.9874203 0.69152701 -0.73267841 0 6
3.1269159 0.72381741 -0.73575193 0 7
3.2569997 0.7539292 -0.73406279 0 8
3.4158463 0.79069895 -0.73612767 0 9
3.5586023 0.82374406 -0.73188168 0 10
3.7399099 0.86571306 -0.73251158 0 11
3.9234049 0.9081884 -0.73012888 0 12
4.1666212 0.96448809 -0.73482758 0 13
4.3833456 1.0146554 -0.73051119 0 14
4.6618142 1.0791152 -0.73181421 0 15
4.6864886 1.0848267 -0.69047076 0 16
4.6847458 1.0844234 -0.6451332 0 17
4.679327 1.083169 -0.59946924 0 18
4.6817703 1.0837346 -0.55494422 0 19
4.6690078 1.0807803 -0.50881046 0 20
4.6801615 1.0833622 -0.46538571 0 21
4.6716242 1.081386 -0.42005727 0 22
4.6674585 1.0804217 -0.37531441 0 23
4.6775122 1.082749 -0.331723 0 24
4.6807208 1.0834916 -0.28757671 0 25
4.6646557 1.0797729 -0.24241681 0 26
4.6738019 1.0818901 -0.19867383 0 27
4.674437 1.0820371 -0.15451021 0 28
4.676239 1.0824542 -0.11038829 0 29
4.6716785 1.0813986 -0.066160917 0 30
4.6758108 1.0823551 -0.022071902 0 31
4.6804185 1.0834216 0.022093652 0 32
4.6639695 1.0796142 0.066051744 0 33
4.6837211 1.0841862 0.11056492 0 34
4.6672769 1.0803796 0.15427352 0 35
4.6699944 1.0810088 0.19851199 0 36
4.6795197 1.0832136 0.24318928 0 37
4.6784668 1.0829699 0.28743824 0 38
4.6738925 1.081911 0.33146629 0 39
4.6841993 1.0842968 0.37666053 0 40
4.6701236 1.0810387 0.41992235 0 41
4.6830444 1.0840294 0.46567234 0 42
4.6728606 1.0816722 0.50923038 0 43
4.6825075 1.0839052 0.5550316 0 44
4.6770878 1.0826507 0.59918243 0 45
4.6702323 1.0810637 0.64313453 0 46
4.6731791 1.0817459 0.68850982 0 47
4.6590981 1.0784864 0.73138785 0 48
4.6744499 1.0820401 0.7790255 0 49
4.6811991 1.0836023 0.82557881 0 50
4.6794791 1.0832042 0.87083101 0 51
4.6747003 1.082098 0.91560286 0 52
4.6782165 1.082912 0.96214771 0 53
4.6770244 1.082636 1.0079162 0 54
4.6831131 1.0840454 1.0554802 0 55
4.6668386 1.0802782 1.0980901 0 56
4.6653428 1.079932 1.1441966 0 57
4.6633816 1.0794779 1.190359 0 58
4.6737208 1.0818713 1.2399595 0 59
4.6678362 1.0805091 1.2855238 0 60
4.6780033 1.0828626 1.3357859 0 61
4.670013 1.081013 1.3811282 0 62
4.6762862 1.0824652 1.4309248 0 63
2.4117503 0.58960539 -0.74014848 0 0
2.4755902 0.60521251 -0.73428631 0 1
2.5616295 0.62624663 -0.73360682 0 2
2.660049 0.65030748 -0.73472518 0 3
2.7627456 0.67541391 -0.73511684 0 4
2.8770938 0.70336884 -0.73654926 0 5
2.9989018 0.7331475 -0.73764956 0 6
3.0935364 0.75628299 -0.73003078 0 7
3.2237654 0.78812033 -0.72870153 0 8
3.3759115 0.82531577 -0.72965342 0 9
3.5699012 0.87274081 -0.73635691 0 10
3.731401 0.91222298 -0.73298657 0 11
3.9373834 0.96257997 -0.73487735 0 12
4.129281 1.0094935 -0.73037618 0 13
4.3797941 1.070737 -0.73205817 0 14
4.5657749 1.116204 -0.71883816 0 15
4.5705576 1.1173733 -0.67536366 0 16
4.5628943 1.1154999 -0.63019437 0 17
4.5586996 1.1144743 -0.58572698 0 18
4.5526357 1.1129919 -0.54121882 0 19
4.5683069 1.1168231 -0.49929532 0 20
4.5732632 1.1180347 -0.45608851 0 21
4.5607977 1.1149874 -0.4112938 0 22
4.5728641 1.1179372 -0.3687855 0 23
4.5608759 1.1150064 -0.32439914 0 24
4.5687947 1.1169423 -0.28152266 0 25
4.5695333 1.1171229 -0.23816928 0 26
4.5541611 1.1133648 -0.19415541 0 27
4.5628114 1.1154795 -0.15126245 0 28
4.5741444 1.1182501 -0.10829463 0 29
4.5685825 1.1168904 -0.064890452 0 30
4.569098 1.1170166 -0.021631373 0 31
4.5647936 1.1159642 0.021610994 0 32
4.5749836 1.1184553 0.064981371 0 33
4.5587964 1.114498 0.10793127 0 34
4.5673423 1.1165873 0.15141265 0 35
4.5654402 1.1161222 0.19463627 0 36
4.5642991 1.1158433 0.23789647 0 37
4.5574136 1.1141599 0.28082138 0 38
4.5579658 1.114295 0.32419214 0 39
4.5612278 1.1150925 0.36784708 0 40
4.5569906 1.1140566 0.41095048 0 41
4.5561962 1.1138624 0.45438644 0 42
4.5732398 1.118029 0.49983445 0 43
4.5582619 1.1143674 0.54188764 0 44
4.5596981 1.1147184 0.58585531 0 45
4.5657392 1.1161953 0.63058728 0 46
4.5482078 1.1119094 0.67206115 0 47
4.5455985 1.1112715 0.71566153 0 48
4.552916 1.1130604 0.76099455 0 49
4.5575175 1.1141853 0.80612153 0 50
4.5668187 1.1164593 0.85235578 0 51
4.5620236 1.1152869 0.89615196 0 52
4.5641203 1.1157995 0.94143265 0 53
4.5511112 1.1126192 0.98365545 0 54
4.5501742 1.1123902 1.0285237 0 55
4.5570517 1.1140715 1.0753998 0 56
4.5675621 1.116641 1.1234981 0 57
4.5490065 1.1121047 1.1645666 0 58
4.5532923 1.1131525 1.211549 0 59
4.5588179 1.1145033 1.2591791 0 60
4.5524483 1.112946 1.3037432 0 61
4.5675201 1.1166308 1.3547748 0 62
4.5545306 1.1134551 1.3977519 0 63
2.3760986 0.61194682 -0.73146123 0 0
2.4643502 0.63467532 -0.73321176 0 1
2.549933 0.65671653 -0.73251438 0 2
2.6297908 0.67728329 -0.72861284 0 3
2.7493536 0.70807588 -0.73381472 0 4
2.8602228 0.73662943 -0.73449361 0 5
2.9809206 0.7677142 -0.73549306 0 6
3.105056 0.79968446 -0.73501426 0 7
3.236975 0.83365917 -0.73394912 0 8
3.3983569 0.87522191 -0.73677504 0 9
3.5435042 0.91260356 -0.73317134 0 10
3.7469761 0.96500629 -0.7383213 0 11
3.9096718 1.0069073 -0.73196077 0 12
4.1372752 1.0655248 -0.73405218 0 13
4.3676734 1.1248623 -0.7322889 0 14
4.5475769 1.1711951 -0.7181862 0 15
4.550561 1.1719636 -0.67448729 0 16
4.5530148 1.1725956 -0.6307736 0 17
4.555861 1.1733286 -0.58717167 0 18
4.5501785 1.1718651 -0.54259872 0 19
4.5542197 1.1729059 -0.49929422 0 20
4.5527973 1.1725396 -0.45545095 0 21
4.5658622 1.1759044 -0.41302326 0 22
4.5575876 1.1737733 -0.3686896 0 23
4.5451803 1.1705779 -0.32428205 0 24
4.5535479 1.1727328 -0.28145048 0 25
4.5485678 1.1714503 -0.23780933 0 26
4.5485373 1.1714424 -0.19451506 0 27
4.5484352 1.171416 -0.15125194 0 28
4.5502467 1.1718827 -0.10806185 0 29
4.5506997 1.1719993 -0.064836249 0 30
4.5481396 1.17134 -0.021598704 0 31
4.5391536 1.1690258 0.021556033 0 32
4.5565853 1.1735151 0.064920098 0 33
4.5610113 1.174655 0.10831749 0 34
4.5380726 1.1687473 0.15090735 0 35
4.5317531 1.1671197 0.19379729 0 36
4.5576787 1.1737967 0.23828568 0 37
4.5618873 1.1748806 0.28196591 0 38
4.5544944 1.1729766 0.32494655 0 39
4.560349 1.1744845 0.36891299 0 40
4.5530272 1.1725987 0.41186219 0 41
4.558918 1.1741159 0.45606324 0 42
4.552865 1.172557 0.49914569 0 43
4.5636663 1.1753389 0.54420716 0 44
4.5574613 1.1737407 0.58737791 0 45
4.5594244 1.1742463 0.63166159 0 46
4.5516353 1.1722403 0.67464656 0 47
4.5588965 1.1741103 0.7199738 0 48
4.555541 1.1732463 0.76378697 0 49
4.5494752 1.171684 0.80718637 0 50
4.5568209 1.1735759 0.85311872 0 51
4.562952 1.1751548 0.89910489 0 52
4.5416484 1.1696682 0.93969309 0 53
4.5525994 1.1724886 0.98701864 0 54
4.556036 1.1733737 1.0330319 0 55
4.5400724 1.1692624 1.0747046 0 56
4.5461245 1.1708211 1.1216815 0 57
4.5622501 1.1749741 1.1715673 0 58
4.539474 1.1691083 1.2116058 0 59
4.5497799 1.1717625 1.2605672 0 60
4.545373 1.1706275 1.3057406 0 61
4.5614367 1.1747645 1.3571525 0 62
4.5623255 1.1749935 1.4044721 0 63
2.3669131 0.64071482 -0.73100358 0 0
2.4627674 0.66666228 -0.73512429 0 1
2.5586855 0.69262695 -0.73741961 0 2
2.6369374 0.71380943 -0.73296934 0 3
2.7457459 0.74326354 -0.73523557 0 4
2.8413796 0.76915127 -0.73202813 0 5
2.9757848 0.80553424 -0.73661417 0 6
3.099185 0.83893824 -0.73601079 0 7
3.2419116 0.87757385 -0.73745948 0 8
3.364486 0.91075426 -0.73180437 0 9
3.5158651 0.95173198 -0.72981888 0 10
3.7124529 1.0049477 -0.73389816 0 11
3.9079115 1.0578576 -0.73401105 0 12
4.1320767 1.1185384 -0.73551458 0 13
4.3724775 1.183614 -0.73547894 0 14
4.5760856 1.2387298 -0.72503912 0 15
4.5655203 1.2358699 -0.67890573 0 16
4.5565042 1.2334293 -0.63331038 0 17
4.5606308 1.2345463 -0.58969831 0 18
4.5878029 1.2419016 -0.54886484 0 19
4.5686097 1.2367061 -0.50250107 0 20
4.5657673 1.2359368 -0.45823413 0 21
4.5599465 1.2343612 -0.41382986 0 22
4.5649004 1.2357022 -0.37048239 0 23
4.5782323 1.2393111 -0.32770267 0 24
4.5634565 1.2353113 -0.28298041 0 25
4.5707555 1.237287 -0.23974667 0 26
4.5813632 1.2401586 -0.19655611 0 27
4.5722308 1.2376864 -0.15253779 0 28
4.574234 1.2382287 -0.10898486 0 29
4.5580754 1.2338545 -0.065152571 0 30
4.5731244 1.2379283 -0.021787997 0 31
4.5759659 1.2386975 0.021801535 0 32
4.5778332 1.239203 0.065434985 0 33
4.578959 1.2395077 0.10909744 0 34
4.5870371 1.2416945 0.15303177 0 35
4.5701022 1.2371103 0.19607298 0 36
4.5680561 1.2365564 0.2396051 0 37
4.5858469 1.2413722 0.28436881 0 38
4.5707774 1.237293 0.32716903 0 39
4.5803318 1.2398794 0.37173477 0 40
4.5860715 1.241433 0.41620079 0 41
4.5724597 1.2377484 0.45890582 0 42
4.5677905 1.2364845 0.50241095 0 43
4.583725 1.2407979 0.54837704 0 44
4.5658655 1.2359633 0.59037524 0 45
4.5655832 1.2358869 0.63457227 0 46
4.5703344 1.2371731 0.67962164 0 47
4.5696774 1.2369952 0.72402388 0 48
4.5659485 1.2359859 0.76802194 0 49
4.5665412 1.2361463 0.81284976 0 50
4.5769281 1.238958 0.8596704 0 51
4.5862374 1.241478 0.90663272 0 52
4.5630269 1.235195 0.94718748 0 53
4.589952 1.2424835 0.99835372 0 54
4.5591588 1.2341479 1.0371025 0 55
4.5701008 1.2371098 1.0853316 0 56
4.5834489 1.240723 1.134569 0 57
4.5517988 1.2321556 1.1726855 0 58
4.5632668 1.2352599 1.221918 0 59
4.5782461 1.2393148 1.2725801 0 60
4.5882039 1.2420102 1.3223319 0 61
4.5812411 1.2401255 1.3674786 0 62
4.5834479 1.2407229 1.4155641 0 63
2.377511 0.6750657 -0.73678464 0 0
2.4576278 0.69781387 -0.73609573 0 1
2.5429535 0.72204113 -0.73538882 0 2
2.6299438 0.746741 -0.7335223 0 3
2.7271612 0.77434462 -0.73275334 0 4
2.8415391 0.80682093 -0.73456967 0 5
2.9426432 0.83552819 -0.73089838 0 6
3.076448 0.87352043 -0.73310655 0 7
3.2178717 0.91367596 -0.73449105 0 8
3.3487208 0.95082903 -0.73086315 0 9
3.5147817 0.99798006 -0.732086 0 10
3.718286 1.0557626 -0.73756188 0 11
3.9114077 1.1105973 -0.73717707 0 12
4.0896082 1.1611952 -0.73044145 0 13
4.3318415 1.2299744 -0.73113245 0 14
4.5846863 1.3017666 -0.72888303 0 15
4.5867209 1.3023443 -0.68438798 0 16
4.5868521 1.3023816 -0.63970596 0 17
4.5792089 1.3002113 -0.59412289 0 18
4.5867867 1.302363 -0.55061758 0 19
4.5810614 1.3007374 -0.50559163 0 20
4.5797844 1.3003747 -0.46121088 0 21
4.5954523 1.3048234 -0.41847658 0 22
4.5874772 1.302559 -0.37358636 0 23
4.5922165 1.3039048 -0.32982635 0 24
4.5865831 1.3023052 -0.28538591 0 25
4.5989814 1.3058256 -0.24205112 0 26
4.5939894 1.3044081 -0.19777101 0 27
4.5864444 1.3022658 -0.15353462 0 28
4.5974803 1.3053993 -0.10991286 0 29
4.5806012 1.3006067 -0.065698184 0 30
4.5950155 1.3046995 -0.02196707 0 31
4.5955372 1.3048475 0.021969562 0 32
4.599587 1.3059975 0.065970495 0 33
4.5820513 1.3010185 0.109544 0 34
4.5995493 1.3059868 0.15397331 0 35
4.5899687 1.3032665 0.19759795 0 36
4.5868745 1.302388 0.24141392 0 37
4.5973043 1.3053493 0.286053 0 38
4.5896187 1.3031671 0.32963976 0 39
4.5926738 1.3040345 0.37400952 0 40
4.5893264 1.303084 0.41791874 0 41
4.5863948 1.3022517 0.46187657 0 42
4.6007218 1.3063197 0.50776148 0 43
4.5954757 1.3048302 0.55166066 0 44
4.588963 1.3029809 0.59538841 0 45
4.5796576 1.3003387 0.63870257 0 46
4.5956287 1.3048736 0.68571711 0 47
4.591083 1.3035829 0.72989994 0 48
4.6079226 1.3083642 0.77772957 0 49
4.5886927 1.3029042 0.81958258 0 50
4.5928769 1.3040922 0.86561245 0 51
4.597898 1.3055179 0.91204232 0 52
4.5903249 1.3033676 0.95610845 0 53
4.5782084 1.2999274 0.99920058 0 54
4.598721 1.3057516 1.049675 0 55
4.5909157 1.3035353 1.0939987 0 56
4.5909209 1.3035369 1.1403003 0 57
4.5904727 1.3034096 1.1866885 0 58
4.6056705 1.3077248 1.2374848 0 59
4.5997176 1.3060346 1.2829154 0 60
4.5928373 1.3040811 1.3281884 0 61
4.5840011 1.301572 1.3729758 0 62
4.5959039 1.3049517 1.4242589 0 63
2.3593311 0.70136392 -0.73376793 0 0
2.4314921 0.72281545 -0.7308746 0 1
2.5135379 0.74720538 -0.72948408 0 2
2.6257458 0.78056169 -0.73497289 0 3
2.728318 0.81105357 -0.73568821 0 4
2.8606541 0.85039341 -0.74215817 0 5
2.9454315 0.87559539 -0.73420966 0 6
3.0778968 0.91497368 -0.73607725 0 7
3.2077074 0.9535628 -0.73479187 0 8
3.3537927 0.99698991 -0.73459023 0 9
3.49668 1.0394664 -0.73092264 0 10
3.6840382 1.0951627 -0.73338425 0 11
3.8752432 1.1520027 -0.73297554 0 12
4.0862799 1.2147381 -0.73245955 0 13
4.3185921 1.2837981 -0.73150522 0 14
4.6124287 1.3711476 -0.73591834 0 15
4.5999107 1.3674263 -0.68881285 0 16
4.6005969 1.3676304 -0.64391959 0 17
4.6073632 1.3696418 -0.5999155 0 18
4.6161098 1.3722419 -0.55612123 0 19
4.6117387 1.3709426 -0.51079929 0 20
4.6278672 1.375737 -0.46772134 0 21
4.6087384 1.3700507 -0.42118874 0 22
4.606523 1.3693919 -0.37648016 0 23
4.6119537 1.3710065 -0.33242962 0 24
4.6083264 1.3699282 -0.28776523 0 25
4.6219535 1.3739791 -0.24413094 0 26
4.60672 1.3694506 -0.19902897 0 27
4.6351099 1.37789 -0.15571913 0 28
4.6110053 1.3707246 -0.1106308 0 29
4.6102862 1.3705107 -0.066360645 0 30
4.6245623 1.3747545 -0.022187458 0 31
4.5990176 1.3671608 0.022064902 0 32
4.6034269 1.3684717 0.06626191 0 33
4.6149783 1.3719056 0.11072613 0 34
4.6161313 1.3722483 0.15508156 0 35
4.6103811 1.3705389 0.19918714 0 36
4.6170297 1.3725153 0.24387087 0 37
4.6062613 1.3693142 0.28763625 0 38
4.6116986 1.3709306 0.33241123 0 39
4.6015725 1.3679203 0.37607557 0 40
4.6001048 1.367484 0.42039973 0 41
4.6060343 1.3692467 0.46551475 0 42
4.6104913 1.3705717 0.51066113 0 43
4.6134133 1.3714403 0.55579638 0 44
4.6129155 1.3712924 0.60063851 0 45
4.6187754 1.3730344 0.64646393 0 46
4.6118965 1.3709894 0.69060767 0 47
4.605556 1.3691046 0.73482186 0 48
4.6256351 1.3750734 0.78351378 0 49
4.6073146 1.3696274 0.82585424 0 50
4.6122575 1.3710967 0.87237668 0 51
4.5948257 1.3659147 0.91469544 0 52
4.6151905 1.3719686 0.96472859 0 53
4.5949855 1.3659623 1.0064521 0 54
4.6054854 1.3690836 1.0549819 0 55
4.6120324 1.3710299 1.1029649 0 56
4.6111231 1.3707595 1.1494178 0 57
4.5993047 1.3672462 1.1932276 0 58
4.6160226 1.372216 1.2447059 0 59
4.6027484 1.3682699 1.2883559 0 60
4.6216059 1.3738757 1.3412919 0 61
4.6198907 1.3733659 1.3886786 0 62
4.616087 1.3722352 1.4356344 0 63
2.3411877 0.72741771 -0.73085177 0 0
2.4217641 0.75245327 -0.73067647 0 1
2.5285902 0.78564453 -0.73660064 0 2
2.6062863 0.80978507 -0.73225778 0 3
2.7180438 0.84450865 -0.73566234 0 4
2.7997093 0.86988252 -0.72906679 0 5
2.9226663 0.90808582 -0.7312631 0 6
3.048902 0.94730783 -0.73187351 0 7
3.1794913 0.98788255 -0.73105574 0 8
3.3180034 1.030919 -0.72947264 0 9
3.4794948 1.081095 -0.73005402 0 10
3.6612139 1.137556 -0.73156989 0 11
3.8646858 1.2007756 -0.73371589 0 12
4.0740547 1.2658274 -0.73300278 0 13
4.2909646 1.3332224 -0.72954732 0 14
4.5613713 1.417239 -0.73049736 0 15
4.6332817 1.4395819 -0.69640803 0 16
4.6317558 1.4391078 -0.65070832 0 17
4.6324887 1.4393355 -0.6054458 0 18
4.6505742 1.4449548 -0.56237131 0 19
4.636416 1.4405557 -0.51545554 0 20
4.6410904 1.442008 -0.4708142 0 21
4.6302052 1.4386261 -0.42473516 0 22
4.6367893 1.4406717 -0.38037282 0 23
4.6308908 1.4388391 -0.33504456 0 24
4.6367607 1.4406629 -0.29062504 0 25
4.646359 1.4436451 -0.24633905 0 26
4.6400967 1.4416994 -0.20122169 0 27
4.6373491 1.4408456 -0.15637776 0 28
4.6431441 1.4426461 -0.11181907 0 29
4.6403451 1.4417765 -0.067043431 0 30
4.642415 1.4424196 -0.022356518 0 31
4.636045 1.4404405 0.022325842 0 32
4.629724 1.4384766 0.066889979 0 33
4.639596 1.4415437 0.11173361 0 34
4.6310787 1.4388975 0.15616633 0 35
4.6500115 1.4447799 0.20165163 0 36
4.6409683 1.4419701 0.24605325 0 37
4.6353302 1.4402183 0.29053536 0 38
4.6365056 1.4405836 0.3354508 0 39
4.6372066 1.4408013 0.38040704 0 40
4.6304584 1.4387046 0.42475834 0 41
4.6359916 1.4404238 0.47029698 0 42
4.6207795 1.4356973 0.51371711 0 43
4.6286459 1.4381415 0.55971962 0 44
4.6266289 1.4375148 0.60467994 0 45
4.6351542 1.4401636 0.65118575 0 46
4.6287823 1.4381839 0.69573182 0 47
4.6286459 1.4381415 0.74127126 0 48
4.6360149 1.4404312 0.7882126 0 49
4.6362619 1.4405079 0.83415502 0 50
4.6286149 1.4381319 0.87874895 0 51
4.6423025 1.4423847 0.9276073 0 52
4.6235976 1.4365729 0.97010511 0 53
4.6333976 1.439618 1.0186659 0 54
4.640274 1.4417545 1.0669314 0 55
4.651464 1.4452313 1.1165605 0 56
4.648037 1.4441664 1.162958 0 57
4.6319513 1.4391686 1.2061974 0 58
4.6310544 1.4388899 1.2534354 0 59
4.6349473 1.4400995 1.302227 0 60
4.6204324 1.4355896 1.3459728 0 61
4.6306629 1.4387683 1.3971287 0 62
4.633462 1.4396379 1.4464343 0 63
2.3367662 0.75767273 -0.7323246 0 0
2.419317 0.78443897 -0.73279297 0 1
2.5071428 0.81291556 -0.73320937 0 2
2.6016109 0.84354591 -0.73380297 0 3
2.6927867 0.87310869 -0.73167676 0 4
2.7892401 0.90438282 -0.72918135 0 5
2.9205277 0.94695145 -0.73358601 0 6
3.0526266 0.98978317 -0.73563355 0 7
3.1799691 1.0310727 -0.7340253 0 8
3.3445425 1.0844339 -0.7381832 0 9
3.4652631 1.1235764 -0.72991157 0 10
3.6453948 1.1819823 -0.73125792 0 11
3.8334656 1.2429622 -0.73063517 0 12
4.0426273 1.3107808 -0.73019314 0 13
4.2804508 1.3878927 -0.73060614 0 14
4.5435905 1.4732131 -0.73049575 0 15
4.6506815 1.5079362 -0.70175737 0 16
4.6526275 1.5085672 -0.65619701 0 17
4.6523948 1.5084916 -0.61042553 0 18
4.6603441 1.5110693 -0.56575692 0 19
4.6596341 1.510839 -0.52006292 0 20
4.6488414 1.5073396 -0.47344503 0 21
4.6570678 1.5100069 -0.42887011 0 22
4.6626997 1.511833 -0.38399434 0 23
4.6562991 1.5097578 -0.33820045 0 24
4.6545057 1.5091761 -0.29287827 0 25
4.6498847 1.5076778 -0.24749015 0 26
4.6528354 1.5086346 -0.20256326 0 27
4.6458163 1.5063587 -0.15727602 0 28
4.6554608 1.5094858 -0.11255418 0 29
4.6680202 1.5135581 -0.067707054 0 30
4.642087 1.5051496 -0.022442371 0 31
4.6591396 1.5106786 0.022524813 0 32
4.6507201 1.5079488 0.067456126 0 33
4.6601915 1.5110198 0.11266856 0 34
4.6466632 1.5066334 0.1573047 0 35
4.6704984 1.5143616 0.20333223 0 36
4.6600261 1.5109661 0.24802993 0 37
4.6535521 1.508867 0.29281828 0 38
4.6520605 1.5083834 0.33789256 0 39
4.6688929 1.5138412 0.38450441 0 40
4.646162 1.5064708 0.42786577 0 41
4.6611447 1.5113288 0.47469801 0 42
4.6576743 1.5102035 0.51984417 0 43
4.66085 1.5112333 0.56581831 0 44
4.6603689 1.5110773 0.61147183 0 45
4.6586614 1.5105237 0.65704805 0 46
4.6481295 1.5071088 0.70137227 0 47
4.6536369 1.5088946 0.74818844 0 48
4.6697326 1.5141133 0.79705042 0 49
4.6478853 1.5070295 0.83951694 0 50
4.6467862 1.5066732 0.88564914 0 51
4.660512 1.5111238 0.93488812 0 52
4.6591058 1.5106677 0.98137861 0 53
4.6501865 1.5077757 1.0263555 0 54
4.6495094 1.5075562 1.0732361 0 55
4.6660032 1.5129042 1.1244311 0 56
4.6619959 1.5116049 1.1710128 0 57
4.6672444 1.5133066 1.2201415 0 58
4.6563759 1.5097826 1.265218 0 59
4.6422877 1.5052146 1.3093905 0 60
4.6632819 1.5120218 1.3637683 0 61
4.6616817 1.5115029 1.4119884 0 62
4.649159 1.5074426 1.4570107 0 63
2.3282087 0.78666317 -0.73261881 0 0
2.4166918 0.81656021 -0.73498356 0 1
2.5008428 0.84499341 -0.73435009 0 2
2.5901892 0.87518209 -0.7335614 0 3
2.7048528 0.91392505 -0.73795319 0 4
2.791853 0.94332093 -0.73284143 0 5
2.8963144 0.97861671 -0.73047143 0 6
3.0151105 1.0187559 -0.72955644 0 7
3.1562393 1.0664411 -0.73151946 0 8
3.2952528 1.1134114 -0.73027092 0 9
3.4709606 1.1727802 -0.73409379 0 10
3.6279309 1.2258178 -0.73072308 0 11
3.8362811 1.2962159 -0.73415416 0 12
4.0443068 1.3665044 -0.73347616 0 13
4.3040881 1.4542801 -0.73763716 0 14
4.5494156 1.5371722 -0.73441565 0 15
4.6784987 1.5807873 -0.70883423 0 16
4.6842427 1.5827281 -0.6633507 0 17
4.6907845 1.5849384 -0.61797297 0 18
4.6785288 1.5807976 -0.57028115 0 19
4.6728487 1.5788783 -0.52366513 0 20
4.6803694 1.5814193 -0.47860005 0 21
4.6869535 1.583644 -0.43338281 0 22
4.6725388 1.5787736 -0.38637424 0 23
4.6873589 1.5837809 -0.34184507 0 24
4.6778316 1.580562 -0.29554665 0 25
4.6606703 1.5747633 -0.24907604 0 26
4.6772108 1.5803522 -0.20445502 0 27
4.6853857 1.5831144 -0.15926255 0 28
4.6703463 1.5780327 -0.11337463 0 29
4.6764607 1.5800986 -0.068106145 0 30
4.6783652 1.5807422 -0.022710014 0 31
4.6774807 1.5804434 0.022705721 0 32
4.6802249 1.5813706 0.068160966 0 33
4.6677485 1.577155 0.11331156 0 34
4.6906247 1.5848845 0.15944064 0 35
4.6864753 1.5834825 0.20485999 0 36
4.6585717 1.5740542 0.24896389 0 37
4.6739779 1.5792599 0.29530317 0 38
4.6904163 1.5848141 0.34206805 0 39
4.672719 1.5788344 0.38638911 0 40
4.674211 1.5793386 0.43220457 0 41
4.6794338 1.5811032 0.47850439 0 42
4.6866965 1.5835571 0.52521694 0 43
4.6602058 1.5746064 0.56804764 0 44
4.6877985 1.5839295 0.61757958 0 45
4.6877084 1.5838991 0.66384149 0 46
4.6810026 1.5816333 0.70921361 0 47
4.6767335 1.5801909 0.7549687 0 48
4.6624417 1.5753618 0.79905194 0 49
4.6763544 1.5800629 0.84810436 0 50
4.6741338 1.5793126 0.89449519 0 51
4.664319 1.5759963 0.93946815 0 52
4.6908102 1.5849471 0.99208689 0 53
4.6675444 1.577086 1.0343885 0 54
4.6703715 1.5780413 1.0824488 0 55
4.6810694 1.5816559 1.132663 0 56
4.6671643 1.5769576 1.1770926 0 57
4.6753912 1.5797374 1.2272568 0 58
4.6852818 1.5830791 1.2782649 0 59
4.6855636 1.5831743 1.3269874 0 60
4.6679344 1.5772178 1.370697 0 61
4.6804428 1.5814443 1.4234536 0 62
4.6762619 1.5800315 1.4714823 0 63
2.3126965 0.81323868 -0.730829 0 0
2.3986163 0.84345162 -0.73258513 0 1
2.4926445 0.87651581 -0.73505205 0 2
2.5832572 0.9083789 -0.73470598 0 3
2.6820762 0.94312769 -0.73484755 0 4
2.7768447 0.97645223 -0.73199826 0 5
2.8982956 1.0191593 -0.73407626 0 6
3.0174434 1.0610566 -0.73322248 0 7
3.1372981 1.1032023 -0.73021829 0 8
3.2865467 1.1556844 -0.73143554 0 9
3.4463458 1.2118762 -0.7319842 0 10
3.606359 1.2681434 -0.72946382 0 11
3.8011096 1.3366256 -0.73051345 0 12
4.0091047 1.4097652 -0.73018056 0 13
4.2231016 1.4850153 -0.72683215 0 14
4.5070519 1.5848639 -0.73066765 0 15
4.7098694 1.6561828 -0.71661854 0 16
4.7012444 1.6531498 -0.66858649 0 17
4.6860743 1.6478155 -0.61997497 0 18
4.6959472 1.6512872 -0.5748359 0 19
4.7043591 1.6542451 -0.52943587 0 20
4.7095976 1.6560872 -0.48363465 0 21
4.6971617 1.6517142 -0.43617174 0 22
4.7062345 1.6549046 -0.39081368 0 23
4.6932702 1.6503458 -0.34373018 0 24
4.6963611 1.6514326 -0.29797778 0 25
4.694459 1.6507639 -0.25194755 0 26
4.6906562 1.6494267 -0.20591378 0 27
4.6960936 1.6513386 -0.16030462 0 28
4.6964741 1.6514724 -0.1144932 0 29
4.6956697 1.6511896 -0.068676405 0 30
4.7044568 1.6542795 -0.022933681 0 31
4.694458 1.6507635 0.022884937 0 32
4.6938539 1.6505511 0.068649851 0 33
4.7050576 1.6544908 0.11470246 0 34
4.6939182 1.6505737 0.16023037 0 35
4.6954088 1.6510978 0.20612241 0 36
4.6994214 1.6525087 0.25221387 0 37
4.7012219 1.653142 0.2982862 0 38
4.7000065 1.6527146 0.34422353 0 39
4.6950135 1.6509589 0.38988188 0 40
4.6971078 1.6516953 0.43616676 0 41
4.6992354 1.6524434 0.48257056 0 42
4.6987443 1.6522707 0.52880394 0 43
4.690227 1.6492757 0.57413566 0 44
4.694838 1.6508973 0.62113446 0 45
4.7079229 1.6554984 0.66953635 0 46
4.696909 1.6516253 0.71464652 0 47
4.7130451 1.6572995 0.76406252 0 48
4.7035408 1.6539574 0.80951989 0 49
4.6956491 1.6511823 0.85522127 0 50
4.6967793 1.6515797 0.90264708 0 51
4.6973324 1.6517743 0.95013672 0 52
4.6958451 1.6512513 0.99737078 0 53
4.7075505 1.6553674 1.0476862 0 54
4.7012219 1.653142 1.0942277 0 55
4.7054954 1.6546447 1.1434101 0 56
4.6992078 1.6524338 1.1902089 0 57
4.6831594 1.6467904 1.2345179 0 58
4.6978164 1.6519444 1.2871293 0 59
4.6898346 1.6491377 1.3338392 0 60
4.700202 1.6527833 1.3860351 0 61
4.7122293 1.6570126 1.4392086 0 62
4.6984625 1.6521716 1.4847486 0 63
2.3099098 0.84431332 -0.73317385 0 0
2.3994279 0.87703371 -0.73607117 0 1
2.4693251 0.90258241 -0.73139292 0 2
2.558691 0.93524724 -0.73093468 0 3
2.6615937 0.97286004 -0.73245794 0 4
2.7595551 1.0086668 -0.7306549 0 5
2.8934484 1.0576071 -0.73608685 0 6
3.0107591 1.1004863 -0.73483092 0 7
3.1336713 1.1454128 -0.73259699 0 8
3.2867904 1.2013806 -0.73472196 0 9
3.4375999 1.2565042 -0.73335278 0 10
3.6175098 1.3222644 -0.73495251 0 11
3.7948563 1.3870878 -0.73253429 0 12
4.0111766 1.4661567 -0.73378599 0 13
4.2460384 1.5520028 -0.73400879 0 14
4.4941554 1.6426941 -0.73179621 0 15
4.7240076 1.7267091 -0.72194564 0 16
4.7345853 1.7305754 -0.67630327 0 17
4.7286973 1.7284235 -0.62837845 0 18
4.7176175 1.7243736 -0.58004028 0 19
4.7177429 1.7244192 -0.53328812 0 20
4.7183809 1.7246524 -0.48667762 0 21
4.7343936 1.7305055 -0.44157165 0 22
4.7312441 1.7293543 -0.39462659 0 23
4.7202787 1.7253461 -0.3472358 0 24
4.7238073 1.7266361 -0.30104357 0 25
4.722486 1.726153 -0.25457165 0 26
4.7184138 1.7246646 -0.20804755 0 27
4.7309675 1.7292531 -0.16220866 0 28
4.7336693 1.7302407 -0.11590987 0 29
4.7119656 1.7223076 -0.069219254 0 30
4.7190542 1.7248987 -0.023106493 0 31
4.7388263 1.7321258 0.023203304 0 32
4.7191401 1.7249299 0.069324642 0 33
4.7309418 1.7292438 0.11584309 0 34
4.7227635 1.7262545 0.16192737 0 35
4.733839 1.7303027 0.20872767 0 36
4.7286787 1.7284166 0.25490546 0 37
4.7274976 1.7279848 0.30127874 0 38
4.7236853 1.7265912 0.34748641 0 39
4.7319722 1.7296205 0.39468732 0 40
4.7124472 1.7224835 0.43952471 0 41
4.7296305 1.7287644 0.48783797 0 42
4.742485 1.733463 0.53608495 0 43
4.7233114 1.7264546 0.58074033 0 44
4.738605 1.7320448 0.629695 0 45
4.7271795 1.7278686 0.6752454 0 46
4.7344379 1.7305216 0.72353971 0 47
4.7297335 1.728802 0.77015603 0 48
4.7161717 1.7238449 0.81528032 0 49
4.7315774 1.729476 0.86557275 0 50
4.7229466 1.7263215 0.91168678 0 51
4.7109399 1.7219328 0.95709962 0 52
4.7350149 1.7307324 1.010134 0 53
4.7207155 1.7255058 1.0552585 0 54
4.7280669 1.7281929 1.1053386 0 55
4.7265158 1.727626 1.1535928 0 56
4.7232633 1.7264371 1.2015876 0 57
4.7324286 1.7297871 1.2530179 0 58
4.7251773 1.7271366 1.3003463 0 59
4.7375078 1.7316437 1.3533517 0 60
4.7390804 1.7322185 1.403675 0 61
4.7260036 1.7274388 1.4497935 0 62
4.7258182 1.7273709 1.4999919 0 63
2.2911062 0.86952084 -0.73054391 0 0
2.3821783 0.90408456 -0.73413438 0 1
2.4666338 0.9361372 -0.7339499 0 2
2.5445871 0.96572196 -0.73024273 0 3
2.667558 1.0123919 -0.73746932 0 4
2.7640662 1.0490187 -0.73520911 0 5
2.8626983 1.0864516 -0.73160738 0 6
2.9821372 1.131781 -0.73118657 0 7
3.129499 1.1877078 -0.73498029 0 8
3.2505536 1.2336504 -0.72995746 0 9
3.4147117 1.2959518 -0.73181427 0 10
3.5801721 1.3587474 -0.73070598 0 11
3.765295 1.4290053 -0.73016465 0 12
3.9697182 1.506588 -0.72953564 0 13
4.2038789 1.5954566 -0.730057 0 14
4.4674392 1.6954831 -0.73078549 0 15
4.7575817 1.8055979 -0.73041451 0 16
4.7478604 1.8019086 -0.68131304 0 17
4.7438307 1.8003792 -0.63328344 0 18
4.7436256 1.8003014 -0.58591557 0 19
4.7510171 1.8031064 -0.5395149 0 20
4.7514486 1.8032702 -0.4923383 0 21
4.7414751 1.7994852 -0.4442623 0 22
4.7408004 1.799229 -0.39723894 0 23
4.754457 1.8044121 -0.3513557 0 24
4.7584987 1.8059459 -0.30464658 0 25
4.7468486 1.8015246 -0.25705966 0 26
4.765162 1.8084748 -0.21107337 0 27
4.7557817 1.8049148 -0.16380803 0 28
4.7400804 1.7989558 -0.11659969 0 29
4.7438364 1.8003813 -0.070007354 0 30
4.7576728 1.8056326 -0.023402531 0 31
4.7535033 1.8040502 0.023382021 0 32
4.7445874 1.8006665 0.07001844 0 33
4.7426143 1.7999176 0.11666203 0 34
4.7502999 1.8028344 0.16361922 0 35
4.7537436 1.8041413 0.21056759 0 36
4.7533727 1.8040006 0.25741297 0 37
4.7485013 1.8021518 0.30400655 0 38
4.7472534 1.8016782 0.35082334 0 39
4.7630796 1.8076845 0.39910576 0 40
4.7528663 1.8038083 0.44532964 0 41
4.7497916 1.8026415 0.49216661 0 42
4.7455702 1.8010395 0.53889638 0 43
4.7432914 1.8001745 0.58587426 0 44
4.7318387 1.795828 0.63168257 0 45
4.7481737 1.8020276 0.68135804 0 46
4.7455359 1.8010263 0.72856516 0 47
4.738461 1.7983413 0.77511936 0 48
4.7527938 1.8037809 0.82538307 0 49
4.7500567 1.8027421 0.87294251 0 50
4.7436275 1.800302 0.91988254 0 51
4.7380404 1.7981817 0.96702462 0 52
4.750247 1.8028142 1.0180357 0 53
4.7537923 1.8041598 1.0675308 0 54
4.7504411 1.802888 1.1156677 0 55
4.7450228 1.8008316 1.1634264 0 56
4.7489147 1.8023088 1.2136595 0 57
4.7395945 1.7987715 1.2606764 0 58
4.748672 1.8022166 1.3128113 0 59
4.7657113 1.8086833 1.3676584 0 60
4.7589426 1.8061144 1.4160291 0 61
4.7610717 1.8069224 1.4672564 0 62
4.7446566 1.8006926 1.512885 0 63
2.2991135 0.90505445 -0.73659009 0 0
2.3568156 0.92776906 -0.72977871 0 1
2.4590609 0.96801841 -0.73518276 0 2
2.544471 1.0016403 -0.73368859 0 3
2.6350265 1.0372878 -0.73194665 0 4
2.7434621 1.0799739 -0.7332055 0 5
2.8511119 1.1223507 -0.73211795 0 6
2.9655139 1.1673855 -0.7305752 0 7
3.0966659 1.2190139 -0.73073447 0 8
3.2582419 1.2826189 -0.73517019 0 9
3.4028468 1.3395432 -0.73274618 0 10
3.5733745 1.406672 -0.73279351 0 11
3.7624633 1.4811076 -0.73309189 0 12
3.9724255 1.5637599 -0.73351151 0 13
4.1963229 1.651898 -0.73221701 0 14
4.4656181 1.757907 -0.73396814 0 15
4.7487307 1.8693553 -0.73252934 0 16
4.7575197 1.872815 -0.68595189 0 17
4.7669849 1.8765411 -0.6394065 0 18
4.7600279 1.8738024 -0.59074277 0 19
4.7662334 1.8762454 -0.54382169 0 20
4.7742796 1.8794128 -0.4970611 0 21
4.7521939 1.8707186 -0.44738814 0 22
4.7727323 1.8788036 -0.40182 0 23
4.7583327 1.8731352 -0.35331756 0 24
4.769268 1.87744 -0.30679089 0 25
4.7755985 1.8799319 -0.25984877 0 26
4.7638993 1.8753265 -0.21202286 0 27
4.7732368 1.8790021 -0.16519259 0 28
4.7669559 1.8765297 -0.1178195 0 29
4.7786641 1.8811386 -0.070857331 0 30
4.7618203 1.874508 -0.023534531 0 31
4.7764497 1.8802669 0.023606835 0 32
4.7677388 1.876838 0.070695341 0 33
4.7819009 1.8824129 0.11818889 0 34
4.7739587 1.8792864 0.16521758 0 35
4.7735071 1.8791085 0.21245046 0 36
4.757719 1.8728936 0.25887591 0 37
4.7667441 1.8764464 0.30662853 0 38
4.7783618 1.8810198 0.35480475 0 39
4.7707219 1.8780122 0.40165076 0 40
4.7716022 1.8783587 0.44921529 0 41
4.7724628 1.8786975 0.49687195 0 42
4.7666721 1.8764179 0.5438717 0 43
4.7666707 1.8764175 0.59156728 0 44
4.7857456 1.8839263 0.64192289 0 45
4.7636013 1.8752091 0.68682879 0 46
4.7732654 1.8790134 0.73631394 0 47
4.7642379 1.8754598 0.78304917 0 48
4.7768354 1.8804189 0.8335107 0 49
4.7750025 1.8796972 0.88170791 0 50
4.7654443 1.8759346 0.92851627 0 51
4.7665343 1.8763638 0.9774754 0 52
4.769742 1.8776265 1.0270842 0 53
4.760603 1.8740289 1.0741539 0 54
4.7659078 1.8761171 1.1246331 0 55
4.7586622 1.8732648 1.1723298 0 56
4.7746887 1.8795738 1.2260605 0 57
4.7642574 1.8754674 1.2732743 0 58
4.7622485 1.8746767 1.3228375 0 59
4.7684164 1.8771046 1.3749548 0 60
4.7738023 1.8792248 1.4272184 0 61
4.7802367 1.8817577 1.4801817 0 62
4.786128 1.884077 1.53338 0 63
2.285032 0.93212104 -0.73569518 0 0
2.3515234 0.95924455 -0.73173714 0 1
2.4144285 0.98490512 -0.72540498 0 2
2.5445859 1.0379995 -0.73734629 0 3
2.627816 1.0719512 -0.73354971 0 4
2.7196417 1.1094091 -0.73043001 0 5
2.8249395 1.1523627 -0.72898084 0 6
2.9770796 1.2144244 -0.73704761 0 7
3.0947733 1.2624346 -0.73389548 0 8
3.2207749 1.3138337 -0.73030633 0 9
3.3720248 1.3755323 -0.72969615 0 10
3.5425003 1.4450735 -0.73005092 0 11
3.7202339 1.5175755 -0.72844464 0 12
3.926893 1.6018767 -0.72868592 0 13
4.1523099 1.6938299 -0.72811639 0 14
4.4184113 1.8023791 -0.72979665 0 15
4.7069206 1.9200693 -0.72966665 0 16
4.7945375 1.9558103 -0.69470423 0 17
4.7947063 1.9558792 -0.64630187 0 18
4.7921939 1.9548544 -0.59767276 0 19
4.7936502 1.9554484 -0.5496518 0 20
4.7857022 1.9522063 -0.50071174 0 21
4.7959385 1.9563819 -0.4537369 0 22
4.8016586 1.9587153 -0.40625241 0 23
4.7752876 1.947958 -0.35632813 0 24
4.792778 1.9550925 -0.30982623 0 25
4.8165917 1.9648069 -0.26337397 0 26
4.799634 1.9578894 -0.21466854 0 27
4.7984753 1.9574167 -0.16688642 0 28
4.8031559 1.9593261 -0.11930068 0 29
4.8009534 1.9584277 -0.071539514 0 30
4.7930436 1.955201 -0.023805873 0 31
4.7949166 1.9559652 0.023815176 0 32
4.7853446 1.9520603 0.071306922 0 33
4.8123031 1.9630574 0.11952787 0 34
4.8157768 1.9644746 0.16748816 0 35
4.7983756 1.9573761 0.21461225 0 36
4.7898545 1.9539001 0.26191196 0 37
4.8034887 1.9594618 0.31051862 0 38
4.7903161 1.9540883 0.3574495 0 39
4.7896166 1.9538029 0.40523356 0 40
4.7941599 1.9556564 0.45356864 0 41
4.7882242 1.953235 0.50097561 0 42
4.802568 1.9590863 0.55067438 0 43
4.7939901 1.9555871 0.59789681 0 44
4.7814536 1.9504732 0.64451551 0 45
4.809761 1.9620204 0.69691002 0 46
4.7985983 1.9574668 0.74387854 0 47
4.8045812 1.9599075 0.79358107 0 48
4.7915916 1.9546088 0.84021586 0 49
4.7866893 1.9526089 0.88823229 0 50
4.7891474 1.9536116 0.93774444 0 51
4.8016076 1.9586946 0.98953223 0 52
4.7912569 1.9544721 1.0368137 0 53
4.7982216 1.9573132 1.0879902 0 54
4.7990909 1.9576678 1.1380579 0 55
4.7911968 1.9544476 1.1861758 0 56
4.7949786 1.9559903 1.2373531 0 57
4.8023381 1.9589925 1.2897919 0 58
4.8040528 1.9596919 1.3410419 0 59
4.7991796 1.9577041 1.3906615 0 60
4.8023443 1.9589949 1.4428443 0 61
4.7936845 1.9554626 1.4916786 0 62
4.8202238 1.9662884 1.5519325 0 63
2.2612863 0.95503086 -0.73177558 0 0
2.3366888 0.98687643 -0.73084188 0 1
2.4316411 1.0269785 -0.73431504 0 2
2.5290513 1.0681187 -0.73659509 0 3
2.6034803 1.0995531 -0.73047549 0 4
2.7081749 1.1437697 -0.73107243 0 5
2.8356955 1.1976267 -0.73550111 0 6
2.9397309 1.241565 -0.73152542 0 7
3.0661807 1.2949698 -0.73083591 0 8
3.2076223 1.3547062 -0.73104596 0 9
3.3518319 1.4156115 -0.72903818 0 10
3.5509579 1.4997104 -0.73553872 0 11
3.7199125 1.5710666 -0.73210907 0 12
3.9358675 1.6622729 -0.73408872 0 13
4.1607156 1.7572352 -0.73332387 0 14
4.4005527 1.858528 -0.7305665 0 15
4.7013984 1.985587 -0.73254013 0 16
4.8245711 2.0376077 -0.7026332 0 17
4.8138947 2.0330987 -0.65220898 0 18
4.8183632 2.0349858 -0.60401171 0 19
4.8158259 2.0339143 -0.55502033 0 20
4.8121405 2.0323577 -0.50605428 0 21
4.8260651 2.0382385 -0.45892358 0 22
4.817524 2.0346315 -0.40968049 0 23
4.8262682 2.0383246 -0.36197516 0 24
4.8237758 2.0372717 -0.31342578 0 25
4.8112998 2.0320029 -0.26443091 0 26
4.8266883 2.038502 -0.21698327 0 27
4.8164749 2.0341885 -0.16836965 0 28
4.8261881 2.0382905 -0.12048617 0 29
4.8114967 2.0320859 -0.072063506 0 30
4.8285093 2.0392711 -0.024104744 0 31
4.8092613 2.031142 0.024008656 0 32
4.819005 2.0352571 0.072175965 0 33
4.8184199 2.0350099 0.12029224 0 34
4.7994108 2.0269816 0.16777313 0 35
4.8368478 2.0427928 0.21744001 0 36
4.806437 2.0299489 0.26416364 0 37
4.8172812 2.034529 0.31300381 0 38
4.8150101 2.0335696 0.36113077 0 39
4.8175101 2.0346255 0.40967932 0 40
4.8230882 2.0369816 0.45864055 0 41
4.8240891 2.0374041 0.50731081 0 42
4.8182001 2.0349171 0.55529392 0 43
4.8157268 2.0338724 0.60368127 0 44
4.8236203 2.0372064 0.65352666 0 45
4.8212295 2.0361965 0.70214659 0 46
4.8157983 2.0339026 0.75036514 0 47
4.8161092 2.034034 0.7995559 0 48
4.8152285 2.0336618 0.84868139 0 49
4.8134618 2.0329158 0.897771 0 50
4.8156095 2.033823 0.9477511 0 51
4.8222895 2.0366442 0.99887991 0 52
4.8246131 2.0376256 1.0493746 0 53
4.8260422 2.038229 1.0998983 0 54
4.8142562 2.0332513 1.1474963 0 55
4.8319116 2.0407078 1.2023774 0 56
4.8231506 2.0370078 1.2509921 0 57
4.8074684 2.0303845 1.2977771 0 58
4.8141842 2.033221 1.3507471 0 59
4.8238626 2.0373085 1.404967 0 60
4.8225403 2.0367501 1.4563266 0 61
4.8192105 2.0353439 1.5072957 0 62
4.8096805 2.0313189 1.5564623 0 63
2.2618997 0.98823553 -0.73585093 0 0
2.3235059 1.0151516 -0.73056763 0 1
2.4129262 1.0542198 -0.73252273 0 2
2.5048838 1.0943965 -0.73342019 0 3
2.5982823 1.1352029 -0.73287821 0 4
2.706919 1.1826667 -0.73460358 0 5
2.8107214 1.2280185 -0.73288471 0 6
2.9290307 1.2797085 -0.73272312 0 7
3.0405779 1.328444 -0.72857183 0 8
3.2006972 1.398401 -0.7333312 0 9
3.3544555 1.4655788 -0.73347312 0 10
3.5197682 1.5378047 -0.7329396 0 11
3.6904025 1.6123558 -0.73014802 0 12
3.8984449 1.7032505 -0.73095995 0 13
4.1187882 1.7995198 -0.72977906 0 14
4.3750076 1.9114633 -0.73017246 0 15
4.6442332 2.0290895 -0.72746575 0 16
4.9766192 2.1743104 -0.7286157 0 17
5.3321009 2.3296223 -0.72624415 0 18
5.7574825 2.5154736 -0.72555882 0 19
5.8853397 2.5713351 -0.68187344 0 20
5.87713 2.5677481 -0.62132418 0 21
5.8797278 2.5688832 -0.56208056 0 22
5.8681951 2.5638444 -0.50167221 0 23
5.8855982 2.5714481 -0.44376397 0 24
5.8843274 2.5708928 -0.38436034 0 25
5.866107 2.5629323 -0.3241111 0 26
5.8733587 2.5661006 -0.26543468 0 27
5.8540602 2.5576687 -0.2057244 0 28
5.8829336 2.5702839 -0.14764579 0 29
5.8757935 2.5671642 -0.088469967 0 30
5.8758378 2.5671835 -0.029488547 0 31
5.8700142 2.5646393 0.029459322 0 32
5.8704453 2.5648274 0.088389434 0 33
5.8778095 2.5680449 0.14751717 0 34
5.8815002 2.5696576 0.20668872 0 35
5.8772192 2.5677872 0.26560915 0 36
5.8850546 2.5712106 0.32515797 0 37
5.8586874 2.5596905 0.38268557 0 38
5.8773541 2.5678461 0.44314235 0 39
5.8877826 2.5724025 0.5033468 0 40
5.8673744 2.5634859 0.56089962 0 41
5.8743806 2.5665469 0.62103349 0 42
5.8747888 2.5667253 0.68065095 0 43
5.8727946 2.5658541 0.74009049 0 44
5.8882265 2.5725963 0.80198973 0 45
5.8769555 2.5676718 0.86043191 0 46
5.87252 2.5657339 0.91986269 0 47
5.8743486 2.5665331 0.98040688 0 48
5.8758984 2.56721 1.041109 0 49
5.8778028 2.568042 1.1020904 0 50
5.8837433 2.5706375 1.1641016 0 51
5.885829 2.5715487 1.2256367 0 52
5.8608918 2.5606537 1.2815216 0 53
5.8814945 2.5696549 1.3475449 0 54
5.8823395 2.5700243 1.4095041 0 55
5.880899 2.5693948 1.4711592 0 56
5.8830619 2.5703397 1.5339855 0 57
5.8758488 2.5671885 1.5945877 0 58
5.8806396 2.5692816 1.6587083 0 59
5.880671 2.5692954 1.7218375 0 60
0 0 0 0 61
0 0 0 0 62
0 0 0 0 63
2.2571995 1.0194142 -0.73834401 0 0
2.3120003 1.0441638 -0.73093182 0 1
2.4170847 1.0916229 -0.73780441 0 2
2.4897778 1.1244532 -0.73299026 0 3
2.5693419 1.1603866 -0.72868478 0 4
2.6810756 1.2108486 -0.73157555 0 5
2.8059187 1.2672311 -0.73563981 0 6
2.9146321 1.3163291 -0.73311484 0 7
3.0557873 1.3800788 -0.73622692 0 8
3.1755202 1.4341536 -0.73154789 0 9
3.3240161 1.5012184 -0.73079842 0 10
3.4935558 1.5777873 -0.731466 0 11
3.6746411 1.6595706 -0.73101187 0 12
3.8932774 1.7583127 -0.73398954 0 13
4.1168466 1.8592827 -0.73343045 0 14
4.375061 1.9758997 -0.73418087 0 15
4.6513147 2.1006634 -0.73256564 0 16
4.9766927 2.2476134 -0.73261744 0 17
5.3312626 2.407747 -0.73010731 0 18
5.763144 2.6027966 -0.73025036 0 19
5.9299221 2.6781182 -0.69080192 0 20
5.9113026 2.6697092 -0.62835991 0 21
5.9241319 2.6755033 -0.56942743 0 22
5.9079003 2.6681728 -0.50783312 0 23
5.9075155 2.6679988 -0.44785622 0 24
5.9120202 2.6700332 -0.38828442 0 25
5.9154868 2.6715989 -0.32862964 0 26
5.8948512 2.6622794 -0.26786521 0 27
5.9072089 2.6678605 -0.20872924 0 28
5.9080224 2.6682277 -0.14908761 0 29
5.9123688 2.6701908 -0.089508273 0 30
5.9148612 2.6713164 -0.029846985 0 31
5.9133382 2.6706285 0.029839301 0 32
5.9091573 2.6687405 0.089459658 0 33
5.9092135 2.6687658 0.14911766 0 34
5.915225 2.6714807 0.20901248 0 35
5.9149671 2.6713641 0.26877928 0 36
5.9142861 2.6710567 0.32856295 0 37
5.9092541 2.6687841 0.38810274 0 38
5.9232035 2.6750839 0.44904554 0 39
5.9174285 2.6724758 0.50865215 0 40
5.9076738 2.6680703 0.56784552 0 41
5.9117661 2.6699185 0.62840915 0 42
5.9040852 2.6664495 0.68779206 0 43
5.9078913 2.6681685 0.74859136 0 44
5.9143 2.6710629 0.80995327 0 45
5.9164524 2.672035 0.87095916 0 46
5.9231157 2.6750443 0.93286979 0 47
5.9131694 2.6705523 0.99229145 0 48
5.9149666 2.6713641 1.0537717 0 49
5.912993 2.6704726 1.1147612 0 50
5.8998356 2.6645305 1.1736792 0 51
5.9243097 2.6755836 1.240407 0 52
5.9062176 2.6674128 1.298506 0 53
5.9004774 2.6648202 1.3592991 0 54
5.9193349 2.6733367 1.4261378 0 55
5.9075007 2.6679921 1.4859085 0 56
5.9107533 2.6694613 1.5496478 0 57
5.9147429 2.671263 1.6139349 0 58
5.9124589 2.6702316 1.676818 0 59
5.9101539 2.6691904 1.7399485 0 60
0 0 0 0 61
0 0 0 0 62
0 0 0 0 63
2.2237883 1.0374309 -0.73153251 0 0
2.3020463 1.0739394 -0.73190451 0 1
2.3971093 1.1182877 -0.73584878 0 2
2.4744997 1.1543916 -0.73261601 0 3
2.5609341 1.1947144 -0.73041141 0 4
2.6657882 1.2436305 -0.73152155 0 5
2.7723837 1.2933589 -0.7309621 0 6
2.8764846 1.3419237 -0.72761518 0 7
3.0361173 1.4163946 -0.73562843 0 8
3.1604292 1.474388 -0.73219258 0 9
3.3009439 1.5399404 -0.7298339 0 10
3.4847155 1.6256725 -0.73374498 0 11
3.6662872 1.7103784 -0.73347837 0 12
3.8567357 1.7992256 -0.73121613 0 13
4.0668736 1.897258 -0.7286287 0 14
4.3084059 2.0099366 -0.72708791 0 15
4.6074924 2.1494651 -0.72977138 0 16
4.9131794 2.2920725 -0.72736174 0 17
5.327394 2.4853098 -0.73370725 0 18
5.7574067 2.6859174 -0.73365283 0 19
5.9496264 2.7755909 -0.69702059 0 20
5.9470196 2.7743747 -0.63573486 0 21
5.9278316 2.7654233 -0.5730083 0 22
5.9427114 2.7723649 -0.51371694 0 23
5.9431448 2.772567 -0.45310768 0 24
5.9184594 2.7610509 -0.39090759 0 25
5.9422855 2.7721663 -0.33198702 0 26
5.9201016 2.761817 -0.27053532 0 27
5.9346938 2.7686245 -0.21088742 0 28
5.938664 2.7704766 -0.15070912 0 29
5.9447026 2.7732937 -0.090507209 0 30
5.928299 2.765641 -0.030084124 0 31
5.938817 2.7705481 0.030137502 0 32
5.9408512 2.771497 0.090448573 0 33
5.9328132 2.7677472 0.15056063 0 34
5.9353652 2.7689378 0.21091126 0 35
5.9478002 2.7747388 0.27180108 0 36
5.9397826 2.7709985 0.33184719 0 37
5.942431 2.772234 0.39249089 0 38
5.9413095 2.7717109 0.45296776 0 39
5.9406705 2.7714126 0.51354045 0 40
5.9390874 2.7706742 0.57409632 0 41
5.9345479 2.7685564 0.63440162 0 42
5.9291878 2.7660558 0.69462615 0 43
5.9418058 2.7719424 0.75715041 0 44
5.9375839 2.7699728 0.81774473 0 45
5.9388351 2.7705564 0.87920284 0 46
5.9471993 2.7744586 0.94196486 0 47
5.9431725 2.7725799 1.0029716 0 48
5.9347153 2.7686346 1.0632747 0 49
5.9304957 2.7666662 1.1243898 0 50
5.9232678 2.7632942 1.1850107 0 51
5.9390931 2.7706769 1.250541 0 52
5.9381661 2.7702444 1.3129199 0 53
5.9393454 2.7707946 1.3759981 0 54
5.946517 2.7741401 1.4407965 0 55
5.9405828 2.7713716 1.5026876 0 56
5.9380827 2.7702055 1.5656251 0 57
5.9393969 2.7708185 1.6298357 0 58
5.9488163 2.7752128 1.6966791 0 59
5.9450264 2.7734447 1.7601219 0 60
0 0 0 0 61
0 0 0 0 62
0 0 0 0 63
2.2048228 1.0617857 -0.72953349 0 0
2.2853122 1.1005473 -0.73083144 0 1
2.3671098 1.139939 -0.73088741 0 2
2.4476485 1.1787243 -0.7289024 0 3
2.5399215 1.2231606 -0.72865307 0 4
2.6515882 1.2769363 -0.73187834 0 5
2.7579525 1.3281586 -0.73140788 0 6
2.8785987 1.3862587 -0.73240638 0 7
2.990325 1.4400631 -0.72876859 0 8
3.1343598 1.5094267 -0.73039782 0 9
3.299706 1.5890532 -0.73382497 0 10
3.4636128 1.6679864 -0.73356479 0 11
3.6258597 1.7461203 -0.72963083 0 12
3.8269398 1.8429554 -0.72980839 0 13
4.0452142 1.9480705 -0.72898477 0 14
4.324861 2.0827413 -0.7341314 0 15
4.5898409 2.2103486 -0.73122519 0 16
4.9065046 2.3628459 -0.73061967 0 17
5.2527375 2.5295825 -0.72765416 0 18
5.6775188 2.7341464 -0.72770202 0 19
