# .PCD v0.7 - Point Cloud Data file format
VERSION 0.7
FIELDS x y z intensity ring
SIZE 4 4 4 4 2
TYPE F F F F U
COUNT 1 1 1 1 1
WIDTH 1261
HEIGHT 1
VIEWPOINT 0 0 0 1 0 0 0
POINTS 1261
DATA ascii
2.7998555 -0.50454319 -0.73533523 0 4
2.9262271 -0.52731574 -0.73941815 0 5
3.0051324 -0.54153478 -0.72960156 0 6
3.1401432 -0.56586415 -0.73142481 0 7
3.294518 -0.59368294 -0.73504245 0 8
3.4589 -0.6233052 -0.73790061 0 9
3.6092374 -0.65039647 -0.73482162 0 10
3.7748387 -0.68023837 -0.73190856 0 11
3.9897394 -0.71896416 -0.73499769 0 12
4.2318044 -0.7625851 -0.73880881 0 13
4.432292 -0.79871356 -0.73123097 0 14
4.7243967 -0.85135186 -0.73417109 0 15
4.863255 -0.8763746 -0.7092998 0 16
4.8679118 -0.87721378 -0.66360724 0 17
4.8696313 -0.8775236 -0.61756784 0 18
4.8519273 -0.87433326 -0.56932276 0 19
4.8637719 -0.8764677 -0.52469832 0 20
4.8752227 -0.87853116 -0.47990105 0 21
4.8731399 -0.87815589 -0.43376502 0 22
4.8620691 -0.8761608 -0.3870267 0 23
4.8687987 -0.87737358 -0.34181219 0 24
4.8772502 -0.87889653 -0.29663408 0 25
4.8723326 -0.87801039 -0.25066006 0 26
4.8806062 -0.87950128 -0.20537576 0 27
4.8522186 -0.87438577 -0.15877177 0 28
4.8688602 -0.8773846 -0.1137781 0 29
4.8717699 -0.877909 -0.068299949 0 30
4.8708849 -0.8777495 -0.022761231 0 31
4.8650827 -0.87670392 0.022734117 0 32
4.8649378 -0.87667781 0.068204172 0 33
4.8673072 -0.87710476 0.11374181 0 34
4.8639374 -0.87649751 0.15915522 0 35
4.8773351 -0.87891185 0.20523812 0 36
4.8812046 -0.87960917 0.25111648 0 37
4.8585558 -0.87552774 0.29549709 0 38
4.875802 -0.87863559 0.34230384 0 39
4.8728542 -0.87810433 0.38788521 0 40
4.8667722 -0.87700838 0.43319824 0 41
4.8663883 -0.87693924 0.47903144 0 42
4.861022 -0.87597215 0.52440166 0 43
4.8659554 -0.87686116 0.57096881 0 44
4.8825216 -0.87984651 0.61920261 0 45
4.8705592 -0.87769085 0.66396815 0 46
4.8679066 -0.87721276 0.70997822 0 47
4.8662462 -0.87691361 0.7562145 0 48
4.8697309 -0.8775416 0.80339885 0 49
4.8674588 -0.87713212 0.84978443 0 50
4.8648963 -0.87667036 0.89622086 0 51
4.8671165 -0.87707043 0.94369173 0 52
4.8816347 -0.87968665 0.99387497 0 53
4.879756 -0.8793481 1.0410174 0 54
4.8669586 -0.877042 1.085871 0 55
4.8791327 -0.87923574 1.1364828 0 56
4.8680029 -0.87723011 1.1818788 0 57
4.8540902 -0.87472308 1.2265632 0 58
4.870245 -0.87763423 1.2790885 0 59
4.8703423 -0.87765169 1.3277889 0 60
4.8707795 -0.87773049 1.3768283 0 61
4.878387 -0.8791014 1.4282268 0 62
4.8661242 -0.87689161 1.474022 0 63
2.4197354 -0.40539178 -0.73140883 0 0
2.5200386 -0.42219612 -0.73620659 0 1
2.6084526 -0.43700862 -0.73575944 0 2
2.7084527 -0.45376223 -0.73682171 0 3
2.7985814 -0.46886197 -0.73343098 0 4
2.9135118 -0.48811689 -0.73463297 0 5
3.0495348 -0.51090556 -0.7388007 0 6
3.1687193 -0.53087324 -0.73650479 0 7
3.2952414 -0.5520702 -0.73363382 0 8
3.4545708 -0.57876354 -0.73540318 0 9
3.6217592 -0.6067735 -0.73579627 0 10
3.7967858 -0.63609672 -0.73459178 0 11
3.9882569 -0.66817492 -0.73315555 0 12
4.2115417 -0.7055831 -0.73370105 0 13
4.4821916 -0.75092655 -0.7378841 0 14
4.7194691 -0.79067904 -0.73183912 0 15
4.8871074 -0.81876433 -0.71125644 0 16
4.8927102 -0.81970304 -0.6655634 0 17
4.8832812 -0.8181234 -0.61797637 0 18
4.8686132 -0.81566596 -0.57006073 0 19
4.8857474 -0.81853658 -0.52594346 0 20
4.8959875 -0.82025212 -0.48091584 0 21
4.8729467 -0.816392 -0.43282154 0 22
4.8849015 -0.81839478 -0.38801381 0 23
4.8919635 -0.81957799 -0.34270504 0 24
4.8934655 -0.81982958 -0.29698473 0 25
4.8823476 -0.817967 -0.2506389 0 26
4.8867412 -0.81870306 -0.20519479 0 27
4.8784189 -0.81730878 -0.15928818 0 28
4.8840041 -0.81824452 -0.11388826 0 29
4.8929849 -0.81974906 -0.068450883 0 30
4.8893685 -0.81914324 -0.022798812 0 31
4.8878942 -0.81889617 0.022791935 0 32
4.8857045 -0.81852943 0.068349041 0 33
4.8939967 -0.81991857 0.11412127 0 34
4.8828392 -0.81804931 0.15943252 0 35
4.8902607 -0.81929266 0.20534258 0 36
4.872396 -0.81629968 0.250128 0 37
4.8741517 -0.81659389 0.29581258 0 38
4.8878107 -0.81888229 0.34241411 0 39
4.8906994 -0.81936616 0.38847435 0 40
4.8833442 -0.81813389 0.43374503 0 41
4.8836064 -0.81817788 0.47969973 0 42
4.881659 -0.8178516 0.5255034 0 43
4.8677535 -0.8155219 0.56996 0 44
4.8826265 -0.81801367 0.61789352 0 45
4.8826919 -0.81802464 0.66420066 0 46
4.8770828 -0.81708497 0.70979756 0 47
4.8803186 -0.81762701 0.75678176 0 48
4.8830628 -0.8180868 0.80387789 0 49
4.8912158 -0.81945264 0.85210836 0 50
4.8888807 -0.81906152 0.89871597 0 51
4.8870101 -0.81874806 0.94552541 0 52
4.895081 -0.82010025 0.99448425 0 53
4.8904696 -0.81932765 1.0410749 0 54
4.8884134 -0.8189832 1.0883286 0 55
4.8929172 -0.81973773 1.1372597 0 56
4.8787799 -0.81736928 1.1819658 0 57
4.8876109 -0.81884873 1.2323959 0 58
4.8800673 -0.81758493 1.278931 0 59
4.8804536 -0.81764966 1.3277042 0 60
4.8981414 -0.82061297 1.381606 0 61
4.8938055 -0.81988657 1.4296812 0 62
4.8885937 -0.81901342 1.477666 0 63
2.4505327 -0.37963644 -0.73925096 0 0
2.542336 -0.39385861 -0.74124968 0 1
2.6147563 -0.40507796 -0.73607695 0 2
2.6966486 -0.41776469 -0.73215753 0 3
2.8059824 -0.43470269 -0.73391426 0 4
2.9214885 -0.4525969 -0.73518538 0 5
3.02878 -0.46921849 -0.7323193 0 6
3.1697731 -0.49106112 -0.73529065 0 7
3.3067265 -0.51227796 -0.73473281 0 8
3.4610083 -0.5361793 -0.73531449 0 9
3.6118889 -0.55955368 -0.73233783 0 10
3.810107 -0.59026164 -0.73570925 0 11
4.0260334 -0.62371296 -0.73863423 0 12
4.224946 -0.6545285 -0.73457861 0 13
4.4771252 -0.69359607 -0.7355904 0 14
4.7769818 -0.74004984 -0.73929048 0 15
4.9078093 -0.76031762 -0.7128548 0 16
4.898962 -0.75894701 -0.66509408 0 17
4.909009 -0.76050347 -0.62000191 0 18
4.9031181 -0.75959092 -0.57296389 0 19
4.8893008 -0.75745034 -0.52528369 0 20
4.8966675 -0.75859159 -0.48003012 0 21
4.9052205 -0.75991654 -0.4348253 0 22
4.889564 -0.75749111 -0.38761503 0 23
4.8878064 -0.75721878 -0.34173569 0 24
4.8954482 -0.75840271 -0.29651669 0 25
4.8844671 -0.75670147 -0.25025111 0 26
4.9113908 -0.76087248 -0.20582141 0 27
4.9089022 -0.76048696 -0.15996608 0 28
4.9013877 -0.75932282 -0.11406728 0 29
4.8992958 -0.75899869 -0.06840343 0 30
4.9013815 -0.75932187 -0.022809565 0 31
4.8922443 -0.75790632 0.022767045 0 32
4.9164367 -0.76165414 0.06864275 0 33
4.9074564 -0.76026297 0.1142085 0 34
4.9100261 -0.76066113 0.16000272 0 35
4.9078074 -0.76031733 0.20567124 0 36
4.8959708 -0.75848359 0.25084049 0 37
4.8979392 -0.75878859 0.29666755 0 38
4.911552 -0.76089746 0.34339589 0 39
4.9144468 -0.76134592 0.38958755 0 40
4.8994474 -0.75902218 0.43431354 0 41
4.9106088 -0.76075131 0.48139679 0 42
4.9002128 -0.75914079 0.526456 0 43
4.9033246 -0.75962287 0.57298803 0 44
4.8967566 -0.75860536 0.61845446 0 45
4.900167 -0.7591337 0.66525763 0 46
4.8895159 -0.7574836 0.71019769 0 47
4.8955069 -0.75841171 0.75763351 0 48
4.896184 -0.75851667 0.80444169 0 49
4.8996964 -0.7590608 0.85189539 0 50
4.9055319 -0.75996482 0.89999098 0 51
4.8955173 -0.75841337 0.94529563 0 52
4.8932114 -0.7580561 0.99213564 0 53
4.9043679 -0.75978452 1.041966 0 54
4.8894691 -0.75747639 1.0864078 0 55
4.9038157 -0.75969893 1.1375357 0 56
4.9031706 -0.75959903 1.1855224 0 57
4.9150701 -0.76144248 1.2368654 0 58
4.8999534 -0.75910062 1.2815995 0 59
4.9042463 -0.75976562 1.3315346 0 60
4.9004574 -0.7591787 1.3795218 0 61
4.9083376 -0.76039946 1.4310869 0 62
4.8995194 -0.75903338 1.4780356 0 63
2.4334249 -0.34640366 -0.7327497 0 0
2.5358496 -0.36098409 -0.7380085 0 1
2.6152 -0.37227979 -0.73485762 0 2
2.7193127 -0.38710046 -0.73696291 0 3
2.8226061 -0.40180454 -0.73691428 0 4
2.915381 -0.41501126 -0.73230892 0 5
3.0383918 -0.43252212 -0.73330194 0 6
3.1721361 -0.45156091 -0.73449528 0 7
3.3121114 -0.47148675 -0.73458558 0 8
3.4792032 -0.49527264 -0.73783046 0 9
3.6248834 -0.51601052 -0.7336306 0 10
3.8188822 -0.54362673 -0.73605728 0 11
4.030571 -0.57376117 -0.73811662 0 12
4.2040753 -0.5984599 -0.72961527 0 13
4.4842567 -0.63834435 -0.73541695 0 14
4.7800756 -0.68045479 -0.73841852 0 15
4.9019461 -0.69780332 -0.71070313 0 16
4.9083004 -0.69870794 -0.66514522 0 17
4.9119453 -0.6992268 -0.61924005 0 18
4.9079247 -0.69865447 -0.57247841 0 19
4.9051566 -0.69826043 -0.52602494 0 20
4.911767 -0.69920141 -0.48063117 0 21
4.9115939 -0.69917679 -0.43459529 0 22
4.9271488 -0.70139104 -0.38988131 0 23
4.9214988 -0.7005868 -0.34346306 0 24
4.9175091 -0.70001876 -0.29730901 0 25
4.9161034 -0.69981867 -0.25141206 0 26
4.9087763 -0.69877565 -0.20533623 0 27
4.9135594 -0.69945657 -0.15982549 0 28
4.9008417 -0.69764614 -0.11384631 0 29
4.9061933 -0.69840795 -0.068374664 0 30
4.9164705 -0.699871 -0.02283801 0 31
4.9358015 -0.70262283 0.022927806 0 32
4.9147301 -0.69962323 0.068493634 0 33
4.9024248 -0.69787151 0.11388309 0 34
4.9162979 -0.69984639 0.15991457 0 35
4.9131689 -0.69940096 0.20551997 0 36
4.9249582 -0.70107925 0.25186491 0 37
4.8965125 -0.69702989 0.29603961 0 38
4.9029083 -0.69794035 0.34216565 0 39
4.9210882 -0.70052832 0.38940176 0 40
4.905714 -0.69833976 0.43407503 0 41
4.9335294 -0.70229936 0.48276067 0 42
4.9174671 -0.7000128 0.52734506 0 43
4.9091902 -0.6988346 0.57262599 0 44
4.9171743 -0.6999712 0.61989927 0 45
4.9169683 -0.69994181 0.66631979 0 46
4.9166436 -0.69989562 0.71283406 0 47
4.916492 -0.69987398 0.75949192 0 48
4.9195962 -0.70031595 0.80681247 0 49
4.9208326 -0.70049196 0.85400814 0 50
4.9108329 -0.69906843 0.89931852 0 51
4.9198122 -0.70034665 0.9482522 0 52
4.9082885 -0.69870627 0.9933756 0 53
4.9119387 -0.69922584 1.0416689 0 54
4.9122462 -0.69926959 1.0894758 0 55
4.9207811 -0.70048457 1.1393869 0 56
4.9146724 -0.699615 1.1861336 0 57
4.9217033 -0.70061588 1.2362732 0 58
4.9128547 -0.69935626 1.2826277 0 59
4.9065919 -0.69846475 1.3297391 0 60
4.911191 -0.69911939 1.3800191 0 61
4.921762 -0.70062423 1.4323808 0 62
4.9114261 -0.69915283 1.4789221 0 63
2.4471891 -0.31771511 -0.73566234 0 0
2.5213006 -0.32733688 -0.73254746 0 1
2.6126788 -0.33920038 -0.73292166 0 2
2.7183449 -0.35291889 -0.73546898 0 3
2.8279743 -0.36715192 -0.73708135 0 4
2.9417548 -0.38192385 -0.73769826 0 5
3.0616219 -0.39748606 -0.73767304 0 6
3.1744628 -0.41213602 -0.73380506 0 7
3.3050199 -0.42908606 -0.73178726 0 8
3.4734304 -0.45095056 -0.73537469 0 9
3.6498995 -0.47386131 -0.73745853 0 10
3.806833 -0.49423575 -0.73250812 0 11
4.0356541 -0.52394331 -0.7378118 0 12
4.2585297 -0.55287886 -0.7378301 0 13
4.4781365 -0.5813902 -0.73318535 0 14
4.7921515 -0.62215829 -0.73904634 0 15
4.9222627 -0.63905042 -0.71245557 0 16
4.9345288 -0.64064294 -0.66758156 0 17
4.9311686 -0.64020663 -0.62062407 0 18
4.9307194 -0.64014834 -0.57417566 0 19
4.9366026 -0.64091212 -0.528512 0 20
4.9308515 -0.64016551 -0.48169196 0 21
4.9434586 -0.64180225 -0.43668348 0 22
4.9210315 -0.63889056 -0.3887462 0 23
4.9264975 -0.63960022 -0.34323707 0 24
4.9347267 -0.64066857 -0.29785118 0 25
4.9413667 -0.64153069 -0.25228155 0 26
4.9275761 -0.63974023 -0.20577802 0 27
4.9310737 -0.64019436 -0.16012701 0 28
4.9141884 -0.63800216 -0.1139655 0 29
4.9389205 -0.64121312 -0.068715684 0 30
4.9386072 -0.64117241 -0.022902485 0 31
4.9383993 -0.64114541 0.022901518 0 32
4.930584 -0.64013076 0.068599701 0 33
4.9264092 -0.63958871 0.11424891 0 34
4.9211383 -0.63890445 0.15980439 0 35
4.938076 -0.64110345 0.2062165 0 36
4.925622 -0.63948655 0.25147769 0 37
4.9309134 -0.64017355 0.29762104 0 38
4.9360385 -0.64083892 0.34390181 0 39
4.9345574 -0.64064658 0.3898147 0 40
4.9196558 -0.63871193 0.43458083 0 41
4.9287848 -0.63989717 0.48149005 0 42
4.9261341 -0.63955307 0.52739131 0 43
4.9326324 -0.64039671 0.57439846 0 44
4.9133482 -0.63789308 0.61838132 0 45
4.9281583 -0.63981581 0.66671968 0 46
4.92451 -0.63934213 0.71278083 0 47
4.9244771 -0.63933796 0.75945365 0 48
4.9248171 -0.63938206 0.80631834 0 49
4.9318538 -0.64029562 0.8544898 0 50
4.9184122 -0.63855052 0.89920062 0 51
4.9317799 -0.64028597 0.9489696 0 52
4.9300852 -0.64006597 0.99611872 0 53
4.9443831 -0.64192224 1.0467963 0 54
4.9305048 -0.64012051 1.0916971 0 55
4.9295335 -0.63999438 1.1395051 0 56
4.9178362 -0.63847572 1.1849128 0 57
4.9390664 -0.64123201 1.2385602 0 58
4.9320755 -0.64032441 1.2854929 0 59
4.9466481 -0.64221632 1.3383534 0 60
4.9405642 -0.64142644 1.3859518 0 61
4.9371943 -0.64098895 1.4344697 0 62
4.9208632 -0.63886869 1.4792864 0 63
2.464299 -0.28917265 -0.73968101 0 0
2.5151684 -0.29514188 -0.72965622 0 1
2.6224182 -0.3077271 -0.73453677 0 2
2.7212365 -0.31932291 -0.73513335 0 3
2.8200004 -0.33091235 -0.73388702 0 4
2.9335945 -0.34424201 -0.73453486 0 5
3.0632203 -0.3594529 -0.73693746 0 6
3.1791179 -0.37305292 -0.7337653 0 7
3.3064153 -0.38799059 -0.73098457 0 8
3.4846339 -0.4089036 -0.73662639 0 9
3.6590028 -0.42936492 -0.73817527 0 10
3.8010876 -0.4460378 -0.73029202 0 11
4.0088286 -0.47041515 -0.73179466 0 12
4.2646251 -0.50043154 -0.7377643 0 13
4.4890981 -0.52677226 -0.73386395 0 14
4.7867966 -0.56170559 -0.73709953 0 15
4.9429126 -0.58002502 -0.71435815 0 16
4.957716 -0.58176214 -0.66970003 0 17
4.9532094 -0.58123326 -0.62245154 0 18
4.9400797 -0.5796926 -0.57439214 0 19
4.9501104 -0.58086962 -0.52915347 0 20
4.9255781 -0.57799089 -0.48044616 0 21
4.9492784 -0.58077204 -0.43653375 0 22
4.960948 -0.5821414 -0.39130443 0 23
4.9483857 -0.58066726 -0.34423858 0 24
4.9611535 -0.58216554 -0.29899159 0 25
4.9473915 -0.58055061 -0.25220561 0 26
4.9399304 -0.57967508 -0.2059807 0 27
4.9439478 -0.58014649 -0.16030131 0 28
4.9418545 -0.5799008 -0.11443308 0 29
4.9317322 -0.57871306 -0.068511486 0 30
4.9527564 -0.5811801 -0.022933224 0 31
4.9408898 -0.57978767 0.022878278 0 32
4.9321504 -0.57876211 0.068517298 0 33
4.9461861 -0.58040917 0.11453339 0 34
4.9387722 -0.57953918 0.16013351 0 35
4.9535632 -0.58127481 0.20654915 0 36
4.9496727 -0.58081824 0.2523219 0 37
4.9570031 -0.58167845 0.29874146 0 38
4.9454002 -0.5803169 0.34403089 0 39
4.9615464 -0.58221161 0.39135164 0 40
4.9414787 -0.57985675 0.43584579 0 41
4.9313788 -0.57867157 0.48101196 0 42
4.9507012 -0.58093899 0.52921665 0 43
4.950964 -0.58096981 0.57565773 0 44
4.9576969 -0.58175987 0.62301546 0 45
4.9365129 -0.57927406 0.6668359 0 46
4.9331961 -0.57888484 0.71295393 0 47
4.9445758 -0.58022016 0.76139534 0 48
4.9406366 -0.57975793 0.80768013 0 49
4.9522014 -0.58111501 0.8567124 0 50
4.9447618 -0.58024204 0.90264523 0 51
4.9377918 -0.57942408 0.94868374 0 52
4.9407334 -0.57976931 0.99675441 0 53
4.9378757 -0.57943392 1.0438312 0 54
4.9434609 -0.58008939 1.0929039 0 55
4.9522324 -0.58111864 1.1430141 0 56
4.9436812 -0.5801152 1.1893314 0 57
4.952168 -0.58111107 1.2399602 0 58
4.9470034 -0.58050501 1.2874259 0 59
4.9497619 -0.58082873 1.3371624 0 60
4.9352798 -0.57912934 1.3823671 0 61
4.9385467 -0.57951266 1.4326838 0 62
4.9393592 -0.57960802 1.4825921 0 63
2.4499316 -0.25699037 -0.73436445 0 0
2.5402462 -0.26646411 -0.7359252 0 1
2.6370988 -0.27662364 -0.73764032 0 2
2.7166598 -0.28496936 -0.73289496 0 3
2.8196542 -0.29577315 -0.732795 0 4
2.938086 -0.30819628 -0.73465508 0 5
3.0717218 -0.32221428 -0.73797375 0 6
3.1961353 -0.33526486 -0.73668581 0 7
3.3184443 -0.3480947 -0.73264223 0 8
3.4688978 -0.36387682 -0.73229873 0 9
3.6518049 -0.3830632 -0.73571724 0 10
3.8423667 -0.40305257 -0.73721492 0 11
4.0332227 -0.42307279 -0.73524243 0 12
4.2536869 -0.44619879 -0.73486722 0 13
4.4906669 -0.4710573 -0.73311812 0 14
4.7917008 -0.50263482 -0.73684734 0 15
4.9664407 -0.5209645 -0.71677846 0 16
4.9721007 -0.52155823 -0.67072612 0 17
4.9581633 -0.52009624 -0.62222332 0 18
4.9530215 -0.51955688 -0.57511061 0 19
4.9432063 -0.51852727 -0.52769399 0 20
4.9567919 -0.51995242 -0.48283067 0 21
4.9543686 -0.51969814 -0.43638605 0 22
4.9497194 -0.51921046 -0.38988569 0 23
4.9523273 -0.51948404 -0.34404236 0 24
4.9726968 -0.52162075 -0.29927808 0 25
4.958796 -0.52016264 -0.25244185 0 26
4.963963 -0.52070463 -0.20670018 0 27
4.9669895 -0.52102208 -0.16082852 0 28
4.9629507 -0.52059841 -0.11476468 0 29
4.964787 -0.52079105 -0.068876512 0 30
4.9588375 -0.52016693 -0.022930032 0 31
4.9700174 -0.52133971 0.022981729 0 32
4.9721336 -0.52156168 0.068978436 0 33
4.9684262 -0.52117276 0.11489129 0 34
4.9506998 -0.51931334 0.16030106 0 35
4.9692783 -0.52126217 0.2069215 0 36
4.9620452 -0.52050346 0.25260726 0 37
4.9713345 -0.52147782 0.29919606 0 38
4.9581528 -0.52009517 0.34444711 0 39
4.9653974 -0.52085507 0.39112064 0 40
4.9550867 -0.51977348 0.43644929 0 41
4.955152 -0.5197804 0.48267093 0 42
4.9645948 -0.52077091 0.52997726 0 43
4.9526215 -0.51951492 0.57506418 0 44
4.959013 -0.52018535 0.62232995 0 45
4.9660835 -0.52092701 0.66991442 0 46
4.9534478 -0.51960158 0.7149033 0 47
4.9981318 -0.52428883 0.7685914 0 48
4.9500613 -0.5192464 0.80811602 0 49
4.9619088 -0.5204891 0.8572197 0 50
4.9464984 -0.51887262 0.9017294 0 51
4.964056 -0.52071434 0.95242763 0 52
4.9623399 -0.52053434 0.9997465 0 53
4.9590049 -0.52018452 1.0468665 0 54
4.9578996 -0.52006859 1.0945994 0 55
4.957305 -0.52000618 1.1426226 0 56
4.9647923 -0.52079159 1.1927793 0 57
4.9604301 -0.52033401 1.240333 0 58
4.9630718 -0.52061111 1.2898442 0 59
4.9718614 -0.52153313 1.3412987 0 60
4.947156 -0.51894158 1.3838016 0 61
4.9641867 -0.52072805 1.4381559 0 62
4.9597917 -0.52026701 1.4866923 0 63
2.4523406 -0.22679539 -0.73419511 0 0
2.5401382 -0.23491502 -0.73500144 0 1
2.6239524 -0.24266624 -0.733073 0 2
2.7474978 -0.25409189 -0.7403155 0 3
2.8352742 -0.26220956 -0.7359609 0 4
2.9327137 -0.27122089 -0.73242253 0 5
3.0745025 -0.28433368 -0.73774606 0 6
3.1940434 -0.29538894 -0.73531085 0 7
3.3465893 -0.30949658 -0.7379601 0 8
3.4819365 -0.32201365 -0.73415983 0 9
3.6571925 -0.33822155 -0.73590916 0 10
3.8597801 -0.35695708 -0.73965788 0 11
4.0218439 -0.37194493 -0.73227894 0 12
4.2578225 -0.39376852 -0.73468971 0 13
4.5155988 -0.41760796 -0.73629433 0 14
4.7806969 -0.44212458 -0.73426366 0 15
4.9758573 -0.46017322 -0.71726656 0 16
4.9797029 -0.46052888 -0.670937 0 17
4.9919076 -0.46165758 -0.62569839 0 18
4.9740143 -0.46000278 -0.57684779 0 19
4.9793773 -0.46049875 -0.53091067 0 20
4.9779019 -0.46036234 -0.48429894 0 21
4.9665823 -0.45931545 -0.43693131 0 22
4.9912724 -0.46159884 -0.39268202 0 23
4.9808741 -0.46063721 -0.34560594 0 24
4.9671812 -0.45937085 -0.2985836 0 25
4.9626942 -0.45895588 -0.25233391 0 26
4.985539 -0.4610686 -0.20734686 0 27
4.9772925 -0.46030596 -0.16096668 0 28
4.98 -0.46055636 -0.11501928 0 29
4.972014 -0.45981783 -0.068893127 0 30
4.9885225 -0.46134454 -0.023039324 0 31
4.9851985 -0.46103713 0.023023972 0 32
4.9780827 -0.46037903 0.068977214 0 33
4.983664 -0.46089521 0.1151039 0 34
4.9837132 -0.46089977 0.16117433 0 35
4.9760795 -0.46019378 0.20695344 0 36
4.9753909 -0.4601301 0.25297949 0 37
4.9771762 -0.4602952 0.29918441 0 38
4.9661155 -0.4592723 0.34458187 0 39
4.9751649 -0.4601092 0.39141479 0 40
4.9779358 -0.46036547 0.43793017 0 41
4.9737191 -0.45997551 0.48389199 0 42
4.9873962 -0.46124035 0.53176564 0 43
4.9945807 -0.46190479 0.57923287 0 44
4.9735346 -0.45995843 0.62339544 0 45
4.9741793 -0.46001804 0.67019278 0 46
4.965909 -0.45925322 0.71583259 0 47
4.9836726 -0.46089599 0.76543856 0 48
4.9714246 -0.45976329 0.81061935 0 49
4.9775767 -0.46033224 0.85888368 0 50
4.9840775 -0.46093345 0.90747809 0 51
4.9697094 -0.45960468 0.95235598 0 52
4.9642644 -0.45910111 0.99892133 0 53
4.9644141 -0.45911497 1.0467376 0 54
4.9758101 -0.4601689 1.0972214 0 55
4.9881845 -0.46131328 1.1483458 0 56
4.9679904 -0.45944569 1.1921003 0 57
4.964952 -0.45916471 1.2399582 0 58
4.9715443 -0.45977435 1.2904791 0 59
4.9743829 -0.46003687 1.3403515 0 60
4.9783177 -0.46040076 1.3908294 0 61
4.9780636 -0.46037728 1.4404272 0 62
4.990356 -0.46151409 1.49404 0 63
2.4543161 -0.19657513 -0.73400742 0 0
2.545486 -0.20387726 -0.7357679 0 1
2.6320672 -0.21081187 -0.73456037 0 2
2.7300568 -0.21866019 -0.73483598 0 3
2.8463004 -0.22797057 -0.73803955 0 4
2.957572 -0.23688272 -0.73784739 0 5
3.0606492 -0.24513854 -0.73364311 0 6
3.1976011 -0.25610754 -0.7353493 0 7
3.3463478 -0.2680212 -0.73712438 0 8
3.4888096 -0.27943146 -0.73482895 0 9
3.6434493 -0.29181713 -0.73236632 0 10
3.858109 -0.30901 -0.7385537 0 11
4.0260682 -0.32246247 -0.73227078 0 12
4.2577472 -0.3410185 -0.73389769 0 13
4.5342851 -0.36316741 -0.73855728 0 14
4.7644687 -0.38160366 -0.73099524 0 15
4.9969344 -0.40022269 -0.71954107 0 16
4.9821587 -0.39903924 -0.67055607 0 17
4.9950619 -0.40007272 -0.62542987 0 18
4.9935026 -0.39994779 -0.57849377 0 19
4.9860015 -0.39934704 -0.53105325 0 20
4.9945683 -0.40003318 -0.48540512 0 21
4.9892416 -0.39960653 -0.43845934 0 22
4.9934897 -0.39994678 -0.39243987 0 23
4.9951124 -0.40007675 -0.34622636 0 24
4.9763861 -0.39857689 -0.29881972 0 25
4.9857969 -0.39933065 -0.25323978 0 26
4.9842381 -0.39920577 -0.20707294 0 27
4.9873562 -0.39945552 -0.16112112 0 28
4.9916711 -0.39980111 -0.11516658 0 29
5.0022368 -0.40064737 -0.069238402 0 30
5.0036907 -0.40076381 -0.023084873 0 31
4.9800844 -0.39887309 0.022975964 0 32
4.9840956 -0.39919439 0.068987302 0 33
4.9865422 -0.39939034 0.11504825 0 34
5.0005188 -0.40050977 0.16154635 0 35
4.9948554 -0.40005618 0.20751405 0 36
4.9901676 -0.3996807 0.25346178 0 37
4.9912972 -0.39977118 0.2997151 0 38
4.9920616 -0.3998324 0.34601492 0 39
4.9958138 -0.40013292 0.3926225 0 40
4.9804955 -0.39890602 0.43769073 0 41
4.9848108 -0.39925164 0.48445681 0 42
4.9851894 -0.39928201 0.53096676 0 43
4.9882593 -0.39952788 0.5778864 0 44
4.9905405 -0.3997106 0.62486374 0 45
4.982892 -0.39909798 0.67065477 0 46
4.9830089 -0.39910731 0.71753579 0 47
5.0041089 -0.40079734 0.76776242 0 48
5.0090399 -0.40119228 0.81588674 0 49
4.9816003 -0.39899454 0.85866648 0 50
4.9868002 -0.39941102 0.90701103 0 51
4.9975867 -0.40027493 0.95668268 0 52
4.9829822 -0.39910519 1.0016245 0 53
4.9919295 -0.39982185 1.051423 0 54
4.9816289 -0.3989968 1.0973396 0 55
4.9803143 -0.39889151 1.1453182 0 56
4.9899211 -0.39966094 1.196093 0 57
4.9887538 -0.39956746 1.2445813 0 58
4.9932899 -0.3999308 1.2947494 0 59
4.9885678 -0.39955258 1.3427483 0 60
4.9911294 -0.39975771 1.39293 0 61
4.9920444 -0.39983103 1.442941 0 62
5.0017338 -0.40060708 1.4958586 0 63
2.448724 -0.16585322 -0.73166972 0 0
2.5426185 -0.17221273 -0.73427141 0 1
2.6364257 -0.17856634 -0.73510832 0 2
2.7293344 -0.1848591 -0.73397416 0 3
2.8403037 -0.19237509 -0.73581564 0 4
2.962877 -0.20067704 -0.73849946 0 5
3.0532498 -0.20679803 -0.73120463 0 6
3.192596 -0.21623601 -0.73353136 0 7
3.3310525 -0.22561374 -0.73308861 0 8
3.4907849 -0.23643249 -0.73457718 0 9
3.650234 -0.24723205 -0.73306358 0 10
3.8418775 -0.26021215 -0.7347784 0 11
4.0636311 -0.27523163 -0.73843145 0 12
4.2512012 -0.28793585 -0.73210371 0 13
4.5245013 -0.30644658 -0.73629421 0 14
4.7687874 -0.32299221 -0.73099321 0 15
5.0055776 -0.33903012 -0.72013092 0 16
5.0101633 -0.33934069 -0.67371267 0 17
4.9981318 -0.33852577 -0.62524575 0 18
4.9995985 -0.33862513 -0.5786739 0 19
5.0046 -0.3389639 -0.53254992 0 20
4.9950542 -0.33831736 -0.4850114 0 21
4.9972982 -0.33846933 -0.43876845 0 22
4.988173 -0.33785129 -0.39166594 0 23
4.9954662 -0.33834529 -0.34593636 0 24
5.0062151 -0.33907327 -0.30033779 0 25
5.0035415 -0.33889222 -0.25391021 0 26
5.0118074 -0.33945206 -0.20802918 0 27
5.002974 -0.33885378 -0.16147885 0 28
5.0123458 -0.33948854 -0.11553854 0 29
5.0104928 -0.33936301 -0.069289677 0 30
5.0150075 -0.33966881 -0.023116067 0 31
4.9994578 -0.33861563 0.023044392 0 32
5.003788 -0.33890891 0.069196962 0 33
5.0041037 -0.33893028 0.11534856 0 34
5.0092764 -0.33928064 0.16168226 0 35
5.020987 -0.34007379 0.20841022 0 36
4.9963369 -0.33840424 0.2535446 0 37
5.0027347 -0.33883756 0.300129 0 38
5.0022335 -0.33880362 0.346405 0 39
5.0109034 -0.33939081 0.39345068 0 40
5.0065618 -0.33909678 0.43958178 0 41
5.0064464 -0.33908895 0.48611751 0 42
4.9952135 -0.33832815 0.53155112 0 43
5.0087433 -0.33924451 0.5797323 0 44
5.0165415 -0.3397727 0.62754875 0 45
5.0107784 -0.33938235 0.6737954 0 46
5.0054355 -0.33902046 0.72011042 0 47
5.0161309 -0.33974487 0.76890773 0 48
5.0205178 -0.34004202 0.81701344 0 49
5.0079541 -0.33919108 0.86242491 0 50
5.004293 -0.33894312 0.90936589 0 51
5.0100403 -0.33933234 0.95819539 0 52
5.0086436 -0.33923775 1.0058682 0 53
4.9962173 -0.33839613 1.0513701 0 54
5.0107474 -0.33938026 1.1027511 0 55
4.9963279 -0.33840364 1.1479571 0 56
5.0184178 -0.33989978 1.201831 0 57
5.003674 -0.33890119 1.2471697 0 58
4.9968386 -0.33843821 1.2944925 0 59
5.0091987 -0.33927536 1.3470767 0 60
5.0072098 -0.33914065 1.3961484 0 61
5.0001779 -0.33866438 1.443979 0 62
5.0078483 -0.3391839 1.4963266 0 63
2.4669797 -0.13664074 -0.73656672 0 0
2.538131 -0.14058167 -0.73242092 0 1
2.6367028 -0.14604133 -0.73462933 0 2
2.7284286 -0.15112184 -0.73317546 0 3
2.8136113 -0.15583992 -0.72834909 0 4
2.9485281 -0.16331269 -0.73436689 0 5
3.0664368 -0.16984339 -0.73380709 0 6
3.1866274 -0.1765005 -0.73160607 0 7
3.3448625 -0.1852648 -0.73557097 0 8
3.4967759 -0.19367895 -0.73528111 0 9
3.659884 -0.20271316 -0.73444545 0 10
3.8534749 -0.21343575 -0.73643887 0 11
4.0574279 -0.22473226 -0.73674637 0 12
4.2496939 -0.23538147 -0.7312904 0 13
4.5163989 -0.25015369 -0.73441958 0 14
4.7666812 -0.2640163 -0.7301175 0 15
5.0247331 -0.27830926 -0.72233975 0 16
5.0239382 -0.27826521 -0.67505383 0 17
5.0247822 -0.27831197 -0.62810403 0 18
5.0292253 -0.27855808 -0.5816626 0 19
5.0216265 -0.27813718 -0.53395748 0 20
5.0153012 -0.27778685 -0.48660889 0 21
5.0288644 -0.27853808 -0.44120592 0 22
5.0192089 -0.27800328 -0.39380464 0 23
5.020196 -0.27805793 -0.34738585 0 24
5.0077229 -0.27736709 -0.30020094 0 25
5.0173421 -0.27789986 -0.2544179 0 26
5.0218744 -0.27815092 -0.20828934 0 27
5.0239286 -0.2782647 -0.1620325 0 28
5.0281916 -0.2785008 -0.1158161 0 29
5.0324059 -0.27873421 -0.069540054 0 30
5.0250349 -0.27832597 -0.023144763 0 31
5.0139694 -0.27771306 0.023093795 0 32
5.0209789 -0.2781013 0.069382153 0 33
5.0072708 -0.27734205 0.11533423 0 34
5.0128779 -0.27765262 0.16167608 0 35
5.0276833 -0.27847266 0.20853026 0 36
5.0176692 -0.27791798 0.25443447 0 37
5.0209517 -0.27809981 0.30099401 0 38
5.0418968 -0.27925989 0.3488875 0 39
5.0246396 -0.27830407 0.39423075 0 40
5.0164952 -0.27785298 0.4401207 0 41
5.0251403 -0.27833179 0.48756349 0 42
5.0192542 -0.27800578 0.53370517 0 43
5.0150967 -0.27777553 0.58002853 0 44
5.0205741 -0.27807888 0.62757796 0 45
5.0284138 -0.2785131 0.67565525 0 46
5.0318899 -0.27870563 0.72336859 0 47
5.0136247 -0.27769399 0.76794213 0 48
5.0110931 -0.27755377 0.81486273 0 49
5.0228419 -0.2782045 0.86433429 0 50
5.0224152 -0.27818087 0.91196847 0 51
5.0251641 -0.27833313 0.96036083 0 52
5.0197506 -0.27803326 1.007336 0 53
5.0186033 -0.27796975 1.0552819 0 54
5.0218868 -0.2781516 1.1043665 0 55
5.026474 -0.27840567 1.1540096 0 56
5.0305185 -0.27862969 1.2038175 0 57
5.0208693 -0.27809525 1.2505088 0 58
5.0187831 -0.27797967 1.2991937 0 59
5.0229931 -0.27821288 1.3497642 0 60
5.0158653 -0.27781808 1.3975037 0 61
5.0314717 -0.27868247 1.4519167 0 62
5.0220413 -0.27816015 1.4994321 0 63
2.4787188 -0.10673875 -0.7396239 0 0
2.5393617 -0.10935017 -0.73233265 0 1
2.6337616 -0.11341522 -0.73336589 0 2
2.7230501 -0.11726017 -0.73128742 0 3
2.8311613 -0.12191565 -0.73244876 0 4
2.9403739 -0.12661858 -0.73189288 0 5
3.079983 -0.13263044 -0.73660278 0 6
3.1996887 -0.13778521 -0.73416024 0 7
3.3414783 -0.14389096 -0.73438209 0 8
3.5002682 -0.15072879 -0.73557013 0 9
3.6535292 -0.15732852 -0.73272657 0 10
3.8472366 -0.16566996 -0.73480183 0 11
4.0538483 -0.17456707 -0.73565096 0 12
4.2517033 -0.18308713 -0.73119348 0 13
4.5358834 -0.19532451 -0.73714167 0 14
4.7615809 -0.20504351 -0.72889501 0 15
5.0195479 -0.21615212 -0.72115779 0 16
5.0359735 -0.21685943 -0.6762616 0 17
5.0408244 -0.21706831 -0.62972802 0 18
5.0384612 -0.21696655 -0.58237821 0 19
5.0500207 -0.21746434 -0.53665179 0 20
5.0407386 -0.21706463 -0.48878101 0 21
5.0363493 -0.21687561 -0.44159526 0 22
5.0373211 -0.21691747 -0.3949866 0 23
5.0359921 -0.21686023 -0.34826806 0 24
5.0223613 -0.21627326 -0.30089632 0 25
5.0517545 -0.217539 -0.25600788 0 26
5.0279016 -0.21651183 -0.20841314 0 27
5.0420151 -0.21711959 -0.16251743 0 28
5.0335665 -0.21675579 -0.11586976 0 29
5.0401034 -0.21703726 -0.069604285 0 30
5.0621624 -0.21798718 -0.023301659 0 31
5.039104 -0.21699423 0.023195518 0 32
5.0386882 -0.21697633 0.069584735 0 33
5.0391273 -0.21699525 0.11599776 0 34
5.0376983 -0.21693371 0.1623783 0 35
5.0354853 -0.2168384 0.20872749 0 36
5.0355468 -0.21684106 0.2551865 0 37
5.0187602 -0.21611819 0.30068055 0 38
5.0279899 -0.21651565 0.34771466 0 39
5.0323534 -0.21670353 0.39459705 0 40
5.0423608 -0.21713448 0.44212234 0 41
5.0440483 -0.21720715 0.48910192 0 42
5.0421424 -0.21712507 0.53581452 0 43
5.0366764 -0.21688969 0.58217186 0 44
5.0464659 -0.21731125 0.63043284 0 45
5.0308757 -0.21663991 0.67557698 0 46
5.0405474 -0.21705639 0.72417474 0 47
5.0254931 -0.21640812 0.76929426 0 48
5.0345764 -0.21679926 0.81818599 0 49
5.0476594 -0.21736264 0.8680793 0 50
5.0364866 -0.21688153 0.91397017 0 51
5.0478301 -0.21736999 0.96410877 0 52
5.0366416 -0.21688819 1.0101141 0 53
5.0298958 -0.21659772 1.0570165 0 54
5.0359473 -0.2168583 1.1067884 0 55
5.0392661 -0.21700121 1.1562465 0 56
5.028213 -0.21652524 1.2025377 0 57
5.0389032 -0.21698558 1.254241 0 58
5.0462184 -0.21730059 1.3055054 0 59
5.0234737 -0.21632117 1.3490766 0 60
5.032721 -0.21671937 1.4013516 0 61
5.036499 -0.21688206 1.4524882 0 62
5.0478268 -0.21736985 1.506219 0 63
2.455904 -0.075517364 -0.73248374 0 0
2.5508235 -0.078436077 -0.73530442 0 1
2.6350753 -0.081026763 -0.73339885 0 2
2.7368162 -0.084155217 -0.73465091 0 3
2.8473902 -0.087555289 -0.73631316 0 4
2.9602623 -0.091026038 -0.73650908 0 5
3.0713732 -0.094442621 -0.73421043 0 6
3.1999106 -0.098395057 -0.73387814 0 7
3.3323319 -0.10246692 -0.73203969 0 8
3.5099688 -0.10792913 -0.73727405 0 9
3.6569657 -0.11244918 -0.73308307 0 10
3.8436382 -0.11818924 -0.73378146 0 11
4.0578489 -0.12477607 -0.73604298 0 12
4.2537937 -0.13080125 -0.73122114 0 13
4.5177703 -0.13891834 -0.73386502 0 14
4.8169112 -0.14811672 -0.73703039 0 15
5.0570998 -0.15550235 -0.72622323 0 16
5.0433493 -0.15507953 -0.67694479 0 17
5.0645723 -0.15573213 -0.63240772 0 18
5.0412602 -0.15501529 -0.58243734 0 19
5.0530672 -0.15537836 -0.5367319 0 20
5.0575781 -0.15551706 -0.49019137 0 21
5.0406065 -0.15499519 -0.44176799 0 22
5.0466061 -0.15517968 -0.39553511 0 23
5.0663571 -0.15578701 -0.35020903 0 24
5.0482249 -0.15522945 -0.30230862 0 25
5.0483217 -0.15523243 -0.25571784 0 26
5.0561843 -0.1554742 -0.20949042 0 27
5.0491428 -0.15525769 -0.16267335 0 28
5.0440207 -0.15510018 -0.11605772 0 29
5.0567303 -0.15549099 -0.069802225 0 30
5.0286961 -0.15462896 -0.023137109 0 31
5.0540905 -0.15540981 0.023253949 0 32
5.0532999 -0.15538549 0.069754869 0 33
5.0602679 -0.15559976 0.11643156 0 34
5.0565753 -0.15548623 0.16291282 0 35
5.0539203 -0.15540458 0.2093966 0 36
5.0641732 -0.15571985 0.25652078 0 37
5.0498762 -0.15528023 0.30240753 0 38
5.0635338 -0.15570019 0.35001388 0 39
5.0570221 -0.15549996 0.39635149 0 40
5.0465207 -0.15517704 0.44228634 0 41
5.0648313 -0.15574008 0.49089435 0 42
5.0475416 -0.15520844 0.53614497 0 43
5.0590935 -0.15556365 0.58449769 0 44
5.0568538 -0.15549479 0.63144398 0 45
5.0657201 -0.15576743 0.67994756 0 46
5.0629258 -0.15568149 0.72705984 0 47
5.0533319 -0.15538649 0.7732048 0 48
5.0519938 -0.15534534 0.82064408 0 49
5.0637512 -0.15570688 0.87045169 0 50
5.0480504 -0.15522408 0.91565305 0 51
5.0468249 -0.1551864 0.96347946 0 52
5.0637794 -0.15570773 1.0150958 0 53
5.0551534 -0.15544249 1.0618422 0 54
5.0552855 -0.15544656 1.1105344 0 55
5.0496931 -0.1552746 1.1581132 0 56
5.0603418 -0.15560204 1.2096725 0 57
5.0588703 -0.15555678 1.2586397 0 58
5.0596719 -0.15558144 1.3083922 0 59
5.0624151 -0.15566579 1.3589176 0 60
5.0525646 -0.1553629 1.4062387 0 61
5.0531855 -0.15538198 1.4566392 0 62
5.0653911 -0.15575729 1.5107743 0 63
2.4598894 -0.0453748 -0.73345059 0 0
2.5574269 -0.047173962 -0.73698503 0 1
2.6416633 -0.048727773 -0.73501009 0 2
2.7161515 -0.050101772 -0.72888333 0 3
2.8284059 -0.052172404 -0.73118281 0 4
2.9511373 -0.054436289 -0.73401672 0 5
3.0704854 -0.056637768 -0.73377621 0 6
3.2010045 -0.059045307 -0.73390692 0 7
3.3561587 -0.061907262 -0.73705095 0 8
3.5015182 -0.064588547 -0.73527658 0 9
3.69312 -0.068122804 -0.74010676 0 10
3.8363845 -0.070765443 -0.73217523 0 11
4.0600724 -0.07489156 -0.73622352 0 12
4.2626972 -0.078629158 -0.73253006 0 13
4.5371456 -0.083691597 -0.73678946 0 14
4.8292699 -0.08908008 -0.73869795 0 15
5.0598588 -0.09333349 -0.72639972 0 16
5.0691915 -0.093505636 -0.68020773 0 17
5.0587654 -0.093313321 -0.63149166 0 18
5.0584908 -0.093308255 -0.58425134 0 19
5.0646682 -0.093422204 -0.53780144 0 20
5.0566978 -0.093275182 -0.48995784 0 21
5.0703478 -0.093526967 -0.44424021 0 22
5.0756035 -0.093623914 -0.39768752 0 23
5.0736408 -0.093587711 -0.35060644 0 24
5.0736966 -0.093588747 -0.30374211 0 25
5.0601635 -0.093339108 -0.25624016 0 26
5.0629959 -0.093391359 -0.2097092 0 27
5.0655994 -0.093439385 -0.1631542 0 28
5.0782928 -0.093673527 -0.11681096 0 29
5.0711904 -0.093542509 -0.069980659 0 30
5.0691857 -0.093505532 -0.02331635 0 31
5.0635223 -0.093401067 0.023290299 0 32
5.0672979 -0.093470708 0.06992694 0 33
5.0696554 -0.093514197 0.11661229 0 34
5.0758142 -0.093627803 0.16348319 0 35
5.0721765 -0.093560696 0.21008945 0 36
5.0601597 -0.093339041 0.25623998 0 37
5.0694656 -0.093510702 0.30348882 0 38
5.064435 -0.093417898 0.34997028 0 39
5.0651221 -0.093430571 0.39686629 0 40
5.0796542 -0.093698636 0.4450556 0 41
5.0729842 -0.093575604 0.4915359 0 42
5.0597701 -0.093331851 0.53728133 0 43
5.0804605 -0.093713507 0.58678883 0 44
5.0696168 -0.093513481 0.63284624 0 45
5.0669708 -0.09346468 0.67990977 0 46
5.0797267 -0.093699969 0.72925198 0 47
5.0762858 -0.093636505 0.77648216 0 48
5.0602484 -0.093340673 0.82173634 0 49
5.0775585 -0.093659975 0.87256116 0 50
5.0755472 -0.093622878 0.92036229 0 51
5.073586 -0.093586706 0.96829551 0 52
5.0672612 -0.09347003 1.0154867 0 53
5.0686274 -0.093495235 1.0643506 0 54
5.069644 -0.093513988 1.1133519 0 55
5.0727434 -0.093571156 1.163048 0 56
5.0697584 -0.093516104 1.2115571 0 57
5.077198 -0.093653321 1.2628176 0 58
5.0624723 -0.093381695 1.3087205 0 59
5.0783281 -0.093674168 1.362777 0 60
5.0780373 -0.093668811 1.4129009 0 61
5.0775118 -0.093659118 1.463209 0 62
5.0707879 -0.093535081 1.5119265 0 63
2.4716241 -0.015195552 -0.73683798 0 0
2.5457153 -0.015651066 -0.73349911 0 1
2.6608636 -0.016358998 -0.7402404 0 2
2.7384057 -0.016835727 -0.73474419 0 3
2.8481216 -0.01751026 -0.73616827 0 4
2.9626954 -0.018214662 -0.73678011 0 5
3.0866628 -0.018976811 -0.73753071 0 6
3.1945598 -0.019640163 -0.73231864 0 7
3.3303914 -0.020475257 -0.73128158 0 8
3.5022326 -0.021531736 -0.73531538 0 9
3.679183 -0.022619629 -0.73720229 0 10
3.8489094 -0.023663107 -0.73445451 0 11
4.0580592 -0.024948962 -0.73574728 0 12
4.2586794 -0.026182374 -0.73172891 0 13
4.5262733 -0.027827542 -0.73491275 0 14
4.8410845 -0.029763004 -0.74039316 0 15
5.0817351 -0.031242523 -0.72942996 0 16
5.0962062 -0.031331494 -0.68372935 0 17
5.0908399 -0.0312985 -0.63539946 0 18
5.089056 -0.031287532 -0.58769274 0 19
5.1071563 -0.031398814 -0.54223114 0 20
5.0687695 -0.031162811 -0.49105325 0 21
5.0899477 -0.031293012 -0.44589004 0 22
5.0891733 -0.031288255 -0.39869049 0 23
5.0870857 -0.031275418 -0.35148239 0 24
5.0690942 -0.031164806 -0.30342069 0 25
5.1012497 -0.0313625 -0.25828168 0 26
5.0826964 -0.031248434 -0.21049336 0 27
5.0805111 -0.031234996 -0.16360973 0 28
5.0780082 -0.031219609 -0.11678675 0 29
5.0840201 -0.031256571 -0.070147097 0 30
5.0964389 -0.031332921 -0.023438161 0 31
5.0813646 -0.031240245 0.023368834 0 32
5.087698 -0.031279184 0.070197843 0 33
5.088099 -0.031281646 0.11701883 0 34
5.0823812 -0.031246495 0.16366996 0 35
5.0903158 -0.031295277 0.2108089 0 36
5.0747499 -0.031199578 0.25693995 0 37
5.0943227 -0.031319913 0.30493078 0 38
5.0824671 -0.031247022 0.35116327 0 39
5.0806651 -0.031235944 0.39802393 0 40
5.0838842 -0.031255737 0.44535887 0 41
5.0801759 -0.031232938 0.49215829 0 42
5.1076908 -0.031402096 0.54228789 0 43
5.0830574 -0.031250656 0.58700001 0 44
5.0957093 -0.031328436 0.63600719 0 45
5.0871353 -0.031275723 0.68251228 0 46
5.0841517 -0.03125738 0.72977686 0 47
5.0925727 -0.031309154 0.77885562 0 48
5.0923376 -0.031307708 0.8268224 0 49
5.0793738 -0.031228006 0.87274116 0 50
5.0781384 -0.031220412 0.92069292 0 51
5.0857882 -0.031267442 0.97047752 0 52
5.0704379 -0.031173069 1.0159698 0 53
5.0819759 -0.031244002 1.0669923 0 54
5.0908175 -0.031298362 1.1178329 0 55
5.0759034 -0.031206669 1.1635965 0 56
5.0879574 -0.031280778 1.2157224 0 57
5.1026564 -0.031371146 1.2689579 0 58
5.1054883 -0.031388558 1.3196411 0 59
5.0780382 -0.031219793 1.3624932 0 60
5.0853009 -0.031264447 1.414708 0 61
5.096406 -0.03133272 1.4684317 0 62
5.0842748 -0.03125814 1.5157187 0 63
2.4691098 0.015180095 -0.73608845 0 0
2.5505335 0.015680688 -0.73488736 0 1
2.6426296 0.016246894 -0.73516774 0 2
2.7318685 0.016795535 -0.73299021 0 3
2.8415611 0.017469926 -0.73447251 0 4
2.9576213 0.018183464 -0.73551822 0 5
3.0841146 0.018961146 -0.73692191 0 6
3.1929989 0.019630568 -0.73196083 0 7
3.3505986 0.02059949 -0.73571867 0 8
3.4921358 0.021469662 -0.73319548 0 9
3.6794205 0.022621088 -0.73724985 0 10
3.8375363 0.023593185 -0.73228431 0 11
4.0556312 0.024934031 -0.73530698 0 12
4.2705684 0.026255468 -0.73377174 0 13
4.5358148 0.027886204 -0.736462 0 14
4.8256464 0.029668089 -0.73803204 0 15
5.0900388 0.031293575 -0.73062187 0 16
5.1039114 0.031378862 -0.68476307 0 17
5.1159101 0.03145263 -0.63852847 0 18
5.0916886 0.031303715 -0.58799672 0 19
5.1159549 0.031452905 -0.54316527 0 20
5.1136599 0.031438794 -0.49540213 0 21
5.1105366 0.031419598 -0.44769368 0 22
5.0890284 0.031287365 -0.39867914 0 23
5.0891581 0.031288158 -0.35162556 0 24
5.1168675 0.031458516 -0.30628026 0 25
5.0992742 0.031350356 -0.25818166 0 26
5.1029606 0.031373017 -0.21133257 0 27
5.0991683 0.0313497 -0.16421054 0 28
5.0974102 0.031338897 -0.11723298 0 29
5.09724 0.031337846 -0.070329495 0 30
5.1028428 0.031372294 -0.023467612 0 31
5.1044283 0.031382043 0.023474904 0 32
5.0964561 0.031333029 0.070318684 0 33
5.1070142 0.031397939 0.11745385 0 34
5.1052885 0.031387329 0.16440766 0 35
5.1017351 0.031365484 0.21128184 0 36
5.1026654 0.031371202 0.25835335 0 37
5.0940218 0.031318061 0.30491278 0 38
5.1052647 0.031387184 0.35273844 0 39
5.0989776 0.03134853 0.39945859 0 40
5.1156559 0.031451069 0.44814214 0 41
5.0879803 0.03128092 0.49291438 0 42
5.094728 0.031322401 0.54091161 0 43
5.0873327 0.031276938 0.58749372 0 44
5.1169271 0.031458884 0.63865542 0 45
5.1138115 0.031439729 0.6860913 0 46
5.0955043 0.031327177 0.73140639 0 47
5.0958099 0.031329054 0.77935076 0 48
5.0973001 0.031338219 0.82762814 0 49
5.0968041 0.031335168 0.87573606 0 50
5.0910006 0.031299487 0.92302489 0 51
5.0951166 0.031324793 0.97225755 0 52
5.0948696 0.031323276 1.0208651 0 53
5.1032372 0.031374715 1.0714562 0 54
5.0972586 0.031337962 1.1192472 0 55
5.1051984 0.031386774 1.170312 0 56
5.1060605 0.031392075 1.220048 0 57
5.1007528 0.031359445 1.2684845 0 58
5.09373 0.031316269 1.316602 0 59
5.0978522 0.031341612 1.3678095 0 60
5.1085954 0.031407658 1.4211884 0 61
5.0983772 0.031344838 1.4689997 0 62
5.0935345 0.031315066 1.5184792 0 63
2.4645114 0.045460053 -0.73482865 0 0
2.551971 0.04707332 -0.73541272 0 1
2.6420157 0.048734274 -0.73510808 0 2
2.7266102 0.050294694 -0.73168999 0 3
2.8366458 0.052324396 -0.73331296 0 4
2.9476178 0.054371368 -0.73314136 0 5
3.0840428 0.05688785 -0.7370162 0 6
3.1949697 0.058933988 -0.73252332 0 7
3.3221183 0.061279356 -0.72957528 0 8
3.4999039 0.064558767 -0.73493761 0 9
3.6773038 0.067831062 -0.73693717 0 10
3.8438344 0.070902862 -0.73359704 0 11
4.038126 0.07448674 -0.73224396 0 12
4.2550068 0.078487299 -0.7312085 0 13
4.5281372 0.083525419 -0.73532653 0 14
4.8122044 0.088765286 -0.7360875 0 15
5.1187563 0.094419904 -0.73485512 0 16
5.1207614 0.094456896 -0.68712765 0 17
5.1221752 0.094482973 -0.63940716 0 18
5.1244493 0.094524913 -0.59186947 0 19
5.1183033 0.094411545 -0.54349679 0 20
5.1117401 0.094290487 -0.49529105 0 21
5.1152339 0.094354928 -0.44817293 0 22
5.1265264 0.094563231 -0.40167746 0 23
5.1167631 0.094383143 -0.35358638 0 24
5.1082644 0.094226375 -0.30581152 0 25
5.1109767 0.094276406 -0.25881329 0 26
5.1063719 0.094191469 -0.21150583 0 27
5.1193304 0.094430499 -0.16488478 0 28
5.1036711 0.094141647 -0.11739472 0 29
5.1134934 0.09432283 -0.070564426 0 30
5.1149058 0.094348878 -0.023526644 0 31
5.1113653 0.094283573 0.023510361 0 32
5.107409 0.094210602 0.070480466 0 33
5.1255445 0.094545126 0.11789785 0 34
5.1113315 0.094282947 0.16462713 0 35
5.1147757 0.094346479 0.21185392 0 36
5.1259933 0.094553396 0.2595737 0 37
5.0967703 0.094014354 0.30512342 0 38
5.1195378 0.094434321 0.35377809 0 39
5.1183324 0.094412088 0.40103546 0 40
5.1159024 0.094367266 0.44823149 0 41
5.1145124 0.094341628 0.49555969 0 42
5.1134434 0.094321907 0.54298079 0 43
5.1210303 0.094461851 0.59147459 0 44
5.1146445 0.094344057 0.63846707 0 45
5.1233039 0.09450379 0.68746877 0 46
5.1079202 0.094220027 0.73329949 0 47
5.1250744 0.094536446 0.7839449 0 48
5.130928 0.094644427 0.8332141 0 49
5.1148667 0.094348162 0.87897247 0 50
5.1229377 0.094497032 0.92895567 0 51
5.1174593 0.094395988 0.97666878 0 52
5.1175976 0.094398536 1.0255742 0 53
5.1086531 0.094233543 1.0727555 0 54
5.1120567 0.094296321 1.1226662 0 55
5.1103888 0.094265565 1.1716791 0 56
5.1171193 0.094389707 1.2228752 0 57
5.1050372 0.094166845 1.2697419 0 58
5.1222897 0.094485082 1.3241842 0 59
5.1086383 0.094233274 1.3709109 0 60
5.1233082 0.094503872 1.4254969 0 61
5.1219544 0.094478898 1.4760162 0 62
5.1226525 0.094491772 1.5273907 0 63
2.4658422 0.075822957 -0.73544788 0 0
2.556386 0.078607112 -0.73690784 0 1
2.6395712 0.081165008 -0.73465014 0 2
2.7314801 0.08399114 -0.73321855 0 3
2.8335876 0.087130882 -0.73274398 0 4
2.9638052 0.09113498 -0.73739052 0 5
3.0764577 0.094598964 -0.73542589 0 6
3.184211 0.097912304 -0.73027754 0 7
3.3562539 0.1032025 -0.73729479 0 8
3.4987106 0.10758296 -0.73490924 0 9
3.6478734 0.11216961 -0.73126042 0 10
3.855314 0.11854826 -0.73601049 0 11
4.0626631 0.1249241 -0.73691612 0 12
4.2562208 0.13087587 -0.73163831 0 13
4.5208435 0.13901283 -0.73436421 0 14
4.8224478 0.14828695 -0.73787749 0 15
5.0951214 0.15667149 -0.73168331 0 16
5.1363559 0.15793942 -0.68942863 0 17
5.1359186 0.15792598 -0.64131671 0 18
5.1396594 0.158041 -0.59380579 0 19
5.1423364 0.15812331 -0.54621398 0 20
5.1230464 0.15753016 -0.4965367 0 21
5.1259451 0.1576193 -0.44924724 0 22
5.1305289 0.15776025 -0.40211269 0 23
5.1259503 0.15761946 -0.35432836 0 24
5.1450644 0.15820721 -0.30810779 0 25
5.1330428 0.15783754 -0.26000932 0 26
5.1327929 0.15782987 -0.2126645 0 27
5.1193376 0.15741612 -0.16493489 0 28
5.1437917 0.15816806 -0.11835335 0 29
5.1345601 0.1578842 -0.070876569 0 30
5.1405206 0.15806748 -0.023651617 0 31
5.1465187 0.15825193 0.023679212 0 32
5.145895 0.15823273 0.071033031 0 33
5.1382065 0.15799633 0.11822484 0 34
5.1377983 0.15798377 0.16552964 0 35
5.130455 0.15775797 0.21256763 0 36
5.1319299 0.15780331 0.25995293 0 37
5.1365867 0.15794651 0.30760008 0 38
5.130497 0.15775926 0.35464266 0 39
5.1394348 0.15803409 0.40281069 0 40
5.1211963 0.15747327 0.44883102 0 41
5.1481342 0.15830159 0.49896824 0 42
5.1314058 0.1577872 0.54505295 0 43
5.1250162 0.15759073 0.59211397 0 44
5.1208377 0.15746225 0.63943356 0 45
5.1275196 0.15766771 0.68824255 0 46
5.1274052 0.15766419 0.73631936 0 47
5.1398811 0.15804783 0.78644764 0 48
5.1424069 0.15812548 0.83533072 0 49
5.1309018 0.15777171 0.88199472 0 50
5.128108 0.1576858 0.93017453 0 51
5.1358247 0.15792309 0.9804703 0 52
5.1381526 0.15799467 1.030005 0 53
5.1334682 0.15785062 1.0782925 0 54
5.1245365 0.15757598 1.1257474 0 55
5.1277256 0.15767404 1.1760095 0 56
5.1388049 0.15801473 1.2284291 0 57
5.1260662 0.15762302 1.2753581 0 58
5.1492128 0.15833476 1.3315468 0 59
5.1346607 0.15788729 1.3783108 0 60
5.1396589 0.15804099 1.4304789 0 61
5.1310172 0.15777527 1.4790752 0 62
5.1282377 0.15768979 1.5295185 0 63
2.4747019 0.10656578 -0.73842531 0 0
2.5435712 0.10953143 -0.73354661 0 1
2.6323059 0.11335253 -0.73296052 0 2
2.7320659 0.1176484 -0.73370862 0 3
2.8310943 0.12191277 -0.73243141 0 4
2.9603474 0.12747869 -0.73686457 0 5
3.090714 0.13309254 -0.73916918 0 6
3.2011526 0.13784824 -0.73449618 0 7
3.3491523 0.14422143 -0.73606867 0 8
3.5084484 0.15108104 -0.73728913 0 9
3.662322 0.15770715 -0.73448998 0 10
3.8505697 0.16581349 -0.73543841 0 11
4.0603471 0.17484695 -0.73683035 0 12
4.2700562 0.18387745 -0.73434979 0 13
4.5424862 0.19560885 -0.73821479 0 14
4.7691884 0.20537111 -0.73005956 0 15
5.1088347 0.21999699 -0.7339856 0 16
5.1539259 0.2219387 -0.69210094 0 17
5.1411014 0.22138645 -0.64225519 0 18
5.1491475 0.22173293 -0.59517199 0 19
5.150948 0.22181046 -0.54737699 0 20
5.145288 0.22156672 -0.49891874 0 21
5.1389775 0.22129498 -0.45059383 0 22
5.144362 0.22152686 -0.40337986 0 23
5.1431146 0.22147314 -0.3556762 0 24
5.1517859 0.22184655 -0.30865031 0 25
5.1503453 0.22178452 -0.26100415 0 26
5.1261415 0.22074226 -0.21248531 0 27
5.1442537 0.22152218 -0.16581285 0 28
5.1431971 0.2214767 -0.11839338 0 29
5.147953 0.22168151 -0.071093701 0 30
5.1339326 0.22107776 -0.023632025 0 31
5.15307 0.22190185 0.023720117 0 32
5.1580343 0.22211562 0.071232922 0 33
5.1609588 0.22224157 0.11880225 0 34
5.1454835 0.22157516 0.16585249 0 35
5.1507831 0.22180337 0.21350673 0 36
5.148334 0.22169791 0.26090223 0 37
5.1382971 0.22126569 0.30784217 0 38
5.1698751 0.22262551 0.35752687 0 39
5.1474786 0.22166108 0.40362427 0 40
5.1526723 0.22188473 0.45179462 0 41
5.1471157 0.22164543 0.49909598 0 42
5.1569171 0.22206752 0.54801136 0 43
5.1574383 0.22208995 0.59613031 0 44
5.143404 0.22148561 0.6425429 0 45
5.1454382 0.2215732 0.69096118 0 46
5.1544261 0.22196023 0.74053568 0 47
5.1552496 0.22199571 0.78915715 0 48
5.1563292 0.22204219 0.8379724 0 49
5.1669059 0.22249764 0.88858688 0 50
5.1468921 0.22163582 0.9340055 0 51
5.1500692 0.22177263 0.9836359 0 52
5.1548982 0.22198057 1.0338308 0 53
5.1450524 0.2215566 1.0812162 0 54
5.1366234 0.22119363 1.1289148 0 55
5.1502104 0.22177869 1.1817024 0 56
5.1487288 0.22171491 1.2313601 0 57
5.1404052 0.22135648 1.279506 0 58
5.143209 0.22147721 1.3305979 0 59
5.1488414 0.22171974 1.3827446 0 60
5.1534591 0.2219186 1.4349707 0 61
5.1505632 0.2217939 1.4853834 0 62
5.1304331 0.22092706 1.5308679 0 63
2.4566472 0.13606845 -0.73348176 0 0
2.5530231 0.14140651 -0.7367183 0 1
2.6200659 0.14511986 -0.72999406 0 2
2.7436986 0.15196761 -0.73727876 0 3
2.8435788 0.15749976 -0.73610669 0 4
2.9383831 0.16275077 -0.73184013 0 5
3.0874333 0.17100635 -0.73883164 0 6
3.2021308 0.17735919 -0.73516542 0 7
3.3462932 0.18534404 -0.73588556 0 8
3.4994946 0.19382954 -0.73585278 0 9
3.6492846 0.20212609 -0.73231846 0 10
3.8491383 0.21319555 -0.73561007 0 11
4.061419 0.22495334 -0.7374711 0 12
4.2435474 0.23504102 -0.73023266 0 13
4.5307174 0.25094676 -0.73674792 0 14
4.7536297 0.26329342 -0.72811842 0 15
5.1082196 0.28293338 -0.7343415 0 16
5.1537504 0.28545526 -0.69249642 0 17
5.1630406 0.28596979 -0.64538646 0 18
5.1596766 0.28578347 -0.59675014 0 19
5.1566095 0.2856136 -0.54831046 0 20
5.176208 0.28669912 -0.50222081 0 21
5.1583471 0.28570983 -0.45256603 0 22
5.1616149 0.28589085 -0.40497777 0 23
5.1544209 0.28549236 -0.3566739 0 24
5.1675959 0.2862221 -0.30978495 0 25
5.1624084 0.28593478 -0.26177385 0 26
5.1627722 0.28595492 -0.21413326 0 27
5.1751471 0.28664035 -0.16690961 0 28
5.168921 0.2862955 -0.11905757 0 29
5.1766691 0.28672466 -0.071533553 0 30
5.1536465 0.28544948 -0.023737133 0 31
5.1661282 0.2861408 0.023794621 0 32
5.165339 0.28609711 0.071376987 0 33
5.1556773 0.28556198 0.11875252 0 34
5.1713843 0.28643197 0.16678827 0 35
5.1679707 0.28624287 0.21434888 0 36
5.1484318 0.28516063 0.26106516 0 37
5.1760597 0.28669089 0.31029233 0 38
5.1685586 0.28627545 0.35765222 0 39
5.1696982 0.28633857 0.40561196 0 40
5.1618023 0.28590122 0.45286918 0 41
5.1555567 0.28555527 0.50021714 0 42
5.1719351 0.28646246 0.54993999 0 43
5.1559176 0.2855753 0.59631538 0 44
5.1631575 0.28597629 0.64540112 0 45
5.1631727 0.28597713 0.69376242 0 46
5.1545248 0.28549811 0.74099821 0 47
5.1786957 0.28683689 0.79322624 0 48
