# .PCD v0.7 - Point Cloud Data file format
VERSION 0.7
FIELDS x y z intensity ring
SIZE 4 4 4 4 2
TYPE F F F F U
COUNT 1 1 1 1 1
WIDTH 1285
HEIGHT 1
VIEWPOINT 0 0 0 1 0 0 0
POINTS 1285
DATA ascii
0.78054208 2.4327507 -0.29503873 0 19
0.78130698 2.4351346 -0.27151677 0 20
0.78161019 2.4360797 -0.24784827 0 21
0.77805042 2.4249847 -0.22309603 0 22
0.77770323 2.4239028 -0.19942158 0 23
0.77846766 2.4262853 -0.17605352 0 24
0.78113192 2.4345891 -0.15304138 0 25
0.77619177 2.4191918 -0.12863398 0 26
0.77757865 2.4235144 -0.10540427 0 27
0.77966976 2.4300318 -0.082183011 0 28
0.77751982 2.4233313 -0.058530375 0 29
0.77700466 2.4217255 -0.035090998 0 30
0.77816981 2.4253569 -0.011713878 0 31
0.77928191 2.428823 0.011730619 0 32
0.77707887 2.4219565 0.035094347 0 33
0.78191328 2.4370244 0.058861107 0 34
0.77897102 2.4278541 0.082109362 0 35
0.78166693 2.4362566 0.10595845 0 36
0.78232646 2.4383121 0.12965064 0 37
0.78059727 2.4329226 0.15293662 0 38
0.77897018 2.4278514 0.17616718 0 39
0.78184336 2.4368064 0.2004832 0 40
0.77904177 2.4280746 0.22338028 0 41
0.77716213 2.4222164 0.2464378 0 42
0.77774101 2.4240205 0.27027753 0 43
0.78013515 2.4314826 0.29488492 0 44
0.78064615 2.433075 0.31891963 0 45
0.78246033 2.4387295 0.34361267 0 46
0.77843708 2.4261899 0.3657335 0 47
0.7804873 2.43258 0.39071062 0 48
0.78157109 2.4359579 0.41536811 0 49
0.77908313 2.4282036 0.43815595 0 50
0.7782917 2.4257369 0.4618727 0 51
0.77807969 2.425076 0.48598287 0 52
0.77814496 2.4252794 0.51034683 0 53
0.78216219 2.4378002 0.53752065 0 54
0.78275257 2.4396403 0.56257898 0 55
0.77946228 2.4293852 0.58486253 0 56
0.77859908 2.4266949 0.60893995 0 57
0.78052187 2.4326875 0.63533908 0 58
0.78237075 2.4384501 0.66191286 0 59
0.77932912 2.4289701 0.68442982 0 60
0.78027117 2.4319065 0.71050209 0 61
0.77631205 2.4195669 0.73214269 0 62
0.77831042 2.4257951 0.75947249 0 63
0.72673965 2.3646226 -0.73746699 0 0
0.74899179 2.4370253 -0.73458308 0 1
0.7442944 2.4217412 -0.70480508 0 2
0.74489248 2.4236872 -0.68030882 0 3
0.74702972 2.4306414 -0.65724999 0 4
0.74518508 2.4246395 -0.63079637 0 5
0.74648023 2.4288535 -0.60713238 0 6
0.7451036 2.4243741 -0.58140647 0 7
0.74837327 2.4350128 -0.55934757 0 8
0.74816537 2.4343362 -0.53468794 0 9
0.74781245 2.4331882 -0.51003748 0 10
0.74742162 2.4319165 -0.48547515 0 11
0.75299799 2.4500604 -0.46470591 0 12
0.74825466 2.4346271 -0.43762171 0 13
0.75021076 2.4409916 -0.4146221 0 14
0.74677277 2.4298053 -0.38876066 0 15
0.74715048 2.4310341 -0.36505121 0 16
0.74979407 2.4396358 -0.34241545 0 17
0.74590731 2.4269893 -0.31689572 0 18
0.74950123 2.438683 -0.29461819 0 19
0.75110823 2.4439116 -0.27144507 0 20
0.75066626 2.4424736 -0.24754097 0 21
0.74881786 2.4364595 -0.2232877 0 22
0.74524152 2.424823 -0.19872834 0 23
0.74808341 2.4340696 -0.17593761 0 24
0.75080925 2.4429388 -0.15297434 0 25
0.74697948 2.4304776 -0.12873593 0 26
0.75004548 2.4404538 -0.10573188 0 27
0.74913502 2.4374914 -0.082117543 0 28
0.74517709 2.4246132 -0.058335617 0 29
0.75252712 2.4485283 -0.035342619 0 30
0.75157034 2.4454153 -0.011765231 0 31
0.746077 2.4275415 0.011679237 0 32
0.75298893 2.450031 0.035364307 0 33
0.74861956 2.4358141 0.058605112 0 34
0.74724317 2.4313357 0.081910163 0 35
0.74652421 2.4289963 0.10523549 0 36
0.74511701 2.4244177 0.12841496 0 37
0.75116146 2.4440849 0.15304609 0 38
0.74934578 2.4381771 0.1762345 0 39
0.74184471 2.4137707 0.19782253 0 40
0.75193453 2.4466002 0.22421703 0 41
0.74772632 2.4329078 0.24657148 0 42
0.74797952 2.4337318 0.2703144 0 43
0.74833953 2.4349031 0.29416156 0 44
0.7489633 2.4369326 0.31819406 0 45
0.75196129 2.4466872 0.34340516 0 46
0.74854577 2.4355741 0.36573294 0 47
0.75006169 2.4405065 0.39047286 0 48
0.74831605 2.4348266 0.4135749 0 49
0.74850023 2.435426 0.4377653 0 50
0.74482459 2.4234662 0.45966175 0 51
0.75166684 2.4457293 0.48823258 0 52
0.74220413 2.4149401 0.50621241 0 53
0.74838501 2.4350512 0.53484493 0 54
0.74967307 2.4392419 0.56031907 0 55
0.74840808 2.4351261 0.58398497 0 56
0.74642545 2.4286752 0.60708785 0 57
0.74838424 2.4350486 0.63350439 0 58
0.74565762 2.4261768 0.65604281 0 59
0.74659985 2.4292426 0.68186814 0 60
0.75022602 2.4410412 0.71042198 0 61
0.74546534 2.4255512 0.73112452 0 62
0.74793828 2.4335973 0.75897849 0 63
0.69704235 2.3714468 -0.73686641 0 0
0.71612978 2.4363854 -0.73168057 0 1
0.71419376 2.4297986 -0.70454091 0 2
0.71736604 2.4405913 -0.68252605 0 3
0.71641928 2.4373703 -0.65663779 0 4
0.71539962 2.4339011 -0.63086963 0 5
0.71704483 2.4394987 -0.60754341 0 6
0.71206689 2.4225626 -0.57882845 0 7
0.71728402 2.4403121 -0.55849659 0 8
0.71287769 2.4253211 -0.53074235 0 9
0.71595216 2.4357812 -0.50869715 0 10
0.7162385 2.4367552 -0.48464632 0 11
0.71381718 2.4285176 -0.45892033 0 12
0.71685898 2.4388661 -0.43676624 0 13
0.71649468 2.4376268 -0.41252288 0 14
0.71837711 2.444031 -0.38959399 0 15
0.71805233 2.4429262 -0.36548346 0 16
0.7146799 2.4314528 -0.34000775 0 17
0.71850425 2.4444637 -0.31799975 0 18
0.71817291 2.4433365 -0.29409128 0 19
0.71469319 2.4314978 -0.26906982 0 20
0.71568084 2.4348581 -0.24585865 0 21
0.71472913 2.4316201 -0.22202198 0 22
0.71507192 2.4327865 -0.19864535 0 23
0.7150135 2.4325876 -0.17518173 0 24
0.71520603 2.4332426 -0.15180498 0 25
0.71024686 2.4163706 -0.12751649 0 26
0.71347165 2.4273419 -0.1047758 0 27
0.71710032 2.4396873 -0.081888266 0 28
0.71286035 2.4252622 -0.058135938 0 29
0.71626157 2.4368336 -0.035044037 0 30
0.71501881 2.4326057 -0.01166042 0 31
0.71825492 2.4436154 0.011713195 0 32
0.71524066 2.4333606 0.034994088 0 33
0.71873003 2.4452319 0.05861463 0 34
0.71827012 2.4436672 0.082021855 0 35
0.71428704 2.4301159 0.10489554 0 36
0.71724683 2.4401858 0.12877326 0 37
0.71624708 2.4367843 0.15202595 0 38
0.71264941 2.4245446 0.17460251 0 39
0.71768391 2.4416728 0.19937095 0 40
0.71434915 2.4303274 0.22190394 0 41
0.71670324 2.4383364 0.24620987 0 42
0.71692646 2.4390957 0.2699106 0 43
0.71768141 2.4416642 0.29389 0 44
0.71456432 2.4310596 0.31625599 0 45
0.71193355 2.4221091 0.33870119 0 46
0.71453071 2.4309452 0.36369097 0 47
0.71422535 2.4299061 0.38734236 0 48
0.72017634 2.4501524 0.41464257 0 49
0.71359277 2.4277542 0.43477622 0 50
0.71577364 2.4351737 0.46017817 0 51
0.71685761 2.4388616 0.48506525 0 52
0.71554571 2.4343984 0.50840837 0 53
0.71665269 2.4381645 0.53355289 0 54
0.7160688 2.436178 0.55755043 0 55
0.71433961 2.430295 0.58067596 0 56
0.71797037 2.4426472 0.60832757 0 57
0.71289307 2.4253736 0.62865925 0 58
0.71885908 2.4456708 0.65887398 0 59
0.71894699 2.4459701 0.68403023 0 60
0.71234775 2.4235182 0.70271987 0 61
0.71837044 2.4440084 0.73396987 0 62
0.71605164 2.4361196 0.75696182 0 63
0.66838688 2.3818176 -0.73747933 0 0
0.68483537 2.4404323 -0.73031175 0 1
0.68575525 2.4437103 -0.70607632 0 2
0.68643647 2.4461379 -0.68166512 0 3
0.68502432 2.4411056 -0.65532523 0 4
0.68484712 2.440474 -0.6303429 0 5
0.68456209 2.4394586 -0.60539126 0 6
0.68175334 2.4294493 -0.5784272 0 7
0.6823169 2.4314575 -0.55450797 0 8
0.68273115 2.4329338 -0.53053099 0 9
0.68861532 2.4539022 -0.51067466 0 10
0.68246531 2.4319866 -0.48199236 0 11
0.68320584 2.4346254 -0.45845234 0 12
0.68368864 2.4363461 -0.43477646 0 13
0.68365991 2.4362435 -0.41083506 0 14
0.68620926 2.4453282 -0.3884263 0 15
0.68327039 2.4348555 -0.36299157 0 16
0.68407238 2.4377131 -0.33968127 0 17
0.68344814 2.4354889 -0.31571507 0 18
0.68304265 2.4340439 -0.29193977 0 19
0.68236578 2.4316318 -0.26813588 0 20
0.6817283 2.4293602 -0.24443857 0 21
0.68079531 2.4260354 -0.22073102 0 22
0.68016011 2.4237719 -0.19721144 0 23
0.68713671 2.4486332 -0.17571548 0 24
0.68461305 2.43964 -0.15166743 0 25
0.68383753 2.4368763 -0.12814517 0 26
0.68198043 2.4302585 -0.10453181 0 27
0.6838721 2.4369998 -0.081509642 0 28
0.68327421 2.4348691 -0.058160421 0 29
0.67898422 2.4195817 -0.034673244 0 30
0.6836347 2.4361537 -0.011636253 0 31
0.67943633 2.4211926 0.011564791 0 32
0.68448395 2.4391799 0.034954093 0 33
0.6847142 2.4400005 0.058282997 0 34
0.68300617 2.4339139 0.081406429 0 35
0.68651396 2.446414 0.1052267 0 36
0.68498981 2.4409826 0.12836111 0 37
0.68674159 2.4472251 0.15213899 0 38
0.68209064 2.4306514 0.1744251 0 39
0.68360257 2.4360392 0.19820958 0 40
0.68287969 2.4334631 0.22140682 0 41
0.68390799 2.4371274 0.24522009 0 42
0.68004215 2.4233515 0.26722279 0 43
0.68643677 2.4461389 0.29339045 0 44
0.68048716 2.4249372 0.31434724 0 45
0.68343985 2.4354591 0.33936718 0 46
0.68099082 2.4267321 0.36178052 0 47
0.68294078 2.433681 0.38657624 0 48
0.68688083 2.4477212 0.4127706 0 49
0.68659079 2.4466879 0.43662199 0 50
0.68677139 2.4473314 0.46084493 0 51
0.68427664 2.4384413 0.48327163 0 52
0.68335825 2.4351685 0.50677603 0 53
0.68404233 2.4376061 0.53154981 0 54
0.68874294 2.4543569 0.55973035 0 55
0.68586284 2.4440937 0.58191383 0 56
0.68466794 2.4398355 0.60548484 0 57
0.68300039 2.4338932 0.62864316 0 58
0.6843732 2.4387853 0.65470237 0 59
0.68472522 2.4400396 0.67996573 0 60
0.68538785 2.4424012 0.70569801 0 61
0.68332309 2.4350431 0.72869903 0 62
0.68366277 2.4362538 0.75433433 0 63
0.6364103 2.3799818 -0.73443234 0 0
0.65143156 2.4361565 -0.72658014 0 1
0.65491939 2.4492002 -0.70528233 0 2
0.65492105 2.4492064 -0.6802246 0 3
0.65017045 2.4314406 -0.65053523 0 4
0.65067738 2.4333363 -0.62638539 0 5
0.65155792 2.4366293 -0.60265529 0 6
0.6521216 2.4387372 -0.57868558 0 7
0.65436035 2.4471095 -0.55620044 0 8
0.65139997 2.4360385 -0.52942133 0 9
0.65262681 2.4406266 -0.50620359 0 10
0.65025353 2.431751 -0.48032472 0 11
0.65392822 2.4454935 -0.45894998 0 12
0.65139824 2.4360321 -0.43325827 0 13
0.65043896 2.4324446 -0.40881476 0 14
0.64955759 2.4291487 -0.38455847 0 15
0.65496784 2.4493814 -0.36392891 0 16
0.65222329 2.4391174 -0.33873379 0 17
0.64913738 2.427577 -0.31363103 0 18
0.65120697 2.4353168 -0.29111001 0 19
0.6532343 2.4428985 -0.26847219 0 20
0.65107769 2.4348333 -0.24416527 0 21
0.65259576 2.4405103 -0.22130117 0 22
0.65283567 2.4414077 -0.19797827 0 23
0.65167165 2.4370546 -0.17429638 0 24
0.65241021 2.4398165 -0.15116824 0 25
0.65256482 2.4403946 -0.12789856 0 26
0.6544615 2.4474878 -0.10491881 0 27
0.65770769 2.4596274 -0.081989765 0 28
0.64998221 2.4307365 -0.057866424 0 29
0.65141159 2.4360819 -0.034792282 0 30
0.65296346 2.4418855 -0.011624401 0 31
0.65439588 2.4472423 0.011649901 0 32
0.65447909 2.4475536 0.03495612 0 33
0.65315974 2.4426196 0.058149312 0 34
0.65072346 2.4335086 0.081119113 0 35
0.65152526 2.4365072 0.10444809 0 36
0.65702599 2.4570782 0.12877293 0 37
0.65516937 2.450135 0.15180758 0 38
0.65199322 2.438257 0.17438237 0 39
0.65430772 2.4469128 0.19842468 0 40
0.65250766 2.440181 0.22127131 0 41
0.65266526 2.4407704 0.24476063 0 42
0.64923954 2.4279592 0.26683038 0 43
0.64986038 2.4302809 0.29050806 0 44
0.65263456 2.4406555 0.31532067 0 45
0.65605605 2.4534509 0.34072435 0 46
0.65417081 2.4464006 0.36348605 0 47
0.65216947 2.4389162 0.38610479 0 48
0.6520223 2.4383657 0.40980992 0 49
0.65137064 2.4359288 0.43323994 0 50
0.65406412 2.4460015 0.45904535 0 51
0.65573972 2.4522679 0.48437726 0 52
0.65215945 2.4388788 0.50584108 0 53
0.65273023 2.4410133 0.5305025 0 54
0.65110278 2.4349272 0.55343157 0 55
0.65257961 2.44045 0.57909203 0 56
0.65261054 2.4405656 0.60362893 0 57
0.65295088 2.4418385 0.62857395 0 58
0.65245694 2.4399912 0.65282297 0 59
0.6538828 2.4453235 0.67914623 0 60
0.65275908 2.4411211 0.7029559 0 61
0.65250564 2.4401734 0.7277782 0 62
0.6539194 2.4454603 0.75463825 0 63
0.60500813 2.3794038 -0.73190296 0 0
0.62039316 2.4399104 -0.72536969 0 1
0.62479442 2.4572201 -0.70532614 0 2
0.62323052 2.4510694 -0.67856234 0 3
0.62118584 2.443028 -0.65154254 0 4
0.62325722 2.4511745 -0.62895685 0 5
0.62100899 2.4423325 -0.60213172 0 6
0.62288684 2.4497178 -0.57942986 0 7
0.62000704 2.4383919 -0.55244446 0 8
0.62235701 2.4476342 -0.53023809 0 9
0.62408173 2.4544172 -0.50743383 0 10
0.62449849 2.4560561 -0.48357213 0 11
0.62068784 2.4410696 -0.45665285 0 12
0.62119365 2.4430587 -0.43311673 0 13
0.61872429 2.433347 -0.40765694 0 14
0.62350994 2.4521685 -0.38695973 0 15
0.6200338 2.4384973 -0.36115167 0 16
0.62064987 2.4409201 -0.33789873 0 17
0.62031591 2.4396067 -0.31417596 0 18
0.62213582 2.4467642 -0.2915419 0 19
0.62175333 2.4452598 -0.26787123 0 20
0.62183446 2.4455791 -0.24445757 0 21
0.62315518 2.4507732 -0.2215202 0 22
0.62112331 2.4427822 -0.19745545 0 23
0.62243366 2.4479356 -0.174514 0 24
0.62217706 2.4469264 -0.15112333 0 25
0.62079972 2.4415097 -0.12754728 0 26
0.62276465 2.4492373 -0.10465762 0 27
0.62089032 2.4418659 -0.081137061 0 28
0.62423885 2.4550352 -0.058257744 0 29
0.61932987 2.4357288 -0.034675851 0 30
0.6180777 2.4308043 -0.011534598 0 31
0.62389678 2.4536896 0.011643193 0 32
0.62178212 2.4453733 0.034813151 0 33
0.61889821 2.4340312 0.057759322 0 34
0.62110788 2.4427214 0.081165493 0 35
0.6194768 2.4363067 0.10410509 0 36
0.61952543 2.4364979 0.12728545 0 37
0.62272567 2.449084 0.15125658 0 38
0.62225223 2.447222 0.17446314 0 39
0.62069511 2.441098 0.19731933 0 40
0.62027079 2.4394293 0.22049484 0 41
0.62295496 2.4499857 0.24489807 0 42
0.62275773 2.4492099 0.26830396 0 43
0.62342215 2.451823 0.29214469 0 44
0.62106311 2.4425454 0.31455442 0 45
0.62291211 2.4498172 0.33913034 0 46
0.62434298 2.4554446 0.36366165 0 47
0.62122941 2.4431994 0.38554439 0 48
0.62202662 2.4463348 0.40983275 0 49
0.62300473 2.4501815 0.43437946 0 50
0.62339145 2.4517024 0.45864192 0 51
0.62019092 2.4391153 0.48023665 0 52
0.61987454 2.437871 0.504013 0 53
0.62129861 2.4434717 0.52933639 0 54
0.6196357 2.4369316 0.55211359 0 55
0.62029141 2.4395106 0.57701552 0 56
0.62367678 2.4528246 0.60471839 0 57
0.62352973 2.4522462 0.62923187 0 58
0.6250335 2.4581604 0.65557826 0 59
0.6254859 2.4599395 0.68101799 0 60
0.62241316 2.447855 0.70263797 0 61
0.62163556 2.4447966 0.72682232 0 62
0.62203276 2.4463587 0.75249827 0 63
0.58118159 2.4093611 -0.73886365 0 0
0.59242952 2.4559908 -0.72792947 0 1
0.58758539 2.4359088 -0.69708222 0 2
0.59025472 2.4469748 -0.67536831 0 3
0.58875239 2.4407465 -0.64895427 0 4
0.59300303 2.4583683 -0.6288842 0 5
0.59214717 2.4548202 -0.60336965 0 6
0.58785129 2.437011 -0.57467115 0 7
0.58918351 2.442534 -0.55169976 0 8
0.59145045 2.451932 -0.52955359 0 9
0.5897966 2.4450755 -0.50396502 0 10
0.59038204 2.4475026 -0.48042235 0 11
0.58911651 2.4422562 -0.45548522 0 12
0.58940417 2.4434488 -0.43186834 0 13
0.58807445 2.4379361 -0.4071835 0 14
0.58967519 2.4445724 -0.38458776 0 15
0.58930957 2.4430566 -0.36072645 0 16
0.58841634 2.4393535 -0.33665478 0 17
0.58741909 2.4352193 -0.31265709 0 18
0.58780241 2.4368086 -0.28947252 0 19
0.58679372 2.4326267 -0.2656768 0 20
0.58815277 2.4382608 -0.24298477 0 21
0.59226567 2.4553115 -0.22125541 0 22
0.59389734 2.4620757 -0.19840968 0 23
0.5900535 2.4461405 -0.17385563 0 24
0.59025395 2.4469717 -0.15066646 0 25
0.590828 2.4493513 -0.12756775 0 26
0.59382939 2.4617941 -0.10487423 0 27
0.5892114 2.4426496 -0.080916248 0 28
0.58944964 2.4436371 -0.057810903 0 29
0.58637947 2.4309096 -0.034501985 0 30
0.58631396 2.4306378 -0.011498728 0 31
0.58737761 2.4350474 0.011519589 0 32
0.58693767 2.4332237 0.034534827 0 33
0.58618146 2.4300885 0.057490371 0 34
0.59006327 2.4461811 0.081033237 0 35
0.58580858 2.4285426 0.1034577 0 36
0.58895278 2.4415774 0.12716287 0 37
0.59215015 2.4548326 0.15115049 0 38
0.59198511 2.4541483 0.17442477 0 39
0.59036881 2.4474478 0.19723088 0 40
0.59236526 2.4557242 0.2212926 0 41
0.59003943 2.4460821 0.24376421 0 42
0.59118408 2.4508276 0.26766458 0 43
0.59080213 2.449244 0.29094976 0 44
0.59347594 2.4603288 0.31588089 0 45
0.5902192 2.4468274 0.33768627 0 46
0.58880293 2.4409564 0.36041632 0 47
0.58977121 2.4449701 0.38465035 0 48
0.59425765 2.4635694 0.41146478 0 49
0.59299177 2.4583216 0.43449703 0 50
0.58983618 2.4452395 0.45604166 0 51
0.59196728 2.4540744 0.48171237 0 52
0.59126544 2.451165 0.50522012 0 53
0.58962739 2.4443741 0.52792126 0 54
0.58673149 2.4323688 0.54940373 0 55
0.5878607 2.4370501 0.57468039 0 56
0.59115136 2.4506919 0.60235494 0 57
0.59182024 2.453465 0.62762982 0 58
0.58944124 2.4436026 0.64971358 0 59
0.59317929 2.4590991 0.67871469 0 60
0.58873832 2.4406884 0.69845003 0 61
0.59271264 2.4571643 0.72827733 0 62
0.59077793 2.4491439 0.75106359 0 63
0.54773378 2.3997657 -0.73380023 0 0
0.56133211 2.4593437 -0.72682256 0 1
0.55717582 2.441134 -0.69656426 0 2
0.56225997 2.4634089 -0.67794478 0 3
0.56099159 2.4578519 -0.6516189 0 4
0.55601001 2.4360263 -0.62137282 0 5
0.56059337 2.4561071 -0.60194618 0 6
0.5589273 2.4488075 -0.57578868 0 7
0.5585314 2.4470732 -0.55113208 0 8
0.55999708 2.4534945 -0.52836394 0 9
0.55763918 2.4431641 -0.50211978 0 10
0.5595668 2.4516094 -0.47984162 0 11
0.56002635 2.4536228 -0.45628631 0 12
0.56127185 2.4590797 -0.43337843 0 13
0.55878758 2.4481955 -0.4077186 0 14
0.56051928 2.4557827 -0.38523793 0 15
0.55656779 2.4384701 -0.35901156 0 16
0.55759436 2.4429677 -0.33618188 0 17
0.55985558 2.4528747 -0.31401628 0 18
0.55942076 2.4509697 -0.29031563 0 19
0.5583638 2.4463389 -0.26640436 0 20
0.56033778 2.4549875 -0.24394658 0 21
0.55812651 2.4452994 -0.21971813 0 22
0.55824161 2.4458034 -0.19653033 0 23
0.56009346 2.453917 -0.1739057 0 24
0.56116611 2.4586165 -0.15094718 0 25
0.55989248 2.4530363 -0.12739147 0 26
0.55832815 2.4461825 -0.10390884 0 27
0.55866891 2.4476755 -0.080849059 0 28
0.55656946 2.4384773 -0.057522573 0 29
0.55345982 2.4248533 -0.034316842 0 30
0.56128478 2.4591365 -0.011600019 0 31
0.55991244 2.4531238 0.011571657 0 32
0.55794275 2.444494 0.0345948 0 33
0.55917448 2.4498906 0.057791807 0 34
0.55829239 2.4460261 0.080794573 0 35
0.55809134 2.4451451 0.10386477 0 36
0.55844182 2.4466808 0.12706141 0 37
0.55712175 2.440897 0.14985929 0 38
0.55427623 2.4284301 0.17209946 0 39
0.55693984 2.4401002 0.19607204 0 40
0.5593428 2.450628 0.22019693 0 41
0.55924082 2.4501812 0.243469 0 42
0.56058282 2.4560609 0.26746309 0 43
0.56069499 2.4565523 0.29097688 0 44
0.55643004 2.4378664 0.31209493 0 45
0.55713373 2.4409494 0.33590418 0 46
0.55859631 2.4473574 0.36032003 0 47
0.55887365 2.4485726 0.3841069 0 48
0.55838865 2.4464478 0.40742752 0 49
0.55944848 2.4510911 0.43197054 0 50
0.55615044 2.4366415 0.4531284 0 51
0.55949569 2.451298 0.47978064 0 52
0.55710799 2.4408367 0.50164145 0 53
0.56247461 2.4643493 0.53070152 0 54
0.55786163 2.4441385 0.55047119 0 55
0.56044328 2.4554496 0.57735044 0 56
0.55965054 2.4519763 0.60093379 0 57
0.55681109 2.4395359 0.62226802 0 58
0.56103849 2.4580574 0.65167338 0 59
0.55680662 2.4395165 0.67136943 0 60
0.5586713 2.4476862 0.69843388 0 61
0.56397307 2.4709146 0.73024213 0 62
0.55488276 2.4310875 0.7433778 0 63
0.52059507 2.4175067 -0.73721188 0 0
0.52564037 2.4409356 -0.71941769 0 1
0.52930075 2.4579334 -0.69944781 0 2
0.53217262 2.4712696 -0.67825586 0 3
0.52891779 2.4561551 -0.64939564 0 4
0.53022224 2.4622126 -0.62634194 0 5
0.53142959 2.4678192 -0.60316944 0 6
0.52692485 2.4469004 -0.57377338 0 7
0.52562749 2.4408758 -0.54823917 0 8
0.52683401 2.4464786 -0.52541822 0 9
0.52861899 2.4547675 -0.50313056 0 10
0.52984166 2.4604452 -0.48025948 0 11
0.52639472 2.4444385 -0.45334041 0 12
0.52808142 2.4522712 -0.43100154 0 13
0.52921093 2.4575162 -0.40815625 0 14
0.52832156 2.4533863 -0.38381392 0 15
0.52846569 2.4540555 -0.36032218 0 16
0.5261519 2.4433107 -0.33531344 0 17
0.52718031 2.4480865 -0.3125498 0 18
0.52733004 2.448782 -0.28926656 0 19
0.52902418 2.4566493 -0.26679859 0 20
0.52769041 2.4504554 -0.24283312 0 21
0.52855456 2.4544683 -0.21994138 0 22
0.53037131 2.4629047 -0.19736552 0 23
0.52914804 2.4572241 -0.17366582 0 24
0.52706873 2.4475687 -0.14985967 0 25
0.52805269 2.4521377 -0.12699801 0 26
0.52847451 2.4540966 -0.10396112 0 27
0.52727801 2.4485402 -0.080657363 0 28
0.53008699 2.4615843 -0.057909518 0 29
0.52736825 2.4489594 -0.034563605 0 30
0.52905238 2.45678 -0.011557343 0 31
0.52694541 2.4469957 0.011511316 0 32
0.52974343 2.4599893 0.034719277 0 33
0.52875143 2.4553826 0.057763617 0 34
0.52673447 2.4460163 0.080574222 0 35
0.52789927 2.4514251 0.10384795 0 36
0.5297215 2.4598873 0.12739936 0 37
0.52583236 2.4418271 0.14950813 0 38
0.52897722 2.4564309 0.17360976 0 39
0.52747035 2.4494336 0.19628601 0 40
0.52609915 2.4430661 0.21891963 0 41
0.52766192 2.4503231 0.24281999 0 42
0.52700281 2.4472625 0.26577914 0 43
0.52686954 2.4466434 0.28901395 0 44
0.52828944 2.4532371 0.31320736 0 45
0.52691668 2.4468625 0.33580086 0 46
0.5268448 2.4465287 0.35921705 0 47
0.52863795 2.4548554 0.38404375 0 48
0.52646375 2.4447591 0.40603748 0 49
0.52765214 2.4502776 0.43065116 0 50
0.52875841 2.455415 0.45537606 0 51
0.52952504 2.4589748 0.47997251 0 52
0.52911162 2.4570551 0.50359941 0 53
0.52622896 2.4436688 0.52481478 0 54
0.53069198 2.4643941 0.55352157 0 55
0.52762038 2.4501302 0.57453078 0 56
0.52919 2.4574189 0.60062748 0 57
0.52476239 2.4368584 0.6198923 0 58
0.5295257 2.4589779 0.65014201 0 59
0.52871996 2.4552364 0.67385542 0 60
0.52558964 2.4406998 0.69454372 0 61
0.52586794 2.4419923 0.71972913 0 62
0.53109622 2.4662709 0.75208241 0 63
0.48996741 2.4194596 -0.73591447 0 0
0.49609563 2.4497206 -0.72015458 0 1
0.49538839 2.4462283 -0.69433099 0 2
0.49792883 2.4587731 -0.67309475 0 3
0.4993431 2.4657567 -0.6502617 0 4
0.49757019 2.4570019 -0.62341291 0 5
0.49828839 2.4605486 -0.59984946 0 6
0.49691173 2.4537506 -0.5739035 0 7
0.49712801 2.4548187 -0.54995626 0 8
0.4967919 2.4531589 -0.52550125 0 9
0.49907625 2.4644389 -0.5038169 0 10
0.49721211 2.4552338 -0.47801277 0 11
0.49693814 2.453881 -0.453924 0 12
0.4968718 2.4535534 -0.43012056 0 13
0.49877003 2.4629269 -0.40800542 0 14
0.49591219 2.4488149 -0.38211587 0 15
0.49719679 2.4551582 -0.35955927 0 16
0.50040084 2.4709797 -0.33824065 0 17
0.49683294 2.4533615 -0.31241965 0 18
0.49568093 2.4476728 -0.28839377 0 19
0.49458772 2.4422746 -0.26455697 0 20
0.49871126 2.4626367 -0.24341413 0 21
0.49639952 2.4512212 -0.21908689 0 22
0.49564865 2.4475136 -0.19562896 0 23
0.49829435 2.460578 -0.17345668 0 24
0.49652773 2.4518545 -0.14973693 0 25
0.49668393 2.4526255 -0.12669739 0 26
0.49624225 2.4504447 -0.10354009 0 27
0.49375689 2.4381721 -0.080109768 0 28
0.4969444 2.4539118 -0.057580911 0 29
0.49744755 2.4563963 -0.034579627 0 30
0.49751183 2.4567139 -0.011527382 0 31
0.49725935 2.455467 0.011521531 0 32
0.49794409 2.4588482 0.034614142 0 33
0.49446017 2.4416447 0.057293065 0 34
0.49536878 2.4461315 0.08037129 0 35
0.49735993 2.4559639 0.10377329 0 36
0.49531299 2.4458561 0.12634768 0 37
0.49641222 2.4512839 0.14970209 0 38
0.49733174 2.4558246 0.1731216 0 39
0.49880144 2.4630818 0.19687332 0 40
0.4971227 2.4547923 0.21940605 0 41
0.49615917 2.4500344 0.2421685 0 42
0.49701712 2.4542711 0.26585647 0 43
0.49771848 2.4577343 0.28957924 0 44
0.49845666 2.4613793 0.31344068 0 45
0.49330071 2.4359193 0.33344141 0 46
0.49792689 2.4587634 0.36008725 0 47
0.49564385 2.4474897 0.3819091 0 48
0.49568966 2.447716 0.4054856 0 49
0.49641895 2.4513171 0.42972854 0 50
0.49991694 2.4685903 0.45664498 0 51
0.49554086 2.4469812 0.47640604 0 52
0.49744546 2.4563861 0.50217062 0 53
0.49456459 2.4421604 0.5231452 0 54
0.49731174 2.4557259 0.55015951 0 55
0.49605337 2.449512 0.57291216 0 56
0.49420938 2.4404063 0.59493911 0 57
0.49728084 2.4555731 0.62305039 0 58
0.49665889 2.452502 0.64676625 0 59
0.49587274 2.4486198 0.67031533 0 60
0.49730435 2.4556894 0.69701636 0 61
0.49667513 2.4525824 0.72099584 0 62
0.49616441 2.4500604 0.74522221 0 63
0.46289882 2.4396205 -0.74025947 0 0
0.46904308 2.4720027 -0.72495461 0 1
0.466084 2.4564075 -0.6955409 0 2
0.46507239 2.451076 -0.66937155 0 3
0.4653554 2.4525676 -0.64522564 0 4
0.46927407 2.4732201 -0.62601644 0 5
0.46636984 2.4579139 -0.59776396 0 6
0.46551317 2.4533989 -0.57243919 0 7
0.4665826 2.4590352 -0.54957402 0 8
0.46646705 2.4584262 -0.52536118 0 9
0.46741217 2.4634073 -0.50239301 0 10
0.46445057 2.4477987 -0.47541735 0 11
0.46799254 2.466466 -0.45515311 0 12
0.46403247 2.4455953 -0.42769283 0 13
0.4682993 2.4680827 -0.40787476 0 14
0.46570808 2.4544263 -0.38206899 0 15
0.4697209 2.475575 -0.36167607 0 16
0.46630523 2.4575734 -0.33559525 0 17
0.46365267 2.4435937 -0.31042629 0 18
0.46968397 2.4753804 -0.29095587 0 19
0.46822423 2.4676871 -0.26666591 0 20
0.46963036 2.4750979 -0.2440566 0 21
0.46785399 2.4657357 -0.21985336 0 22
0.46801856 2.466603 -0.19667992 0 23
0.46492833 2.4503167 -0.17231728 0 24
0.46551552 2.4534113 -0.14947113 0 25
0.46657673 2.4590042 -0.12672094 0 26
0.46702647 2.4613745 -0.10375142 0 27
0.46889359 2.4712148 -0.080999874 0 28
0.46403137 2.4455893 -0.057247408 0 29
0.46769306 2.4648876 -0.034615584 0 30
0.46672076 2.4597633 -0.011513892 0 31
0.46546578 2.4531493 0.011482932 0 32
0.46584979 2.455173 0.03447916 0 33
0.46713957 2.4619706 0.057630867 0 34
0.46765542 2.4646893 0.080785982 0 35
0.46349505 2.4427629 0.1029669 0 36
0.46573332 2.4545593 0.12649187 0 37
0.46490222 2.4501791 0.1492742 0 38
0.46807334 2.4668918 0.17348292 0 39
0.46615022 2.4567564 0.19589476 0 40
0.46542075 2.4529119 0.21870993 0 41
0.46699873 2.4612284 0.24268898 0 42
0.46480849 2.4496851 0.26472056 0 43
0.46379226 2.4443293 0.28730613 0 44
0.46502516 2.4508269 0.31134519 0 45
0.46732956 2.4629719 0.33633244 0 46
0.46730828 2.4628599 0.35981843 0 47
0.46485838 2.4499481 0.38137192 0 48
0.46776393 2.4652612 0.40740848 0 49
0.46402705 2.4455667 0.42768782 0 50
0.46248728 2.4374516 0.44979888 0 51
0.46654725 2.458849 0.47756356 0 52
0.46611938 2.456594 0.5010035 0 53
0.46615431 2.456778 0.52500892 0 54
0.46807384 2.4668946 0.55133051 0 55
0.4647181 2.4492087 0.5714615 0 56
0.46802586 2.4666417 0.59988654 0 57
0.46550864 2.4533751 0.62099338 0 58
0.46754846 2.4641256 0.64826643 0 59
0.46733159 2.4629827 0.67262322 0 60
0.46821615 2.4676445 0.69872272 0 61
0.4662286 2.4571695 0.72060454 0 62
0.46643171 2.45824 0.74590921 0 63
0.4321838 2.4412665 -0.7390905 0 0
0.43375263 2.4501281 -0.71692115 0 1
0.43435088 2.4535074 -0.69315505 0 2
0.43467513 2.4553392 -0.6690256 0 3
0.43438464 2.4536982 -0.64406925 0 4
0.43460292 2.4549313 -0.61998767 0 5
0.43612611 2.4635353 -0.59778166 0 6
0.43446967 2.4541786 -0.57133138 0 7
0.43661284 2.4662845 -0.54995275 0 8
0.43480945 2.4560978 -0.5236814 0 9
0.43642759 2.4652381 -0.50163406 0 10
0.43755159 2.4715874 -0.47895646 0 11
0.43490168 2.4566188 -0.45231488 0 12
0.43556276 2.4603531 -0.42930463 0 13
0.43476558 2.4558501 -0.40493912 0 14
0.43521374 2.4583817 -0.38182279 0 15
0.43474352 2.4557257 -0.35796803 0 16
0.43568775 2.4610591 -0.3353143 0 17
0.43523282 2.4584894 -0.31161514 0 18
0.43654427 2.4658973 -0.28918841 0 19
0.43363062 2.449439 -0.26409781 0 20
0.43519527 2.4582772 -0.24185205 0 21
0.43439689 2.4537675 -0.21829344 0 22
0.43656307 2.4660037 -0.19618924 0 23
0.43671718 2.4668741 -0.17309095 0 24
0.4356626 2.460917 -0.14959072 0 25
0.43302959 2.446044 -0.12576914 0 26
0.43771848 2.4725301 -0.1039869 0 27
0.43755549 2.4716094 -0.080830336 0 28
0.43460399 2.4549372 -0.057336796 0 29
0.43581933 2.4618025 -0.034494389 0 30
0.43498644 2.4570978 -0.011475509 0 31
0.43661496 2.4662967 0.011518471 0 32
0.43645775 2.4654086 0.034544919 0 33
0.43428099 2.4531128 0.057294186 0 34
0.4357467 2.4613922 0.080496199 0 35
0.43479452 2.4560134 0.10329227 0 36
0.43552485 2.460139 0.12649387 0 37
0.43573394 2.4613199 0.14961521 0 38
0.43316022 2.4467819 0.17168115 0 39
0.43158266 2.4378707 0.19395106 0 40
0.43584448 2.4619443 0.21902089 0 41
0.43786725 2.4733706 0.24333695 0 42
0.43631729 2.4646151 0.26573411 0 43
0.43564075 2.4607937 0.28858989 0 44
0.4356586 2.4608946 0.31192002 0 45
0.43504003 2.4574003 0.3348158 0 46
0.43735805 2.470494 0.36012083 0 47
0.43708244 2.4689372 0.38346225 0 48
0.43551254 2.4600694 0.40563479 0 49
0.4374074 2.470773 0.43112275 0 50
0.43569118 2.4610784 0.453136 0 51
0.43644005 2.4653087 0.47773972 0 52
0.43369061 2.4497778 0.49848813 0 53
0.43267855 2.444061 0.52111501 0 54
0.43575153 2.4614193 0.54886788 0 55
0.43358248 2.4491673 0.57016468 0 56
0.4369542 2.4682128 0.59891671 0 57
0.43383825 2.4506121 0.61889684 0 58
0.43343171 2.4483156 0.64265633 0 59
0.43672925 2.4669423 0.67218715 0 60
0.433292 2.4475265 0.69146526 0 61
0.43408296 2.4519942 0.71746713 0 62
0.43655682 2.4659681 0.74656892 0 63
0.39790133 2.4206436 -0.73131037 0 0
0.40631515 2.4718292 -0.72175449 0 1
0.40617478 2.4709754 -0.69662631 0 2
0.40712261 2.4767416 -0.67344224 0 3
0.40244293 2.4482725 -0.64129764 0 4
0.40555561 2.4672086 -0.62178189 0 5
0.40317008 2.4526963 -0.59390366 0 6
0.40620258 2.4711444 -0.5740748 0 7
0.40314803 2.4525619 -0.54574609 0 8
0.40554646 2.4671528 -0.5249356 0 9
0.40434921 2.4598694 -0.49949211 0 10
0.40285563 2.4507833 -0.47392917 0 11
0.4037239 2.4560654 -0.45126483 0 12
0.40506995 2.4642541 -0.42908376 0 13
0.40317482 2.4527249 -0.40357584 0 14
0.40344912 2.4543936 -0.38040414 0 15
0.40320659 2.4529183 -0.35680914 0 16
0.40536335 2.4660392 -0.33528835 0 17
0.40293035 2.4512379 -0.31004456 0 18
0.40434825 2.4598637 -0.28787598 0 19
0.40438876 2.4601099 -0.26469219 0 20
0.40603864 2.4701471 -0.24251029 0 21
0.40490723 2.463264 -0.21867882 0 22
0.4025301 2.4488029 -0.19441231 0 23
0.40291336 2.4511344 -0.17162594 0 24
0.40623471 2.4713399 -0.14990932 0 25
0.40474778 2.4622941 -0.12633923 0 26
0.40373355 2.4561241 -0.10308034 0 27
0.40357193 2.4551411 -0.080123417 0 28
0.40404251 2.4580035 -0.057288043 0 29
0.40597901 2.4697843 -0.034533672 0 30
0.4018476 2.4446509 -0.011393439 0 31
0.4033443 2.4537561 0.011435874 0 32
0.40626204 2.4715061 0.034557749 0 33
0.40380639 2.4565673 0.057254568 0 34
0.4064554 2.4726825 0.080695882 0 35
0.40523636 2.4652665 0.10346404 0 36
0.40485412 2.4629412 0.12637243 0 37
0.40580687 2.4687371 0.14975144 0 38
0.40537214 2.4660926 0.1726733 0 39
0.40488535 2.463131 0.19554983 0 40
0.40453762 2.4610157 0.21847922 0 41
0.40442485 2.4603295 0.24154644 0 42
0.40470096 2.4620094 0.26489657 0 43
0.40567803 2.4679534 0.28882271 0 44
0.403658 2.4556646 0.31060448 0 45
0.40482965 2.4627922 0.33484688 0 46
0.40171018 2.443815 0.35548493 0 47
0.40315393 2.4525979 0.38012582 0 48
0.40368223 2.4558117 0.40408376 0 49
0.40476632 2.4624071 0.42876214 0 50
0.40335941 2.4538481 0.45085743 0 51
0.40516695 2.4648442 0.47664824 0 52
0.40404573 2.4580231 0.49911723 0 53
0.4035877 2.4552367 0.5224002 0 54
0.40301007 2.4517229 0.54555935 0 55
0.40452263 2.4609246 0.57170057 0 56
0.40504578 2.464107 0.59666675 0 57
0.40527517 2.4655025 0.6213519 0 58
0.40659526 2.4735332 0.64791435 0 59
0.40527362 2.4654932 0.67038375 0 60
0.40458006 2.4612737 0.69389117 0 61
0.40433267 2.4597688 0.71823299 0 62
0.40681431 2.4748659 0.74769169 0 63
0.36703938 2.4183114 -0.72918713 0 0
0.3747457 2.4690859 -0.71955359 0 1
0.37290928 2.4569864 -0.69133747 0 2
0.37538558 2.4733021 -0.67120117 0 3
0.37403277 2.4643886 -0.64426559 0 4
0.37540478 2.4734285 -0.62213898 0 5
0.37438342 2.4666989 -0.59613454 0 6
0.3749789 2.4706223 -0.57283908 0 7
0.37188679 2.4502497 -0.54417282 0 8
0.3750352 2.4709933 -0.52473187 0 9
0.37533405 2.4729626 -0.5011757 0 10
0.3751702 2.4718828 -0.47708118 0 11
0.37443149 2.4670157 -0.45239663 0 12
0.37375531 2.4625607 -0.42795625 0 13
0.37515324 2.4717712 -0.40592003 0 14
0.37282598 2.4564376 -0.37998164 0 15
0.37358856 2.461462 -0.3573567 0 16
0.37532312 2.4728904 -0.335567 0 17
0.37529153 2.4726822 -0.31214967 0 18
0.37617868 2.4785273 -0.28949696 0 19
0.37403092 2.4643764 -0.2646364 0 20
0.37426031 2.4658878 -0.24162203 0 21
0.37291947 2.4570537 -0.21770392 0 22
0.37413272 2.4650474 -0.19532196 0 23
0.37278184 2.4561467 -0.17164296 0 24
0.37341756 2.4603353 -0.14895198 0 25
0.37533385 2.4729612 -0.12664017 0 26
0.37362415 2.4616964 -0.10311359 0 27
0.3732425 2.4591818 -0.080099456 0 28
0.37397262 2.4639924 -0.057316113 0 29
0.37530646 2.4727807 -0.034508433 0 30
0.37377867 2.4627147 -0.011455339 0 31
0.37374923 2.4625206 0.011454436 0 32
0.37534288 2.4730206 0.034511779 0 33
0.37311772 2.4583597 0.057185087 0 34
0.3739996 2.46417 0.080261923 0 35
0.37548855 2.4739804 0.10362813 0 36
0.3757582 2.4757571 0.12678334 0 37
0.37332633 2.4597342 0.14891559 0 38
0.37330431 2.459589 0.17188352 0 39
0.37133414 2.4466083 0.1938609 0 40
0.37359989 2.4615364 0.21810113 0 41
0.37281716 2.4563794 0.24069035 0 42
0.37392312 2.4636664 0.26456013 0 43
0.37377474 2.4626887 0.28764695 0 44
0.37289569 2.4568968 0.31015694 0 45
0.37301967 2.4577136 0.33350754 0 46
0.37397555 2.4640117 0.35772684 0 47
0.37354973 2.4612062 0.3807193 0 48
0.37600517 2.4773843 0.40684181 0 49
0.37610507 2.4780424 0.43064678 0 50
0.37204403 2.4512854 0.44951203 0 51
0.3716552 2.4487236 0.47261137 0 52
0.37272611 2.4557796 0.49769336 0 53
0.37403792 2.4644227 0.52333653 0 54
0.3744677 2.4672544 0.54794943 0 55
0.37426555 2.4659224 0.57174933 0 56
0.37313095 2.458447 0.59414023 0 57
0.37215939 2.4520457 0.61676055 0 58
0.37439537 2.4667778 0.64489019 0 59
0.37362051 2.4616725 0.66804516 0 60
0.37408286 2.4647186 0.69351315 0 61
0.37359038 2.4614739 0.71733522 0 62
0.37114596 2.4453683 0.73734558 0 63
0.34031063 2.4444306 -0.73574537 0 0
0.34480911 2.476743 -0.72049493 0 1
0.3427687 2.4620867 -0.69153434 0 2
0.34252748 2.4603541 -0.66649395 0 3
0.34535196 2.4806421 -0.64735562 0 4
0.34373429 2.4690225 -0.61992073 0 5
0.34453347 2.4747629 -0.59701437 0 6
0.34481528 2.4767873 -0.57324201 0 7
0.34329042 2.4658344 -0.54665518 0 8
0.34455976 2.4749517 -0.52463305 0 9
0.34356657 2.4678178 -0.49923912 0 10
0.34286532 2.4627807 -0.47447485 0 11
0.34448007 2.4743795 -0.45293596 0 12
0.34318 2.4650412 -0.42762166 0 13
0.34465101 2.4756072 -0.40582332 0 14
0.34288293 2.4629073 -0.38030151 0 15
0.34381306 2.4695883 -0.35789561 0 16
0.34306711 2.4642303 -0.33379415 0 17
0.34383443 2.4697418 -0.31122121 0 18
0.34525299 2.4799314 -0.2891432 0 19
0.34553432 2.4819522 -0.26604736 0 20
0.34185791 2.4555445 -0.2401785 0 21
0.34297141 2.4635427 -0.21788874 0 22
0.34253153 2.4603832 -0.19460393 0 23
0.34423843 2.4726436 -0.17248698 0 24
0.34287313 2.4628367 -0.14883693 0 25
0.34220037 2.4580045 -0.12564926 0 26
0.34458479 2.4751315 -0.10349104 0 27
0.34281158 2.4623947 -0.08006075 0 28
0.34535164 2.4806397 -0.057600219 0 29
0.34436658 2.4735644 -0.034457669 0 30
0.3447018 2.4759719 -0.011496421 0 31
0.34434536 2.4734118 0.011484534 0 32
0.34408951 2.4715741 0.034429945 0 33
0.34401539 2.4710417 0.05737735 0 34
0.34180719 2.4551802 0.079826176 0 35
0.3428511 2.4626784 0.10297035 0 36
0.34175572 2.4548106 0.12548599 0 37
0.34232044 2.4588668 0.14859702 0 38
0.34493038 2.4776139 0.1728337 0 39
0.34305006 2.4641078 0.19489853 0 40
0.34279722 2.4622915 0.21777809 0 41
0.3454676 2.4814727 0.24271454 0 42
0.34193403 2.4560914 0.26327527 0 43
0.34278262 2.4621868 0.2870743 0 44
0.34228796 2.4586334 0.30982143 0 45
0.34457225 2.4750414 0.3352586 0 46
0.34429336 2.4730382 0.35839561 0 47
0.34347355 2.4671495 0.38095656 0 48
0.34350848 2.4674006 0.40447801 0 49
0.34319097 2.4651198 0.42763534 0 50
0.34480995 2.4767489 0.45336968 0 51
0.34381887 2.46963 0.47579443 0 52
0.34424201 2.4726694 0.5002206 0 53
0.34307331 2.4642746 0.52236974 0 54
0.34355325 2.4677219 0.54707372 0 55
0.34166676 2.4541714 0.56800771 0 56
0.34269467 2.461555 0.59382808 0 57
0.34245083 2.4598036 0.61760604 0 58
0.34334487 2.4662254 0.64359337 0 59
0.3433238 2.466074 0.66804349 0 60
0.34290871 2.4630923 0.69181681 0 61
0.34279153 2.4622507 0.71627909 0 62
0.3427572 2.4620039 0.74103481 0 63
0.3090657 2.4392464 -0.73298573 0 0
0.31205249 2.4628191 -0.71527416 0 1
0.31248635 2.4662435 -0.69157034 0 2
0.31187898 2.4614499 -0.66570157 0 3
0.31409603 2.4789476 -0.64585668 0 4
0.31194213 2.4619482 -0.61713481 0 5
0.31228882 2.4646845 -0.59361178 0 6
0.3136898 2.4757414 -0.57206392 0 7
0.31297636 2.4701107 -0.54670876 0 8
0.31162387 2.4594364 -0.52049255 0 9
0.3138901 2.4773221 -0.5003432 0 10
0.31249335 2.4662986 -0.47437647 0 11
0.31161132 2.4593375 -0.44944713 0 12
0.31323195 2.4721279 -0.4281505 0 13
0.31262684 2.4673522 -0.40380937 0 14
0.31202388 2.4625933 -0.37963188 0 15
0.31210288 2.463217 -0.35638919 0 16
0.31330991 2.4727433 -0.33440015 0 17
0.31070295 2.4521682 -0.30850196 0 18
0.3117713 2.4606001 -0.28642067 0 19
0.31264007 2.4674566 -0.26406148 0 20
0.31515387 2.4872963 -0.24288675 0 21
0.31416908 2.4795241 -0.21894398 0 22
0.31325427 2.4723039 -0.19522738 0 23
0.31419152 2.4797013 -0.17269672 0 24
0.31433502 2.4808338 -0.14967965 0 25
0.31543741 2.4895339 -0.12705311 0 26
0.31246209 2.4660518 -0.10294297 0 27
0.31429225 2.4804962 -0.080517545 0 28
0.31351563 2.4743669 -0.057360709 0 29
0.31207958 2.463033 -0.034254916 0 30
0.31249723 2.4663291 -0.011432941 0 31
0.31196225 2.4621072 0.011413369 0 32
0.31247324 2.4661398 0.034298126 0 33
0.3129361 2.4697931 0.05725468 0 34
0.31286821 2.4692571 0.080152728 0 35
0.31410655 2.4790306 0.10348476 0 36
0.31241116 2.4656498 0.12583418 0 37
0.3135775 2.4748552 0.14931893 0 38
0.31164864 2.4596319 0.17129901 0 39
0.31276706 2.4684587 0.19492374 0 40
0.31377608 2.4764223 0.2186701 0 41
0.31247276 2.466136 0.24082044 0 42
0.31457946 2.4827628 0.26569954 0 43
0.31170505 2.460077 0.28635982 0 44
0.31430426 2.4805908 0.31207773 0 45
0.31311548 2.4712086 0.33419263 0 46
0.31310144 2.4710979 0.35752943 0 47
0.31419224 2.4797068 0.3822701 0 48
0.31247041 2.4661174 0.40360731 0 49
0.31225699 2.4644332 0.42681786 0 50
0.31353214 2.4744971 0.45221758 0 51
0.31327721 2.4724853 0.47556642 0 52
0.31217769 2.4638073 0.49761364 0 53
0.31514031 2.4871893 0.52636594 0 54
0.31312531 2.4712863 0.54696894 0 55
0.31236494 2.4652851 0.56964785 0 56
0.31226045 2.4644606 0.59355789 0 57
0.31341523 2.4735744 0.62004912 0 58
0.31332082 2.4728293 0.64426267 0 59
0.31264028 2.4674582 0.66732663 0 60
0.31122974 2.4563258 0.68878925 0 61
0.31237775 2.4653862 0.71601969 0 62
0.3137818 2.4764674 0.74417049 0 63
0.27995569 2.4507866 -0.73536348 0 0
0.28192782 2.4680512 -0.71573269 0 1
0.28322041 2.4793665 -0.6942212 0 2
0.28333899 2.4804049 -0.66983509 0 3
0.2821537 2.4700284 -0.64258033 0 4
0.28210771 2.4696257 -0.61814302 0 5
0.2813468 2.4629645 -0.59231955 0 6
0.2828469 2.4760969 -0.57129925 0 7
0.28460607 2.491497 -0.55062598 0 8
0.28324005 2.4795387 -0.52397007 0 9
0.28259876 2.4739246 -0.49891746 0 10
0.2810238 2.4601371 -0.47249097 0 11
0.28245729 2.4726863 -0.4512178 0 12
0.28201243 2.4687917 -0.42693987 0 13
0.28207353 2.4693265 -0.40353432 0 14
0.28144428 2.4638181 -0.37925851 0 15
0.28298554 2.4773104 -0.35789776 0 16
0.2823953 2.4721434 -0.33382422 0 17
0.28102055 2.4601085 -0.30904281 0 18
0.2812224 2.4618757 -0.286145 0 19
0.28282386 2.4758952 -0.26457241 0 20
0.28248766 2.4729521 -0.24112859 0 21
0.28376457 2.4841301 -0.21902604 0 22
0.28164798 2.4656012 -0.19440992 0 23
0.28261217 2.4740419 -0.17204757 0 24
0.28375629 2.4840579 -0.14965233 0 25
0.28094226 2.4594233 -0.12533063 0 26
0.28359047 2.4826062 -0.10348061 0 27
0.28276277 2.4753604 -0.080231905 0 28
0.28184178 2.4672978 -0.057112176 0 29
0.28319862 2.4791758 -0.034428392 0 30
0.28197896 2.4684987 -0.011426061 0 31
0.28342995 2.4812012 0.011484858 0 32
0.28217971 2.4702561 0.034304522 0 33
0.28318775 2.4790807 0.057384923 0 34
0.2819638 2.4683659 0.080005206 0 35
0.28225803 2.4709418 0.10299442 0 36
0.28275791 2.4753177 0.12614059 0 37
0.28241587 2.4723234 0.14894539 0 38
0.28219604 2.4703991 0.17179424 0 39
0.28344786 2.4813578 0.19565231 0 40
0.28184435 2.4673202 0.21754391 0 41
0.28367877 2.4833791 0.2421453 0 42
0.28296605 2.4771399 0.26470542 0 43
0.28317603 2.4789782 0.28813285 0 44
0.28283751 2.4760146 0.31104094 0 45
0.28444591 2.4900949 0.33624828 0 46
0.28345945 2.4814591 0.35849714 0 47
0.28264433 2.4743235 0.38087562 0 48
0.2833215 2.4802518 0.40531972 0 49
0.28222302 2.4706354 0.42725867 0 50
0.28139287 2.4633679 0.4495174 0 51
0.2824254 2.4724069 0.47484747 0 52
0.28226388 2.4709928 0.49832621 0 53
0.28218809 2.4703295 0.52202404 0 54
0.28336677 2.4806478 0.54822826 0 55
0.28391328 2.4854321 0.57345313 0 56
0.28151166 2.4644079 0.59266663 0 57
0.2829614 2.4770992 0.62001365 0 58
0.28212655 2.4697909 0.64251858 0 59
0.28120115 2.4616897 0.66478109 0 60
0.2808553 2.458662 0.68842393 0 61
0.28199953 2.4686787 0.71591473 0 62
0.28195655 2.4683025 0.74061912 0 63
0.25111794 2.4669836 -0.73924094 0 0
0.25235626 2.4791486 -0.71799678 0 1
0.25310141 2.486469 -0.69528586 0 2
0.25130126 2.4687843 -0.66581213 0 3
0.25291085 2.484597 -0.64551258 0 4
0.25213951 2.4770193 -0.61917078 0 5
0.2509203 2.4650419 -0.59203231 0 6
0.25134444 2.4692085 -0.56895381 0 7
0.25244373 2.4800079 -0.54735941 0 8
0.25144482 2.4701946 -0.52130276 0 9
0.25256735 2.4812222 -0.49972507 0 10
0.25188994 2.4745674 -0.47463167 0 11
0.25250107 2.480571 -0.4520559 0 12
0.25239477 2.4795268 -0.42822725 0 13
0.25248304 2.4803941 -0.40480503 0 14
0.2510995 2.4668021 -0.3792139 0 15
0.25232053 2.4787974 -0.35763732 0 16
0.25163171 2.4720304 -0.33336595 0 17
0.25255075 2.4810593 -0.311261 0 18
0.2518563 2.4742372 -0.28720009 0 19
0.25198156 2.4754674 -0.26417562 0 20
0.25120404 2.4678292 -0.24030972 0 21
0.25152123 2.4709454 -0.21757439 0 22
0.25218973 2.4775126 -0.19508986 0 23
0.25242236 2.4797981 -0.17221898 0 24
0.25220397 2.4776525 -0.14906834 0 25
0.25157312 2.4714551 -0.12577662 0 26
0.25207004 2.476337 -0.10308231 0 27
0.25228208 2.47842 -0.080224462 0 28
0.25199968 2.4756458 -0.057229355 0 29
0.24972625 2.4533114 -0.034023996 0 30
0.25245953 2.4801631 -0.011464817 0 31
0.25219393 2.4775538 0.011452755 0 32
0.25062159 2.4621072 0.034145977 0 33
0.25421154 2.497375 0.057731673 0 34
0.25249025 2.4804652 0.08029066 0 35
0.25217718 2.4773893 0.10312612 0 36
0.25322324 2.4876657 0.12660161 0 37
0.25266975 2.4822283 0.14934364 0 38
0.25165096 2.4722197 0.17169267 0 39
0.25140819 2.4698348 0.19448526 0 40
0.25283885 2.4838896 0.21871416 0 41
0.25152835 2.4710152 0.24061996 0 42
0.25072154 2.4630892 0.26285464 0 43
0.25217417 2.4773598 0.28756258 0 44
0.25176576 2.4733474 0.31029353 0 45
0.25141403 2.4698923 0.33307758 0 46
0.25260666 2.4816086 0.3580429 0 47
0.25226197 2.4782224 0.38096949 0 48
0.25238177 2.4793992 0.40464267 0 49
0.25166783 2.4723856 0.42699391 0 50
0.25137541 2.4695129 0.45004064 0 51
0.25355208 2.4908965 0.47776362 0 52
0.25114268 2.4672263 0.49690625 0 53
0.25291589 2.4846466 0.52435267 0 54
0.2519311 2.474972 0.54624796 0 55
0.25096527 2.4654834 0.56809551 0 56
0.25143537 2.4701018 0.59324759 0 57
0.24963106 2.4523761 0.61301088 0 58
0.25178292 2.4735162 0.64263374 0 59
0.25180838 2.4737661 0.66715568 0 60
0.25131974 2.4689658 0.69039148 0 61
0.25311527 2.4866052 0.72015631 0 62
0.25246403 2.4802074 0.74320352 0 63
0.21989834 2.4601767 -0.73633534 0 0
0.22145504 2.4775927 -0.7167033 0 1
0.22149751 2.4780679 -0.6921227 0 2
0.22006655 2.4620585 -0.66321832 0 3
0.22098389 2.4723217 -0.6415689 0 4
0.22227873 2.4868078 -0.62088746 0 5
0.2221292 2.4851351 -0.59615707 0 6
0.22273219 2.4918811 -0.57350361 0 7
0.22096473 2.4721072 -0.5449748 0 8
0.22074947 2.4696989 -0.52058595 0 9
0.22138783 2.4768407 -0.49825668 0 10
0.22063538 2.4684224 -0.4728969 0 11
0.22045635 2.4664195 -0.44894895 0 12
0.22137991 2.476752 -0.42724559 0 13
0.22095054 2.4719484 -0.40295282 0 14
0.22071771 2.4693434 -0.37915868 0 15
0.22061172 2.4681578 -0.35568395 0 16
0.22192118 2.4828079 -0.33442602 0 17
0.22117755 2.4744883 -0.31007197 0 18
0.22257812 2.4901576 -0.28870857 0 19
0.22109823 2.4736006 -0.26366633 0 20
0.2210955 2.4735703 -0.24058585 0 21
0.22222249 2.4861786 -0.2186586 0 22
0.22227955 2.4868171 -0.19559251 0 23
0.22252446 2.489557 -0.17269365 0 24
0.22170632 2.4804039 -0.14905858 0 25
0.22252619 2.4895763 -0.12655002 0 26
0.22140822 2.4770689 -0.10299166 0 27
0.22154829 2.4786358 -0.080137208 0 28
0.2215414 2.4785588 -0.0572294 0 29
0.22242104 2.4884 -0.034470089 0 30
0.22110137 2.4736359 -0.011421213 0 31
0.22216164 2.4854977 0.011475981 0 32
0.2221283 2.4851248 0.034424722 0 33
0.22118136 2.4745307 0.05713639 0 34
0.22189589 2.4825249 0.080262944 0 35
0.22062731 2.4683323 0.10262841 0 36
0.22072217 2.4693935 0.12552407 0 37
0.22223867 2.4863598 0.14941651 0 38
0.22192626 2.4828646 0.17222941 0 39
0.22145534 2.477596 0.19486727 0 40
0.22225694 2.4865642 0.21869251 0 41
0.22233346 2.4874201 0.24193291 0 42
0.22159366 2.4791434 0.26425713 0 43
0.22206867 2.484458 0.28804776 0 44
0.22213 2.4851439 0.31140724 0 45
0.22172509 2.4806139 0.33413053 0 46
0.22195423 2.4831774 0.35784844 0 47
0.22174422 2.4808278 0.38092208 0 48
0.22205874 2.4843466 0.40497386 0 49
0.22070624 2.4692152 0.42594546 0 50
0.22029896 2.4646587 0.44862843 0 51
0.22022241 2.4638023 0.47201177 0 52
0.22151494 2.4782629 0.49854276 0 53
0.22204417 2.4841838 0.5236392 0 54
0.22101642 2.4726856 0.5451023 0 55
0.22085801 2.4709132 0.56867784 0 56
0.22116965 2.4743998 0.5935818 0 57
0.22226354 2.4866381 0.62084502 0 58
0.22226198 2.4866204 0.64527947 0 59
0.22275147 2.4920969 0.67130989 0 60
0.22142525 2.4772594 0.69189692 0 61
0.22121052 2.4748571 0.71591198 0 62
0.22039697 2.4657552 0.73800498 0 63
0.18906409 2.4553125 -0.73412818 0 0
0.19091529 2.4793534 -0.71647942 0 1
0.19047096 2.473583 -0.69016379 0 2
0.19022053 2.4703307 -0.66476631 0 3
0.19000496 2.4675312 -0.63967115 0 4
0.19021012 2.4701955 -0.61610925 0 5
0.19167526 2.4892228 -0.59652722 0 6
0.19085282 2.4785421 -0.56985044 0 7
0.19039831 2.4726396 -0.54453486 0 8
0.19118854 2.4829021 -0.52283394 0 9
0.19175999 2.4903233 -0.50045675 0 10
0.19021343 2.4702384 -0.47276098 0 11
0.19095057 2.4798117 -0.45092517 0 12
0.19133852 2.4848497 -0.42820421 0 13
0.19158916 2.4881048 -0.40517181 0 14
0.19133417 2.4847934 -0.38114089 0 15
0.19116043 2.482537 -0.35739034 0 16
0.19137165 2.48528 -0.33441678 0 17
0.19132738 2.484705 -0.31103393 0 18
0.19151606 2.4871552 -0.28806567 0 19
0.19171968 2.4897997 -0.2651217 0 20
0.19167709 2.4892466 -0.24186304 0 21
0.19079848 2.4778364 -0.21770209 0 22
0.19035587 2.4720883 -0.1942353 0 23
0.19093253 2.4795773 -0.17182553 0 24
0.19046086 2.4734519 -0.14848885 0 25
0.19176126 2.4903398 -0.12645939 0 26
0.18962009 2.462533 -0.10228261 0 27
0.19199127 2.4933267 -0.080529772 0 28
0.19142337 2.4859517 -0.057341415 0 29
0.19123463 2.4835007 -0.034367051 0 30
0.19090387 2.4792051 -0.011435224 0 31
0.19115385 2.4824517 0.011450198 0 32
0.19123805 2.4835451 0.034367662 0 33
0.18999247 2.4673691 0.056912787 0 34
0.19028816 2.471209 0.07981541 0 35
0.19055748 2.4747066 0.10278825 0 36
0.19043274 2.4730868 0.12558329 0 37
0.19156882 2.4878407 0.14935264 0 38
0.19221699 2.496258 0.17298146 0 39
0.19090661 2.4792407 0.19479726 0 40
0.19157444 2.4879136 0.21858747 0 41
0.19066203 2.4760642 0.2405822 0 42
0.19147542 2.4866278 0.26478392 0 43
0.19148773 2.4867876 0.28802308 0 44
0.19051959 2.4742146 0.30972072 0 45
0.19007356 2.4684222 0.3321484 0 46
0.1899343 2.4666135 0.35509801 0 47
0.19151258 2.4871101 0.38149625 0 48
0.19113195 2.482167 0.40420488 0 49
0.19081007 2.4779871 0.42702159 0 50
0.19086565 2.4787087 0.4507246 0 51
0.19182603 2.4911809 0.476769 0 52
0.19069472 2.4764888 0.49767658 0 53
0.19170693 2.4896343 0.52425158 0 54
0.19152771 2.4873068 0.54776496 0 55
0.19149984 2.4869449 0.57178235 0 56
0.19095877 2.479918 0.59429735 0 57
0.19058567 2.4750729 0.61732572 0 58
0.19061869 2.4755018 0.64173734 0 59
0.19140947 2.4857712 0.66892135 0 60
0.19131824 2.4845865 0.69323391 0 61
0.19184577 2.4914372 0.71997136 0 62
0.19180648 2.490927 0.74477679 0 63
0.15980406 2.4720492 -0.73848903 0 0
0.16058296 2.4840982 -0.71722573 0 1
0.16066426 2.4853561 -0.69284499 0 2
0.16180508 2.5030036 -0.67297226 0 3
0.16105671 2.4914267 -0.64530355 0 4
0.15993305 2.4740446 -0.61653215 0 5
0.1609097 2.4891527 -0.59599113 0 6
0.16017433 2.477777 -0.56917864 0 7
0.15938431 2.4655559 -0.54250228 0 8
0.16054912 2.4835746 -0.52252036 0 9
0.16123655 2.4942088 -0.50080127 0 10
0.16022804 2.4786079 -0.47394988 0 11
0.16079172 2.4873276 -0.45189816 0 12
0.16100407 2.4906123 -0.42882368 0 13
0.16080254 2.4874949 -0.40471989 0 14
0.16187181 2.5040357 -0.38375813 0 15
0.16077068 2.4870021 -0.35772154 0 16
0.16050538 2.4828982 -0.33380547 0 17
0.16053893 2.483417 -0.3106021 0 18
0.16047047 2.4823582 -0.28725982 0 19
0.16069613 2.4858489 -0.26447058 0 20
0.16034912 2.4804807 -0.24080154 0 21
0.16044773 2.4820063 -0.21787865 0 22
0.1607642 2.486902 -0.19522914 0 23
