# .PCD v0.7 - Point Cloud Data file format
VERSION 0.7
FIELDS x y z intensity ring
SIZE 4 4 4 4 2
TYPE F F F F U
COUNT 1 1 1 1 1
WIDTH 1285
HEIGHT 1
VIEWPOINT 0 0 0 1 0 0 0
POINTS 1285
DATA ascii
0.73207217 2.490624 0.083597958 0 35
0.72607899 2.4702342 0.10662723 0 36
0.72928071 2.481127 0.13093379 0 37
0.72702134 2.4734402 0.15431283 0 38
0.73055625 2.4854665 0.17898977 0 39
0.72653776 2.4717951 0.20183054 0 40
0.72954082 2.4820118 0.22662306 0 41
0.72856724 2.4786994 0.25028551 0 42
0.7296657 2.4824367 0.27470672 0 43
0.7295211 2.4819448 0.29873836 0 44
0.72742397 2.4748099 0.32194749 0 45
0.72791475 2.4764798 0.34630421 0 46
0.73058259 2.4855561 0.37186128 0 47
0.72722465 2.4741318 0.39439222 0 48
0.73160183 2.4890237 0.42122084 0 49
0.73147148 2.4885802 0.44566929 0 50
0.73080194 2.4863024 0.46983999 0 51
0.73106563 2.4871995 0.49467918 0 52
0.73252612 2.4921682 0.5204733 0 53
0.72732329 2.4744673 0.54149717 0 54
0.72903526 2.4802918 0.56764644 0 55
0.72750235 2.4750767 0.59137571 0 56
0.73116207 2.4875276 0.61950475 0 57
0.73161513 2.489069 0.64516914 0 58
0.73011667 2.4839709 0.66919219 0 59
0.73056716 2.4855037 0.69508606 0 60
0.72882181 2.4795656 0.71897125 0 61
0.72935504 2.4813797 0.745193 0 62
0.73092109 2.4867077 0.77268082 0 63
0.66284668 2.3620749 -0.7313664 0 0
0.6894123 2.4567423 -0.7351926 0 1
0.69665015 2.4825346 -0.7172941 0 2
0.69740939 2.4852402 -0.69256181 0 3
0.6959039 2.4798753 -0.66573316 0 4
0.69933778 2.4921122 -0.64368033 0 5
0.69831896 2.4884815 -0.61755711 0 6
0.69530159 2.4777288 -0.58992201 0 7
0.69796765 2.4872296 -0.56722713 0 8
0.69891101 2.4905913 -0.54310387 0 9
0.69944024 2.4924772 -0.51870239 0 10
0.70037174 2.4957964 -0.4946388 0 11
0.70137095 2.4993575 -0.47064167 0 12
0.69451249 2.4749169 -0.4416596 0 13
0.69567227 2.4790499 -0.41805369 0 14
0.69965118 2.4932289 -0.39603508 0 15
0.69678617 2.4830194 -0.3701719 0 16
0.6959967 2.480206 -0.34560236 0 17
0.69652325 2.4820824 -0.32175502 0 18
0.69440693 2.4745409 -0.29679698 0 19
0.69274282 2.4686108 -0.27221352 0 20
0.69563532 2.4789181 -0.24942501 0 21
0.69607329 2.480479 -0.22568452 0 22
0.69372267 2.4721024 -0.20114389 0 23
0.69854355 2.4892819 -0.17863245 0 24
0.69545943 2.4782913 -0.15407032 0 25
0.69292152 2.4692473 -0.12984744 0 26
0.69789565 2.486973 -0.10697125 0 27
0.69633389 2.4814076 -0.082994938 0 28
0.69445288 2.4747045 -0.059111953 0 29
0.69845355 2.488961 -0.035667472 0 30
0.69391245 2.4727786 -0.011811191 0 31
0.69551468 2.4784882 0.011838463 0 32
0.69764173 2.486068 0.035626013 0 33
0.69652402 2.4820852 0.059288252 0 34
0.6984188 2.4888372 0.083243437 0 35
0.69700712 2.4838066 0.10683506 0 36
0.69553041 2.4785445 0.13033633 0 37
0.69771379 2.4863248 0.15456975 0 38
0.6921106 2.4663579 0.17698741 0 39
0.69646972 2.4818916 0.2019404 0 40
0.70027125 2.4954386 0.2270456 0 41
0.69851935 2.4891956 0.25045913 0 42
0.69781256 2.4866769 0.27420568 0 43
0.69808328 2.4876416 0.2983683 0 44
0.69600558 2.4802377 0.32151592 0 45
0.69592094 2.4799361 0.34556475 0 46
0.69917375 2.4915276 0.37144032 0 47
0.6970771 2.484056 0.39457801 0 48
0.69690311 2.4834361 0.41879335 0 49
0.69531441 2.4777746 0.44216958 0 50
0.69669044 2.4826782 0.46750093 0 51
0.69581032 2.479542 0.49141732 0 52
0.69639462 2.4816241 0.51644379 0 53
0.69837427 2.4886787 0.54268682 0 54
0.69573843 2.4792857 0.56541544 0 55
0.69548661 2.4783883 0.59007901 0 56
0.69553089 2.4785461 0.6150915 0 57
0.70063698 2.496742 0.64487612 0 58
0.6968264 2.4831626 0.66661566 0 59
0.69600207 2.4802251 0.69116426 0 60
0.6959548 2.4800565 0.71657807 0 61
0.69865578 2.4896817 0.74504989 0 62
0.69523865 2.4775047 0.76710683 0 63
0.63391411 2.3706467 -0.73155171 0 0
0.65595251 2.4530637 -0.7316227 0 1
0.66361296 2.4817114 -0.71464443 0 2
0.66535139 2.4882126 -0.69105792 0 3
0.66268963 2.4782584 -0.66306138 0 4
0.66212869 2.4761608 -0.63740915 0 5
0.664518 2.485096 -0.61464268 0 6
0.66628546 2.4917057 -0.59125441 0 7
0.66659647 2.4928689 -0.56660104 0 8
0.66320145 2.4801724 -0.53901285 0 9
0.66748327 2.4961853 -0.51772684 0 10
0.66568053 2.4894435 -0.49172023 0 11
0.66173381 2.474684 -0.46442819 0 12
0.66616821 2.4912674 -0.44308209 0 13
0.66489869 2.4865196 -0.41790301 0 14
0.66294932 2.4792297 -0.39248681 0 15
0.66078073 2.4711196 -0.3671588 0 16
0.66206127 2.4759085 -0.34384316 0 17
0.6630646 2.4796607 -0.32035998 0 18
0.66339195 2.480885 -0.2965571 0 19
0.66607881 2.4909329 -0.27375114 0 20
0.66082054 2.4712684 -0.24781899 0 21
0.66264236 2.4780817 -0.22470807 0 22
0.66406846 2.4834149 -0.20138471 0 23
0.66505772 2.4871142 -0.17787661 0 24
0.66774255 2.497155 -0.15472087 0 25
0.66304934 2.4796038 -0.12995346 0 26
0.66258156 2.4778545 -0.10622057 0 27
0.66183966 2.4750798 -0.082504854 0 28
0.66235161 2.4769943 -0.058967646 0 29
0.66655672 2.4927201 -0.035601195 0 30
0.66127205 2.4729571 -0.011772315 0 31
0.6611926 2.4726601 0.0117709 0 32
0.66277188 2.4785662 0.035399042 0 33
0.6672678 2.4953794 0.059405323 0 34
0.66288531 2.4789901 0.082635202 0 35
0.66235512 2.4770074 0.10618425 0 36
0.66245329 2.4773748 0.12983665 0 37
0.66192955 2.4754159 0.15337394 0 38
0.66598421 2.4905791 0.17812441 0 39
0.66319245 2.480139 0.20111905 0 40
0.66334385 2.480705 0.22494595 0 41
0.66267139 2.4781902 0.24851309 0 42
0.66444492 2.4848225 0.27307963 0 43
0.66285801 2.4788883 0.29631841 0 44
0.66558146 2.489073 0.321576 0 45
0.66613674 2.4911497 0.34595978 0 46
0.6644668 2.4849045 0.36920696 0 47
0.66488916 2.4864841 0.39363527 0 48
0.65956348 2.4665675 0.41454971 0 49
0.66489631 2.4865108 0.44223613 0 50
0.66473997 2.4859259 0.46653801 0 51
0.66200489 2.4756975 0.48900512 0 52
0.66258174 2.477855 0.51392502 0 53
0.66271526 2.4783542 0.53861773 0 54
0.6637134 2.4820871 0.56415045 0 55
0.66299611 2.4794047 0.58833551 0 56
0.66214854 2.4762349 0.61245102 0 57
0.66316211 2.4800253 0.63840401 0 58
0.66510397 2.4872875 0.6654771 0 59
0.6647619 2.4860082 0.69044566 0 60
0.66395289 2.4829826 0.71501046 0 61
0.66316283 2.4800279 0.73966473 0 62
0.6632663 2.4804149 0.76542479 0 63
0.60946256 2.3969221 -0.73729163 0 0
0.62790585 2.4694567 -0.73415363 0 1
0.62856865 2.4720635 -0.70958686 0 2
0.632595 2.4878983 -0.68875819 0 3
0.63354492 2.4916344 -0.6645056 0 4
0.63214111 2.4861133 -0.63792199 0 5
0.63215101 2.4861522 -0.61293501 0 6
0.63122261 2.4825013 -0.58718407 0 7
0.63253647 2.4876683 -0.56360859 0 8
0.62988812 2.4772527 -0.53665447 0 9
0.62843919 2.4715543 -0.51097685 0 10
0.63365382 2.4920628 -0.49066147 0 11
0.63093674 2.4813766 -0.46419314 0 12
0.62808836 2.4701746 -0.43792394 0 13
0.63193214 2.4852915 -0.41635916 0 14
0.63070518 2.4804661 -0.39142519 0 15
0.62782031 2.4691203 -0.36568707 0 16
0.63045835 2.4794955 -0.34323874 0 17
0.62739128 2.467433 -0.31775948 0 18
0.62902784 2.4738696 -0.29477158 0 19
0.63339746 2.4910545 -0.27288792 0 20
0.63262558 2.4880188 -0.24869981 0 21
0.63356161 2.4916999 -0.22521949 0 22
0.62896037 2.4736042 -0.19994685 0 23
0.63235694 2.4869623 -0.17729622 0 24
0.63497037 2.4972405 -0.15423074 0 25
0.62846369 2.4716506 -0.12912188 0 26
0.63250303 2.4875369 -0.10629419 0 27
0.63041621 2.4793298 -0.082381897 0 28
0.62899745 2.4737499 -0.058701843 0 29
0.63325953 2.4905121 -0.035455763 0 30
0.63001698 2.4777596 -0.011757409 0 31
0.62889904 2.4733629 0.011736546 0 32
0.62899405 2.4737365 0.035216942 0 33
0.62762386 2.4683475 0.058573648 0 34
0.62669301 2.4646869 0.081895344 0 35
0.62900293 2.4737716 0.10570598 0 36
0.63126487 2.4826672 0.1296974 0 37
0.62873608 2.4727218 0.15271646 0 38
0.63190103 2.4851694 0.1771684 0 39
0.62898725 2.4737098 0.1999554 0 40
0.63414288 2.4939861 0.22542614 0 41
0.63080668 2.4808655 0.24798477 0 42
0.63007897 2.4780035 0.27145821 0 43
0.63284326 2.4888747 0.29655954 0 44
0.63109398 2.4819951 0.31963482 0 45
0.63026202 2.4787233 0.34313184 0 46
0.62961453 2.4761767 0.36673215 0 47
0.63366795 2.4921184 0.39326394 0 48
0.62882888 2.4730871 0.41431454 0 49
0.63276464 2.4885657 0.44118437 0 50
0.63163835 2.4841361 0.46470934 0 51
0.62955213 2.4759314 0.48748538 0 52
0.6317907 2.4847353 0.51370192 0 53
0.63076258 2.4806919 0.53739947 0 54
0.62793893 2.4695868 0.55951202 0 55
0.6298269 2.4770122 0.58588576 0 56
0.63203841 2.4857097 0.61282587 0 57
0.63086909 2.4811108 0.63663834 0 58
0.62949675 2.4757135 0.6602596 0 59
0.62766033 2.4684913 0.68338549 0 60
0.63289481 2.4890776 0.71447062 0 61
0.63434094 2.494765 0.74167764 0 62
0.63047308 2.4795535 0.7627089 0 63
0.57835311 2.397635 -0.73526776 0 0
0.59651583 2.4729311 -0.73295045 0 1
0.59689289 2.474494 -0.70812416 0 2
0.59720963 2.4758074 -0.68332618 0 3
0.59776998 2.4781301 -0.65889394 0 4
0.60039663 2.4890192 -0.63672513 0 5
0.59790474 2.478689 -0.60923636 0 6
0.59640735 2.4724813 -0.58303541 0 7
0.60179347 2.4948101 -0.56350744 0 8
0.60049504 2.4894273 -0.5376516 0 9
0.60097867 2.4914324 -0.51351982 0 10
0.59575367 2.4697714 -0.48479354 0 11
0.59701484 2.4749997 -0.46159196 0 12
0.5963558 2.4722674 -0.43696189 0 13
0.59958059 2.4856362 -0.41515037 0 14
0.59836286 2.480588 -0.39025384 0 15
0.59726506 2.476037 -0.36559612 0 16
0.59608954 2.4711637 -0.3410449 0 17
0.59856826 2.4814396 -0.31859133 0 18
0.59896719 2.4830933 -0.29497075 0 19
0.60021842 2.4882805 -0.27175498 0 20
0.59969532 2.4861121 -0.24775338 0 21
0.59871548 2.4820499 -0.22366489 0 22
0.60059506 2.4898419 -0.20064726 0 23
0.60141456 2.4932392 -0.1772031 0 24
0.59792209 2.4787607 -0.1526238 0 25
0.59865677 2.4818068 -0.1292581 0 26
0.59872943 2.4821076 -0.10573961 0 27
0.5977723 2.4781399 -0.082091913 0 28
0.59725082 2.4759779 -0.058576014 0 29
0.59609455 2.4711845 -0.035073608 0 30
0.60052091 2.4895346 -0.011777353 0 31
0.59737039 2.4764736 0.011715565 0 32
0.59778571 2.4781954 0.035173114 0 33
0.59918737 2.4840064 0.058765944 0 34
0.59642363 2.4725487 0.081906699 0 35
0.5984388 2.4809029 0.10568828 0 36
0.5988304 2.4825263 0.12929559 0 37
0.6007719 2.4905751 0.15335125 0 38
0.59589559 2.4703598 0.17557697 0 39
0.5987882 2.4823515 0.20004363 0 40
0.59829509 2.4803071 0.22350785 0 41
0.59916472 2.4839122 0.24753416 0 42
0.59836358 2.4805911 0.27091518 0 43
0.59551889 2.4687979 0.29327258 0 44
0.59763438 2.4775681 0.31809425 0 45
0.59816498 2.4797678 0.34223235 0 46
0.59943807 2.4850454 0.36692625 0 47
0.59897041 2.4831066 0.39065012 0 48
0.59882236 2.4824929 0.41462538 0 49
0.60053921 2.4896104 0.44002721 0 50
0.59822518 2.4800172 0.46252775 0 51
0.59831607 2.4803941 0.48687866 0 52
0.59845722 2.4809792 0.51136529 0 53
0.59960139 2.4857225 0.53685147 0 54
0.60008854 2.4877422 0.56191105 0 55
0.59646672 2.4727275 0.58309346 0 56
0.59841961 2.4808235 0.609761 0 57
0.59855014 2.4813645 0.63476694 0 58
0.59568375 2.4694815 0.65659446 0 59
0.60052508 2.4895518 0.68711972 0 60
0.59778696 2.4782007 0.70918489 0 61
0.59577626 2.4698651 0.73204172 0 62
0.60122514 2.4924541 0.76434529 0 63
0.55003363 2.409842 -0.73688138 0 0
0.56780815 2.4877169 -0.73520786 0 1
0.56656629 2.4822762 -0.70830393 0 2
0.5657807 2.4788344 -0.68218988 0 3
0.56721842 2.4851332 -0.65885168 0 4
0.56216288 2.4629836 -0.62824899 0 5
0.56063795 2.4563026 -0.6019941 0 6
0.56490171 2.474983 -0.58194333 0 7
0.56506848 2.4757137 -0.55758256 0 8
0.569534 2.4952786 -0.53736216 0 9
0.56812888 2.4891224 -0.51156509 0 10
0.56378502 2.4700906 -0.48345888 0 11
0.56498331 2.4753406 -0.46032506 0 12
0.56620938 2.4807122 -0.43719086 0 13
0.56602681 2.4799125 -0.4130007 0 14
0.56468403 2.4740295 -0.38810033 0 15
0.56282973 2.4659052 -0.36305076 0 16
0.56706923 2.4844794 -0.34189442 0 17
0.56534785 2.4769378 -0.3170968 0 18
0.56443918 2.4729567 -0.29291996 0 19
0.56443751 2.4729493 -0.26930222 0 20
0.56249356 2.4644325 -0.24488512 0 21
0.56599385 2.479768 -0.22281526 0 22
0.56581295 2.4789755 -0.19919583 0 23
0.56928051 2.4941678 -0.1767582 0 24
0.56491679 2.475049 -0.15195607 0 25
0.5688979 2.4924915 -0.12944047 0 26
0.5662052 2.4806941 -0.10537482 0 27
0.56834853 2.4900846 -0.082249872 0 28
0.56552356 2.4777076 -0.058447998 0 29
0.56333125 2.4681025 -0.03492891 0 30
0.56590027 2.4793582 -0.011695407 0 31
0.56756675 2.4866593 0.011729849 0 32
0.56386828 2.4704554 0.034962207 0 33
0.56506032 2.4756782 0.058400124 0 34
0.57032305 2.4987354 0.082535617 0 35
0.56772238 2.4873414 0.10565718 0 36
0.56785357 2.487916 0.12920286 0 37
0.56536007 2.4769912 0.15207531 0 38
0.56734318 2.4856799 0.17615668 0 39
0.56443632 2.472944 0.1987112 0 40
0.56443119 2.4729216 0.22220008 0 41
0.56390125 2.4705999 0.24549794 0 42
0.56679893 2.4832954 0.2704289 0 43
0.56696272 2.4840131 0.2942296 0 44
0.56334555 2.4681652 0.31597376 0 45
0.56701922 2.4842603 0.34186429 0 46
0.56621218 2.4807246 0.36523262 0 47
0.56600451 2.479815 0.38900787 0 48
0.56357038 2.4691503 0.41120836 0 49
0.56613153 2.4803712 0.43713078 0 50
0.56836778 2.490169 0.46308261 0 51
0.56823015 2.4895658 0.48727062 0 52
0.56573206 2.4786212 0.50940692 0 53
0.56385374 2.4703918 0.53200275 0 54
0.56720507 2.485075 0.55969089 0 55
0.56658953 2.4823778 0.58368206 0 56
0.5641374 2.4716344 0.60575163 0 57
0.56622547 2.480783 0.63278919 0 58
0.56743973 2.4861031 0.65910876 0 59
0.56402868 2.4711583 0.68007737 0 60
0.56661159 2.4824746 0.70836055 0 61
0.56477457 2.474426 0.73127991 0 62
0.56568658 2.4784217 0.75785166 0 63
0.51924688 2.4112458 -0.73530263 0 0
0.53296191 2.4749348 -0.7294383 0 1
0.53447169 2.4819458 -0.70628095 0 2
0.53490168 2.4839427 -0.68173409 0 3
0.53095508 2.4656157 -0.65189701 0 4
0.53101569 2.4658971 -0.62727922 0 5
0.53106678 2.4661343 -0.60275763 0 6
0.53623128 2.4901171 -0.58390725 0 7
0.53480911 2.4835129 -0.55781579 0 8
0.5361101 2.4895544 -0.5346694 0 9
0.53246915 2.4726465 -0.50679505 0 10
0.53302348 2.4752207 -0.48314357 0 11
0.53281629 2.4742584 -0.45887074 0 12
0.53297132 2.4749784 -0.43499249 0 13
0.53336155 2.4767909 -0.41135746 0 14
0.53355759 2.4777009 -0.38761774 0 15
0.53445822 2.4818833 -0.36440811 0 16
0.53380966 2.4788716 -0.34019372 0 17
0.53238046 2.4722347 -0.31563282 0 18
0.53449351 2.4820471 -0.29319608 0 19
0.5337339 2.4785199 -0.26917377 0 20
0.53434318 2.481349 -0.24589458 0 21
0.53434241 2.4813454 -0.22234979 0 22
0.53277421 2.4740632 -0.19825971 0 23
0.53399873 2.4797494 -0.17525782 0 24
0.53568965 2.4876018 -0.15231082 0 25
0.53332895 2.4766393 -0.12826696 0 26
0.53570032 2.4876513 -0.10538257 0 27
0.5336352 2.4780614 -0.08162982 0 28
0.53303158 2.4752584 -0.058231205 0 29
0.53373545 2.4785271 -0.034980912 0 30
0.53485841 2.4837418 -0.011684178 0 31
0.53232485 2.4719765 0.011628832 0 32
0.53060949 2.464011 0.034776039 0 33
0.5342412 2.4808757 0.058363352 0 34
0.53277862 2.4740837 0.081498787 0 35
0.53209209 2.4708958 0.10467277 0 36
0.53168094 2.4689863 0.1278706 0 37
0.53518999 2.4852815 0.15216875 0 38
0.53380597 2.4788544 0.17519456 0 39
0.53141063 2.467731 0.19775228 0 40
0.53470689 2.4830379 0.22250146 0 41
0.53323185 2.4761884 0.24538317 0 42
0.53050452 2.4635231 0.2675451 0 43
0.53357732 2.4777925 0.2926935 0 44
0.53334522 2.4767146 0.31620479 0 45
0.53166837 2.4689279 0.33882907 0 46
0.53493792 2.4841111 0.36473516 0 47
0.53314203 2.4757712 0.38731584 0 48
0.5318197 2.4696307 0.41016829 0 49
0.53456748 2.4823906 0.43629521 0 50
0.53275979 2.4739962 0.4588221 0 51
0.53309548 2.4755552 0.48320886 0 52
0.53280258 2.474195 0.50711244 0 53
0.53254074 2.4729791 0.53110957 0 54
0.53302401 2.4752231 0.55595386 0 55
0.53727525 2.4949648 0.58504403 0 56
0.53478622 2.4834063 0.60697919 0 57
0.53639567 2.4908805 0.63363451 0 58
0.53604436 2.489249 0.65814555 0 59
0.53409517 2.4801974 0.68070614 0 60
0.53566766 2.4874995 0.70786136 0 61
0.53533584 2.4859586 0.73268735 0 62
0.53310335 2.4755917 0.75492471 0 63
0.48978418 2.4185548 -0.73563927 0 0
0.4989897 2.4640117 -0.72435576 0 1
0.50307226 2.4841712 -0.7051006 0 2
0.50306612 2.4841409 -0.68003929 0 3
0.50035888 2.4707725 -0.65158451 0 4
0.50369221 2.4872327 -0.63108331 0 5
0.50014186 2.4697008 -0.6020807 0 6
0.50271785 2.4824212 -0.5806092 0 7
0.50039971 2.4709742 -0.55357563 0 8
0.50462681 2.4918475 -0.53378892 0 9
0.5001477 2.4697297 -0.50489855 0 10
0.50274217 2.4825413 -0.48332927 0 11
0.50095344 2.4737084 -0.45759174 0 12
0.49980724 2.4680486 -0.43266162 0 13
0.50399512 2.4887283 -0.41227967 0 14
0.50262243 2.48195 -0.38728634 0 15
0.50469011 2.4921603 -0.36497822 0 16
0.50077415 2.4728231 -0.33849299 0 17
0.50177878 2.4777842 -0.31552973 0 18
0.50161606 2.4769804 -0.2918469 0 19
0.50210643 2.4794018 -0.26857874 0 20
0.50256836 2.481683 -0.24529672 0 21
0.50178427 2.4778111 -0.22146344 0 22
0.50177598 2.4777701 -0.19804735 0 23
0.50298601 2.4837453 -0.17508985 0 24
0.50167966 2.4772947 -0.15129058 0 25
0.50277388 2.482698 -0.12825085 0 26
0.50242287 2.4809647 -0.10482967 0 27
0.50051653 2.4715509 -0.081206478 0 28
0.50356418 2.4866002 -0.058347944 0 29
0.50035608 2.4707587 -0.03478181 0 30
0.50288385 2.4832411 -0.011651852 0 31
0.50112814 2.4745712 0.011611171 0 32
0.50166959 2.4772449 0.034873117 0 33
0.50245053 2.4811013 0.058218911 0 34
0.50072432 2.4725771 0.081240192 0 35
0.50405896 2.4890435 0.10517103 0 36
0.5016281 2.4770401 0.1279586 0 37
0.49997988 2.4689012 0.15077798 0 38
0.50246793 2.4811871 0.17490952 0 39
0.50334269 2.4855068 0.19866574 0 40
0.50399691 2.4887371 0.22244 0 41
0.50367254 2.4871354 0.24583566 0 42
0.5042541 2.4900072 0.26972756 0 43
0.50316155 2.4846122 0.2927461 0 44
0.50252289 2.4814584 0.3159976 0 45
0.50397933 2.4886503 0.3406595 0 46
0.50294375 2.483537 0.36371532 0 47
0.50245047 2.481101 0.38715383 0 48
0.50132352 2.4755359 0.41009423 0 49
0.50429201 2.4901946 0.43654391 0 50
0.50154865 2.4766479 0.45813546 0 51
0.50246096 2.4811528 0.48305893 0 52
0.49600098 2.4492533 0.50071245 0 53
0.50242597 2.4809799 0.53146088 0 54
0.50158632 2.4768336 0.55488831 0 55
0.50251597 2.4814243 0.58037609 0 56
0.50225794 2.4801502 0.60462809 0 57
0.50641423 2.500674 0.63449377 0 58
0.49907145 2.4644153 0.64990795 0 59
0.50305766 2.4840991 0.68002784 0 60
0.50303191 2.4839718 0.70504403 0 61
0.50258881 2.4817841 0.7295804 0 62
0.50478095 2.4926085 0.75816387 0 63
0.45827305 2.4152412 -0.73286206 0 0
0.4703128 2.4786944 -0.72691709 0 1
0.4710435 2.4825456 -0.70294201 0 2
0.47137284 2.4842813 -0.67843974 0 3
0.46898094 2.4716752 -0.65025252 0 4
0.47152165 2.4850655 -0.62901479 0 5
0.47258446 2.4906669 -0.60572946 0 6
0.47128308 2.4838083 -0.57953441 0 7
0.46990764 2.4765592 -0.55349052 0 8
0.47109485 2.4828162 -0.53057325 0 9
0.46771228 2.4649889 -0.50271565 0 10
0.47167942 2.4858971 -0.4828169 0 11
0.47173423 2.4861858 -0.45879212 0 12
0.46906245 2.4721048 -0.43232891 0 13
0.47048393 2.4795964 -0.40977752 0 14
0.46971926 2.4755664 -0.38535979 0 15
0.4706023 2.4802203 -0.36235476 0 16
0.46953586 2.4745998 -0.33792028 0 17
0.4738529 2.4973521 -0.31725559 0 18
0.46946079 2.4742041 -0.29081762 0 19
0.47196501 2.4874022 -0.26879638 0 20
0.46913567 2.4724908 -0.24379951 0 21
0.47069278 2.4806972 -0.22118737 0 22
0.47104481 2.4825523 -0.19795166 0 23
0.47181207 2.4865961 -0.17486861 0 24
0.46815965 2.4673467 -0.15032013 0 25
0.47167143 2.4858549 -0.12810464 0 26
0.47137198 2.4842768 -0.10471679 0 27
0.47025186 2.4783733 -0.081234507 0 28
0.47010502 2.4775994 -0.057996713 0 29
0.47003847 2.4772487 -0.034789175 0 30
0.4705663 2.4800305 -0.01160876 0 31
0.46875116 2.4704642 0.011563981 0 32
0.46879435 2.4706917 0.034697093 0 33
0.47156951 2.4853177 0.058177389 0 34
0.46997476 2.476913 0.081186637 0 35
0.46979955 2.4759896 0.10436746 0 36
0.47239459 2.489666 0.12830105 0 37
0.47091827 2.4818854 0.15120588 0 38
0.47201046 2.4876418 0.17494215 0 39
0.46810231 2.4670446 0.19671512 0 40
0.47095203 2.4820635 0.22130919 0 41
0.46973982 2.4756749 0.24411348 0 42
0.47006935 2.4774113 0.26771677 0 43
0.47092158 2.4819028 0.29172254 0 44
0.47166052 2.4857974 0.3157877 0 45
0.46795931 2.466291 0.33678567 0 46
0.4699845 2.4769642 0.36187905 0 47
0.46616486 2.4568336 0.38244376 0 48
0.46859422 2.4696372 0.40813163 0 49
0.46911862 2.4724007 0.43238068 0 50
0.46971941 2.4755671 0.45683259 0 51
0.46748656 2.4637992 0.47852504 0 52
0.47134677 2.4841437 0.50662208 0 53
0.47106504 2.4826591 0.53053963 0 54
0.47204286 2.4878125 0.55600554 0 55
0.47137293 2.4842818 0.57964492 0 56
0.46927562 2.4732282 0.60148841 0 57
0.46889091 2.4712007 0.62550533 0 58
0.47053018 2.4798403 0.65240061 0 59
0.46867582 2.470067 0.67455792 0 60
0.46809667 2.4670148 0.69854438 0 61
0.47253895 2.490427 0.73035783 0 62
0.47088394 2.4817045 0.75302911 0 63
0.42859459 2.4209921 -0.73295248 0 0
0.43831041 2.4758737 -0.7244544 0 1
0.43836281 2.4761696 -0.69955748 0 2
0.44293761 2.5020111 -0.68174267 0 3
0.43827301 2.4756625 -0.64983457 0 4
0.43782806 2.4731491 -0.62458855 0 5
0.43979907 2.4842827 -0.60281605 0 6
0.43926761 2.4812806 -0.57764071 0 7
0.43860695 2.4775486 -0.55246449 0 8
0.44026291 2.4869027 -0.53024954 0 9
0.43829659 2.4757957 -0.50378233 0 10
0.43659791 2.4662004 -0.47791255 0 11
0.4385249 2.4770851 -0.45608318 0 12
0.44036725 2.4874921 -0.4340401 0 13
0.43816772 2.4750676 -0.40810785 0 14
0.44038677 2.4876022 -0.38636121 0 15
0.43959373 2.4831228 -0.36196169 0 16
0.43781886 2.4730968 -0.33695444 0 17
0.43791342 2.4736311 -0.31353438 0 18
0.43870029 2.478076 -0.29061669 0 19
0.43836245 2.4761677 -0.26697966 0 20
0.4374693 2.4711225 -0.24311578 0 21
0.4393855 2.4819465 -0.22080033 0 22
0.43900716 2.4798093 -0.19728759 0 23
0.44019324 2.4865091 -0.17446865 0 24
0.43845776 2.476706 -0.15055047 0 25
0.44071394 2.4894505 -0.12800099 0 26
0.43835685 2.476136 -0.10413855 0 27
0.43797275 2.4739664 -0.080907419 0 28
0.43972033 2.4838378 -0.058011789 0 29
0.43879792 2.4786274 -0.03473014 0 30
0.43866259 2.4778631 -0.01157249 0 31
0.43862864 2.4776714 0.011571595 0 32
0.43689784 2.4678946 0.034579754 0 33
0.43926844 2.4812853 0.057952173 0 34
0.4371987 2.469594 0.080764428 0 35
0.43847403 2.4767978 0.1041664 0 36
0.43879959 2.478637 0.12744498 0 37
0.43847078 2.4767795 0.15055494 0 38
0.43985027 2.4845717 0.17433272 0 39
0.43753719 2.4715059 0.19662699 0 40
0.44025809 2.4868755 0.22123882 0 41
0.44027963 2.4869971 0.24467757 0 42
0.44010383 2.4860041 0.26804024 0 43
0.43806455 2.4744849 0.29019552 0 44
0.43850979 2.477 0.31396139 0 45
0.43754524 2.4715514 0.33674386 0 46
0.43767816 2.4723022 0.3603844 0 47
0.43928236 2.4813638 0.38539228 0 48
0.43773124 2.4726021 0.40770131 0 49
0.44142315 2.4934566 0.4350808 0 50
0.44145352 2.493628 0.45912904 0 51
0.43779904 2.472985 0.4792273 0 52
0.43773213 2.4726071 0.50313348 0 53
0.43702853 2.4686327 0.52635407 0 54
0.43850443 2.4769697 0.55233538 0 55
0.43968937 2.4836631 0.57819533 0 56
0.43928033 2.4813523 0.60210502 0 57
0.44019148 2.4864993 0.62796009 0 58
0.44002828 2.4855773 0.65243715 0 59
0.43844521 2.476635 0.67482823 0 60
0.44012728 2.4861367 0.70237327 0 61
0.44039679 2.487659 0.72790289 0 62
0.43878403 2.478549 0.75037771 0 63
0.399672 2.4314156 -0.73456472 0 0
0.40801281 2.482157 -0.72477013 0 1
0.40800294 2.4820971 -0.69976181 0 2
0.4096159 2.4919095 -0.67756653 0 3
0.40931994 2.490109 -0.65225619 0 4
0.40666893 2.4739816 -0.62348878 0 5
0.40900466 2.4881911 -0.60249847 0 6
0.41045821 2.4970336 -0.58008915 0 7
0.40584129 2.4689465 -0.54939198 0 8
0.40876821 2.4867525 -0.52910584 0 9
0.40757483 2.4794927 -0.50347674 0 10
0.4076719 2.480083 -0.47959512 0 11
0.40680346 2.4747999 -0.454707 0 12
0.40581095 2.4687619 -0.42986867 0 13
0.40621871 2.4712427 -0.40662277 0 14
0.40578619 2.4686112 -0.38260773 0 15
0.40738037 2.4783096 -0.36050263 0 16
0.40728819 2.4777489 -0.33688042 0 17
0.40728208 2.4777117 -0.31339312 0 18
0.40732023 2.4779439 -0.28999189 0 19
0.40761703 2.4797494 -0.26680526 0 20
0.40859431 2.4856946 -0.24403669 0 21
0.40530914 2.4657092 -0.2188959 0 22
0.40701544 2.4760895 -0.19657861 0 23
0.40848893 2.4850535 -0.17400093 0 24
0.40710789 2.4766519 -0.15023153 0 25
0.40562621 2.467638 -0.12661342 0 26
0.40688452 2.4752932 -0.10388484 0 27
0.4071517 2.4769185 -0.080834121 0 28
0.40603575 2.4701297 -0.057570662 0 29
0.40896535 2.4879518 -0.0347877 0 30
0.40693617 2.4756072 -0.011537713 0 31
0.40552339 2.4670126 0.011497657 0 32
0.40572691 2.4682508 0.034512229 0 33
0.40863803 2.4859605 0.05793963 0 34
0.40843344 2.4847159 0.081088595 0 35
0.40811679 2.4827898 0.10419945 0 36
0.40689018 2.4753275 0.12700796 0 37
0.40810692 2.4827294 0.15060019 0 38
0.40770999 2.4803147 0.17366913 0 39
0.40482587 2.4627693 0.1955211 0 40
0.40624139 2.4713805 0.21939936 0 41
0.40640771 2.4723926 0.24273072 0 42
0.40695757 2.4757373 0.2663736 0 43
0.40589821 2.4692929 0.28897947 0 44
0.40652487 2.4731052 0.31281048 0 45
0.40857708 2.4855897 0.3379465 0 46
0.40750507 2.4790683 0.36061299 0 47
0.40655974 2.4733171 0.38333708 0 48
0.40923184 2.489573 0.40963891 0 49
0.40849003 2.4850602 0.43270659 0 50
0.40728015 2.4776998 0.45523983 0 51
0.40981036 2.4930925 0.48211086 0 52
0.40800455 2.4821069 0.50400758 0 53
0.40703189 2.4761896 0.52685833 0 54
0.40798745 2.4820027 0.55229729 0 55
0.40608054 2.470402 0.57390231 0 56
0.40547684 2.4667294 0.59730172 0 57
0.40737543 2.4782796 0.62457192 0 58
0.40833661 2.4841268 0.65068924 0 59
0.40630007 2.4717376 0.67208165 0 60
0.40868586 2.4862516 0.70093304 0 61
0.4058654 2.4690933 0.72095561 0 62
0.40797451 2.4819241 0.74982405 0 63
0.37011817 2.4385965 -0.73530364 0 0
0.37676623 2.4823987 -0.72343326 0 1
0.37627834 2.4791842 -0.69758338 0 2
0.37616408 2.4784312 -0.67259318 0 3
0.37577263 2.475852 -0.64726251 0 4
0.37606964 2.477809 -0.62324083 0 5
0.37535697 2.4731135 -0.59768474 0 6
0.37569433 2.4753363 -0.57393205 0 7
0.37749425 2.4871953 -0.55237806 0 8
0.37626374 2.4790878 -0.52645081 0 9
0.37794802 2.490185 -0.50466603 0 10
0.37511393 2.4715121 -0.47700962 0 11
0.37655821 2.4810281 -0.45496619 0 12
0.3759017 2.4767027 -0.43041393 0 13
0.37417138 2.465302 -0.40485764 0 14
0.37661418 2.4813967 -0.38384256 0 15
0.37693313 2.4834983 -0.36055592 0 16
0.37387016 2.4633174 -0.33426797 0 17
0.37630066 2.479331 -0.31298903 0 18
0.37653255 2.480859 -0.28976929 0 19
0.37512425 2.47158 -0.26540995 0 20
0.37700629 2.4839802 -0.24339485 0 21
0.37335458 2.4599204 -0.21795794 0 22
0.37640265 2.4800031 -0.19650701 0 23
0.37713945 2.4848578 -0.17364939 0 24
0.37532973 2.472934 -0.14971474 0 25
0.37566394 2.475136 -0.12675154 0 26
0.37462795 2.4683101 -0.10339062 0 27
0.37720272 2.4852746 -0.080949336 0 28
0.37604445 2.477643 -0.057633646 0 29
0.37749228 2.4871824 -0.034709413 0 30
0.37651265 2.4807277 -0.011539128 0 31
0.37636945 2.4797843 0.011534739 0 32
0.37547147 2.4738679 0.034523606 0 33
0.37589321 2.4766464 0.057610467 0 34
0.3746897 2.4687171 0.080410026 0 35
0.37730825 2.4859698 0.10413034 0 36
0.37715575 2.4849651 0.12725489 0 37
0.37621135 2.4787426 0.15006639 0 38
0.37777233 2.4890275 0.17394078 0 39
0.37561101 2.4747872 0.19609371 0 40
0.37684488 2.4829168 0.21999551 0 41
0.37735596 2.4862843 0.24362059 0 42
0.37762201 2.4880371 0.26717716 0 43
0.37303725 2.4578295 0.28707939 0 44
0.37497315 2.4705844 0.31188485 0 45
0.37450698 2.4675131 0.33483732 0 46
0.37585521 2.4763961 0.35952482 0 47
0.3742916 2.466094 0.38147542 0 48
0.37585419 2.4763896 0.40667847 0 49
0.37413326 2.4650509 0.42838904 0 50
0.37505257 2.4711077 0.45314702 0 51
0.3763206 2.4794626 0.47854409 0 52
0.37642965 2.480181 0.50263858 0 53
0.37597877 2.4772103 0.52605206 0 54
0.37705323 2.4842896 0.55173272 0 55
0.37687355 2.4831057 0.57573342 0 56
0.37649733 2.4806271 0.59950054 0 57
0.37620816 2.4787216 0.62347037 0 58
0.37663603 2.4815409 0.64874971 0 59
0.37473822 2.4690368 0.67004371 0 60
0.37746283 2.4869883 0.69977927 0 61
0.37586847 2.4764836 0.72170943 0 62
0.37551016 2.4741228 0.74601579 0 63
0.34078112 2.4478102 -0.73676258 0 0
0.3439694 2.4707112 -0.71874028 0 1
0.34464109 2.4755359 -0.69531184 0 2
0.3426185 2.4610078 -0.6666711 0 3
0.34344614 2.4669528 -0.64378321 0 4
0.34370479 2.4688106 -0.61986756 0 5
0.34492159 2.4775507 -0.59768689 0 6
0.34514564 2.4791601 -0.57379121 0 7
0.34572849 2.4833467 -0.55053759 0 8
0.3438307 2.4697149 -0.52352297 0 9
0.34258589 2.4607735 -0.49781409 0 10
0.34445313 2.4741857 -0.47667214 0 11
0.34731236 2.4947236 -0.45665997 0 12
0.34560123 2.4824326 -0.43063864 0 13
0.34557164 2.4822199 -0.40690735 0 14
0.34632921 2.4876616 -0.38412383 0 15
0.34644914 2.488523 -0.36063969 0 16
0.34549463 2.481667 -0.33615607 0 17
0.34414816 2.4719954 -0.3115052 0 18
0.34355575 2.4677401 -0.28772178 0 19
0.34595183 2.484951 -0.26636881 0 20
0.34230164 2.4587317 -0.24049023 0 21
0.34432316 2.4732523 -0.21874751 0 22
0.34440941 2.4738717 -0.19567081 0 23
0.34629259 2.4873984 -0.17351624 0 24
0.34412301 2.4718146 -0.14937949 0 25
0.34356365 2.4677968 -0.12614982 0 26
0.34299865 2.4637384 -0.10301466 0 27
0.34597331 2.4851053 -0.08079914 0 28
0.34535575 2.4806693 -0.057600904 0 29
0.34528196 2.4801393 -0.034549262 0 30
0.34674317 2.4906352 -0.011564505 0 31
0.34500504 2.4781504 0.011506535 0 32
0.34515557 2.4792316 0.034536615 0 33
0.34512404 2.4790049 0.057562258 0 34
0.34487894 2.4772444 0.080543563 0 35
0.34433129 2.4733107 0.10341491 0 36
0.34418124 2.4722331 0.12637658 0 37
0.34387961 2.4700663 0.14927383 0 38
0.34453639 2.4747841 0.17263629 0 39
0.34521285 2.4796429 0.19612728 0 40
0.34477013 2.4764628 0.21903147 0 41
0.34604025 2.4855859 0.24311687 0 42
0.34451935 2.4746616 0.26526588 0 43
0.34214687 2.4576201 0.28654188 0 44
0.34526008 2.4799821 0.31251165 0 45
0.34621313 2.4868279 0.33685514 0 46
0.34470987 2.4760299 0.35882917 0 47
0.34510809 2.4788904 0.3827695 0 48
0.34346679 2.4671011 0.40442893 0 49
0.34739727 2.4953334 0.43287659 0 50
0.34633356 2.4876928 0.45537299 0 51
0.3438136 2.4695921 0.47578713 0 52
0.34468693 2.4758651 0.50086713 0 53
0.34505835 2.478533 0.52539223 0 54
0.34668654 2.4902284 0.55206317 0 55
0.34574234 2.4834464 0.57478321 0 56
0.34633356 2.4876928 0.6001336 0 57
0.34670869 2.4903874 0.62528509 0 58
0.34510168 2.4788444 0.64688647 0 59
0.34337306 2.4664278 0.66813934 0 60
0.34566841 2.4829152 0.69738448 0 61
0.34599569 2.485266 0.72297436 0 62
0.34365228 2.4684334 0.74296999 0 63
0.30999482 2.4465795 -0.73518926 0 0
0.31443265 2.4816041 -0.72072983 0 1
0.31467873 2.4835465 -0.69642234 0 2
0.31585759 2.4928503 -0.67419392 0 3
0.31447077 2.481905 -0.64662719 0 4
0.31320062 2.4718807 -0.61962456 0 5
0.31455836 2.4825964 -0.59792584 0 6
0.31364518 2.4753892 -0.57198262 0 7
0.31245121 2.465966 -0.54579139 0 8
0.31469777 2.4836967 -0.52562678 0 9
0.31370488 2.4758604 -0.50004798 0 10
0.31492221 2.4854681 -0.47806358 0 11
0.3119846 2.4622834 -0.4499855 0 12
0.31348363 2.4741142 -0.42849451 0 13
0.31487715 2.4851124 -0.40671605 0 14
0.31357756 2.4748554 -0.38152221 0 15
0.3131853 2.4717598 -0.35762519 0 16
0.31345665 2.4739013 -0.33455676 0 17
0.31298596 2.4701865 -0.31076878 0 18
0.31433296 2.4808176 -0.28877404 0 19
0.31234887 2.4651582 -0.26381555 0 20
0.31431195 2.4806516 -0.24223788 0 21
0.31468377 2.4835861 -0.21930267 0 22
0.31174251 2.4603727 -0.19428523 0 23
0.31369337 2.4757695 -0.17242292 0 24
0.31299844 2.4702849 -0.14904319 0 25
0.31375891 2.4762869 -0.12637703 0 26
0.31409872 2.4789689 -0.10348217 0 27
0.31279784 2.4687018 -0.080134697 0 28
0.31421247 2.4798665 -0.057488203 0 29
0.31444833 2.4817278 -0.034514919 0 30
0.31360957 2.4751081 -0.011473638 0 31
0.31378675 2.4765065 0.011480119 0 32
0.31473604 2.4839985 0.034546498 0 33
0.31360289 2.4750555 0.057376672 0 34
0.31221017 2.4640636 0.079984143 0 35
0.31320024 2.4718776 0.10318615 0 36
0.31199521 2.4623671 0.12566665 0 37
0.31347018 2.4740081 0.14926782 0 38
0.31171358 2.4601445 0.17133471 0 39
0.31367266 2.4756062 0.19548814 0 40
0.31299412 2.4702508 0.21812515 0 41
0.31356868 2.4747856 0.24166507 0 42
0.31304419 2.4706459 0.26440281 0 43
0.31294283 2.469846 0.28749692 0 44
0.3148503 2.4849005 0.31261989 0 45
0.31474212 2.4840465 0.33592874 0 46
0.31433657 2.4808459 0.3589398 0 47
0.31359932 2.4750273 0.3815487 0 48
0.31432024 2.4807169 0.40599668 0 49
0.31471315 2.4838181 0.43017513 0 50
0.31214955 2.4635854 0.45022345 0 51
0.31330571 2.4727099 0.47560963 0 52
0.31367102 2.4755933 0.49999404 0 53
0.3142536 2.480191 0.52488488 0 54
0.31430683 2.4806113 0.54903281 0 55
0.31283778 2.469017 0.57051015 0 56
0.312828 2.4689398 0.59463668 0 57
0.31308004 2.4709289 0.61938596 0 58
0.31328189 2.472522 0.64418262 0 59
0.31359679 2.4750073 0.66936821 0 60
0.312778 2.4685452 0.69221574 0 61
0.31369704 2.4757986 0.71904373 0 62
0.31443411 2.4816158 0.74571753 0 63
0.2792758 2.4448347 -0.73357755 0 0
0.28352213 2.4820077 -0.71978015 0 1
0.28287715 2.4763618 -0.69337982 0 2
0.28357607 2.48248 -0.67039555 0 3
0.28240654 2.4722416 -0.64315617 0 4
0.28229773 2.4712892 -0.61855942 0 5
0.28454912 2.4909983 -0.59906143 0 6
0.28263247 2.4742196 -0.57086611 0 7
0.28154394 2.4646904 -0.54470164 0 8
0.28418702 2.4878285 -0.52572191 0 9
0.28313228 2.478595 -0.49985933 0 10
0.28335366 2.4805329 -0.47640815 0 11
0.28383714 2.4847658 -0.45342207 0 12
0.28121224 2.4617867 -0.42572844 0 13
0.28118119 2.4615149 -0.40225777 0 14
0.28207421 2.4693325 -0.38010734 0 15
0.28294107 2.4769211 -0.35784152 0 16
0.28205431 2.4691584 -0.33342111 0 17
0.2831338 2.4786084 -0.31136677 0 18
0.28305849 2.4779491 -0.28801322 0 19
0.28366965 2.4832993 -0.2653636 0 20
0.28169903 2.466048 -0.2404554 0 21
0.28248852 2.4729598 -0.21804114 0 22
0.28244233 2.4725552 -0.19495822 0 23
0.28223094 2.4707048 -0.17181548 0 24
0.28239208 2.4721153 -0.14893286 0 25
0.28321832 2.4793484 -0.12634601 0 26
0.28236824 2.4719067 -0.10303464 0 27
0.28295588 2.477051 -0.080286704 0 28
0.2838724 2.485074 -0.057523657 0 29
0.28147775 2.4641109 -0.034219183 0 30
0.28207511 2.4693406 -0.011429958 0 31
0.28271872 2.4749746 0.011456037 0 32
0.28311089 2.4784079 0.034417726 0 33
0.28210077 2.4695652 0.057164658 0 34
0.28288141 2.4763989 0.080265567 0 35
0.28126428 2.4622424 0.10263181 0 36
0.28358787 2.4825835 0.12651086 0 37
0.28235805 2.4718173 0.1489149 0 38
0.28174314 2.4664345 0.17151853 0 39
0.28297079 2.4771812 0.19532299 0 40
0.28132305 2.4627566 0.21714154 0 41
0.28335097 2.4805098 0.2418655 0 42
0.28214192 2.4699254 0.26393446 0 43
0.2822755 2.4710946 0.28721651 0 44
0.28430068 2.4888234 0.31265 0 45
0.28257817 2.4737444 0.33404037 0 46
0.28279886 2.4756763 0.35766169 0 47
0.28280902 2.4757652 0.38109753 0 48
0.28188521 2.4676781 0.40326497 0 49
0.28224647 2.4708407 0.42729419 0 50
0.2830281 2.4776831 0.45212963 0 51
0.28214446 2.4699476 0.47437516 0 52
0.28231469 2.4714377 0.49841592 0 53
0.28208527 2.4694293 0.52183384 0 54
0.28197822 2.468492 0.54554182 0 55
0.28086209 2.4587214 0.56729031 0 56
0.28247273 2.4728212 0.59468997 0 57
0.28404209 2.4865596 0.62238157 0 58
0.28289136 2.4764862 0.64426041 0 59
0.28344509 2.4813335 0.67008591 0 60
0.28392571 2.4855411 0.69595003 0 61
0.28224421 2.4708209 0.71653593 0 62
0.28313854 2.4786501 0.74372393 0 63
0.25005931 2.4565833 -0.73612452 0 0
0.25200287 2.475677 -0.71699136 0 1
0.25073007 2.4631727 -0.68877161 0 2
0.25343189 2.4897156 -0.67145717 0 3
0.252038 2.476022 -0.64328474 0 4
0.25211775 2.4768057 -0.61911738 0 5
0.2506327 2.4622166 -0.59135377 0 6
0.25144669 2.4702129 -0.56918526 0 7
0.25057304 2.4616303 -0.54330331 0 8
0.25038913 2.4598236 -0.51911408 0 9
0.25303659 2.4858322 -0.50065351 0 10
0.25133744 2.4691396 -0.47359058 0 11
0.25057364 2.4616361 -0.44860518 0 12
0.25235227 2.4791093 -0.42815512 0 13
0.25192159 2.4748785 -0.40390489 0 14
0.25136217 2.4693828 -0.3796106 0 15
0.25451815 2.500387 -0.36075222 0 16
0.252307 2.4786649 -0.33426061 0 17
0.25238514 2.4794323 -0.31105688 0 18
0.251811 2.4737921 -0.28714845 0 19
0.25138703 2.4696269 -0.26355231 0 20
0.25281462 2.4836516 -0.24185047 0 21
0.25212368 2.4768639 -0.21809554 0 22
0.25306109 2.4860728 -0.19576392 0 23
0.25136393 2.4693999 -0.17149685 0 24
0.25177792 2.4734671 -0.14881653 0 25
0.25112587 2.467061 -0.125553 0 26
0.25087896 2.4646356 -0.10259522 0 27
0.25200915 2.4757385 -0.08013767 0 28
0.25281468 2.4836521 -0.057414439 0 29
0.25204954 2.4761355 -0.034340531 0 30
0.25092411 2.4650793 -0.01139509 0 31
0.25153694 2.4710994 0.011422919 0 32
0.25105917 2.4664059 0.034205597 0 33
0.25027591 2.4587114 0.056837887 0 34
0.2521629 2.4772491 0.080186561 0 35
0.25169429 2.4726453 0.10292865 0 36
0.25225064 2.478111 0.12611535 0 37
0.25235561 2.4791422 0.14915797 0 38
0.25206205 2.4762585 0.17197317 0 39
0.2523239 2.4788308 0.19519365 0 40
0.25220731 2.4776855 0.21816789 0 41
0.25239399 2.4795194 0.24144807 0 42
0.25274163 2.4829347 0.26497251 0 43
0.25120169 2.4678061 0.2864536 0 44
0.25162116 2.4719272 0.31011534 0 45
0.25184092 2.4740858 0.33364311 0 46
0.25322944 2.4877269 0.35892564 0 47
0.25169092 2.4726124 0.38010707 0 48
0.25147602 2.4705012 0.40319049 0 49
0.25058764 2.4617736 0.42516115 0 50
0.25202307 2.4758754 0.45120013 0 51
0.25155497 2.4712765 0.47400048 0 52
0.25156102 2.4713361 0.49773398 0 53
0.25273475 2.482867 0.5239771 0 54
0.25344926 2.4898863 0.54953969 0 55
0.25107688 2.4665802 0.56834817 0 56
0.25227961 2.4783957 0.59523958 0 57
0.25241795 2.4797547 0.61985457 0 58
0.25208846 2.4765177 0.64341354 0 59
0.25153306 2.4710615 0.6664263 0 60
0.2515316 2.4710472 0.69097352 0 61
0.2516703 2.4724097 0.71604508 0 62
0.2513181 2.4689498 0.7398302 0 63
0.21902996 2.4504614 -0.73342758 0 0
0.22027849 2.4644296 -0.71289563 0 1
0.22092117 2.4716198 -0.6903218 0 2
0.22113161 2.473974 -0.66642809 0 3
0.2230583 2.4955294 -0.64759135 0 4
0.21951388 2.4558754 -0.61316448 0 5
0.22123383 2.4751177 -0.59375405 0 6
0.22155899 2.4787555 -0.57048279 0 7
0.22067614 2.4688785 -0.54426301 0 8
0.21987069 2.4598672 -0.51851356 0 9
0.22180463 2.4815037 -0.49919474 0 10
0.22017738 2.4632986 -0.47191527 0 11
0.22124235 2.4752131 -0.4505496 0 12
0.21959172 2.4567461 -0.42379451 0 13
0.2217156 2.4805079 -0.40434808 0 14
0.22123767 2.4751608 -0.38005188 0 15
0.22221044 2.4860439 -0.3582615 0 16
0.22158396 2.4790349 -0.33391783 0 17
0.22083579 2.4706647 -0.30959287 0 18
0.22105223 2.4730861 -0.28672931 0 19
0.22212745 2.4851155 -0.26489371 0 20
0.22073114 2.4694939 -0.24018936 0 21
0.22257715 2.4901466 -0.21900758 0 22
0.22174121 2.4807944 -0.19511881 0 23
0.22030513 2.4647276 -0.1709713 0 24
0.22218125 2.4857173 -0.14937788 0 25
0.22039041 2.4656818 -0.12533541 0 26
0.22175646 2.4809649 -0.10315365 0 27
0.22011703 2.4626234 -0.079619505 0 28
0.22119005 2.474628 -0.057138637 0 29
0.22021531 2.4637227 -0.034128252 0 30
0.22083232 2.4706259 -0.011407315 0 31
0.22184017 2.4819014 0.011459377 0 32
0.22101362 2.4726541 0.034251973 0 33
0.22121055 2.4748573 0.057143934 0 34
0.22021253 2.4636917 0.079654045 0 35
0.22091314 2.47153 0.10276137 0 36
0.2211538 2.4742224 0.12576954 0 37
0.22000527 2.4613731 0.14791493 0 38
0.22080003 2.4702647 0.17135538 0 39
0.22308479 2.495826 0.19630109 0 40
0.22056895 2.4676793 0.21703158 0 41
0.22150625 2.4781656 0.24103279 0 42
0.22143412 2.4773586 0.2640669 0 43
0.22099477 2.4724433 0.28665477 0 44
0.22158651 2.4790635 0.31064531 0 45
0.22135787 2.4765055 0.33357713 0 46
0.22075124 2.4697187 0.3559089 0 47
0.2205648 2.4676328 0.378896 0 48
0.22055762 2.4675524 0.40223622 0 49
0.22101541 2.4726741 0.42654213 0 50
0.22189452 2.4825094 0.45187774 0 51
0.22162598 2.4795051 0.47502011 0 52
0.22109033 2.4735124 0.49758711 0 53
0.22054404 2.4674006 0.52010149 0 54
0.22101758 2.4726985 0.54510516 0 55
0.22072664 2.4694436 0.56833959 0 56
0.22238152 2.487958 0.59683424 0 57
0.22144967 2.4775326 0.6185717 0 58
0.2207538 2.4697473 0.64090085 0 59
0.2199799 2.4610891 0.66295719 0 60
0.22170272 2.4803638 0.69276398 0 61
0.22040945 2.4658949 0.71331948 0 62
0.22121662 2.4749253 0.74074966 0 63
0.18958873 2.4621258 -0.73616534 0 0
0.18983988 2.4653873 -0.71244353 0 1
0.190116 2.4689734 -0.68887764 0 2
0.19078009 2.4775975 -0.66672182 0 3
0.19029419 2.4712875 -0.64064485 0 4
0.18963157 2.4626822 -0.61423528 0 5
0.19113234 2.482172 -0.59483755 0 6
0.19062142 2.4755371 -0.56915957 0 7
0.19045271 2.473346 -0.54469043 0 8
0.19012262 2.4690592 -0.51991904 0 9
0.18947929 2.4607046 -0.49450454 0 10
0.19020425 2.4701195 -0.47273821 0 11
0.19172327 2.4898462 -0.45274985 0 12
0.18968828 2.4634187 -0.4245111 0 13
0.19014116 2.4693 -0.40210956 0 14
0.18982439 2.4651861 -0.37813336 0 15
0.19032158 2.471643 -0.35582206 0 16
0.19002935 2.4678481 -0.33207116 0 17
0.19147275 2.486593 -0.31127027 0 18
0.19107395 2.4814141 -0.28740072 0 19
0.190493 2.4738693 -0.26342538 0 20
0.19133314 2.4847801 -0.24142905 0 21
0.19023906 2.4705713 -0.21706378 0 22
0.19024581 2.470659 -0.194123 0 23
0.18987638 2.4658613 -0.17087507 0 24
0.19044136 2.4731987 -0.14847364 0 25
0.18921408 2.4572604 -0.12477963 0 26
0.19135629 2.4850805 -0.10321914 0 27
0.19011502 2.4689605 -0.079742789 0 28
0.19055544 2.4746802 -0.057081424 0 29
0.19176567 2.490397 -0.034462482 0 30
0.19082421 2.4781706 -0.011430453 0 31
0.19023129 2.4704707 0.011394937 0 32
0.19112357 2.4820583 0.034347087 0 33
0.19090125 2.479171 0.057185013 0 34
0.18900134 2.4544976 0.07927566 0 35
0.19023226 2.4704833 0.10261283 0 36
0.19041854 2.4729023 0.12557393 0 37
0.1907033 2.4766004 0.14867786 0 38
0.18991928 2.4664185 0.17091368 0 39
0.19035591 2.4720891 0.19423534 0 40
0.1910228 2.4807496 0.21795805 0 41
0.19106853 2.4813435 0.24109516 0 42
0.19033588 2.4718289 0.26320809 0 43
0.19039774 2.4726322 0.28638357 0 44
0.18959892 2.4622581 0.30822402 0 45
0.19049443 2.4738879 0.33288386 0 46
0.19020446 2.4701221 0.3556031 0 47
0.19071308 2.4767275 0.37990364 0 48
0.19079205 2.4777529 0.40348607 0 49
0.19050495 2.4740243 0.42633873 0 50
0.19044244 2.4732127 0.44972521 0 51
0.19147347 2.4866023 0.47589272 0 52
0.19101998 2.4807131 0.49852547 0 53
0.19160149 2.4882648 0.52396321 0 54
0.19052519 2.4742873 0.54489774 0 55
0.19004899 2.4681032 0.5674504 0 56
0.19078366 2.477644 0.59375238 0 57
0.18981653 2.4650843 0.61483443 0 58
0.19121052 2.4831874 0.64372981 0 59
0.19074176 2.4770999 0.66658789 0 60
0.19075724 2.4773009 0.69120115 0 61
0.19041368 2.4728391 0.71459693 0 62
0.19077438 2.4775236 0.74076915 0 63
0.15859589 2.4533598 -0.73290581 0 0
0.15890117 2.4580822 -0.70971423 0 1
0.15939961 2.4657929 -0.6873914 0 2
0.15906072 2.4605503 -0.66155803 0 3
0.15962625 2.4692986 -0.63957208 0 4
0.15937281 2.465378 -0.61437249 0 5
0.15975939 2.4713581 -0.59173054 0 6
0.15998949 2.4749177 -0.56852186 0 7
0.16093056 2.4894753 -0.54776531 0 8
0.15892251 2.4584122 -0.51722646 0 9
0.15926361 2.4636889 -0.49467328 0 10
0.16009828 2.4766006 -0.47356603 0 11
0.16062349 2.4847252 -0.45142537 0 12
0.15988147 2.4732466 -0.42583373 0 13
0.16010416 2.4766915 -0.40296215 0 14
0.15973236 2.4709399 -0.37868601 0 15
0.16043331 2.4817832 -0.35697088 0 16
0.16020152 2.4781976 -0.33317351 0 17
0.16037165 2.4808295 -0.31027845 0 18
0.16024725 2.4789052 -0.28686023 0 19
0.16033454 2.4802554 -0.26387548 0 20
0.159917 2.4737961 -0.24015261 0 21
0.16020201 2.4782052 -0.21754497 0 22
0.16005519 2.475934 -0.19436812 0 23
0.15861338 2.4536304 -0.16987951 0 24
0.15923788 2.4632907 -0.14775012 0 25
0.16137643 2.4963727 -0.12665541 0 26
0.15958543 2.4686673 -0.10244815 0 27
0.15886214 2.4574785 -0.079302855 0 28
0.16032141 2.4800525 -0.057155546 0 29
0.16061787 2.4846382 -0.034352865 0 30
0.16016671 2.4776592 -0.011418146 0 31
0.16104479 2.4912424 0.011480744 0 32
0.15965527 2.4697478 0.034146983 0 33
0.15979634 2.4719298 0.05696835 0 34
0.15953052 2.4678178 0.079636499 0 35
0.15905859 2.4605174 0.10210994 0 36
0.16021901 2.4784684 0.12574703 0 37
0.15990722 2.473645 0.14837117 0 38
0.15970024 2.4704432 0.17104356 0 39
0.15997547 2.4747007 0.1942713 0 40
0.15995418 2.4743714 0.21720845 0 41
0.15924004 2.4633241 0.239136 0 42
0.15994866 2.4742861 0.2632404 0 43
0.1596704 2.4699817 0.28582761 0 44
0.15957759 2.4685462 0.30874217 0 45
0.15989599 2.4734712 0.3325381 0 46
0.15897119 2.4591653 0.35371757 0 47
0.16042946 2.4817238 0.3803387 0 48
0.16080533 2.4875381 0.40472692 0 49
0.16041422 2.4814878 0.42725265 0 50
0.15943605 2.4663563 0.44808811 0 51
0.15919511 2.4626293 0.47089449 0 52
0.16048226 2.4825404 0.49845842 0 53
0.15984645 2.4727051 0.52023351 0 54
0.15943016 2.4662652 0.54265833 0 55
0.1603843 2.481025 0.56992477 0 56
0.15936884 2.4653168 0.59028399 0 57
0.15973116 2.4709215 0.61575389 0 58
0.15965149 2.4696891 0.63967323 0 59
0.16039553 2.481199 0.66710979 0 60
0.16011398 2.4768434 0.69047195 0 61
0.16069366 2.4858108 0.71772015 0 62
0.15927342 2.4638405 0.73603684 0 63
0.12862377 2.4590483 -0.73407722 0 0
0.12975246 2.4806268 -0.71570867 0 1
0.12969056 2.4794433 -0.69069999 0 2
0.12880141 2.4624443 -0.66159147 0 3
0.12950546 2.4759045 -0.64082217 0 4
0.12916774 2.4694481 -0.6149444 0 5
0.12947968 2.4754119 -0.59227514 0 6
0.12902971 2.466809 -0.56625193 0 7
0.13012691 2.4877856 -0.54700005 0 8
0.12891525 2.4646211 -0.51816005 0 9
0.1299008 2.4834628 -0.49828526 0 10
0.12958647 2.4774535 -0.47338861 0 11
0.13028157 2.4907424 -0.45219335 0 12
0.12932855 2.4725225 -0.42540306 0 13
0.12934326 2.4728038 -0.40204045 0 14
0.12940523 2.4739883 -0.37888068 0 15
0.1297081 2.4797788 -0.35642618 0 16
0.12901796 2.4665844 -0.3313739 0 17
0.1298288 2.4820864 -0.31021255 0 18
0.13001096 2.485569 -0.28742462 0 19
0.12925988 2.4712098 -0.26272416 0 20
0.13004141 2.486151 -0.24117853 0 21
0.12949832 2.4757681 -0.21717483 0 22
0.12975533 2.4806819 -0.19460088 0 23
0.12932363 2.4724283 -0.17105797 0 24
0.12952648 2.4763064 -0.14842406 0 25
0.12951849 2.4761539 -0.1255393 0 26
0.12940501 2.4739842 -0.10259501 0 27
0.12925728 2.4711597 -0.079687029 0 28
0.1301323 2.4878886 -0.057294931 0 29
0.12933564 2.4726579 -0.034162652 0 30
0.12963067 2.4782987 -0.011412884 0 31
0.12912038 2.4685428 0.011367957 0 32
0.12948105 2.4754381 0.034201063 0 33
0.12926356 2.4712801 0.056912448 0 34
0.12840918 2.4549458 0.079164185 0 35
0.1291346 2.4688146 0.10238063 0 36
0.12911177 2.4683781 0.12514506 0 37
0.1299154 2.483742 0.14886972 0 38
0.12964472 2.4785671 0.1714827 0 39
0.12955743 2.4768982 0.19430405 0 40
0.12902413 2.4667025 0.21637961 0 41
0.12929398 2.4718616 0.23979233 0 42
0.12966886 2.4790285 0.26355541 0 43
0.1292422 2.4708717 0.28572509 0 44
0.12913269 2.4687781 0.30854928 0 45
0.12886634 2.4636858 0.33098447 0 46
0.12912975 2.4687219 0.35483697 0 47
0.12929899 2.4719572 0.3785696 0 48
0.12893732 2.4650428 0.40077865 0 49
0.12925798 2.4711733 0.42517093 0 50
0.1286186 2.4589496 0.44642136 0 51
0.12921567 2.4703646 0.47203407 0 52
0.12947445 2.4753118 0.4966498 0 53
0.12961815 2.4780591 0.52098525 0 54
0.12874457 2.4613578 0.54118931 0 55
0.12876458 2.4617407 0.56508845 0 56
0.1299839 2.4850516 0.59458154 0 57
0.12933758 2.4726951 0.615753 0 58
0.12939018 2.4737008 0.64025176 0 59
0.12938932 2.4736843 0.66461134 0 60
0.12971827 2.4799731 0.69084758 0 61
0.12977928 2.4811394 0.71585655 0 62
0.12874468 2.46136 0.73476726 0 63
0.098648518 2.4671917 -0.73609042 0 0
0.098373041 2.4603021 -0.70944196 0 1
0.099165596 2.4801238 -0.69049764 0 2
0.098831542 2.4717691 -0.66372007 0 3
0.098616615 2.4663937 -0.63799852 0 4
0.098435357 2.4618607 -0.61270726 0 5
0.098831721 2.4717736 -0.59106922 0 6
0.098294683 2.4583423 -0.56398833 0 7
0.098851159 2.4722598 -0.54327804 0 8
0.098770417 2.4702406 -0.5190469 0 9
0.098176807 2.4553943 -0.49237412 0 10
0.098185956 2.4556231 -0.46895117 0 11
0.098450556 2.4622407 -0.44676533 0 12
0.098807387 2.4711652 -0.42492837 0 13
0.098622084 2.4665306 -0.40079308 0 14
0.099444583 2.4871013 -0.38067281 0 15
0.099077851 2.4779294 -0.35595834 0 16
0.098677576 2.4679184 -0.33136502 0 17
0.099219039 2.4814606 -0.3099584 0 18
0.098932602 2.4742966 -0.28595886 0 19
0.09858869 2.4656954 -0.26198921 0 20
0.099115074 2.4788604 -0.24033487 0 21
0.098205067 2.4561012 -0.21532744 0 22
0.098596945 2.4659021 -0.19333172 0 23
0.098627634 2.4666693 -0.17056273 0 24
0.098917678 2.4739234 -0.14819711 0 25
0.099551275 2.4897697 -0.12615801 0 26
0.098385841 2.4606223 -0.10198302 0 27
0.098676689 2.4678965 -0.079536654 0 28
0.099082842 2.478054 -0.057036076 0 29
0.098629631 2.4667194 -0.034061272 0 30
0.098446116 2.4621296 -0.011331993 0 31
0.098486669 2.4631441 0.011336661 0 32
0.09885294 2.4723043 0.034138389 0 33
0.098789282 2.4707122 0.056867093 0 34
0.098821551 2.4715192 0.079653412 0 35
0.098716207 2.4688847 0.10232546 0 36
0.098914616 2.4738467 0.12535119 0 37
0.098958641 2.4749479 0.14825849 0 38
0.098521724 2.4640207 0.17037958 0 39
