# .PCD v0.7 - Point Cloud Data file format
VERSION 0.7
FIELDS x y z intensity ring
SIZE 4 4 4 4 2
TYPE F F F F U
COUNT 1 1 1 1 1
WIDTH 1290
HEIGHT 1
VIEWPOINT 0 0 0 1 0 0 0
POINTS 1290
DATA ascii
-2.2191701 2.4565365 0.50629389 0 48
-2.212842 2.4495316 0.53596669 0 49
-2.2155018 2.452476 0.56785804 0 50
-2.2150233 2.4519465 0.59907466 0 51
-2.2166638 2.4537625 0.63098562 0 52
-2.2163379 2.4534016 0.66246611 0 53
-2.2031784 2.4388344 0.69003439 0 54
-2.2139423 2.4507496 0.72518367 0 55
-2.215795 2.4528005 0.75772399 0 56
-2.2063053 2.4422958 0.7864098 0 57
-2.2110476 2.4475455 0.8202408 0 58
-2.2114964 2.4480422 0.85270178 0 59
-2.2174659 2.4546502 0.88753951 0 60
-2.2114961 2.4480419 0.91775918 0 61
-2.2167127 2.4538164 0.95277756 0 62
-2.2046311 2.4404426 0.98043293 0 63
-1.67171 1.8053887 -0.7335068 0 0
-1.7195876 1.8570948 -0.72923523 0 1
-1.7875842 1.9305286 -0.73193115 0 2
-1.8612607 2.0100968 -0.73501998 0 3
-1.924541 2.0784373 -0.73214871 0 4
-2.0115621 2.1724172 -0.73627138 0 5
-2.1003327 2.2682862 -0.73863965 0 6
-2.1824505 2.3569705 -0.73635465 0 7
-2.2756531 2.4576261 -0.73544294 0 8
-2.2756476 2.4576201 -0.70321363 0 9
-2.2752576 2.4571991 -0.67099524 0 10
-2.2738681 2.4556985 -0.63862526 0 11
-2.2683086 2.4496944 -0.60529345 0 12
-2.2714932 2.4531336 -0.57443422 0 13
-2.2716434 2.4532959 -0.54286116 0 14
-2.2617648 2.4426272 -0.5091207 0 15
-2.2641344 2.4451864 -0.47832975 0 16
-2.2566977 2.437155 -0.44561946 0 17
-2.2712457 2.4528663 -0.41722959 0 18
-2.2729313 2.4546869 -0.38632518 0 19
-2.2712035 2.4528208 -0.3549073 0 20
-2.2680478 2.4494126 -0.32339391 0 21
-2.2682822 2.4496658 -0.2924591 0 22
-2.2786603 2.4608738 -0.26273733 0 23
-2.2715867 2.4532344 -0.23100288 0 24
-2.2549994 2.4353209 -0.19866201 0 25
-2.2702332 2.4517729 -0.16917689 0 26
-2.2652681 2.4464107 -0.13807574 0 27
-2.2690465 2.4504912 -0.1075471 0 28
-2.2746921 2.4565883 -0.076997451 0 29
-2.261837 2.4427052 -0.045932207 0 30
-2.2658412 2.4470298 -0.015336976 0 31
-2.2517314 2.4317915 0.01524147 0 32
-2.2726328 2.4543643 0.046151444 0 33
-2.2613733 2.4422045 0.076546624 0 34
-2.2673945 2.4487071 0.1074688 0 35
-2.2625763 2.4435036 0.13791168 0 36
-2.2731328 2.4549043 0.16939297 0 37
-2.2715201 2.4531627 0.20011747 0 38
-2.2700181 2.4515407 0.23084338 0 39
-2.2725139 2.4542358 0.26202863 0 40
-2.2645071 2.4455888 0.29197237 0 41
-2.2719135 2.4535875 0.32394511 0 42
-2.2799425 2.4622586 0.35627291 0 43
-2.2631781 2.4441535 0.38466743 0 44
-2.2679572 2.4493148 0.41662547 0 45
-2.263402 2.4443953 0.44694331 0 46
-2.271208 2.4528258 0.47982416 0 47
-2.2697265 2.4512258 0.5109129 0 48
-2.2773774 2.4594882 0.54423136 0 49
-2.2771173 2.4592073 0.57585645 0 50
-2.2656813 2.446857 0.60459238 0 51
-2.2660303 2.4472339 0.63642401 0 52
-2.2656829 2.4468586 0.66817153 0 53
-2.2647605 2.4458625 0.69984931 0 54
-2.2661784 2.4473937 0.73238093 0 55
-2.2656391 2.4468112 0.7644223 0 56
-2.2702844 2.451828 0.79840779 0 57
-2.2749615 2.4568791 0.8326807 0 58
-2.2783539 2.4605429 0.86674893 0 59
-2.271595 2.4532435 0.89706284 0 60
-2.2727578 2.4544992 0.93058676 0 61
-2.267446 2.4487629 0.96156865 0 62
-2.2696583 2.4511521 0.99587232 0 63
-1.7007904 1.7920823 -0.73654187 0 0
-1.7571954 1.8515149 -0.73547322 0 1
-1.8251936 1.9231629 -0.73759192 0 2
-1.8908638 1.9923581 -0.73697996 0 3
-1.9636014 2.069 -0.73727405 0 4
-2.0390184 2.1484649 -0.73659551 0 5
-2.1139185 2.2273855 -0.7337299 0 6
-2.2167761 2.3357642 -0.73818964 0 7
-2.2920895 2.4151201 -0.73110199 0 8
-2.3162367 2.4405634 -0.70642924 0 9
-2.3190787 2.443558 -0.67500627 0 10
-2.3215702 2.4461832 -0.64352596 0 11
-2.3251686 2.4499748 -0.61238104 0 12
-2.3270428 2.4519496 -0.58081353 0 13
-2.3325076 2.4577076 -0.55014241 0 14
-2.3248122 2.4495993 -0.51649326 0 15
-2.3297665 2.4548194 -0.48578158 0 16
-2.3197982 2.4443159 -0.45211035 0 17
-2.3312426 2.4563746 -0.42267045 0 18
-2.324497 2.4492671 -0.38994119 0 19
-2.3136342 2.4378211 -0.35682648 0 20
-2.3220844 2.4467249 -0.32678422 0 21
-2.321281 2.4458785 -0.29539233 0 22
-2.3245819 2.4493563 -0.26453948 0 23
-2.3194063 2.443903 -0.23279217 0 24
-2.3201499 2.4446867 -0.20173809 0 25
-2.312247 2.4363596 -0.17006239 0 26
-2.3233893 2.4480999 -0.13977298 0 27
-2.330694 2.4557967 -0.1090295 0 28
-2.3217402 2.4463623 -0.077565901 0 29
-2.3137918 2.4379873 -0.046374984 0 30
-2.3182936 2.4427307 -0.01548753 0 31
-2.327404 2.4523301 0.015548392 0 32
-2.3311865 2.4563155 0.046723623 0 33
-2.3304975 2.4555898 0.07785847 0 34
-2.3203506 2.4448981 0.10854565 0 35
-2.3168063 2.4411635 0.13937695 0 36
-2.3234191 2.4481313 0.17088407 0 37
-2.3125172 2.4366441 0.20107442 0 38
-2.3306301 2.4557295 0.2339187 0 39
-2.3267751 2.4516673 0.26478907 0 40
-2.3211017 2.4456894 0.29536951 0 41
-2.3263788 2.4512498 0.32738858 0 42
-2.3343432 2.4596417 0.36002037 0 43
-2.3248816 2.4496722 0.39000571 0 44
-2.3285072 2.4534924 0.42217451 0 45
-2.3282504 2.4532218 0.45375761 0 46
-2.3215196 2.44613 0.48406202 0 47
-2.3251276 2.4499316 0.5165633 0 48
-2.3165784 2.4409235 0.54638535 0 49
-2.3262587 2.4511232 0.58061779 0 50
-2.327492 2.4524229 0.612993 0 51
-2.3226006 2.447269 0.64381164 0 52
-2.3153224 2.4396 0.67391294 0 53
-2.3221383 2.4467816 0.70822912 0 54
-2.3197942 2.4443116 0.73993886 0 55
-2.3177831 2.442193 0.77182513 0 56
-2.3243415 2.4491031 0.80676663 0 57
-2.3292272 2.4542511 0.84143347 0 58
-2.3145335 2.4387689 0.86903864 0 59
-2.3135927 2.4377775 0.9017421 0 60
-2.325352 2.4501681 0.93971449 0 61
-2.326319 2.4511867 0.97367954 0 62
-2.3259659 2.4508147 1.0072794 0 63
-1.7162167 1.7643731 -0.73377138 0 0
-1.7664543 1.8160204 -0.72994685 0 1
-1.8463733 1.8981819 -0.73666281 0 2
-1.9009506 1.9542905 -0.73148984 0 3
-1.9793172 2.0348561 -0.73372453 0 4
-2.0643303 2.1222546 -0.73625654 0 5
-2.1508136 2.2111645 -0.7370429 0 6
-2.2253881 2.2878318 -0.73163408 0 7
-2.3265252 2.3918066 -0.73264939 0 8
-2.385848 2.4527941 -0.71840698 0 9
-2.3842411 2.4511418 -0.68514818 0 10
-2.3761179 2.442791 -0.65027088 0 11
-2.3878949 2.4548984 -0.62090415 0 12
-2.3884373 2.455456 -0.58855659 0 13
-2.3686171 2.4350796 -0.55155516 0 14
-2.3849905 2.4519124 -0.52312493 0 15
-2.3845599 2.4514699 -0.49088404 0 16
-2.3873808 2.4543698 -0.4593651 0 17
-2.3836484 2.4505327 -0.42667645 0 18
-2.375735 2.4423974 -0.39346871 0 19
-2.3820806 2.4489207 -0.36271107 0 20
-2.3889344 2.4559669 -0.3319169 0 21
-2.383908 2.4507997 -0.29950428 0 22
-2.3817911 2.4486232 -0.26760325 0 23
-2.3812954 2.4481137 -0.23596463 0 24
-2.3802872 2.447077 -0.20433523 0 25
-2.3707395 2.4372616 -0.17214717 0 26
-2.3738115 2.4404199 -0.14099041 0 27
-2.3839815 2.450875 -0.11010414 0 28
-2.3744295 2.4410553 -0.078317456 0 29
-2.3827648 2.4496243 -0.047150105 0 30
-2.3826792 2.4495363 -0.015715253 0 31
-2.3906367 2.4577169 0.015767736 0 32
-2.3910723 2.4581649 0.047314495 0 33
-2.3859394 2.452888 0.078697093 0 34
-2.3864083 2.4533701 0.11021623 0 35
-2.384758 2.4516735 0.14164056 0 36
-2.375041 2.4416838 0.17245953 0 37
-2.3791463 2.4459045 0.20423731 0 38
-2.3869746 2.4539521 0.23652735 0 39
-2.3820488 2.4488883 0.26763222 0 40
-2.3858328 2.4527783 0.2997461 0 41
-2.3881357 2.4551458 0.33180591 0 42
-2.3866644 2.4536333 0.36340904 0 43
-2.3830976 2.4499664 0.39468807 0 44
-2.3809824 2.4477918 0.42619923 0 45
-2.3926497 2.4597864 0.46037886 0 46
-2.3809333 2.4477413 0.49013746 0 47
-2.3753188 2.4419694 0.5210036 0 48
-2.3827341 2.4495928 0.55484247 0 49
-2.3812935 2.4481118 0.58679622 0 50
-2.3869112 2.453887 0.62064832 0 51
-2.3757694 2.4424326 0.65017545 0 52
-2.3782294 2.4449618 0.68342066 0 53
-2.3916962 2.4588063 0.72016788 0 54
-2.3896439 2.4566965 0.75252622 0 55
-2.3845286 2.4514377 0.7839542 0 56
-2.3821402 2.4489822 0.81631422 0 57
-2.3692422 2.4357221 0.84500521 0 58
-2.3922241 2.4593489 0.88678735 0 59
-2.3743489 2.4409721 0.91365445 0 60
-2.3725779 2.4391518 0.94660705 0 61
-2.3790317 2.4457865 0.98308045 0 62
-2.3772566 2.4439614 1.0164001 0 63
-1.7512467 1.7566453 -0.73945731 0 0
-1.8061258 1.8116934 -0.73707879 0 1
-1.8703911 1.876157 -0.73698527 0 2
-1.9264705 1.9324093 -0.73211104 0 3
-2.0027452 2.008919 -0.73319662 0 4
-2.085772 2.0922019 -0.73467273 0 5
-2.1795771 2.186296 -0.73763132 0 6
-2.2631536 2.2701302 -0.73481715 0 7
-2.3683124 2.3756132 -0.73655391 0 8
-2.4451787 2.4527166 -0.72713572 0 9
-2.4423018 2.4498308 -0.69312382 0 10
-2.4396248 2.4471452 -0.65936583 0 11
-2.4435754 2.451108 -0.62749773 0 12
-2.4474902 2.455035 -0.59562433 0 13
-2.440254 2.4477766 -0.56118524 0 14
-2.4411826 2.4487078 -0.52880573 0 15
-2.4438488 2.4513826 -0.49684638 0 16
-2.4290333 2.4365213 -0.46157986 0 17
-2.4467952 2.4543381 -0.43254492 0 18
-2.4408183 2.4483426 -0.39923143 0 19
-2.4350932 2.4425998 -0.36618206 0 20
-2.4434378 2.4509702 -0.33527681 0 21
-2.4447532 2.4522896 -0.30333722 0 22
-2.4357417 2.4432502 -0.27026886 0 23
-2.4406254 2.448149 -0.23884262 0 24
-2.4458075 2.4533472 -0.20735443 0 25
-2.4265027 2.4339828 -0.1740099 0 26
-2.4378717 2.4453869 -0.14299843 0 27
-2.4398589 2.4473803 -0.11128654 0 28
-2.4300728 2.4375639 -0.079158157 0 29
-2.4337399 2.4412425 -0.047561198 0 30
-2.441262 2.4487877 -0.015901836 0 31
-2.4429383 2.450469 0.015912754 0 32
-2.4432495 2.4507811 0.047747035 0 33
-2.438926 2.4464445 0.079446539 0 34
-2.4358063 2.443315 0.11110169 0 35
-2.4579678 2.4655449 0.1441772 0 36
-2.4366047 2.4441161 0.17473434 0 37
-2.4341133 2.441617 0.20636299 0 38
-2.4430041 2.4505353 0.23907542 0 39
-2.4394903 2.4470105 0.27068484 0 40
-2.4328551 2.4403548 0.3018609 0 41
-2.4446881 2.4522243 0.33544838 0 42
-2.4401908 2.4477131 0.36694863 0 43
-2.4445186 2.4520543 0.39983666 0 44
-2.443145 2.4506764 0.43189964 0 45
-2.4354625 2.4429703 0.46280161 0 46
-2.4387176 2.4462354 0.49580315 0 47
-2.4491198 2.4566696 0.53052509 0 48
-2.4411645 2.4486897 0.56139463 0 49
-2.4402421 2.4477646 0.59386045 0 50
-2.4375608 2.445075 0.62595326 0 51
-2.4376023 2.4451168 0.65881926 0 52
-2.4551342 2.4627025 0.6967656 0 53
-2.4412701 2.4487958 0.72597337 0 54
-2.4285748 2.4360611 0.75529569 0 55
-2.4369006 2.4444127 0.79123056 0 56
-2.4462125 2.4537535 0.8278684 0 57
-2.4478469 2.4553928 0.86220658 0 58
-2.4483323 2.4558799 0.89632422 0 59
-2.4463334 2.4538748 0.92967302 0 60
-2.4508433 2.4583986 0.96569932 0 61
-2.4344327 2.4419374 0.99349058 0 62
-2.4307539 2.4382472 1.0263767 0 63
-1.7600348 1.7225714 -0.73416871 0 0
-1.8250059 1.7861595 -0.73576486 0 1
-1.8767064 1.8367596 -0.730519 0 2
-1.9566417 1.9149934 -0.73457259 0 3
-2.0211775 1.9781555 -0.73098433 0 4
-2.1083004 2.0634241 -0.7336154 0 5
-2.1983943 2.1516001 -0.73499018 0 6
-2.2847483 2.2361159 -0.73284554 0 7
-2.397258 2.346231 -0.73652786 0 8
-2.4936883 2.4406085 -0.73258138 0 9
-2.4911668 2.4381409 -0.69843036 0 10
-2.5008729 2.4476402 -0.66773456 0 11
-2.4985085 2.4453261 -0.63383484 0 12
-2.5043266 2.4510205 -0.60207599 0 13
-2.5007484 2.4475186 -0.56813306 0 14
-2.5072861 2.453917 -0.53654808 0 15
-2.5028746 2.4495993 -0.50268477 0 16
-2.4902205 2.4372146 -0.46747679 0 17
-2.4999213 2.4467092 -0.43658498 0 18
-2.5074 2.4540284 -0.40515548 0 19
-2.5027397 2.4494672 -0.37179711 0 20
-2.5046132 2.4513009 -0.33950937 0 21
-2.5121028 2.4586313 -0.30791929 0 22
-2.4988427 2.4456532 -0.27391294 0 23
-2.5016389 2.44839 -0.24184893 0 24
-2.5056095 2.452276 -0.20985207 0 25
-2.5061786 2.4528329 -0.17754728 0 26
-2.5065024 2.45315 -0.14524373 0 27
-2.4946201 2.4415207 -0.11240644 0 28
-2.5027523 2.4494796 -0.080538414 0 29
-2.4983315 2.445153 -0.048232254 0 30
-2.5058758 2.4525368 -0.016125057 0 31
-2.5034015 2.4501152 0.016109135 0 32
-2.4981086 2.4449348 0.048227951 0 33
-2.5022254 2.4489639 0.080521457 0 34
-2.5033309 2.4500461 0.11279894 0 35
-2.5009959 2.4477608 0.14492464 0 36
-2.4847379 2.4318488 0.17602834 0 37
-2.4973361 2.4441788 0.20915914 0 38
-2.5021107 2.4488516 0.24189454 0 39
-2.4943969 2.4413021 0.27342564 0 40
-2.5025835 2.4493146 0.30675247 0 41
-2.5062931 2.4529452 0.33973709 0 42
-2.5042863 2.4509811 0.37202689 0 43
-2.5001929 2.4469748 0.40399095 0 44
-2.504092 2.4507909 0.43731332 0 45
-2.5048423 2.4515252 0.47022167 0 46
-2.5073612 2.4539905 0.50358588 0 47
-2.5132632 2.4597669 0.53782719 0 48
-2.5074964 2.4541225 0.56966603 0 49
-2.5094726 2.4560568 0.60331315 0 50
-2.4925194 2.4394646 0.63231552 0 51
-2.5033922 2.4501059 0.66840726 0 52
-2.4891615 2.4361782 0.69786817 0 53
-2.5050507 2.4517291 0.73591936 0 54
-2.5038049 2.45051 0.76926309 0 55
-2.50596 2.4526191 0.8038004 0 56
-2.5079095 2.4545271 0.83847058 0 57
-2.4978173 2.4446497 0.86915368 0 58
-2.4997225 2.4465144 0.90405613 0 59
-2.4996042 2.4463987 0.93841445 0 60
-2.4976447 2.4444807 0.97222286 0 61
-2.5071647 2.4537983 1.0107824 0 62
-2.4960639 2.4429336 1.0411907 0 63
-1.7857145 1.7052246 -0.73607838 0 0
-1.8438486 1.7607384 -0.73457724 0 1
-1.902994 1.8172178 -0.73199821 0 2
-1.9881456 1.8985312 -0.73757976 0 3
-2.0624356 1.9694726 -0.73709148 0 4
-2.1331794 2.0370276 -0.73350102 0 5
-2.2148924 2.1150575 -0.73175555 0 6
-2.3166838 2.2122607 -0.734308 0 7
-2.429215 2.3197196 -0.73752671 0 8
-2.546021 2.4312608 -0.73911685 0 9
-2.567014 2.4513075 -0.71119058 0 10
-2.5589914 2.4436464 -0.67517829 0 11
-2.5571866 2.4419231 -0.64105475 0 12
-2.5736139 2.4576099 -0.61142212 0 13
-2.5656452 2.4500005 -0.57598883 0 14
-2.5610595 2.4456215 -0.54157907 0 15
-2.5630543 2.4475265 -0.50868845 0 16
-2.5734599 2.4574628 -0.4773941 0 17
-2.5683692 2.4526014 -0.44323829 0 18
-2.5641966 2.448617 -0.40943676 0 19
-2.567642 2.4519072 -0.37693131 0 20
-2.5630181 2.4474916 -0.34332085 0 21
-2.565486 2.4498482 -0.3107467 0 22
-2.5574074 2.4421339 -0.27701992 0 23
-2.5755343 2.4594436 -0.24605052 0 24
-2.561955 2.4464765 -0.2120356 0 25
-2.5691667 2.4533632 -0.1798588 0 26
-2.5592027 2.4438484 -0.14654513 0 27
-2.5571542 2.4418921 -0.1138626 0 28
-2.5641413 2.4485641 -0.081538849 0 29
-2.567013 2.4513066 -0.048972577 0 30
-2.5615697 2.4461086 -0.016288659 0 31
-2.5764711 2.4603384 0.016383415 0 32
-2.5548851 2.4397254 0.048741207 0 33
-2.5609174 2.4454856 0.081436329 0 34
-2.559489 2.4441218 0.11396656 0 35
-2.5647068 2.4491043 0.1468603 0 36
-2.5641363 2.4485595 0.17950666 0 37
-2.5618744 2.4463997 0.21202894 0 38
-2.5586867 2.4433556 0.24444102 0 39
-2.5641913 2.448612 0.27775475 0 40
-2.5557847 2.4405844 0.30957165 0 41
-2.5548177 2.4396608 0.34222236 0 42
-2.5770223 2.4608645 0.37830836 0 43
-2.5625126 2.4470088 0.40916789 0 44
-2.5576982 2.4424117 0.44139674 0 45
-2.564563 2.448967 0.47574368 0 46
-2.5673044 2.4515848 0.50953192 0 47
-2.5725763 2.456619 0.54401445 0 48
-2.5607874 2.4453616 0.57489824 0 49
-2.5693643 2.4535518 0.61041248 0 50
-2.5635474 2.4479971 0.64264929 0 51
-2.5635703 2.448019 0.67638642 0 52
-2.5615675 2.4461064 0.70968157 0 53
-2.5605004 2.4450877 0.74332029 0 54
-2.5646143 2.4490161 0.77863491 0 55
-2.5627317 2.4472182 0.81229663 0 56
-2.558013 2.4427123 0.84511566 0 57
-2.5645649 2.4489686 0.88183439 0 58
-2.5609221 2.4454901 0.91524506 0 59
-2.559881 2.4444959 0.94968718 0 60
-2.5652268 2.4496009 0.9867301 0 61
-2.5609531 2.4455199 1.020267 0 62
-2.5658836 2.450228 1.0576671 0 63
-1.8084437 1.6849073 -0.73685151 0 0
-1.876062 1.7479064 -0.7387923 0 1
-1.9355748 1.8033539 -0.73594528 0 2
-2.0005357 1.8638772 -0.7336182 0 3
-2.0873549 1.9447657 -0.73739511 0 4
-2.1498151 2.002959 -0.7306971 0 5
-2.2442579 2.0909505 -0.73290741 0 6
-2.3329096 2.1735463 -0.73092425 0 7
-2.4387867 2.2721908 -0.73189461 0 8
-2.557287 2.3825965 -0.73382676 0 9
-2.6292789 2.4496706 -0.72004122 0 10
-2.6247363 2.4454381 -0.6845392 0 11
-2.6302967 2.4506185 -0.65177906 0 12
-2.6181552 2.4393065 -0.61483145 0 13
-2.6296875 2.4500511 -0.58355874 0 14
-2.6167634 2.4380097 -0.54697764 0 15
-2.6167588 2.4380057 -0.51335841 0 16
-2.6202416 2.4412506 -0.48046744 0 17
-2.6156039 2.4369297 -0.44618481 0 18
-2.6249177 2.4456072 -0.41429931 0 19
-2.6220946 2.442977 -0.38048634 0 20
-2.6294324 2.4498134 -0.34815568 0 21
-2.6298103 2.4501655 -0.31486493 0 22
-2.6287301 2.4491591 -0.28146216 0 23
-2.6261489 2.4467542 -0.24799292 0 24
-2.6286626 2.4490962 -0.21504784 0 25
-2.6183279 2.4394674 -0.18118675 0 26
-2.6299741 2.4503181 -0.14886107 0 27
-2.6328983 2.4530427 -0.1158834 0 28
-2.6267965 2.4473577 -0.082568049 0 29
-2.6269424 2.4474936 -0.049537994 0 30
-2.6256638 2.4463022 -0.016503695 0 31
-2.6174452 2.4386451 0.016452039 0 32
-2.6219606 2.442852 0.049444046 0 33
-2.6268923 2.4474471 0.082571059 0 34
-2.6245136 2.4452307 0.11551436 0 35
-2.6147919 2.4361732 0.14800173 0 36
-2.6284571 2.4489048 0.18188769 0 37
-2.6225977 2.4434457 0.21455169 0 38
-2.6266117 2.4471855 0.24803664 0 39
-2.6232944 2.4440947 0.28088015 0 40
-2.6234732 2.4442613 0.3141062 0 41
-2.6290071 2.4494171 0.34809935 0 42
-2.6222918 2.4431608 0.38051498 0 43
-2.6358242 2.4557686 0.41602069 0 44
-2.6312423 2.4514997 0.44885248 0 45
-2.6240187 2.4447694 0.48116001 0 46
-2.6295664 2.4499383 0.51587099 0 47
-2.6304429 2.4507549 0.54983705 0 48
-2.617408 2.4386103 0.58083373 0 49
-2.6276219 2.4481266 0.61705452 0 50
-2.6282816 2.4487412 0.65127975 0 51
-2.6318324 2.4520495 0.6863898 0 52
-2.628783 2.4492085 0.71990538 0 53
-2.6277137 2.4482121 0.75403607 0 54
-2.6209667 2.441926 0.78656799 0 55
-2.6181979 2.4393466 0.82030803 0 56
-2.6269116 2.4474647 0.85787064 0 57
-2.6213644 2.4422965 0.89097118 0 58
-2.6185999 2.4397209 0.92506683 0 59
-2.6353478 2.4553249 0.9664107 0 60
-2.629643 2.4500096 0.99984425 0 61
-2.6319108 2.4521224 1.0364451 0 62
-2.6300533 2.450392 1.0716169 0 63
-1.826157 1.6599382 -0.73569661 0 0
-1.8894532 1.7174731 -0.73569351 0 1
-1.9479085 1.7706077 -0.73230118 0 2
-2.0229874 1.8388529 -0.73350418 0 3
-2.1095088 1.9174989 -0.73683614 0 4
-2.1846938 1.9858406 -0.73419678 0 5
-2.2832971 2.075469 -0.73726636 0 6
-2.3840287 2.1670318 -0.73853582 0 7
-2.4878554 2.2614081 -0.7382195 0 8
-2.5985625 2.3620384 -0.73728073 0 9
-2.6850884 2.4406886 -0.72705102 0 10
-2.6838572 2.4395697 -0.69208223 0 11
-2.6993246 2.4536293 -0.6613577 0 12
-2.6841519 2.4398375 -0.62323725 0 13
-2.6922348 2.4471846 -0.5907163 0 14
-2.6934686 2.4483061 -0.55667621 0 15
-2.7016492 2.4557419 -0.52404857 0 16
-2.6930499 2.4479256 -0.4882617 0 17
-2.6844325 2.4400926 -0.45277342 0 18
-2.7033036 2.4572461 -0.42187029 0 19
-2.6968141 2.4513471 -0.38692549 0 20
-2.6965864 2.4511402 -0.35302985 0 21
-2.6807301 2.4367273 -0.31735006 0 22
-2.6931787 2.4480424 -0.2851181 0 23
-2.6870947 2.4425125 -0.250893 0 24
-2.6923239 2.4472656 -0.21777758 0 25
-2.6821299 2.4379995 -0.18351342 0 26
-2.6862433 2.4417384 -0.15033518 0 27
-2.6976318 2.4520905 -0.11739658 0 28
-2.690433 2.4455469 -0.083616771 0 29
-2.6758971 2.4323339 -0.049893375 0 30
-2.7016723 2.4557631 -0.016790375 0 31
-2.6901045 2.4452484 0.016718484 0 32
-2.6915808 2.4465899 0.050185803 0 33
-2.698642 2.4530087 0.083871901 0 34
-2.6855798 2.4411354 0.11687209 0 35
-2.6863143 2.441803 0.15033914 0 36
-2.6863432 2.4418292 0.1838017 0 37
-2.6843286 2.4399981 0.21713085 0 38
-2.6868045 2.4422486 0.25086588 0 39
-2.70507 2.4588516 0.28637704 0 40
-2.6961415 2.4507356 0.31917447 0 41
-2.6978681 2.4523053 0.35319766 0 42
-2.6905873 2.4456871 0.3860321 0 43
-2.6895835 2.4447746 0.41972917 0 44
-2.690835 2.4459121 0.45385328 0 45
-2.6938765 2.4486768 0.48841152 0 46
-2.6815381 2.4374616 0.52014756 0 47
-2.6940522 2.4488366 0.55679685 0 48
-2.6949177 2.4496233 0.59130502 0 49
-2.6903799 2.4454985 0.62468332 0 50
-2.694073 2.4488554 0.66007096 0 51
-2.6838005 2.439518 0.6920675 0 52
-2.6849077 2.4405243 0.72700208 0 53
-2.6868916 2.4423277 0.76234204 0 54
-2.690423 2.4455378 0.79832727 0 55
-2.6937268 2.4485407 0.83447558 0 56
-2.6925712 2.4474902 0.86941904 0 57
-2.690707 2.445796 0.90424961 0 58
-2.6916425 2.4466462 0.9401713 0 59
-2.6953077 2.4499779 0.97727728 0 60
-2.6899314 2.4450908 1.011259 0 61
-2.6924608 2.4473901 1.0483594 0 62
-2.6892736 2.4444928 1.0834168 0 63
-1.8433005 1.634585 -0.7344501 0 0
-1.9071528 1.6912074 -0.7344324 0 1
-1.9790103 1.7549286 -0.73582548 0 2
-2.0445054 1.8130076 -0.73316747 0 3
-2.1158662 1.8762883 -0.73094273 0 4
-2.2113824 1.9609892 -0.73500669 0 5
-2.2958694 2.0359099 -0.7331869 0 6
-2.3977621 2.1262655 -0.73463523 0 7
-2.4940953 2.2116907 -0.73194587 0 8
-2.6177402 2.3213356 -0.73456764 0 9
-2.7431383 2.4325349 -0.73461461 0 10
-2.7568259 2.4446726 -0.70309359 0 11
-2.7592759 2.4468453 -0.66862398 0 12
-2.7484941 2.4372842 -0.63117045 0 13
-2.7598786 2.4473796 -0.59891003 0 14
-2.7571082 2.4449229 -0.56357294 0 15
-2.7616355 2.4489377 -0.52980316 0 16
-2.7609596 2.4483383 -0.49507824 0 17
-2.7563851 2.4442818 -0.45980519 0 18
-2.7635894 2.4506702 -0.42654335 0 19
-2.7536461 2.441853 -0.39074194 0 20
-2.7553289 2.4433451 -0.35675994 0 21
-2.7547228 2.4428077 -0.32252911 0 22
-2.7590251 2.4466228 -0.28888226 0 23
-2.7613711 2.4487033 -0.25499749 0 24
-2.7565618 2.4444385 -0.22052567 0 25
-2.7597802 2.4472923 -0.1867532 0 26
-2.7476177 2.436507 -0.15208176 0 27
-2.7523565 2.4407094 -0.11846308 0 28
-2.7377326 2.4277413 -0.084152646 0 29
-2.7535095 2.4417317 -0.050776832 0 30
-2.7525506 2.4408815 -0.016918762 0 31
-2.7628345 2.4500008 0.016981972 0 32
-2.7536526 2.4418585 0.050779469 0 33
-2.7599058 2.4474039 0.084834211 0 34
-2.7662303 2.4530125 0.11906022 0 35
-2.765161 2.452064 0.15305278 0 36
-2.7628472 2.4500122 0.18696076 0 37
-2.7508881 2.4394071 0.22007176 0 38
-2.7606149 2.4480326 0.25492764 0 39
-2.7475741 2.4364684 0.28768328 0 40
-2.767698 2.4543138 0.32404831 0 41
-2.750262 2.4388518 0.35610387 0 42
-2.7577572 2.4454985 0.39132527 0 43
-2.7550597 2.4431064 0.42522684 0 44
-2.7520537 2.4404409 0.45908266 0 45
-2.7598009 2.4473107 0.49487045 0 46
-2.7533715 2.4416094 0.52821773 0 47
-2.7664144 2.4531755 0.56547517 0 48
-2.7614233 2.4487495 0.59924525 0 49
-2.7573948 2.4451771 0.63321447 0 50
-2.7564478 2.4443374 0.66793871 0 51
-2.7564466 2.4443364 0.70299691 0 52
-2.7684205 2.4549544 0.74138516 0 53
-2.756 2.4439404 0.7733649 0 54
-2.7574368 2.4452143 0.80922908 0 55
-2.7641277 2.4511478 0.84688365 0 56
-2.7563863 2.4442828 0.8802532 0 57
-2.750102 2.4387102 0.91406327 0 58
-2.7548015 2.4428775 0.95166802 0 59
-2.7555873 2.4435744 0.98816425 0 60
-2.7487819 2.4375393 1.0220379 0 61
-2.7566249 2.4444945 1.0615587 0 62
-2.7574389 2.4452162 1.0986822 0 63
-1.8513376 1.6014843 -0.72975087 0 0
-1.9342897 1.6732414 -0.73690367 0 1
-2.0032322 1.7328795 -0.736853 0 2
-2.0701144 1.7907354 -0.73439908 0 3
-2.1365519 1.8482065 -0.73018247 0 4
-2.2250803 1.9247873 -0.73163754 0 5
-2.3183031 2.005429 -0.73242068 0 6
-2.4255314 2.0981858 -0.73518288 0 7
-2.5299966 2.1885529 -0.73452866 0 8
-2.6582546 2.2995012 -0.73794615 0 9
-2.7831593 2.4075489 -0.73734844 0 10
-2.8236406 2.4425669 -0.71241993 0 11
-2.8229103 2.4419353 -0.67671651 0 12
-2.823859 2.4427559 -0.64153111 0 13
-2.8175042 2.4372587 -0.60486579 0 14
-2.8214991 2.4407146 -0.57055706 0 15
-2.8098013 2.4305954 -0.53326935 0 16
-2.8193014 2.4388134 -0.50012451 0 17
-2.8297379 2.4478414 -0.46698511 0 18
-2.8185945 2.4382019 -0.4303731 0 19
-2.8301952 2.4482369 -0.39730233 0 20
-2.8170681 2.4368815 -0.36084676 0 21
-2.8220983 2.4412327 -0.32687822 0 22
-2.8148379 2.4349525 -0.29156908 0 23
-2.8183539 2.4379938 -0.25747168 0 24
-2.8305607 2.4485533 -0.22401997 0 25
-2.8211906 2.4404478 -0.18886386 0 26
-2.8197401 2.4391928 -0.15440193 0 27
-2.8232508 2.4422297 -0.12021277 0 28
-2.813009 2.4333701 -0.085540287 0 29
-2.8278885 2.4462416 -0.051589839 0 30
-2.8208733 2.4401731 -0.017152986 0 31
-2.8297689 2.4478683 0.017207077 0 32
-2.8340247 2.4515498 0.05170178 0 33
-2.8377917 2.4548085 0.086293906 0 34
-2.8161705 2.436105 0.1199113 0 35
-2.8225243 2.4416013 0.1545544 0 36
-2.8244572 2.4432733 0.18908253 0 37
-2.8223243 2.4414284 0.22336811 0 38
-2.8206847 2.4400101 0.25768462 0 39
-2.8212092 2.4404638 0.29222903 0 40
-2.8276086 2.4459994 0.3275165 0 41
-2.8039997 2.4255767 0.35917279 0 42
-2.8293116 2.4474726 0.39717829 0 43
-2.8246179 2.4434125 0.43129283 0 44
-2.8164244 2.4363248 0.46478802 0 45
-2.8189969 2.43855 0.50007051 0 46
-2.8263664 2.4449251 0.53641325 0 47
-2.8204432 2.4398012 0.57034355 0 48
-2.8124025 2.4328456 0.60377055 0 49
-2.8175125 2.4372661 0.64008933 0 50
-2.8295927 2.4477158 0.67831844 0 51
-2.8256395 2.4442961 0.71292424 0 52
-2.8215683 2.4407744 0.7475242 0 53
-2.8214178 2.4406443 0.78324121 0 54
-2.8312728 2.4491694 0.82199752 0 55
-2.8287592 2.446995 0.85740197 0 56
-2.8152065 2.4352713 0.88940716 0 57
-2.8248038 2.4435732 0.92883509 0 58
-2.8272743 2.4457104 0.96624207 0 59
-2.829751 2.4478528 1.0038898 0 60
-2.8224914 2.4415729 1.0382029 0 61
-2.8217647 2.4409444 1.0750037 0 62
-2.8304408 2.4484494 1.1156888 0 63
-1.8782991 1.5848527 -0.73264134 0 0
-1.9490567 1.6445559 -0.73476982 0 1
-2.01038 1.6962986 -0.73175448 0 2
-2.0832171 1.7577565 -0.73132432 0 3
-2.1811781 1.8404129 -0.7376439 0 4
-2.259937 1.9068674 -0.73533338 0 5
-2.3455527 1.9791074 -0.73328573 0 6
-2.4516423 2.0686226 -0.73533159 0 7
-2.552115 2.1533985 -0.73320711 0 8
-2.6827581 2.2636311 -0.73696566 0 9
-2.8093772 2.3704686 -0.73651642 0 10
-2.9010894 2.4478526 -0.72431159 0 11
-2.8922558 2.4403992 -0.6860947 0 12
-2.881047 2.4309416 -0.64768332 0 13
-2.8876419 2.436506 -0.61344475 0 14
-2.8853865 2.434603 -0.57737881 0 15
-2.8995972 2.4465935 -0.54456079 0 16
-2.8883622 2.4371138 -0.50702101 0 17
-2.8923473 2.4404764 -0.47232935 0 18
-2.8818831 2.4316468 -0.43543822 0 19
-2.8798203 2.4299064 -0.40004402 0 20
-2.8917768 2.4399951 -0.36654553 0 21
-2.8951962 2.4428802 -0.3318406 0 22
-2.8906629 2.439055 -0.29629421 0 23
-2.8887227 2.437418 -0.26114243 0 24
-2.8963552 2.4438579 -0.22683169 0 25
-2.9003887 2.4472613 -0.19213668 0 26
-2.8925922 2.4406829 -0.15673591 0 27
-2.8958397 2.443423 -0.12201502 0 28
-2.8961573 2.443691 -0.087148398 0 29
-2.8934639 2.4414184 -0.052234519 0 30
-2.8976288 2.4449327 -0.017435586 0 31
-2.8845475 2.4338951 0.017356873 0 32
-2.8978114 2.4450867 0.052313 0 33
-2.8951547 2.4428451 0.087118231 0 34
-2.8927946 2.4408538 0.12188673 0 35
-2.8840926 2.4335113 0.15627536 0 36
-2.8768804 2.4274256 0.19057937 0 37
-2.8975146 2.4448364 0.2269225 0 38
-2.883158 2.4327228 0.2606394 0 39
-2.8996387 2.4466286 0.29721424 0 40
-2.8933125 2.4412906 0.33162472 0 41
-2.8893533 2.4379501 0.36623833 0 42
-2.8914754 2.4397407 0.40166309 0 43
-2.8895621 2.4381263 0.43659848 0 44
-2.8875089 2.436394 0.47153923 0 45
-2.8913555 2.4396393 0.50754642 0 46
-2.8949113 2.4426396 0.54368073 0 47
-2.8957694 2.4433637 0.57945639 0 48
-2.8864965 2.4355395 0.61320138 0 49
-2.8930225 2.441046 0.65037555 0 50
-2.8878214 2.4366577 0.6850428 0 51
-2.8983221 2.4455175 0.72362065 0 52
-2.8957074 2.4433115 0.75914901 0 53
-2.9026773 2.4491925 0.79737848 0 54
-2.8886893 2.4373896 0.82990289 0 55
-2.8926175 2.4407041 0.8675952 0 56
-2.8972485 2.4446118 0.90576136 0 57
-2.8833339 2.4328711 0.938173 0 58
-2.8987274 2.4458597 0.98030907 0 59
-2.9036615 2.4500229 1.0193456 0 60
-2.9012389 2.4479787 1.0560166 0 61
-2.8950207 2.4427321 1.0913863 0 62
-2.9019532 2.4485815 1.1319236 0 63
-1.9033177 1.5663074 -0.73483193 0 0
-1.9745605 1.6249357 -0.73679614 0 1
-2.0252776 1.6666726 -0.72966224 0 2
-2.1086154 1.7352543 -0.73269445 0 3
-2.2027988 1.8127611 -0.73736167 0 4
-2.287565 1.8825181 -0.73673528 0 5
-2.3676047 1.9483857 -0.73263443 0 6
-2.4769506 2.0383704 -0.73534912 0 7
-2.5840275 2.1264877 -0.73480761 0 8
-2.6949768 2.2177918 -0.73277533 0 9
-2.8188803 2.3197565 -0.73147434 0 10
-2.9582446 2.4344442 -0.73105234 0 11
-2.9699798 2.4441016 -0.69735014 0 12
-2.9617839 2.4373567 -0.65904611 0 13
-2.9628499 2.4382341 -0.62300539 0 14
-2.9646418 2.4397087 -0.58719063 0 15
-2.9663088 2.4410806 -0.55141062 0 16
-2.9594939 2.4354722 -0.51421154 0 17
-2.9671614 2.441782 -0.47960722 0 18
-2.9602175 2.4360678 -0.4427146 0 19
-2.9628723 2.4382524 -0.40738535 0 20
-2.9719763 2.4457445 -0.37287095 0 21
-2.9635832 2.4388375 -0.33621627 0 22
-2.9605474 2.4363394 -0.30036396 0 23
-2.964421 2.439527 -0.26525378 0 24
-2.9585819 2.4347217 -0.22934304 0 25
-2.9750357 2.4482622 -0.19507262 0 26
-2.9598792 2.4357893 -0.15874694 0 27
-2.9501915 2.4278169 -0.12303795 0 28
-2.9734495 2.4469569 -0.088562101 0 29
-2.9736576 2.4471281 -0.053134985 0 30
-2.9604733 2.4362783 -0.01763214 0 31
-2.9522195 2.429486 0.017582981 0 32
-2.9675429 2.442096 0.053025723 0 33
-2.9555175 2.4322 0.088028014 0 34
-2.9567361 2.4332027 0.12331089 0 35
-2.9592605 2.4352803 0.15871376 0 36
-2.9626358 2.4380579 0.19425957 0 37
-2.962923 2.4382942 0.22967957 0 38
-2.9612696 2.4369338 0.26497179 0 39
-2.9484804 2.426409 0.29913968 0 40
-2.9648972 2.4399188 0.33636534 0 41
-2.9559762 2.4325776 0.37086356 0 42
-2.9601641 2.4360237 0.40701297 0 43
-2.9641824 2.4393306 0.44330758 0 44
-2.9656672 2.4405525 0.47936571 0 45
-2.9604988 2.4362991 0.51438612 0 46
-2.9670353 2.4416783 0.55154562 0 47
-2.9664884 2.4412284 0.58755636 0 48
-2.9507396 2.428268 0.62045896 0 49
-2.9585371 2.434685 0.65832365 0 50
-2.9589953 2.4350619 0.69477105 0 51
-2.9754345 2.4485905 0.73530036 0 52
-2.9548781 2.4316738 0.76676452 0 53
-2.9550018 2.4317756 0.80347729 0 54
-2.9586239 2.4347563 0.84132981 0 55
-2.957984 2.4342296 0.87815672 0 56
-2.9587076 2.4348252 0.915546 0 57
-2.9615784 2.4371877 0.95380867 0 58
-2.9634197 2.4387028 0.99197078 0 59
-2.9727538 2.4463842 1.0329623 0 60
-2.9647903 2.439831 1.0681477 0 61
-2.9558756 2.4324949 1.1029685 0 62
-2.9533587 2.4304235 1.1402313 0 63
-1.9189348 1.5399798 -0.733495 0 0
-1.9835659 1.5918475 -0.73279715 0 1
-2.0635469 1.6560338 -0.7360577 0 2
-2.1448352 1.721269 -0.73786968 0 3
-2.2133408 1.776246 -0.73352379 0 4
-2.3049603 1.8497723 -0.73495656 0 5
-2.3935931 1.9209017 -0.73331171 0 6
-2.5121832 2.0160723 -0.73839325 0 7
-2.6161389 2.0994987 -0.73654199 0 8
-2.7372706 2.1967092 -0.73687488 0 9
-2.8678176 2.3014755 -0.73677379 0 10
-3.0027583 2.4097679 -0.73467451 0 11
-3.0354381 2.4359939 -0.70563322 0 12
-3.032773 2.4338553 -0.66813242 0 13
-3.0426896 2.4418135 -0.63343203 0 14
-3.0379026 2.4379718 -0.59571832 0 15
-3.0321345 2.4333427 -0.55804265 0 16
-3.0319118 2.4331641 -0.5215562 0 17
-3.0288258 2.4306874 -0.4847067 0 18
-3.0369778 2.4372296 -0.44967842 0 19
-3.0308535 2.4323146 -0.41258895 0 20
-3.0309734 2.432411 -0.37649181 0 21
-3.0436106 2.4425526 -0.34186205 0 22
-3.0320144 2.4332464 -0.30455604 0 23
-3.0305715 2.4320884 -0.26847658 0 24
-3.0341754 2.4349806 -0.23286428 0 25
-3.0268712 2.4291189 -0.19649807 0 26
-3.0400717 2.4397125 -0.16142672 0 27
-3.0328271 2.4338987 -0.12522665 0 28
-3.0296531 2.4313514 -0.089338869 0 29
-3.0339978 2.4348381 -0.053674132 0 30
-3.0402341 2.4398429 -0.017927144 0 31
-3.0358465 2.4363217 0.017901272 0 32
-3.0275023 2.4296253 0.053559225 0 33
-3.0304856 2.4320195 0.089363419 0 34
-3.0410864 2.440527 0.12556767 0 35
-3.0397587 2.4394615 0.16141009 0 36
-3.0396593 2.4393816 0.19732825 0 37
-3.0338252 2.4346995 0.23283739 0 38
-3.0367596 2.4370544 0.26902479 0 39
-3.0291064 2.4309127 0.30426395 0 40
-3.0369699 2.4372234 0.34111616 0 41
-3.0263774 2.4287226 0.37592092 0 42
-3.0177684 2.4218137 0.4108077 0 43
-3.0287676 2.4306409 0.44846278 0 44
-3.0460219 2.4444876 0.48745865 0 45
-3.0327332 2.4338233 0.52169752 0 46
-3.0341866 2.4349895 0.55842036 0 47
-3.0395639 2.4393051 0.59604406 0 48
-3.0361097 2.436533 0.63206226 0 49
-3.030231 2.4318151 0.66757244 0 50
-3.0375636 2.4376998 0.70612729 0 51
-3.0298908 2.4315422 0.74131292 0 52
-3.0258355 2.4282877 0.77737033 0 53
-3.0392034 2.4390159 0.81815541 0 54
-3.0309529 2.4323945 0.85332781 0 55
-3.0314248 2.4327731 0.8910113 0 56
-3.0272777 2.429445 0.92745012 0 57
-3.0290742 2.430887 0.96584666 0 58
-3.0302162 2.4318035 1.0042447 0 59
-3.0337934 2.434674 1.0436906 0 60
-3.0298488 2.4315083 1.0807331 0 61
-3.0342302 2.4350245 1.1209484 0 62
-3.0250921 2.427691 1.1563133 0 63
-1.9390396 1.5172981 -0.73399276 0 0
-2.0061324 1.5697981 -0.73394728 0 1
-2.1027625 1.6454111 -0.74277258 0 2
-2.1516213 1.6836433 -0.73302662 0 3
-2.2296715 1.7447174 -0.73177058 0 4
-2.3268025 1.8207225 -0.73472685 0 5
-2.4330595 1.9038684 -0.73817474 0 6
-2.5329034 1.9819964 -0.73726428 0 7
-2.6378274 2.0640993 -0.73544675 0 8
-2.7524393 2.1537831 -0.73377335 0 9
-2.8838148 2.2565844 -0.73369938 0 10
-3.0319731 2.3725183 -0.73462903 0 11
-3.1227899 2.4435823 -0.71890008 0 12
-3.1212835 2.4424036 -0.68096375 0 13
-3.1148777 2.437391 -0.64217228 0 14
-3.1082058 2.4321704 -0.60359412 0 15
-3.1153975 2.4377978 -0.56780678 0 16
-3.1158917 2.4381847 -0.53080511 0 17
-3.1145804 2.4371586 -0.49359694 0 18
-3.1156895 2.4380264 -0.45685965 0 19
-3.1176305 2.4395452 -0.42028654 0 20
-3.1056581 2.4301767 -0.38202801 0 21
-3.126452 2.4464478 -0.34776169 0 22
-3.1121526 2.4352589 -0.3095744 0 23
-3.1171663 2.4391818 -0.27347019 0 24
-3.1194711 2.4409854 -0.23708895 0 25
-3.1156392 2.4379871 -0.20029941 0 26
-3.1174717 2.4394209 -0.16393144 0 27
-3.102519 2.4277205 -0.12686205 0 28
-3.1147876 2.4373207 -0.090958677 0 29
-3.1021335 2.4274187 -0.054347359 0 30
-3.1100233 2.4335926 -0.018160835 0 31
-3.1098363 2.4334462 0.018159745 0 32
-3.1211011 2.442261 0.054679658 0 33
-3.1115475 2.4347854 0.090864062 0 34
-3.1054204 2.4299908 0.12698068 0 35
-3.10517 2.4297948 0.16328457 0 36
-3.1112828 2.4345782 0.20001934 0 37
-3.1109207 2.4342947 0.23643909 0 38
-3.1212132 2.4423487 0.27382523 0 39
-3.1060021 2.4304461 0.30896258 0 40
-3.1040037 2.4288821 0.3452647 0 41
-3.1200783 2.4414608 0.38380188 0 42
-3.1063015 2.4306803 0.41875929 0 43
-3.111721 2.434921 0.4562777 0 44
-3.1054857 2.4300418 0.49215561 0 45
-3.1129613 2.4358916 0.53030592 0 46
-3.1183722 2.4401255 0.56834894 0 47
-3.1146498 2.4372127 0.60484552 0 48
-3.1000412 2.4257817 0.63911355 0 49
-3.1128607 2.435813 0.6791262 0 50
-3.1155155 2.4378903 0.71722543 0 51
-3.1149924 2.4374809 0.75474411 0 52
-3.1117182 2.4349189 0.79168254 0 53
-3.1085665 2.4324527 0.82871342 0 54
-3.1064258 2.4307775 0.86609566 0 55
-3.110064 2.4336245 0.90526122 0 56
-3.1141195 2.4367979 0.94480407 0 57
-3.116379 2.438566 0.9840489 0 58
-3.109282 2.4330127 1.0204558 0 59
-3.1185305 2.4402494 1.0624387 0 60
-3.1113124 2.4346013 1.0990293 0 61
-3.11391 2.4366341 1.1392298 0 62
-3.1057868 2.4302776 1.1756465 0 63
-1.958477 1.4940498 -0.73434073 0 0
-2.0114729 1.5344783 -0.72894287 0 1
-2.1063464 1.6068538 -0.73700339 0 2
-2.1675406 1.6535367 -0.73146772 0 3
-2.2529378 1.718683 -0.73241514 0 4
-2.3577352 1.7986292 -0.73745489 0 5
-2.4460466 1.8659985 -0.73509794 0 6
-2.5478532 1.943663 -0.73460352 0 7
-2.6493368 2.0210812 -0.73167139 0 8
-2.7883658 2.1271412 -0.73632234 0 9
-2.9193387 2.2270555 -0.7357145 0 10
-3.0701842 2.3421302 -0.7368536 0 11
-3.1856437 2.4302099 -0.72643536 0 12
-3.1968093 2.4387276 -0.6908465 0 13
-3.1872222 2.4314141 -0.65087402 0 14
-3.1850576 2.4297628 -0.61266994 0 15
-3.1957445 2.4379153 -0.5769434 0 16
-3.1883891 2.4323044 -0.5380196 0 17
-3.1884692 2.4323654 -0.50052893 0 18
-3.1961267 2.4382071 -0.464223 0 19
-3.1907856 2.4341323 -0.4260813 0 20
-3.1927676 2.4356446 -0.38902986 0 21
-3.1798973 2.4258261 -0.35036206 0 22
-3.1919739 2.435039 -0.31451222 0 23
-3.189419 2.43309 -0.27716327 0 24
-3.1865082 2.4308696 -0.23989403 0 25
-3.1814454 2.427007 -0.20259607 0 26
-3.1942408 2.4367683 -0.16638012 0 27
-3.1996698 2.4409099 -0.12959744 0 28
-3.1883628 2.4322844 -0.09222687 0 29
-3.1860135 2.4304919 -0.055289112 0 30
-3.1958997 2.4380338 -0.018485848 0 31
-3.1971128 2.4389591 0.018492864 0 32
-3.1839581 2.4289241 0.055253442 0 33
-3.1839697 2.4289329 0.092099801 0 34
-3.1902769 2.4337444 0.129217 0 35
-3.195518 2.4377427 0.16644666 0 36
-3.1870174 2.431258 0.20295091 0 37
-3.1960588 2.4381552 0.24061303 0 38
-3.1882648 2.4322095 0.27706295 0 39
-3.1837225 2.4287443 0.31369919 0 40
-3.1938424 2.4364643 0.35189855 0 41
-3.1773856 2.4239101 0.38715556 0 42
-3.1890495 2.4328082 0.4258495 0 43
-3.1963229 2.4383566 0.46425146 0 44
-3.1903336 2.4337878 0.50082159 0 45
-3.1962683 2.4383152 0.53934914 0 46
-3.2093263 2.4482765 0.57939535 0 47
-3.1866465 2.430975 0.61297554 0 48
-3.1934576 2.4361708 0.65214729 0 49
-3.1788707 2.4250431 0.68696988 0 50
-3.1893556 2.4330416 0.72728187 0 51
-3.1841846 2.4290967 0.76421398 0 52
-3.1954081 2.4376588 0.8052879 0 53
-3.1971359 2.4389768 0.844266 0 54
-3.1943741 2.4368699 0.88219512 0 55
-3.1949213 2.4372876 0.92116785 0 56
-3.1787665 2.4249637 0.9552986 0 57
-3.1927154 2.4356046 0.99862087 0 58
-3.1935956 2.4362762 1.0382168 0 59
-3.1880383 2.4320366 1.0758493 0 60
-3.1794622 2.4254942 1.1124829 0 61
-3.1935391 2.436233 1.1573149 0 62
-3.184283 2.429172 1.1939628 0 63
-1.983237 1.4747179 -0.73676956 0 0
-2.0435696 1.5195806 -0.73374754 0 1
-2.1240897 1.5794547 -0.73636049 0 2
-2.1989551 1.6351238 -0.73522824 0 3
-2.2916152 1.7040251 -0.73812127 0 4
-2.3718264 1.7636696 -0.73502356 0 5
-2.455193 1.8256602 -0.73104495 0 6
-2.5585897 1.9025452 -0.73089868 0 7
-2.6901031 2.0003374 -0.73608124 0 8
-2.8134315 2.0920432 -0.73609263 0 9
-2.9469304 2.1913118 -0.73582178 0 10
-3.0967188 2.3026934 -0.73637062 0 11
-3.2439532 2.4121754 -0.73291278 0 12
-3.2697685 2.4313715 -0.70009947 0 13
-3.2800341 2.4390049 -0.66365266 0 14
-3.2746227 2.4349811 -0.6240918 0 15
-3.2660663 2.4286184 -0.58420336 0 16
-3.2692187 2.4309626 -0.54657358 0 17
-3.2694402 2.4311273 -0.5085085 0 18
-3.2693651 2.4310715 -0.47048303 0 19
-3.2798431 2.4388628 -0.43393618 0 20
-3.2700186 2.4315574 -0.39476964 0 21
-3.2680042 2.4300597 -0.35675046 0 22
-3.2676976 2.4298315 -0.31900534 0 23
-3.2817245 2.4402618 -0.2825557 0 24
-3.276319 2.4362423 -0.24438158 0 25
-3.2701979 2.4316907 -0.20632814 0 26
-3.2709157 2.4322245 -0.16880335 0 27
-3.2748263 2.4351325 -0.13141879 0 28
-3.2543495 2.4199061 -0.093267821 0 29
-3.2815077 2.4401007 -0.056421332 0 30
-3.268904 2.4307287 -0.018733818 0 31
-3.267359 2.4295797 0.018724965 0 32
-3.2692897 2.4310155 0.056211259 0 33
-3.2692666 2.4309983 0.093695335 0 34
-3.267935 2.4300082 0.13114224 0 35
-3.2791119 2.438319 0.16922632 0 36
-3.2762077 2.4361596 0.20670733 0 37
-3.2798002 2.4388311 0.24464124 0 38
-3.2636983 2.4268577 0.28100368 0 39
-3.2849417 2.4426541 0.32068875 0 40
-3.2784641 2.4378374 0.3578923 0 41
-3.2783866 2.4377799 0.39577985 0 42
-3.2705796 2.4319746 0.43271056 0 43
-3.2787447 2.438046 0.47183281 0 44
-3.2607875 2.4246933 0.50716275 0 45
-3.2699804 2.431529 0.54670095 0 46
-3.2700174 2.4315567 0.58491009 0 47
-3.2750764 2.4353182 0.62417823 0 48
-3.2753806 2.4355447 0.66271114 0 49
-3.2813175 2.4399593 0.70257229 0 50
-3.2792132 2.4383945 0.74087918 0 51
-3.2837789 2.4417894 0.78085178 0 52
-3.2705753 2.4319713 0.81663293 0 53
-3.2721341 2.4331305 0.85610539 0 54
-3.2852931 2.4429154 0.8989405 0 55
-3.2655113 2.4282057 0.93284118 0 56
-3.2794554 2.4385746 0.97647274 0 57
-3.2804241 2.4392948 1.0165958 0 58
-3.2680132 2.4300663 1.0526156 0 59
-3.2712858 2.4324996 1.0937657 0 60
-3.2685781 2.4304862 1.1331215 0 61
-3.2795014 2.4386089 1.1775112 0 62
-3.2630289 2.4263599 1.2122103 0 63
-1.9991727 1.4487381 -0.73601598 0 0
-2.0604651 1.4931546 -0.73316604 0 1
-2.1268187 1.541239 -0.73068124 0 2
-2.2161243 1.6059561 -0.73431069 0 3
-2.3133988 1.6764479 -0.738442 0 4
-2.3902013 1.7321044 -0.73406196 0 5
-2.494406 1.8076183 -0.73604685 0 6
-2.5975862 1.8823897 -0.73537081 0 7
-2.7202861 1.9713064 -0.73765159 0 8
-2.8296475 2.0505574 -0.73368281 0 9
-2.9665887 2.1497943 -0.73407423 0 10
-3.1125555 2.2555718 -0.7334857 0 11
-3.286757 2.3818102 -0.73591083 0 12
-3.3628786 2.4369733 -0.71356547 0 13
-3.3539994 2.4305387 -0.67252016 0 14
-3.349714 2.4274333 -0.63266647 0 15
-3.3522518 2.4292722 -0.59423137 0 16
-3.357295 2.4329269 -0.55625516 0 17
-3.3727221 2.4441066 -0.51985872 0 18
-3.3572133 2.4328678 -0.47878373 0 19
-3.3625774 2.4367549 -0.44088462 0 20
-3.3534091 2.4301109 -0.40119907 0 21
-3.3628399 2.4369452 -0.36380443 0 22
-3.3617673 2.436168 -0.32523975 0 23
-3.3582907 2.4336486 -0.28654984 0 24
-3.3561683 2.4321105 -0.24808809 0 25
-3.3705442 2.4425282 -0.21074843 0 26
-3.356802 2.4325695 -0.17167905 0 27
-3.3650784 2.4385674 -0.13382715 0 28
-3.3589623 2.4341352 -0.095400944 0 29
-3.3612313 2.4357793 -0.05727277 0 30
-3.3571267 2.4328051 -0.019066535 0 31
-3.3555028 2.4316282 0.019057311 0 32
-3.3579316 2.4333882 0.057216544 0 33
-3.3634911 2.437417 0.095529564 0 34
-3.3526311 2.4295473 0.13333213 0 35
-3.3542986 2.4307554 0.171551 0 36
-3.3402574 2.4205804 0.20885471 0 37
-3.3649762 2.4384933 0.24873915 0 38
-3.3664515 2.4395623 0.28724617 0 39
-3.371207 2.4430084 0.32615301 0 40
-3.3575752 2.43313 0.36323488 0 41
-3.3551731 2.4313893 0.40141013 0 42
-3.3575716 2.4331274 0.44022828 0 43
-3.3498609 2.4275396 0.47773516 0 44
-3.3625455 2.4367318 0.5182901 0 45
-3.3526781 2.4295812 0.5554902 0 46
-3.3615699 2.4360249 0.59588313 0 47
-3.3563385 2.4322338 0.63391763 0 48
-3.3684337 2.4409988 0.6754145 0 49
-3.3492603 2.4271045 0.71067584 0 50
-3.3628488 2.4369516 0.75294793 0 51
-3.3571804 2.4328439 0.79113251 0 52
-3.3667221 2.4397585 0.83308613 0 53
-3.3581715 2.433562 0.87072074 0 54
-3.352459 2.4294224 0.90907598 0 55
-3.3607631 2.4354403 0.95142448 0 56
-3.3592973 2.4343779 0.99125803 0 57
-3.3694193 2.4417131 1.0347925 0 58
-3.3490911 2.4269819 1.0690373 0 59
-3.3610349 2.4356372 1.1136757 0 60
-3.3651562 2.4386237 1.1561195 0 61
-3.3587406 2.4339745 1.1951257 0 62
-3.3604243 2.4351947 1.2371747 0 63
-2.0304074 1.4336312 -0.74096918 0 0
-2.0785553 1.4676275 -0.73312616 0 1
-2.1647086 1.5284586 -0.73718578 0 2
-2.2378066 1.5800717 -0.73500162 0 3
-2.3193629 1.637657 -0.7338624 0 4
-2.4186273 1.7077457 -0.73628712 0 5
-2.4982936 1.7639966 -0.73073822 0 6
-2.6254256 1.8537619 -0.73674321 0 7
-2.734308 1.9306417 -0.73496079 0 8
-2.8501794 2.0124562 -0.73253477 0 9
-3.00331 2.1205788 -0.73665273 0 10
-3.1508925 2.2247839 -0.73601758 0 11
-3.3061755 2.3344262 -0.73377603 0 12
-3.4340091 2.4246869 -0.72227752 0 13
-3.4522872 2.4375927 -0.68616617 0 14
-3.4441106 2.4318194 -0.64479876 0 15
-3.438302 2.4277182 -0.60414755 0 16
-3.4331963 2.424113 -0.56384951 0 17
-3.433604 2.424401 -0.52460808 0 18
-3.444227 2.4319017 -0.48689154 0 19
-3.4432273 2.4311957 -0.44750547 0 20
-3.4291661 2.4212675 -0.40666983 0 21
-3.4494574 2.4355946 -0.36990705 0 22
-3.4331391 2.4240727 -0.32923606 0 23
-3.4360478 2.4261265 -0.29061705 0 24
-3.4362814 2.4262915 -0.25178564 0 25
-3.4391329 2.4283049 -0.21315391 0 26
-3.4382741 2.4276984 -0.1743059 0 27
-3.4525828 2.4378016 -0.13610472 0 28
-3.440192 2.4290526 -0.096852362 0 29
-3.4397001 2.4287052 -0.058096558 0 30
-3.448211 2.4347146 -0.019412339 0 31
-3.4405539 2.4293082 0.019369233 0 32
-3.4338105 2.4245467 0.057997081 0 33
-3.4461892 2.4332871 0.097021207 0 34
-3.4318964 2.4231951 0.13528924 0 35
-3.4393344 2.428447 0.17435965 0 36
-3.4515121 2.4370456 0.21392116 0 37
-3.4360597 2.4261348 0.25176936 0 38
-3.4372635 2.4269848 0.29071987 0 39
-3.4499679 2.4359553 0.33084995 0 40
-3.4456353 2.4328961 0.36949721 0 41
-3.4412136 2.429774 0.40809855 0 42
-3.4517217 2.4371934 0.44860947 0 43
-3.4419551 2.4302974 0.48657036 0 44
-3.4423718 2.4305918 0.52594769 0 45
-3.4368398 2.4266858 0.56444794 0 46
-3.4359467 2.4260552 0.60373366 0 47
-3.4308352 2.422446 0.64231336 0 48
-3.442497 2.43068 0.68422031 0 49
-3.4309087 2.4224977 0.72162539 0 50
-3.4478028 2.4344263 0.76520896 0 51
-3.4333158 2.4241974 0.8019889 0 52
-3.4405909 2.4293344 0.84390914 0 53
-3.4401147 2.428998 0.88415617 0 54
-3.4432421 2.4312062 0.92551672 0 55
-3.444401 2.4320245 0.96656299 0 56
-3.4405041 2.4292729 1.0063299 0 57
-3.449213 2.4354222 1.0500216 0 58
-3.4279108 2.4203811 1.0846146 0 59
-3.4361546 2.4262018 1.1285958 0 60
-3.437716 2.4273045 1.1707052 0 61
-3.4562163 2.440367 1.2190403 0 62
-3.4328568 2.4238734 1.2527738 0 63
-2.0243869 1.3923982 -0.73246843 0 0
-2.1008205 1.4449703 -0.73465687 0 1
-2.1775403 1.497739 -0.73522818 0 2
-2.2520342 1.5489768 -0.73336333 0 3
-2.3467712 1.6141381 -0.73619884 0 4
-2.4334135 1.6737317 -0.73446751 0 5
-2.5416205 1.7481577 -0.73706782 0 6
-2.6389093 1.8150742 -0.73420835 0 7
-2.7461054 1.888805 -0.73183364 0 8
-2.8713529 1.9749519 -0.7316798 0 9
-3.0288303 2.0832667 -0.7365734 0 10
-3.1625278 2.1752255 -0.73243207 0 11
-3.3420277 2.2986877 -0.73540419 0 12
-3.5090573 2.4135728 -0.73176485 0 13
-3.5254312 2.4248347 -0.69472522 0 14
-3.5290465 2.4273214 -0.65506274 0 15
-3.529906 2.4279127 -0.61495107 0 16
-3.5452604 2.4384737 -0.57728618 0 17
-3.5382895 2.4336791 -0.53598988 0 18
-3.535881 2.4320223 -0.49558318 0 19
-3.5264323 2.4255235 -0.45440874 0 20
-3.5293598 2.427537 -0.41498059 0 21
-3.5279434 2.4265628 -0.37509552 0 22
-3.5268247 2.4257932 -0.33533454 0 23
-3.5312276 2.4288216 -0.29611883 0 24
-3.5301151 2.4280565 -0.25645402 0 25
-3.5306747 2.4284415 -0.21696042 0 26
-3.5350924 2.4314799 -0.17768501 0 27
-3.5198781 2.4210153 -0.13757361 0 28
-3.5436463 2.4373634 -0.098913677 0 29
-3.5288026 2.4271538 -0.059092943 0 30
-3.5360687 2.4321513 -0.019737093 0 31
-3.5257757 2.425072 0.019679641 0 32
-3.5312982 2.4288702 0.059134729 0 33
-3.5393035 2.4343765 0.098792464 0 34
-3.5305579 2.4283609 0.13799103 0 35
-3.533859 2.4306316 0.17762303 0 36
-3.5252159 2.4246869 0.21662498 0 37
-3.5346267 2.4311597 0.25678179 0 38
-3.5317571 2.4291859 0.29616326 0 39
-3.5332377 2.4302042 0.33594429 0 40
-3.5282323 2.4267614 0.37512621 0 41
-3.5417938 2.4360893 0.41644257 0 42
-3.5286305 2.4270353 0.45469198 0 43
-3.5312836 2.4288602 0.49493879 0 44
-3.5228822 2.4230816 0.53365594 0 45
-3.5273647 2.4261649 0.57437217 0 46
-3.5183463 2.4199619 0.61293721 0 47
-3.5320637 2.4293969 0.65562284 0 48
-3.535176 2.4315374 0.69664556 0 49
-3.5276623 2.4263694 0.7356447 0 50
-3.5364749 2.432431 0.7781918 0 51
-3.5369508 2.4327583 0.81914741 0 52
-3.5307603 2.4285002 0.85863644 0 53
-3.5277967 2.4264619 0.89895517 0 54
-3.5243256 2.4240744 0.9392283 0 55
-3.5180542 2.4197609 0.97880775 0 56
-3.5277426 2.4264247 1.0230424 0 57
-3.5335844 2.4304426 1.0665277 0 58
-3.5360661 2.4321496 1.1092891 0 59
-3.537334 2.4330218 1.1519146 0 60
-3.5381296 2.433569 1.1946198 0 61
-3.5226154 2.4228981 1.2318584 0 62
-3.5262764 2.4254162 1.2758856 0 63
-2.0515988 1.3742644 -0.73614436 0 0
-2.1170352 1.4180969 -0.73417366 0 1
-2.1823289 1.4618341 -0.73072058 0 2
-2.2735081 1.5229104 -0.73420244 0 3
-2.3733485 1.5897886 -0.73834789 0 4
-2.4523199 1.6426876 -0.73402178 0 5
-2.5563464 1.7123697 -0.73517644 0 6
-2.6571352 1.7798833 -0.73313457 0 7
-2.7662203 1.8529539 -0.73106688 0 8
-2.91153 1.9502896 -0.73575109 0 9
-3.0379698 2.0349853 -0.73265529 0 10
-3.1917458 2.1379924 -0.73305488 0 11
-3.390214 2.2709363 -0.73980683 0 12
-3.5503364 2.3781943 -0.73421925 0 13
-3.6203117 2.4250674 -0.70749271 0 14
-3.6218801 2.4261179 -0.66670656 0 15
-3.6162291 2.4223328 -0.62475324 0 16
-3.6019237 2.4127502 -0.58163786 0 17
-3.6200459 2.4248893 -0.54381657 0 18
-3.6174991 2.4231834 -0.50280833 0 19
-3.6204402 2.4251535 -0.46264479 0 20
-3.6286805 2.4306731 -0.42311239 0 21
-3.6240463 2.4275692 -0.38211069 0 22
-3.6146004 2.4212418 -0.34082377 0 23
-3.6168354 2.4227388 -0.30077672 0 24
-3.6211901 2.4256556 -0.26088381 0 25
-3.6238821 2.427459 -0.22083709 0 26
-3.6223152 2.4264095 -0.18055579 0 27
-3.6218181 2.4260764 -0.14038132 0 28
-3.6148944 2.4214387 -0.10006375 0 29
-3.619803 2.4247267 -0.06011299 0 30
-3.6169207 2.422796 -0.02002058 0 31
-3.6214204 2.4258101 0.020045487 0 32
-3.6230366 2.4268925 0.06016669 0 33
-3.6158562 2.4220829 0.10009037 0 34
-3.6330316 2.4335878 0.14081596 0 35
-3.6253695 2.4284554 0.18070805 0 36
-3.6216009 2.425931 0.22069807 0 37
-3.6037846 2.4139967 0.25962985 0 38
-3.6123154 2.4197111 0.30040085 0 39
-3.6192312 2.4243436 0.34126043 0 40
-3.6157789 2.4220309 0.38123897 0 41
-3.6169305 2.4228024 0.42174232 0 42
-3.6274419 2.4298434 0.46353948 0 43
-3.6245968 2.4279377 0.50379491 0 44
-3.6145294 2.4211941 0.54298788 0 45
-3.6204863 2.4251842 0.58463538 0 46
-3.6202178 2.4250045 0.62544227 0 47
-3.6364439 2.4358735 0.66938746 0 48
-3.6164093 2.4224534 0.70673007 0 49
-3.6163824 2.4224353 0.74787772 0 50
-3.6289315 2.4308414 0.79189938 0 51
-3.6191318 2.4242771 0.83121353 0 52
-3.6157286 2.4219973 0.8719911 0 53
-3.6245039 2.4278755 0.91592139 0 54
-3.6188779 2.4241068 0.95641029 0 55
-3.6146762 2.4212925 0.99733126 0 56
-3.6122625 2.4196756 1.0388461 0 57
