# .PCD v0.7 - Point Cloud Data file format
VERSION 0.7
FIELDS x y z intensity ring
SIZE 4 4 4 4 2
TYPE F F F F U
COUNT 1 1 1 1 1
WIDTH 1290
HEIGHT 1
VIEWPOINT 0 0 0 1 0 0 0
POINTS 1290
DATA ascii
-2.0014405 2.3281367 -0.73357767 0 6
-2.0909369 2.4322417 -0.73526257 0 7
-2.1190741 2.4649715 -0.71375304 0 8
-2.118057 2.4637883 -0.68214822 0 9
-2.1223984 2.4688385 -0.65234095 0 10
-2.1108439 2.4553978 -0.61786813 0 11
-2.1250901 2.4719696 -0.59101713 0 12
-2.1176562 2.4633224 -0.5581401 0 13
-2.1238718 2.4705522 -0.52897573 0 14
-2.1252599 2.472167 -0.49859077 0 15
-2.1280489 2.4754114 -0.46856049 0 16
-2.1236556 2.4703009 -0.43705264 0 17
-2.12393 2.4706199 -0.40663993 0 18
-2.1234412 2.4700515 -0.37615409 0 19
-2.1243026 2.4710534 -0.34596658 0 20
-2.1237605 2.4704227 -0.31560513 0 21
-2.1215267 2.4678245 -0.28508571 0 22
-2.1152873 2.4605665 -0.25419703 0 23
-2.113008 2.4579153 -0.22394849 0 24
-2.12993 2.4775994 -0.19556567 0 25
-2.1231174 2.4696748 -0.16489348 0 26
-2.1284139 2.475836 -0.13521124 0 27
-2.1310439 2.4788952 -0.10527047 0 28
-2.1277497 2.4750631 -0.075064257 0 29
-2.1203358 2.466439 -0.044876557 0 30
-2.1210444 2.4672635 -0.014963008 0 31
-2.1277866 2.4751062 0.015010571 0 32
-2.1210413 2.4672599 0.044891492 0 33
-2.1202962 2.466393 0.074801303 0 34
-2.1205926 2.4667377 0.10475419 0 35
-2.1136122 2.4586182 0.13427094 0 36
-2.1219158 2.4682772 0.16480015 0 37
-2.1284609 2.4758904 0.19543077 0 38
-2.1195567 2.4655328 0.22464253 0 39
-2.1266551 2.4737899 0.25556308 0 40
-2.1276348 2.4749296 0.28590649 0 41
-2.1167414 2.4622581 0.31456202 0 42
-2.1227014 2.4691911 0.34570581 0 43
-2.1183455 2.464124 0.37525138 0 44
-2.130317 2.4780495 0.40786278 0 45
-2.1235387 2.4701648 0.43702859 0 46
-2.1264539 2.4735558 0.46820924 0 47
-2.1305246 2.4782913 0.49982589 0 48
-2.1296275 2.4772475 0.53040928 0 49
-2.1162472 2.4616833 0.5577687 0 50
-2.121913 2.4682739 0.59013349 0 51
-2.1223509 2.4687834 0.62123638 0 52
-2.1103208 2.4547894 0.64862877 0 53
-2.1213567 2.4676268 0.68321097 0 54
-2.1246908 2.4715049 0.71564484 0 55
-2.1272583 2.4744916 0.74803466 0 56
-2.1223726 2.4688087 0.77790231 0 57
-2.1268106 2.4739707 0.81131989 0 58
-2.1210201 2.4672351 0.84096086 0 59
-2.124114 2.4708343 0.87423599 0 60
-2.1261096 2.4731555 0.90729445 0 61
-2.1285765 2.4760249 0.94078732 0 62
-2.113471 2.4584539 0.96649218 0 63
-1.6194211 1.8375629 -0.73017454 0 0
-1.6799097 1.9061996 -0.73207068 0 1
-1.7433425 1.9781771 -0.73351699 0 2
-1.8126987 2.0568757 -0.73559928 0 3
-1.8741235 2.1265745 -0.73264581 0 4
-1.9576602 2.221364 -0.73631811 0 5
-2.0355134 2.3097043 -0.73560083 0 6
-2.1213644 2.4071198 -0.73549819 0 7
-2.1747158 2.4676578 -0.72221947 0 8
-2.1806521 2.4743938 -0.69245625 0 9
-2.1698289 2.4621127 -0.6575641 0 10
-2.1691971 2.4613957 -0.62604207 0 11
-2.1725435 2.4651928 -0.59573901 0 12
-2.1802175 2.4739006 -0.56656849 0 13
-2.181236 2.4750564 -0.53564245 0 14
-2.174283 2.4671669 -0.50293648 0 15
-2.1808162 2.47458 -0.47344327 0 16
-2.1734622 2.4662354 -0.44102845 0 17
-2.1748149 2.4677706 -0.41054147 0 18
-2.1782992 2.471724 -0.38045907 0 19
-2.1679039 2.4599285 -0.34811494 0 20
-2.1791348 2.4726722 -0.31929159 0 21
-2.171005 2.4634473 -0.28764221 0 22
-2.1771784 2.4704521 -0.25796449 0 23
-2.1742256 2.4671016 -0.22720425 0 24
-2.1806049 2.4743402 -0.19740999 0 25
-2.180464 2.4741802 -0.16697183 0 26
-2.1751981 2.4682052 -0.13624494 0 27
-2.1735456 2.4663301 -0.10586388 0 28
-2.1770873 2.4703488 -0.075727448 0 29
-2.1724846 2.465126 -0.045335297 0 30
-2.1775801 2.4709082 -0.015146356 0 31
-2.1750674 2.4680569 0.015128879 0 32
-2.1769404 2.4701822 0.04542828 0 33
-2.1754987 2.4685462 0.075672194 0 34
-2.1827738 2.4768014 0.10631334 0 35
-2.1734941 2.4662716 0.1361382 0 36
-2.1682906 2.4603672 0.16603965 0 37
-2.1809394 2.47472 0.19744028 0 38
-2.1836092 2.4777493 0.22818483 0 39
-2.1819065 2.4758172 0.25852472 0 40
-2.1764851 2.4696653 0.28836825 0 41
-2.173923 2.4667583 0.31852791 0 42
-2.170161 2.4624894 0.34847736 0 43
-2.1760914 2.4692187 0.38007343 0 44
-2.178484 2.4719338 0.41123408 0 45
-2.1747723 2.4677219 0.44129425 0 46
-2.1900268 2.4850314 0.47544286 0 47
-2.1757782 2.4688632 0.50328225 0 48
-2.1851211 2.4794648 0.53659648 0 49
-2.165849 2.4575965 0.56283456 0 50
-2.185456 2.4798448 0.59927982 0 51
-2.1709025 2.4633307 0.62653428 0 52
-2.173413 2.4661796 0.65865028 0 53
-2.1716144 2.4641385 0.68958634 0 54
-2.1844995 2.4787595 0.72546864 0 55
-2.1796112 2.4732127 0.75569302 0 56
-2.1675704 2.4595497 0.783324 0 57
-2.1765313 2.469718 0.81864029 0 58
-2.1636455 2.4550962 0.84582782 0 59
-2.1784711 2.4719188 0.88403094 0 60
-2.1810353 2.4748287 0.91767764 0 61
-2.1719406 2.4645088 0.94648772 0 62
-2.1743469 2.4672394 0.98038292 0 63
-1.659197 1.8366678 -0.7378701 0 0
-1.7090977 1.8919059 -0.73459679 0 1
-1.7690014 1.958217 -0.73412615 0 2
-1.8459916 2.0434422 -0.73885715 0 3
-1.9068356 2.1107943 -0.73523164 0 4
-1.976598 2.1880186 -0.73326612 0 5
-2.0579467 2.2780683 -0.73352921 0 6
-2.14115 2.3701713 -0.73219794 0 7
-2.2276862 2.4659636 -0.72968554 0 8
-2.2304759 2.4690516 -0.6985839 0 9
-2.2284503 2.4668095 -0.66608644 0 10
-2.2325776 2.4713781 -0.63551551 0 11
-2.2295072 2.4679794 -0.60299194 0 12
-2.2262616 2.4643867 -0.57061589 0 13
-2.22979 2.4682925 -0.54007167 0 14
-2.2374957 2.4768224 -0.5104748 0 15
-2.2165461 2.4536319 -0.4746142 0 16
-2.2276337 2.4659057 -0.44583419 0 17
-2.220335 2.4578261 -0.41339791 0 18
-2.2311914 2.4698439 -0.38436362 0 19
-2.2356524 2.474782 -0.35408047 0 20
-2.2265892 2.4647493 -0.32177961 0 21
-2.2353563 2.4744542 -0.29211482 0 22
-2.2431529 2.4830847 -0.26214397 0 23
-2.2290406 2.4674628 -0.22974436 0 24
-2.2249351 2.4629183 -0.19866647 0 25
-2.2293646 2.4678216 -0.16837999 0 26
-2.2196856 2.4571073 -0.13712861 0 27
-2.2298753 2.4683869 -0.10712101 0 28
-2.2361708 2.4753556 -0.076718047 0 29
-2.2340791 2.4730403 -0.045982584 0 30
-2.2294388 2.4679036 -0.015294828 0 31
-2.2259398 2.4640303 0.015270824 0 32
-2.2311058 2.4697492 0.045921389 0 33
-2.2262173 2.4643376 0.076376557 0 34
-2.2368224 2.4760771 0.10745475 0 35
-2.226387 2.4645255 0.13754261 0 36
-2.2266092 2.4647715 0.16817188 0 37
-2.2249219 2.4629035 0.19866528 0 38
-2.2234368 2.4612596 0.22916679 0 39
-2.2282937 2.4666362 0.26040748 0 40
-2.2307787 2.4693871 0.29151663 0 41
-2.2311554 2.4698038 0.32243949 0 42
-2.2222717 2.45997 0.35196123 0 43
-2.2218909 2.4595485 0.38276145 0 44
-2.2208092 2.4583511 0.41348621 0 45
-2.2252548 2.4632721 0.44535807 0 46
-2.2226985 2.4604423 0.47593156 0 47
-2.2238424 2.4617085 0.50735986 0 48
-2.2245371 2.4624777 0.53879935 0 49
-2.2269566 2.4651561 0.57079405 0 50
-2.2268362 2.4650228 0.60226959 0 51
-2.2323859 2.4711659 0.63546097 0 52
-2.23595 2.4751115 0.66832817 0 53
-2.224932 2.4629149 0.69684756 0 54
-2.2309434 2.4695692 0.73075247 0 55
-2.2225022 2.4602251 0.76001757 0 56
-2.237107 2.4763923 0.79738873 0 57
-2.226553 2.464709 0.82599282 0 58
-2.2312732 2.4699342 0.86032724 0 59
-2.2354202 2.474525 0.8947258 0 60
-2.2325745 2.4713748 0.92650652 0 61
-2.2297993 2.4683027 0.95840245 0 62
-2.2330511 2.4719024 0.99307179 0 63
-1.6762989 1.8103445 -0.73552024 0 0
-1.7254986 1.8634784 -0.73174191 0 1
-1.7880002 1.9309779 -0.7321015 0 2
-1.858847 2.0074902 -0.73406684 0 3
-1.932391 2.0869153 -0.73513514 0 4
-2.0112603 2.172091 -0.73616087 0 5
-2.093291 2.2606814 -0.73616326 0 6
-2.1864836 2.3613262 -0.73771542 0 7
-2.2713733 2.4530041 -0.73405981 0 8
-2.2824099 2.4649231 -0.70530325 0 9
-2.2728956 2.4546483 -0.6702987 0 10
-2.2791417 2.4613936 -0.64010632 0 11
-2.2881289 2.4710996 -0.61058247 0 12
-2.2825458 2.46507 -0.57722932 0 13
-2.2912018 2.4744182 -0.54753506 0 14
-2.2883568 2.4713457 -0.5151065 0 15
-2.2750819 2.4570093 -0.48064256 0 16
-2.2891057 2.4721544 -0.45201892 0 17
-2.2814722 2.4639106 -0.41910818 0 18
-2.2741854 2.4560411 -0.3865383 0 19
-2.2773001 2.4594049 -0.35585999 0 20
-2.2874088 2.4703219 -0.32615453 0 21
-2.283345 2.4659331 -0.29440117 0 22
-2.2872448 2.4701447 -0.26372716 0 23
-2.2836516 2.4662642 -0.23222981 0 24
-2.2833521 2.4659407 -0.20115985 0 25
-2.2932496 2.4766297 -0.17089206 0 26
-2.2803197 2.462666 -0.1389932 0 27
-2.2922671 2.4755685 -0.1086477 0 28
-2.276104 2.4581132 -0.077045254 0 29
-2.2934713 2.4768693 -0.046574622 0 30
-2.2816372 2.4640889 -0.015443896 0 31
-2.2906017 2.4737701 0.015504575 0 32
-2.2803521 2.4627008 0.046308205 0 33
-2.281281 2.4637041 0.077220485 0 34
-2.2827718 2.4653141 0.10819764 0 35
-2.285006 2.4677269 0.13927884 0 36
-2.28827 2.471252 0.17052099 0 37
-2.2829483 2.4655046 0.20112427 0 38
-2.2922888 2.4755919 0.23310813 0 39
-2.2743454 2.4562137 0.26223981 0 40
-2.2816882 2.464144 0.29418761 0 41
-2.2898746 2.4729848 0.32650611 0 42
-2.2825708 2.4650972 0.35668364 0 43
-2.2845089 2.4671903 0.38829297 0 44
-2.2797177 2.4620159 0.4187859 0 45
-2.2767322 2.4587917 0.44957563 0 46
-2.2852619 2.4680033 0.48279318 0 47
-2.2875214 2.4704432 0.51491845 0 48
-2.2951801 2.4787147 0.54848576 0 49
-2.2880433 2.4710071 0.57861954 0 50
-2.2870662 2.4699519 0.61029887 0 51
-2.2844691 2.4671471 0.64160258 0 52
-2.2841716 2.4668257 0.67362404 0 53
-2.2863646 2.4691942 0.70652533 0 54
-2.2792075 2.4614646 0.73659164 0 55
-2.2804723 2.4628308 0.76942706 0 56
-2.2836783 2.4662931 0.80311817 0 57
-2.2892857 2.4723487 0.83792365 0 58
-2.2835796 2.4661863 0.86873692 0 59
-2.2925501 2.4758744 0.90533817 0 60
-2.2826827 2.4652178 0.9346506 0 61
-2.2802384 2.4625781 0.96699357 0 62
-2.2824981 2.4650185 1.0015061 0 63
-1.6950079 1.7859895 -0.7340377 0 0
-1.7498962 1.8438239 -0.73241812 0 1
-1.8296045 1.9278107 -0.7393744 0 2
-1.8889244 1.9903146 -0.73622406 0 3
-1.9498223 2.0544813 -0.73210043 0 4
-2.0413353 2.1509063 -0.73743248 0 5
-2.1204906 2.2343104 -0.73601103 0 6
-2.206989 2.3254519 -0.73493057 0 7
-2.2904799 2.413424 -0.73058856 0 8
-2.3403525 2.4659739 -0.71378434 0 9
-2.3358428 2.4612217 -0.67988575 0 10
-2.334188 2.4594781 -0.64702356 0 11
-2.3373945 2.4628568 -0.615601 0 12
-2.3364544 2.4618664 -0.58316255 0 13
-2.3396699 2.4652545 -0.55183172 0 14
-2.3373673 2.4628282 -0.51928252 0 15
-2.343019 2.4687831 -0.48854485 0 16
-2.3360667 2.461458 -0.45528099 0 17
-2.3402295 2.4658442 -0.42429987 0 18
-2.3368955 2.4623311 -0.39202109 0 19
-2.3464944 2.4724452 -0.36189443 0 20
-2.3446517 2.4705036 -0.32996011 0 21
-2.3330889 2.4583199 -0.29689491 0 22
-2.3469858 2.4729631 -0.26708907 0 23
-2.3481874 2.4742293 -0.23568088 0 24
-2.3279891 2.4529467 -0.20241973 0 25
-2.342505 2.4682417 -0.17228781 0 26
-2.3257916 2.4506311 -0.13991751 0 27
-2.3420069 2.4677167 -0.10955872 0 28
-2.3385499 2.4640741 -0.078127488 0 29
-2.3390107 2.4645598 -0.046880443 0 30
-2.3402753 2.4658923 -0.015634382 0 31
-2.3408091 2.4664547 0.015637947 0 32
-2.3426268 2.46837 0.046952918 0 33
-2.3346324 2.4599466 0.077996612 0 34
-2.3466771 2.4726377 0.10977719 0 35
-2.3343968 2.4596982 0.14043519 0 36
-2.3389933 2.4645414 0.17202954 0 37
-2.3378663 2.4633541 0.20327856 0 38
-2.3395269 2.4651036 0.23481163 0 39
-2.3483891 2.4744415 0.26724878 0 40
-2.3400922 2.4656992 0.29778612 0 41
-2.3382874 2.4637976 0.32906446 0 42
-2.3341129 2.4593992 0.35998484 0 43
-2.3365412 2.4619577 0.39196163 0 44
-2.3400347 2.4656389 0.42426455 0 45
-2.3277626 2.452708 0.45366257 0 46
-2.3513482 2.4775596 0.49028158 0 47
-2.3320441 2.4572194 0.51809996 0 48
-2.3367198 2.4621458 0.55113584 0 49
-2.3506958 2.4768722 0.58671713 0 50
-2.3308415 2.4559522 0.61387515 0 51
-2.3348939 2.460222 0.64721924 0 52
-2.3326993 2.4579096 0.67897075 0 53
-2.3377428 2.4632239 0.71298838 0 54
-2.3348339 2.4601588 0.74473602 0 55
-2.3373413 2.4628007 0.77833802 0 56
-2.3377414 2.4632223 0.81141764 0 57
-2.3432627 2.4690402 0.84650379 0 58
-2.3397555 2.4653447 0.87850875 0 59
-2.3290148 2.4540274 0.90775299 0 60
-2.3386083 2.4641356 0.94507152 0 61
-2.3476245 2.4736362 0.98259705 0 62
-2.3276753 2.452616 1.0080197 0 63
-1.7210792 1.7693721 -0.73585039 0 0
-1.7758181 1.8256469 -0.73381627 0 1
-1.8435735 1.8953035 -0.73554575 0 2
-1.8981472 1.9514085 -0.73041105 0 3
-1.9776467 2.0331388 -0.7331053 0 4
-2.0592408 2.1170223 -0.73444128 0 5
-2.1302578 2.1900322 -0.72999889 0 6
-2.230895 2.2934933 -0.73344457 0 7
-2.3351636 2.4006875 -0.73536968 0 8
-2.3927917 2.4599326 -0.72049779 0 9
-2.3945279 2.4617176 -0.68810433 0 10
-2.4000812 2.4674265 -0.65682888 0 11
-2.3943286 2.4615126 -0.62257701 0 12
-2.4038982 2.4713507 -0.5923664 0 13
-2.3931601 2.4603114 -0.55727029 0 14
-2.3908052 2.4578905 -0.52440041 0 15
-2.393327 2.4604828 -0.4926888 0 16
-2.3890705 2.4561069 -0.45969018 0 17
-2.3940957 2.4612732 -0.42854652 0 18
-2.4152212 2.4829915 -0.40000835 0 19
-2.3988779 2.4661896 -0.36526877 0 20
-2.395596 2.4628155 -0.33284247 0 21
-2.3892765 2.4563186 -0.30017874 0 22
-2.3964601 2.4637039 -0.26925135 0 23
-2.3957629 2.4629872 -0.23739821 0 24
-2.3959918 2.4632223 -0.2056834 0 25
-2.4006751 2.4680371 -0.17432089 0 26
-2.3958175 2.4630432 -0.14229743 0 27
-2.3974767 2.4647491 -0.11072742 0 28
-2.3933847 2.4605422 -0.078942664 0 29
-2.3941276 2.4613059 -0.047374956 0 30
-2.3971334 2.464396 -0.015810587 0 31
-2.3916523 2.4587612 0.015774436 0 32
-2.398062 2.4653509 0.047452811 0 33
-2.3990502 2.4663668 0.079129532 0 34
-2.3955135 2.4627309 0.11063676 0 35
-2.3989396 2.4662528 0.14248286 0 36
-2.3979537 2.4652395 0.17412329 0 37
-2.3995593 2.4668899 0.20598964 0 38
-2.3907235 2.4578063 0.23689885 0 39
-2.4059627 2.4734731 0.27031901 0 40
-2.4025316 2.4699457 0.30184406 0 41
-2.3961897 2.4634259 0.33292493 0 42
-2.3963616 2.4636025 0.3648856 0 43
-2.3890309 2.4560661 0.39567074 0 44
-2.4024472 2.4698591 0.43004146 0 45
-2.3928428 2.459985 0.46041605 0 46
-2.389961 2.4570224 0.4919959 0 47
-2.4028623 2.4702857 0.52704495 0 48
-2.3900201 2.4570832 0.55653912 0 49
-2.3956988 2.4629214 0.59034598 0 50
-2.3874178 2.4544077 0.62078005 0 51
-2.393209 2.4603615 0.65494812 0 52
-2.392148 2.4592707 0.68742037 0 53
-2.401444 2.4688277 0.72310311 0 54
-2.3877378 2.4547367 0.75192589 0 55
-2.3935063 2.4606671 0.78690577 0 56
-2.3998253 2.4671636 0.82237452 0 57
-2.3996444 2.4669774 0.85584837 0 58
-2.3995759 2.4669073 0.88951266 0 59
-2.4025702 2.4699855 0.92451417 0 60
-2.3959994 2.4632304 0.95595175 0 61
-2.3913138 2.4584131 0.98815578 0 62
-2.39728 2.4645469 1.0249612 0 63
-1.7452569 1.7506369 -0.73692816 0 0
-1.7970243 1.8025639 -0.73336446 0 1
-1.8644429 1.8701904 -0.73464143 0 2
-1.9367794 1.9427499 -0.73602861 0 3
-2.006623 2.0128088 -0.73461622 0 4
-2.086355 2.0927866 -0.734878 0 5
-2.1717281 2.1784229 -0.73497504 0 6
-2.2675805 2.2745707 -0.73625451 0 7
-2.3657498 2.3730428 -0.73575693 0 8
-2.4673734 2.4749794 -0.7337358 0 9
-2.4512615 2.458818 -0.69566655 0 10
-2.4637706 2.4713657 -0.66589183 0 11
-2.4503331 2.4578869 -0.62923318 0 12
-2.4584093 2.4659877 -0.59828162 0 13
-2.4607062 2.4682918 -0.56588864 0 14
-2.4557226 2.4632928 -0.53195536 0 15
-2.4547303 2.4622974 -0.4990586 0 16
-2.4622579 2.4698484 -0.46789342 0 17
-2.4513128 2.4588695 -0.43334353 0 18
-2.4537911 2.4613552 -0.4013533 0 19
-2.4654794 2.4730797 -0.37075144 0 20
-2.4543529 2.4619188 -0.33677453 0 21
-2.4571488 2.4647233 -0.3048752 0 22
-2.4592741 2.4668553 -0.27288002 0 23
-2.4511955 2.4587517 -0.23987703 0 24
-2.4455481 2.4530869 -0.20733242 0 25
-2.4482722 2.4558196 -0.17557105 0 26
-2.4627259 2.4703178 -0.1444563 0 27
-2.4531856 2.460748 -0.11189439 0 28
-2.4650431 2.4726419 -0.080297291 0 29
-2.4601316 2.4677155 -0.048076957 0 30
-2.4514909 2.459048 -0.015968464 0 31
-2.4631488 2.470742 0.016044401 0 32
-2.4599977 2.467581 0.048074339 0 33
-2.4618359 2.469425 0.080192819 0 34
-2.4527571 2.4603183 0.11187485 0 35
-2.4608855 2.4684715 0.14434835 0 36
-2.4562161 2.4637878 0.17614071 0 37
-2.4520245 2.4595833 0.20788148 0 38
-2.4564998 2.4640725 0.24039611 0 39
-2.4544156 2.4619818 0.27234092 0 40
-2.4505451 2.4580994 0.30405584 0 41
-2.4536202 2.461184 0.336674 0 42
-2.4506869 2.4582417 0.36852702 0 43
-2.4569824 2.4645565 0.40187529 0 44
-2.4517012 2.459259 0.43341216 0 45
-2.4568782 2.464452 0.46687111 0 46
-2.4491041 2.4566538 0.49791479 0 47
-2.4496477 2.4571991 0.53063941 0 48
-2.4529049 2.4604664 0.56409454 0 49
-2.4508131 2.4583681 0.59643298 0 50
-2.4472654 2.4548094 0.62844533 0 51
-2.4553087 2.4628775 0.6636048 0 52
-2.4588904 2.4664702 0.69783157 0 53
-2.4526024 2.4601631 0.72934335 0 54
-2.4569325 2.4645064 0.76411504 0 55
-2.4578867 2.4654636 0.7980445 0 56
-2.4527478 2.4603088 0.83008009 0 57
-2.4494331 2.4569838 0.86276525 0 58
-2.4555304 2.4631 0.89895934 0 59
-2.4461999 2.4537408 0.92962229 0 60
-2.458998 2.4665785 0.96891242 0 61
-2.4502237 2.457777 0.99993485 0 62
-2.4571931 2.4647679 1.0375406 0 63
-1.7648149 1.7272497 -0.73616266 0 0
-1.8243942 1.7855608 -0.73551828 0 1
-1.8857589 1.8456193 -0.73404276 0 2
-1.9486995 1.9072202 -0.73159087 0 3
-2.0444455 2.0009284 -0.73939949 0 4
-2.1141915 2.0691895 -0.73566526 0 5
-2.198806 2.152003 -0.73512787 0 6
-2.2918634 2.2430797 -0.73512775 0 7
-2.3925178 2.3415916 -0.73507148 0 8
-2.4985428 2.4453597 -0.73400748 0 9
-2.5103989 2.4569633 -0.70382231 0 10
-2.50983 2.4564066 -0.67012614 0 11
-2.5041742 2.4508715 -0.6352722 0 12
-2.515924 2.4623709 -0.60486412 0 13
-2.5104895 2.4570522 -0.57034606 0 14
-2.5210357 2.4673738 -0.5394904 0 15
-2.5248563 2.4711132 -0.50709963 0 16
-2.5070941 2.4537292 -0.47064438 0 17
-2.5148125 2.4612832 -0.43918553 0 18
-2.5200782 2.4664369 -0.40720409 0 19
-2.5115392 2.4580796 -0.37310436 0 20
-2.5196426 2.4660106 -0.34154665 0 21
-2.5191143 2.4654934 -0.3087787 0 22
-2.5243266 2.4705946 -0.2767064 0 23
-2.5196974 2.466064 -0.24359475 0 24
-2.5196271 2.4659953 -0.21102609 0 25
-2.5106099 2.45717 -0.17786121 0 26
-2.513664 2.4601591 -0.14565872 0 27
-2.5155897 2.4620438 -0.11335132 0 28
-2.5246532 2.4709144 -0.081243187 0 29
-2.5164995 2.4629343 -0.048582997 0 30
-2.5153685 2.4618273 -0.016186142 0 31
-2.518394 2.4647884 0.016205611 0 32
-2.5158253 2.4622746 0.048569985 0 33
-2.5217803 2.4681027 0.081150733 0 34
-2.5159802 2.4624259 0.11336891 0 35
-2.5179567 2.4643605 0.14590748 0 36
-2.520725 2.4670699 0.17857781 0 37
-2.5097296 2.4563084 0.21019714 0 38
-2.5165973 2.4630301 0.24329506 0 39
-2.5161815 2.4626231 0.27581358 0 40
-2.517869 2.4642746 0.30862609 0 41
-2.5182076 2.464606 0.34135211 0 42
-2.5124335 2.458955 0.37323722 0 43
-2.5231075 2.4694016 0.40769356 0 44
-2.5106587 2.4572179 0.43846014 0 45
-2.5138438 2.460335 0.47191146 0 46
-2.5179901 2.4643931 0.50572062 0 47
-2.5154369 2.4618943 0.53829235 0 48
-2.522433 2.4687417 0.5730595 0 49
-2.5197327 2.4660985 0.60577977 0 50
-2.5127876 2.4593012 0.63745725 0 51
-2.5081348 2.4547477 0.66967356 0 52
-2.5153773 2.4618361 0.70521814 0 53
-2.5249269 2.4711823 0.74175847 0 54
-2.525254 2.4715025 0.77585304 0 55
-2.5250907 2.4713426 0.8099367 0 56
-2.5186367 2.4650259 0.84205699 0 57
-2.5140576 2.4605443 0.87480479 0 58
-2.5147326 2.461205 0.90948468 0 59
-2.5191417 2.4655204 0.94574928 0 60
-2.5130711 2.4595788 0.97822773 0 61
-2.5120432 2.4585729 1.0127492 0 62
-2.5238242 2.470103 1.0527706 0 63
-1.786273 1.7057579 -0.73630857 0 0
-1.8513366 1.7678888 -0.73756039 0 1
-1.9161292 1.8297609 -0.73705077 0 2
-1.9867167 1.8971667 -0.7370497 0 3
-2.054584 1.961975 -0.73428541 0 4
-2.1462765 2.0495343 -0.73800445 0 5
-2.2218475 2.1216991 -0.73405337 0 6
-2.3256776 2.220849 -0.73715872 0 7
-2.4241095 2.3148444 -0.73597664 0 8
-2.5372477 2.422883 -0.73656994 0 9
-2.5699651 2.4541256 -0.71200818 0 10
-2.5845065 2.4680114 -0.6819104 0 11
-2.5746837 2.4586313 -0.64544106 0 12
-2.5765145 2.4603798 -0.61211121 0 13
-2.5922635 2.4754188 -0.58196461 0 14
-2.5734942 2.4574957 -0.54420859 0 15
-2.5806968 2.4643736 -0.51218992 0 16
-2.5774376 2.4612613 -0.47813201 0 17
-2.5860949 2.4695282 -0.44629732 0 18
-2.5804038 2.4640937 -0.41202465 0 19
-2.5734272 2.4574316 -0.37778059 0 20
-2.5814383 2.4650817 -0.34578827 0 21
-2.5762491 2.4601262 -0.3120504 0 22
-2.5700028 2.4541616 -0.27838427 0 23
-2.5869992 2.4703918 -0.24714582 0 24
-2.5766077 2.4604688 -0.2132483 0 25
-2.5782301 2.462018 -0.18049331 0 26
-2.5799999 2.4637079 -0.14773601 0 27
-2.5802062 2.4639051 -0.11488903 0 28
-2.5752201 2.4591439 -0.081891157 0 29
-2.5795822 2.4633093 -0.04921237 0 30
-2.5911911 2.4743948 -0.016477017 0 31
-2.5760434 2.4599299 0.016380694 0 32
-2.582283 2.4658883 0.049263891 0 33
-2.5701776 2.4543285 0.081730805 0 34
-2.5847981 2.4682901 0.1150935 0 35
-2.5806918 2.4643688 0.14777564 0 36
-2.578305 2.4620895 0.18049856 0 37
-2.5852878 2.4687576 0.2139667 0 38
-2.5854738 2.468935 0.24700008 0 39
-2.5783341 2.4621174 0.27928671 0 40
-2.5721877 2.4562478 0.31155846 0 41
-2.5787418 2.4625068 0.34542707 0 42
-2.5755861 2.4594932 0.37809753 0 43
-2.581708 2.4653392 0.41223291 0 44
-2.5700188 2.4541769 0.44352299 0 45
-2.5777051 2.4615169 0.47818166 0 46
-2.5832031 2.4667668 0.51268733 0 47
-2.5819845 2.4656034 0.546004 0 48
-2.578809 2.4625709 0.57894415 0 49
-2.5855875 2.469044 0.61426669 0 50
-2.5781372 2.4619291 0.64630675 0 51
-2.5808241 2.4644952 0.68093878 0 52
-2.5673034 2.4515839 0.71127069 0 53
-2.5798023 2.4635193 0.7489236 0 54
-2.5827219 2.4663074 0.78413254 0 55
-2.5787385 2.4625034 0.81737024 0 56
-2.5853963 2.4688613 0.85416257 0 57
-2.579258 2.4629996 0.8868866 0 58
-2.5736134 2.4576094 0.91978073 0 59
-2.5865617 2.469974 0.95958549 0 60
-2.5804365 2.4641249 0.99258053 0 61
-2.5785732 2.4623456 1.0272866 0 62
-2.5807192 2.4643948 1.0637823 0 63
-1.8161746 1.6921101 -0.7400015 0 0
-1.8612665 1.7341217 -0.73296583 0 1
-1.933672 1.801581 -0.73522174 0 2
-2.0039396 1.8670486 -0.73486644 0 3
-2.0912027 1.9483508 -0.73875445 0 4
-2.1671886 2.019146 -0.73660219 0 5
-2.2367444 2.0839505 -0.73045379 0 6
-2.3449967 2.1848078 -0.73471123 0 7
-2.4531431 2.2855668 -0.73620313 0 8
-2.5518496 2.3775303 -0.73226649 0 9
-2.6270812 2.447623 -0.71943939 0 10
-2.6444855 2.4638381 -0.68968982 0 11
-2.6352742 2.4552562 -0.65301245 0 12
-2.6375124 2.4573417 -0.6193772 0 13
-2.6428199 2.4622865 -0.58647299 0 14
-2.647136 2.4663076 -0.55332637 0 15
-2.6505816 2.4695179 -0.51999378 0 16
-2.6460645 2.4653094 -0.48520249 0 17
-2.6307299 2.4510221 -0.44876507 0 18
-2.6581149 2.4765365 -0.41953892 0 19
-2.6407359 2.4603448 -0.38319132 0 20
-2.6516542 2.4705172 -0.351098 0 21
-2.6426888 2.4621642 -0.31640685 0 22
-2.6429055 2.4623661 -0.28297994 0 23
-2.6454675 2.4647532 -0.24981722 0 24
-2.6465514 2.4657629 -0.21651129 0 25
-2.6465797 2.4657893 -0.18314175 0 26
-2.6581941 2.4766104 -0.15045837 0 27
-2.6411219 2.4607043 -0.11624534 0 28
-2.6365473 2.4564424 -0.082874544 0 29
-2.6377885 2.4575989 -0.049742527 0 30
-2.6370311 2.4568932 -0.016575146 0 31
-2.6485717 2.4676452 0.016647683 0 32
-2.6412911 2.4608622 0.049808577 0 33
-2.6417723 2.4613104 0.083038785 0 34
-2.6353171 2.455296 0.11598986 0 35
-2.6297061 2.4500685 0.1488459 0 36
-2.6481893 2.467289 0.18325314 0 37
-2.6442115 2.463583 0.21631989 0 38
-2.661447 2.4796412 0.2513262 0 39
-2.6317096 2.4519351 0.28178117 0 40
-2.641053 2.4606402 0.31621099 0 41
-2.646951 2.4661353 0.35047525 0 42
-2.6417394 2.4612796 0.38333696 0 43
-2.6365311 2.4564273 0.41613227 0 44
-2.6394963 2.4591899 0.45026049 0 45
-2.6417129 2.4612551 0.48440456 0 46
-2.6501379 2.4691045 0.51990676 0 47
-2.6500909 2.4690609 0.55394405 0 48
-2.648299 2.4673913 0.58768886 0 49
-2.6379144 2.457716 0.61947161 0 50
-2.6437583 2.4631608 0.65511483 0 51
-2.6424398 2.4619322 0.68915629 0 52
-2.6450055 2.4643228 0.72434801 0 53
-2.6337337 2.4538209 0.75576359 0 54
-2.6456895 2.4649601 0.79398745 0 55
-2.6536226 2.4723513 0.83140689 0 56
-2.6410232 2.4606125 0.86247909 0 57
-2.6405838 2.4602032 0.89750367 0 58
-2.6435924 2.4630063 0.93389589 0 59
-2.6413047 2.4608748 0.96859515 0 60
-2.6385937 2.458349 1.0032475 0 61
-2.6432846 2.4627194 1.0409242 0 62
-2.6375887 2.4574125 1.0746872 0 63
-1.8205792 1.654868 -0.73344946 0 0
-1.8895147 1.7175291 -0.73571748 0 1
-1.9604857 1.7820401 -0.73702949 0 2
-2.0222526 1.838185 -0.73323774 0 3
-2.1084335 1.9165215 -0.73646057 0 4
-2.1966441 1.9967031 -0.73821288 0 5
-2.2790694 2.0716259 -0.73590124 0 6
-2.389673 2.1721623 -0.74028432 0 7
-2.4872832 2.2608881 -0.73804975 0 8
-2.5922987 2.3563449 -0.73550355 0 9
-2.703723 2.4576271 -0.73209679 0 10
-2.7018242 2.4559011 -0.6967153 0 11
-2.6992228 2.4535367 -0.66133279 0 12
-2.6990201 2.4533525 -0.62668955 0 13
-2.7006204 2.4548068 -0.59255624 0 14
-2.7029598 2.4569333 -0.5586378 0 15
-2.7104931 2.4637811 -0.52576411 0 16
-2.6992338 2.4535465 -0.48938283 0 17
-2.7153957 2.4682374 -0.45799586 0 18
-2.7111595 2.4643867 -0.42309627 0 19
-2.7126164 2.4657111 -0.38919276 0 20
-2.7056015 2.4593346 -0.35421008 0 21
-2.71174 2.4649146 -0.32102108 0 22
-2.7040217 2.4578986 -0.28626603 0 23
-2.7081816 2.4616799 -0.25286189 0 24
-2.7038651 2.4577563 -0.21871114 0 25
-2.7034564 2.4573848 -0.1849726 0 26
-2.7076225 2.4611719 -0.15153167 0 27
-2.7209108 2.4732504 -0.11840963 0 28
-2.7009418 2.4550991 -0.083943374 0 29
-2.7074718 2.4610348 -0.050482102 0 30
-2.7051833 2.4589546 -0.016812194 0 31
-2.7013097 2.4554336 0.016788121 0 32
-2.7011759 2.455312 0.050364714 0 33
-2.7117014 2.4648793 0.084277779 0 34
-2.7109969 2.4642389 0.1179782 0 35
-2.6995513 2.4538352 0.15107997 0 36
-2.7086923 2.4621441 0.18533084 0 37
-2.7093799 2.4627693 0.21915722 0 38
-2.6955249 2.4501753 0.25168011 0 39
-2.7083926 2.4618719 0.28672877 0 40
-2.7110133 2.4642539 0.32093504 0 41
-2.7129927 2.466053 0.3551777 0 42
-2.6892667 2.4444866 0.38584265 0 43
-2.7044332 2.4582727 0.42204657 0 44
-2.6981227 2.4525366 0.45508251 0 45
-2.7044981 2.4583316 0.49033725 0 46
-2.7099514 2.4632888 0.52565902 0 47
-2.7059989 2.4596958 0.55926597 0 48
-2.7054069 2.4591577 0.59360647 0 49
-2.6995149 2.4538021 0.62680441 0 50
-2.70346 2.4573882 0.66237092 0 51
-2.7112968 2.4645116 0.69915795 0 52
-2.7138944 2.4668727 0.73485094 0 53
-2.706358 2.4600222 0.76786512 0 54
-2.7137308 2.4667239 0.80524337 0 55
-2.6973641 2.4518471 0.8356024 0 56
-2.7085497 2.4620147 0.87457848 0 57
-2.7070982 2.4606953 0.90975809 0 58
-2.702096 2.4561481 0.94382256 0 59
-2.6997325 2.454 0.9788816 0 60
-2.710958 2.4642036 1.0191637 0 61
-2.7082834 2.4617724 1.0545201 0 62
-2.713361 2.466388 1.0931209 0 63
-1.8479317 1.6386918 -0.7362954 0 0
-1.897835 1.6829447 -0.7308442 0 1
-1.9791569 1.7550584 -0.7358799 0 2
-2.0542946 1.8216883 -0.73667794 0 3
-2.1338882 1.8922697 -0.73716861 0 4
-2.2078152 1.957826 -0.73382109 0 5
-2.2969294 2.0368497 -0.7335254 0 6
-2.3936195 2.1225917 -0.73336595 0 7
-2.5028906 2.2194903 -0.73452705 0 8
-2.616082 2.319865 -0.73410231 0 9
-2.7432406 2.4326255 -0.73464203 0 10
-2.7727528 2.458796 -0.70715553 0 11
-2.7700493 2.4563987 -0.67123461 0 12
-2.7651167 2.4520247 -0.63498771 0 13
-2.7667685 2.4534895 -0.60040516 0 14
-2.7673626 2.4540162 -0.565669 0 15
-2.7756081 2.461328 -0.5324837 0 16
-2.7704289 2.4567354 -0.49677622 0 17
-2.7746129 2.4604456 -0.46284583 0 18
-2.7693269 2.4557583 -0.42742893 0 19
-2.7703757 2.4566882 -0.39311588 0 20
-2.7700295 2.4563813 -0.35866338 0 21
-2.7688065 2.4552965 -0.32417807 0 22
-2.7719836 2.4581141 -0.29023907 0 23
-2.7683601 2.454901 -0.25564286 0 24
-2.771292 2.4575007 -0.2217041 0 25
-2.7674706 2.4541121 -0.18727362 0 26
-2.7752194 2.4609835 -0.15360953 0 27
-2.7717996 2.4579508 -0.11929991 0 28
-2.7791491 2.4644682 -0.085425712 0 29
-2.7729211 2.4589455 -0.051134795 0 30
-2.7742712 2.4601429 -0.01705227 0 31
-2.7779734 2.4634256 0.017075025 0 32
-2.7752159 2.4609802 0.051177111 0 33
-2.7756517 2.4613669 0.085318215 0 34
-2.7731278 2.4591286 0.11935708 0 35
-2.7645469 2.4515195 0.15301879 0 36
-2.7873867 2.4717729 0.18862133 0 37
-2.7864988 2.4709857 0.22292064 0 38
-2.775126 2.4609008 0.25626767 0 39
-2.7677 2.4543154 0.28979054 0 40
-2.7800665 2.4652817 0.32549644 0 41
-2.7693193 2.4557514 0.35857141 0 42
-2.7703161 2.4566355 0.39310741 0 43
-2.7717898 2.4579422 0.42780906 0 44
-2.7690506 2.455513 0.46191797 0 45
-2.7614253 2.4487512 0.49516174 0 46
-2.7676637 2.4542832 0.53095961 0 47
-2.7735329 2.4594879 0.56693023 0 48
-2.7664435 2.4532011 0.60033464 0 49
-2.7762694 2.4619148 0.63754886 0 50
-2.7818 2.466819 0.67408204 0 51
-2.7674699 2.4541116 0.70580822 0 52
-2.7592835 2.446852 0.73893833 0 53
-2.7689996 2.4554679 0.77701277 0 54
-2.7809005 2.4660213 0.81611508 0 55
-2.7740636 2.4599586 0.84992784 0 56
-2.775032 2.4608173 0.88620776 0 57
-2.772547 2.4586136 0.92152339 0 58
-2.7798986 2.465133 0.960338 0 59
-2.7690561 2.455518 0.99299419 0 60
-2.7784572 2.4638546 1.0330716 0 61
-2.7822471 2.4672155 1.0714257 0 62
-2.7781053 2.4635427 1.1069165 0 63
-1.8636516 1.6121365 -0.73460478 0 0
-1.9270827 1.667007 -0.73415798 0 1
-2.0005102 1.7305249 -0.73585182 0 2
-2.0656736 1.786894 -0.73282373 0 3
-2.1389122 1.8502485 -0.73098922 0 4
-2.2298374 1.9289025 -0.7332018 0 5
-2.3283794 2.0141454 -0.73560405 0 6
-2.4338887 2.1054153 -0.73771602 0 7
-2.5353651 2.1931968 -0.73608726 0 8
-2.6696894 2.3093929 -0.74112052 0 9
-2.7756023 2.4010119 -0.73534638 0 10
-2.8403621 2.457032 -0.71663886 0 11
-2.8269248 2.4454081 -0.67767888 0 12
-2.8341358 2.4516459 -0.64386582 0 13
-2.848197 2.4638093 -0.61145496 0 14
-2.8405147 2.4571638 -0.57440233 0 15
-2.8516104 2.4667621 -0.54120427 0 16
-2.8452692 2.4612765 -0.504731 0 17
-2.85168 2.4668224 -0.47060618 0 18
-2.8343551 2.4518354 -0.43277958 0 19
-2.8396213 2.4563909 -0.39862558 0 20
-2.8393364 2.4561446 -0.3636992 0 21
-2.8436661 2.4598899 -0.3293764 0 22
-2.840878 2.457478 -0.29426637 0 23
-2.8498888 2.4652729 -0.26035255 0 24
-2.8315504 2.4494092 -0.22409829 0 25
-2.8413002 2.4578433 -0.19021009 0 26
-2.8378193 2.4548323 -0.15539192 0 27
-2.8443074 2.4604447 -0.12110935 0 28
-2.8408976 2.4574952 -0.086388357 0 29
-2.8424966 2.4588783 -0.051856339 0 30
-2.8401875 2.4568808 -0.017270429 0 31
-2.8434453 2.4596989 0.017290238 0 32
-2.8351085 2.4524872 0.051721554 0 33
-2.8441086 2.4602728 0.086485997 0 34
-2.8445439 2.4606493 0.12111942 0 35
-2.8532419 2.4681735 0.15623641 0 36
-2.8353586 2.4527035 0.18981232 0 37
-2.8363752 2.453583 0.22448015 0 38
-2.8456252 2.4615846 0.25996307 0 39
-2.8478789 2.4635341 0.29499155 0 40
-2.8437974 2.4600036 0.32939163 0 41
-2.8359444 2.4532104 0.36326471 0 42
-2.8513193 2.4665103 0.40026775 0 43
-2.8483126 2.4639094 0.43491077 0 44
-2.8328557 2.4505384 0.46749961 0 45
-2.843323 2.4595933 0.50438577 0 46
-2.837842 2.4548519 0.53859115 0 47
-2.8412645 2.4578125 0.57455397 0 48
-2.8401442 2.4568434 0.60972619 0 49
-2.8343654 2.4518445 0.64391798 0 50
-2.8483446 2.463937 0.6828137 0 51
-2.8443632 2.4604931 0.71764839 0 52
-2.836993 2.4541173 0.7516107 0 53
-2.8375874 2.4546316 0.78772992 0 54
-2.8478026 2.4634683 0.82679659 0 55
-2.848249 2.4638543 0.86330932 0 56
-2.8379223 2.4549215 0.8965838 0 57
-2.8503389 2.4656622 0.93723136 0 58
-2.8402433 2.456929 0.97067434 0 59
-2.8427787 2.4591222 1.0085114 0 60
-2.8456414 2.4615986 1.0467181 0 61
-2.842685 2.4590414 1.0829737 0 62
-2.8395183 2.4563019 1.119267 0 63
-1.8806469 1.5868337 -0.73355711 0 0
-1.9296217 1.6281571 -0.7274431 0 1
-2.0187445 1.7033564 -0.73479909 0 2
-2.0938413 1.7667208 -0.73505396 0 3
-2.1877863 1.8459889 -0.73987877 0 4
-2.2523906 1.9004999 -0.73287797 0 5
-2.3472257 1.9805191 -0.73380876 0 6
-2.4526889 2.0695057 -0.73564553 0 7
-2.5613625 2.1612012 -0.73586386 0 8
-2.6768594 2.2586539 -0.73534524 0 9
-2.8140557 2.3744161 -0.7377429 0 10
-2.9167914 2.4611015 -0.72823191 0 11
-2.9114914 2.4566295 -0.69065773 0 12
-2.902688 2.4492013 -0.65254837 0 13
-2.9236012 2.4668474 -0.62108386 0 14
-2.9020801 2.4486885 -0.58071923 0 15
-2.9072964 2.45309 -0.54600668 0 16
-2.9100797 2.4554384 -0.51083326 0 17
-2.9048512 2.4510269 -0.47437128 0 18
-2.9063196 2.4522657 -0.43913043 0 19
-2.9149396 2.4595392 -0.40492257 0 20
-2.9221096 2.4655888 -0.37039033 0 21
-2.9031081 2.4495561 -0.33274746 0 22
-2.9149721 2.4595666 -0.29878592 0 23
-2.913727 2.4585159 -0.26340285 0 24
-2.9122095 2.4572353 -0.22807334 0 25
-2.9044731 2.4507077 -0.19240725 0 26
-2.9130166 2.4579165 -0.15784262 0 27
-2.9201472 2.463933 -0.12303922 0 28
-2.9120483 2.4570994 -0.087626576 0 29
-2.9115074 2.4566431 -0.052560251 0 30
-2.9043174 2.4505763 -0.017475832 0 31
-2.9014165 2.4481287 0.017458376 0 32
-2.9172707 2.4615059 0.052664291 0 33
-2.9122565 2.4572749 0.087632835 0 34
-2.9056146 2.4516709 0.1224269 0 35
-2.9064374 2.4523652 0.15748613 0 36
-2.914115 2.4588432 0.19304599 0 37
-2.9215386 2.4651072 0.22880398 0 38
-2.9182677 2.462347 0.26381332 0 39
-2.921782 2.4653125 0.29948393 0 40
-2.908473 2.4540827 0.33336237 0 41
-2.9024131 2.4489696 0.36789373 0 42
-2.9019248 2.4485576 0.40311462 0 43
-2.9151876 2.4597483 0.44047034 0 44
-2.9068043 2.4526746 0.4746902 0 45
-2.9061794 2.4521475 0.51014858 0 46
-2.8988783 2.445987 0.54442573 0 47
-2.9080389 2.4537165 0.58191162 0 48
-2.9024014 2.4489596 0.61658019 0 49
-2.9119072 2.4569805 0.65462095 0 50
-2.9116387 2.4567537 0.69069266 0 51
-2.9094503 2.4549074 0.726399 0 52
-2.8972201 2.4445877 0.75954556 0 53
-2.9098055 2.4552071 0.79933667 0 54
-2.9026535 2.4491725 0.8339147 0 55
-2.9163244 2.4607074 0.87470573 0 56
-2.9062696 2.4522235 0.90858155 0 57
-2.912539 2.4575133 0.94767565 0 58
-2.8990088 2.4460971 0.98040426 0 59
-2.9112687 2.4564416 1.0220162 0 60
-2.9028711 2.4493561 1.0566107 0 61
-2.9181681 2.4622631 1.1001126 0 62
-2.9114001 2.4565523 1.1356083 0 63
-1.9120797 1.573518 -0.73821479 0 0
-1.9637576 1.6160456 -0.73276514 0 1
-2.0330305 1.6730528 -0.73245543 0 2
-2.1210647 1.7454991 -0.73702025 0 3
-2.1930354 1.8047265 -0.73409349 0 4
-2.2856822 1.8809688 -0.73612893 0 5
-2.3734586 1.9532031 -0.73444581 0 6
-2.4764159 2.0379303 -0.73519033 0 7
-2.5810547 2.1240411 -0.73396224 0 8
-2.6983786 2.2205911 -0.73370028 0 9
-2.8221719 2.3224652 -0.73232847 0 10
-2.9739132 2.4473383 -0.73492438 0 11
-2.9738646 2.4472983 -0.69826227 0 12
-2.9784677 2.4510865 -0.66275853 0 13
-2.9786344 2.4512236 -0.62632447 0 14
-2.987004 2.4581115 -0.59161979 0 15
-2.9832289 2.4550047 -0.55455589 0 16
-2.977066 2.4499331 -0.51726466 0 17
-2.9758515 2.4489336 -0.4810119 0 18
-2.982878 2.4547157 -0.4461036 0 19
-2.9788916 2.4514353 -0.40958795 0 20
-2.9826992 2.4545689 -0.37421629 0 21
-2.983979 2.455622 -0.33853015 0 22
-2.9832222 2.4549992 -0.30266443 0 23
-2.9749742 2.4482114 -0.26619804 0 24
-2.9746969 2.4479835 -0.23059225 0 25
-2.9729693 2.4465616 -0.19493712 0 26
-2.9904745 2.4609673 -0.16038786 0 27
-2.9896681 2.4603035 -0.12468432 0 28
-2.9784076 2.4510372 -0.088709772 0 29
-2.984498 2.456049 -0.053328685 0 30
-2.9772556 2.450089 -0.017732091 0 31
-2.9772255 2.4500642 0.017731912 0 32
-2.9935479 2.4634967 0.053490397 0 33
-2.9817605 2.4537961 0.088809632 0 34
-2.9844346 2.455997 0.12446606 0 35
-2.9714143 2.445282 0.15936561 0 36
-2.9863796 2.4575975 0.19581644 0 37
-2.9765265 2.4494889 0.23073407 0 38
-2.9823442 2.4542766 0.2668575 0 39
-2.9905593 2.4610372 0.30340883 0 40
-2.9772727 2.450103 0.33776933 0 41
-2.9856424 2.456991 0.37458554 0 42
-2.9767065 2.4496372 0.40928748 0 43
-2.993583 2.4635255 0.44770458 0 44
-2.9874713 2.4584959 0.4828901 0 45
-2.9921186 2.4623203 0.51988006 0 46
-2.9819548 2.4539561 0.55431902 0 47
-2.9767482 2.4496715 0.58958852 0 48
-2.9788492 2.4514005 0.62636966 0 49
-2.9726963 2.446337 0.66147429 0 50
-2.9741962 2.4475713 0.69834018 0 51
-2.981286 2.4534059 0.73674643 0 52
-2.9744925 2.4478152 0.77185434 0 53
-2.9778104 2.4505455 0.80967897 0 54
-2.9883194 2.4591939 0.84977418 0 55
-2.9869452 2.4580629 0.88675463 0 56
-2.9842026 2.455806 0.92343521 0 57
-2.980731 2.452949 0.95997697 0 58
-2.9850686 2.4565187 0.99921751 0 59
-2.987293 2.4583492 1.0380144 0 60
-2.9789689 2.451499 1.0732559 0 61
-2.9788747 2.4514215 1.1115503 0 62
-2.9916854 2.4619639 1.1550285 0 63
-1.9255723 1.5453066 -0.73603213 0 0
-1.9918036 1.5984584 -0.73584038 0 1
-2.0685992 1.6600882 -0.73785979 0 2
-2.1425183 1.7194097 -0.73707265 0 3
-2.2235799 1.784463 -0.73691714 0 4
-2.3010938 1.8466694 -0.73372376 0 5
-2.3974564 1.9240021 -0.73449528 0 6
-2.5134838 2.0171163 -0.73877555 0 7
-2.6261806 2.1075573 -0.73936909 0 8
-2.7396159 2.1985915 -0.73750627 0 9
-2.8708723 2.3039267 -0.73755854 0 10
-2.9992023 2.406914 -0.73380446 0 11
-3.0657473 2.4603176 -0.71267903 0 12
-3.0447481 2.4434652 -0.67077053 0 13
-3.0516317 2.4489896 -0.63529366 0 14
-3.0618756 2.4572105 -0.60041928 0 15
-3.0658171 2.4603736 -0.56424171 0 16
-3.0429459 2.442019 -0.52345431 0 17
-3.04563 2.4441731 -0.48739591 0 18
-3.0469058 2.4451969 -0.45114845 0 19
-3.0573127 2.4535487 -0.41619086 0 20
-3.0531824 2.4502339 -0.3792505 0 21
-3.0625353 2.4577401 -0.3439877 0 22
-3.0492878 2.4471085 -0.3062911 0 23
-3.0441303 2.4429696 -0.26967776 0 24
-3.0464969 2.4448688 -0.23380992 0 25
-3.0487061 2.4466417 -0.19791554 0 26
-3.0561657 2.4526281 -0.1622813 0 27
-3.0543909 2.4512041 -0.12611702 0 28
-3.0643389 2.4591873 -0.090361692 0 29
-3.0462651 2.4446828 -0.053891152 0 30
-3.052865 2.4499793 -0.018001622 0 31
-3.0604947 2.4561024 0.018046612 0 32
-3.0437572 2.4426703 0.053846791 0 33
-3.0483291 2.4463394 0.089889593 0 34
-3.0449662 2.4436405 0.12572788 0 35
-3.0591764 2.4550445 0.16244118 0 36
-3.0559766 2.4524765 0.19838753 0 37
-3.0657032 2.4602823 0.23528396 0 38
-3.0519266 2.4492264 0.27036843 0 39
-3.048965 2.4468496 0.30625868 0 40
-3.0527599 2.4498951 0.34288973 0 41
-3.0579934 2.4540949 0.37984809 0 42
-3.0595603 2.4553525 0.41649681 0 43
-3.0568531 2.4531798 0.45262134 0 44
-3.048918 2.4468119 0.4879221 0 45
-3.0528469 2.4499648 0.52515751 0 46
-3.0577586 2.4539065 0.56275856 0 47
-3.0542781 2.4511135 0.59892946 0 48
-3.0498905 2.4475923 0.63493115 0 49
-3.0578117 2.4539492 0.67364854 0 50
-3.0511413 2.448596 0.70928359 0 51
-3.040642 2.44017 0.74394333 0 52
-3.0536764 2.4506304 0.78452295 0 53
-3.0488813 2.4467824 0.82076067 0 54
-3.0565355 2.452925 0.86053026 0 55
-3.0533874 2.4503987 0.89746666 0 56
-3.0573695 2.4535942 0.93666917 0 57
-3.0383821 2.4383564 0.96881443 0 58
-3.053942 2.4508436 1.0121076 0 59
-3.0530946 2.4501636 1.0503306 0 60
-3.0477309 2.4458592 1.0871116 0 61
-3.0573595 2.4535863 1.1294932 0 62
-3.0528009 2.449928 1.1669048 0 63
-1.9272549 1.5080765 -0.72953188 0 0
-2.0066109 1.5701725 -0.73412228 0 1
-2.0795646 1.6272588 -0.73457825 0 2
-2.1496079 1.6820678 -0.73234069 0 3
-2.2265017 1.7422372 -0.7307303 0 4
-2.3199518 1.8153619 -0.73256367 0 5
-2.4233427 1.8962651 -0.73522675 0 6
-2.526608 1.9770702 -0.73543185 0 7
-2.631778 2.0593657 -0.73376018 0 8
-2.7517359 2.1532328 -0.73358583 0 9
-2.8854184 2.2578392 -0.73410738 0 10
-3.0198815 2.3630567 -0.73169929 0 11
-3.1298575 2.4491129 -0.72052717 0 12
-3.1450851 2.4610283 -0.68615651 0 13
-3.1254749 2.4456835 -0.64435703 0 14
-3.1331353 2.4516778 -0.60843527 0 15
-3.1398416 2.4569254 -0.57226193 0 16
-3.1224473 2.4433143 -0.53192186 0 17
-3.1337852 2.4521861 -0.4966405 0 18
-3.1436887 2.4599357 -0.46096519 0 19
-3.1375158 2.4551055 -0.42296726 0 20
-3.1286726 2.4481857 -0.38485906 0 21
-3.1270425 2.4469101 -0.34782737 0 22
-3.141609 2.4583082 -0.3125045 0 23
-3.1352668 2.4533455 -0.27505815 0 24
-3.1339898 2.4523463 -0.23819241 0 25
-3.1142683 2.4369142 -0.20021127 0 26
-3.1291127 2.44853 -0.16454358 0 27
-3.1308734 2.4499078 -0.12802145 0 28
-3.1369436 2.4546578 -0.091605678 0 29
-3.1364107 2.4542408 -0.054947872 0 30
-3.1405728 2.4574976 -0.01833923 0 31
-3.1280537 2.4477012 0.018266125 0 32
-3.135076 2.4531965 0.054924492 0 33
-3.1397049 2.4568183 0.091686316 0 34
-3.1346684 2.4528773 0.12817663 0 35
-3.1414151 2.4581566 0.1651905 0 36
-3.1290905 2.4485128 0.20116419 0 37
-3.1361313 2.4540222 0.23835517 0 38
-3.1299517 2.4491866 0.27459186 0 39
-3.1303618 2.4495075 0.31138572 0 40
-3.1435897 2.4598584 0.34966797 0 41
-3.1169188 2.4389882 0.3834132 0 42
-3.1385961 2.4559507 0.4231129 0 43
-3.1308987 2.4499276 0.45908976 0 44
-3.1348562 2.4530244 0.49681023 0 45
-3.132781 2.4514005 0.53368223 0 46
-3.1510789 2.4657185 0.57431 0 47
-3.1328452 2.4514506 0.60837895 0 48
-3.1358004 2.453763 0.64648569 0 49
-3.130446 2.4495733 0.68296272 0 50
-3.1383171 2.4557323 0.72247463 0 51
-3.142746 2.459198 0.76146865 0 52
-3.1296332 2.4489374 0.79624045 0 53
-3.1335747 2.4520216 0.83538032 0 54
-3.1377118 2.4552588 0.87481838 0 55
-3.134824 2.4529991 0.91246825 0 56
-3.1343694 2.4526434 0.9509477 0 57
-3.1323388 2.4510543 0.98908842 0 58
-3.128994 2.4484372 1.0269252 0 59
-3.1304045 2.4495409 1.066484 0 60
-3.1296108 2.4489198 1.1054929 0 61
-3.1313109 2.4502501 1.1455959 0 62
-3.1245782 2.4449818 1.1827596 0 63
-1.9492261 1.4869926 -0.73087204 0 0
-2.0276532 1.5468218 -0.73480654 0 1
-2.1031182 1.6043911 -0.73587388 0 2
-2.1784999 1.6618971 -0.73516607 0 3
-2.2503271 1.7166914 -0.73156637 0 4
-2.3551984 1.7966938 -0.73666137 0 5
-2.4482358 1.8676687 -0.73575592 0 6
-2.5450854 1.9415517 -0.73380554 0 7
-2.6540003 2.0246389 -0.73295933 0 8
-2.7678082 2.1114585 -0.73089367 0 9
-2.9238555 2.2305014 -0.73685282 0 10
-3.0620518 2.3359263 -0.73490179 0 11
-3.2095542 2.4484503 -0.73188782 0 12
-3.2082491 2.4474549 -0.69331872 0 13
-3.2048798 2.4448843 -0.65447992 0 14
-3.2075121 2.4468925 -0.61698925 0 15
-3.2085531 2.4476867 -0.57925576 0 16
-3.208576 2.4477041 -0.54142594 0 17
-3.2078032 2.4471147 -0.503564 0 18
-3.2103715 2.449074 -0.46629196 0 19
-3.2050512 2.4450152 -0.42798626 0 20
-3.2108452 2.4494352 -0.39123252 0 21
-3.2045109 2.444603 -0.35307401 0 22
-3.2027416 2.4432533 -0.31557319 0 23
-3.2005208 2.4415591 -0.278128 0 24
-3.2220461 2.4579799 -0.24256946 0 25
-3.2029636 2.4434228 -0.20396636 0 26
-3.214977 2.4525871 -0.16746022 0 27
-3.2019308 2.4426348 -0.12968902 0 28
-3.2015812 2.442368 -0.092609227 0 29
-3.2081244 2.4473596 -0.055672817 0 30
-3.2100935 2.4488618 -0.01856795 0 31
-3.1963451 2.4383736 0.018488424 0 32
-3.216125 2.4534628 0.055811655 0 33
-3.2054579 2.4453254 0.092721365 0 34
-3.1989586 2.4403675 0.12956864 0 35
-3.1930332 2.435847 0.16631722 0 36
-3.2032969 2.4436769 0.20398758 0 37
-3.2101169 2.4488795 0.24167138 0 38
-3.2118952 2.4502361 0.27911645 0 39
-3.2126176 2.4507873 0.31654629 0 40
-3.2076826 2.4470224 0.35342348 0 41
-3.2018852 2.4426 0.3901408 0 42
-3.200501 2.4415441 0.42737865 0 43
-3.2068586 2.4463942 0.46578175 0 44
-3.2094991 2.4484084 0.50383019 0 45
-3.221637 2.4576678 0.54362994 0 46
-3.2199535 2.4563835 0.58131391 0 47
-3.2006629 2.4416673 0.61567169 0 48
-3.2188945 2.4555757 0.6573419 0 49
-3.2081666 2.447392 0.6933009 0 50
-3.2160578 2.4534118 0.7333709 0 51
-3.2102959 2.4490161 0.77048081 0 52
-3.2118394 2.4501936 0.80942881 0 53
-3.205667 2.4454849 0.84651881 0 54
-3.2105982 2.4492469 0.88667583 0 55
-3.2049057 2.4449041 0.92404658 0 56
-3.2087946 2.447871 0.96432275 0 57
-3.2164519 2.4537122 1.0060452 0 58
-3.2002857 2.4413798 1.0403917 0 59
-3.2075105 2.4468913 1.0824206 0 60
-3.2064631 2.4460924 1.1219305 0 61
-3.2067857 2.4463384 1.1621153 0 62
-3.2056444 2.4454677 1.2019724 0 63
-1.987726 1.4780558 -0.73843724 0 0
-2.0428717 1.5190617 -0.73349696 0 1
-2.1250904 1.5801988 -0.73670739 0 2
-2.1980336 1.6344386 -0.73492014 0 3
-2.281878 1.6967846 -0.73498493 0 4
-2.3697355 1.7621146 -0.73437554 0 5
-2.4662211 1.8338606 -0.73432857 0 6
-2.5654721 1.9076627 -0.73286474 0 7
-2.6848953 1.9964648 -0.73465621 0 8
-2.8072631 2.0874565 -0.73447877 0 9
-2.9383583 2.1849377 -0.73368138 0 10
-3.0990906 2.3044567 -0.7369346 0 11
-3.25015 2.4167833 -0.73431283 0 12
-3.2971618 2.451741 -0.70596474 0 13
-3.2867522 2.4440005 -0.66501194 0 14
-3.2973971 2.451916 -0.62843221 0 15
-3.2997112 2.4536366 -0.59022146 0 16
-3.2929277 2.4485924 -0.55053741 0 17
-3.2904284 2.446734 -0.51177293 0 18
-3.2914648 2.4475048 -0.47366333 0 19
-3.2951336 2.4502327 -0.43595913 0 20
-3.3003397 2.4541039 -0.39843011 0 21
-3.292109 2.4479837 -0.35938182 0 22
-3.2973011 2.4518445 -0.32189536 0 23
-3.2927115 2.4484317 -0.28350168 0 24
-3.2951794 2.4502668 -0.24578838 0 25
-3.2989843 2.4530962 -0.20814438 0 26
-3.2918921 2.4478223 -0.16988587 0 27
-3.2932112 2.4488032 -0.13215657 0 28
-3.2800493 2.4390161 -0.094004363 0 29
-3.2826591 2.4409568 -0.056441125 0 30
-3.2893286 2.4459162 -0.01885087 0 31
-3.2871988 2.4443326 0.018838665 0 32
-3.2994993 2.4534791 0.056730673 0 33
-3.2887461 2.445483 0.094253607 0 34
-3.2888563 2.445565 0.1319818 0 35
-3.2986798 2.4528697 0.17023619 0 36
-3.297586 2.4520564 0.20805617 0 37
-3.2938969 2.4493132 0.24569273 0 38
-3.3003559 2.4541159 0.28415987 0 39
-3.299017 2.4531202 0.32206285 0 40
-3.2805989 2.4394248 0.35812533 0 41
-3.2989585 2.4530768 0.39826337 0 42
-3.2939 2.4493155 0.43579593 0 43
-3.2953701 2.4504087 0.47422534 0 44
-3.2956381 2.4506078 0.5125832 0 45
-3.2988448 2.4529922 0.55152667 0 46
-3.2938488 2.4492774 0.58917284 0 47
-3.2911227 2.4472504 0.62723643 0 48
-3.2948387 2.4500134 0.66664809 0 49
-3.2890322 2.4456959 0.70422405 0 50
-3.2959392 2.4508319 0.74465811 0 51
-3.2858138 2.4433026 0.78133559 0 52
-3.2840827 2.4420154 0.8200056 0 53
-3.281631 2.4401922 0.85859013 0 54
-3.2940984 2.4494629 0.90134978 0 55
-3.2883992 2.445225 0.93937945 0 56
-3.296771 2.4514503 0.9816286 0 57
-3.2916596 2.4476495 1.0200777 0 58
-3.282824 2.4410796 1.0573862 0 59
-3.2965786 2.4513073 1.1022226 0 60
-3.291342 2.4474132 1.141013 0 61
-3.2917433 2.4477117 1.1819066 0 62
-3.2860136 2.4434512 1.220749 0 63
-1.9939071 1.4449222 -0.73407739 0 0
-2.0560014 1.48992 -0.73157775 0 1
-2.1304812 1.5438933 -0.73193961 0 2
-2.2121341 1.6030647 -0.73298854 0 3
-2.3170788 1.6791148 -0.73961675 0 4
-2.3958364 1.7361878 -0.73579252 0 5
-2.4881251 1.8030665 -0.73419338 0 6
-2.6104746 1.8917295 -0.73901945 0 7
-2.7128866 1.9659443 -0.73564512 0 8
-2.8484631 2.0641923 -0.73856139 0 9
-2.9646649 2.1484001 -0.73359817 0 10
-3.106621 2.2512715 -0.73208725 0 11
-3.2850754 2.3805916 -0.73553431 0 12
-3.397306 2.4619217 -0.72087055 0 13
-3.3768198 2.4470758 -0.67709601 0 14
-3.382642 2.4512951 -0.63888562 0 15
-3.3858397 2.4536123 -0.60018528 0 16
-3.376884 2.4471226 -0.55950081 0 17
-3.3840504 2.4523158 -0.52160478 0 18
-3.3790195 2.4486699 -0.48189354 0 19
-3.3792384 2.4488287 -0.44306913 0 20
-3.379431 2.4489682 -0.40431231 0 21
-3.3659441 2.4391947 -0.36414027 0 22
-3.3738186 2.444901 -0.32640567 0 23
-3.3749499 2.4457209 -0.28797129 0 24
-3.3723419 2.443831 -0.24928364 0 25
-3.385005 2.4530075 -0.21165262 0 26
-3.3761945 2.4466226 -0.17267084 0 27
-3.3729913 2.4443016 -0.13414185 0 28
-3.3792989 2.4488723 -0.095978536 0 29
-3.3793011 2.4488742 -0.057580665 0 30
-3.3929508 2.4587655 -0.019269995 0 31
-3.3704729 2.4424765 0.019142333 0 32
-3.3860388 2.4537566 0.057695467 0 33
-3.3815563 2.4505084 0.096042648 0 34
-3.3771572 2.4473205 0.13430752 0 35
-3.3834679 2.4518936 0.17304283 0 36
-3.3723073 2.4438059 0.21085869 0 37
-3.3868427 2.4543393 0.25035554 0 38
-3.3819923 2.4508243 0.28857219 0 39
-3.3860931 2.4537961 0.32759321 0 40
-3.3832176 2.4517124 0.36600897 0 41
-3.3866684 2.4542129 0.40517819 0 42
-3.3745573 2.4454362 0.44245535 0 43
-3.3762269 2.4466462 0.48149529 0 44
-3.3853729 2.4532743 0.52180862 0 45
-3.3755102 2.4461269 0.55927318 0 46
-3.3800685 2.4494302 0.59916222 0 47
-3.3816938 2.450608 0.63870656 0 48
-3.3679831 2.4406724 0.67532414 0 49
-3.3868327 2.4543321 0.71864825 0 50
-3.3795695 2.4490685 0.75669175 0 51
-3.3751035 2.4458323 0.79535621 0 52
-3.3888047 2.455761 0.83855039 0 53
-3.3853419 2.4532516 0.8777656 0 54
-3.3768651 2.4471087 0.91569412 0 55
-3.370671 2.4426203 0.95422941 0 56
-3.3757761 2.4463196 0.99612057 0 57
-3.3896136 2.4563472 1.0409944 0 58
-3.3739626 2.4450054 1.0769764 0 59
-3.3771613 2.4473233 1.1190192 0 60
-3.3832114 2.4517076 1.1623224 0 61
-3.3778212 2.4478016 1.201915 0 62
-3.3826234 2.4512818 1.2453476 0 63
-2.0173204 1.4243906 -0.73619324 0 0
-2.0837598 1.4713022 -0.73496181 0 1
-2.1567686 1.5228523 -0.73448187 0 2
-2.2306929 1.5750489 -0.73266518 0 3
-2.3279693 1.6437337 -0.7365855 0 4
-2.407264 1.6997223 -0.73282784 0 5
-2.4958017 1.7622371 -0.73000932 0 6
-2.613342 1.8452299 -0.73335236 0 7
-2.7325478 1.9293988 -0.73448759 0 8
-2.8547857 2.0157087 -0.73371863 0 9
-3.0017326 2.1194649 -0.73626584 0 10
-3.1571188 2.2291801 -0.73747194 0 11
-3.3143697 2.3402119 -0.73559469 0 12
-3.4619925 2.4444456 -0.7281633 0 13
-3.4593508 2.4425802 -0.6875701 0 14
-3.4635634 2.4455547 -0.64844066 0 15
