# .PCD v0.7 - Point Cloud Data file format
VERSION 0.7
FIELDS x y z intensity ring
SIZE 4 4 4 4 2
TYPE F F F F U
COUNT 1 1 1 1 1
WIDTH 1251
HEIGHT 1
VIEWPOINT 0 0 0 1 0 0 0
POINTS 1251
DATA ascii
-1.5801432 -3.9781377 -0.73545927 0 13
-1.6720419 -4.2094998 -0.7354092 0 14
-1.7836188 -4.4904037 -0.73893911 0 15
-1.8818817 -4.7377887 -0.73172992 0 16
-2.0287631 -5.1075745 -0.73731905 0 17
-2.0752566 -5.2246256 -0.70164287 0 18
-2.0750761 -5.2241712 -0.6491335 0 19
-2.0712655 -5.2145772 -0.5957005 0 20
-2.0732825 -5.2196555 -0.54409087 0 21
-2.0757039 -5.2257519 -0.49256864 0 22
-2.0735269 -5.2202711 -0.44003299 0 23
-2.0685072 -5.207633 -0.38714927 0 24
-2.0710719 -5.2140903 -0.33581257 0 25
-2.0750699 -5.2241554 -0.28460115 0 26
-2.0714259 -5.2149816 -0.23238097 0 27
-2.0719366 -5.2162671 -0.1807445 0 28
-2.0729351 -5.218781 -0.12914358 0 29
-2.0722187 -5.2169771 -0.077450618 0 30
-2.0750246 -5.2240415 -0.025850376 0 31
-2.0789139 -5.2338333 0.025898829 0 32
-2.0709693 -5.2138319 0.077403925 0 33
-2.0674417 -5.2049508 0.12880133 0 34
-2.074858 -5.2236218 0.18099934 0 35
-2.0764401 -5.2276049 0.23294346 0 36
-2.0693121 -5.2096601 0.28381145 0 37
-2.0717258 -5.2157364 0.33591858 0 38
-2.0705345 -5.2127371 0.38752872 0 39
-2.0674362 -5.204937 0.4387404 0 40
-2.071682 -5.2156258 0.49161422 0 41
-2.0699832 -5.2113495 0.54322505 0 42
-2.0691161 -5.2091665 0.5950824 0 43
-2.0774298 -5.2300968 0.6498698 0 44
-2.0762691 -5.2271748 0.70198518 0 45
-2.0725355 -5.2177749 0.75322741 0 46
-2.0742099 -5.2219901 0.80651265 0 47
-2.0707774 -5.2133489 0.8579067 0 48
-2.075449 -5.2251101 0.91283858 0 49
-2.0735185 -5.2202501 0.9650951 0 50
-2.0728402 -5.2185421 1.0180357 0 51
-2.0739014 -5.2212138 1.0720184 0 52
-2.0691342 -5.2092118 1.1230804 0 53
-2.0731788 -5.2193942 1.1791046 0 54
-2.0741508 -5.2218418 1.2337199 0 55
-2.0683849 -5.2073255 1.2844208 0 56
-2.0739398 -5.2213101 1.3423754 0 57
-2.0733101 -5.2197251 1.3966966 0 58
-2.0765162 -5.2277966 1.4539208 0 59
-2.0678992 -5.2061028 1.5029851 0 60
-2.0732284 -5.2195196 1.5623711 0 61
-2.068697 -5.2081113 1.6146319 0 62
-2.078666 -5.2332087 1.6786541 0 63
-0.88020414 -2.2979465 -0.73358399 0 0
-0.91465521 -2.3878877 -0.73675656 0 1
-0.94404757 -2.4646225 -0.73421103 0 2
-0.97826207 -2.553946 -0.73378772 0 3
-1.0155625 -2.6513264 -0.73384118 0 4
-1.0585268 -2.7634928 -0.73591822 0 5
-1.098478 -2.8677933 -0.73376864 0 6
-1.1530179 -3.0101805 -0.73892772 0 7
-1.2018849 -3.1377575 -0.73778373 0 8
-1.2492902 -3.2615185 -0.73327833 0 9
-1.312006 -3.4252503 -0.73493332 0 10
-1.3789275 -3.5999622 -0.73560637 0 11
-1.441911 -3.7643931 -0.73084551 0 12
-1.5303537 -3.99529 -0.7350958 0 13
-1.6178797 -4.2237945 -0.73437542 0 14
-1.7095455 -4.4631057 -0.73093241 0 15
-1.8343821 -4.7890162 -0.7361024 0 16
-1.9690968 -5.1407156 -0.73855203 0 17
-1.9986223 -5.2177978 -0.69737273 0 18
-2.0019071 -5.2263732 -0.64629954 0 19
-1.9986669 -5.2179141 -0.59322929 0 20
-1.9911669 -5.1983342 -0.53927535 0 21
-1.9980714 -5.2163596 -0.48933053 0 22
-1.9975039 -5.2148776 -0.43747485 0 23
-1.9928961 -5.2028484 -0.38494265 0 24
-1.9998897 -5.2211065 -0.33465531 0 25
-1.9978474 -5.215775 -0.28278488 0 26
-1.9941688 -5.2061706 -0.23087823 0 27
-2.0005763 -5.2228985 -0.18010828 0 28
-1.9952741 -5.2090564 -0.12828609 0 29
-1.9955763 -5.2098451 -0.07697463 0 30
-1.9995095 -5.2201138 -0.025707331 0 31
-2.0003774 -5.2223797 0.02571849 0 32
-1.9982374 -5.2167931 0.077077277 0 33
-1.9981115 -5.216464 0.12846853 0 34
-1.9976567 -5.2152767 0.17984544 0 35
-1.9972155 -5.2141252 0.23123097 0 36
-1.9968859 -5.2132645 0.28264877 0 37
-2.0006912 -5.2231984 0.3347894 0 38
-1.9940546 -5.205873 0.38516641 0 39
-1.9943842 -5.2067332 0.4367916 0 40
-1.9950405 -5.2084465 0.48858824 0 41
-1.9955757 -5.2098436 0.54046941 0 42
-1.9974724 -5.2147956 0.59287471 0 43
-1.99378 -5.2051558 0.64367574 0 44
-2.0008106 -5.2235103 0.69813627 0 45
-1.9953251 -5.2091894 0.74838954 0 46
-1.9989101 -5.2185493 0.80212432 0 47
-1.9956064 -5.2099242 0.85324055 0 48
-1.9926255 -5.2021418 0.904477 0 49
-1.996122 -5.2112703 0.95882469 0 50
-1.9956021 -5.2099128 1.0114888 0 51
-1.9941274 -5.2060628 1.0637926 0 52
-1.9980476 -5.2162971 1.1192265 0 53
-1.9940914 -5.2059689 1.1704438 0 54
-1.9994625 -5.2199912 1.2273811 0 55
-1.9966202 -5.2125707 1.2795621 0 56
-1.9952456 -5.208982 1.3327974 0 57
-1.9949167 -5.2081232 1.3869234 0 58
-2.0022302 -5.2272167 1.446803 0 59
-1.9964852 -5.2122183 1.49755 0 60
-1.994241 -5.2063594 1.5509745 0 61
-2.0010092 -5.2240291 1.6118168 0 62
-1.9956586 -5.2100606 1.6632315 0 63
-0.8542363 -2.3149724 -0.73561037 0 0
-0.87959385 -2.3836913 -0.73206931 0 1
-0.91355193 -2.4757173 -0.73411423 0 2
-0.94914079 -2.5721629 -0.73561281 0 3
-0.98643297 -2.6732242 -0.73648918 0 4
-1.0245384 -2.7764895 -0.73596871 0 5
-1.0635258 -2.8821454 -0.73403919 0 6
-1.102441 -2.9876049 -0.730003 0 7
-1.1560882 -3.1329885 -0.73326433 0 8
-1.2089593 -3.2762687 -0.73319691 0 9
-1.2749331 -3.4550569 -0.7379092 0 10
-1.3401145 -3.6316981 -0.7386682 0 11
-1.3987664 -3.7906442 -0.7325474 0 12
-1.4808282 -4.013031 -0.73495412 0 13
-1.5702145 -4.2552667 -0.7364347 0 14
-1.6600798 -4.4988012 -0.73337984 0 15
-1.7703562 -4.7976489 -0.73402774 0 16
-1.904038 -5.1599255 -0.73789245 0 17
-1.9219403 -5.2084408 -0.69291115 0 18
-1.9199475 -5.2030401 -0.64044625 0 19
-1.926482 -5.2207484 -0.59081364 0 20
-1.9260647 -5.2196178 -0.53898561 0 21
-1.92665 -5.2212043 -0.48752573 0 22
-1.9205335 -5.2046285 -0.43460107 0 23
-1.9265491 -5.2209306 -0.38449869 0 24
-1.9249846 -5.2166905 -0.33282989 0 25
-1.9228477 -5.2108998 -0.28121737 0 26
-1.9182651 -5.1984806 -0.2294738 0 27
-1.9262441 -5.2201042 -0.17918156 0 28
-1.9267516 -5.2214794 -0.12799887 0 29
-1.9199126 -5.2029452 -0.076518096 0 30
-1.9188764 -5.2001376 -0.025490828 0 31
-1.9230518 -5.211453 0.025546296 0 32
-1.9207635 -5.2052517 0.076552011 0 33
-1.9173024 -5.1958718 0.12737113 0 34
-1.9182156 -5.1983466 0.17843473 0 35
-1.9242122 -5.2145972 0.23018523 0 36
-1.9255615 -5.2182541 0.28161424 0 37
-1.923439 -5.212502 0.33256269 0 38
-1.9229172 -5.2110882 0.38377383 0 39
-1.9219236 -5.2083955 0.43491563 0 40
-1.9209192 -5.2056732 0.48607555 0 41
-1.9247463 -5.2160444 0.53861666 0 42
-1.9241178 -5.2143416 0.59008861 0 43
-1.9287037 -5.226769 0.64336705 0 44
-1.9201627 -5.2036233 0.69227022 0 45
-1.9263256 -5.2203245 0.74652982 0 46
-1.9240263 -5.2140932 0.79774266 0 47
-1.9255847 -5.2183166 0.8506729 0 48
-1.9209206 -5.2056775 0.90091681 0 49
-1.9240201 -5.214077 0.95491594 0 50
-1.9242282 -5.2146406 1.0077367 0 51
-1.9171937 -5.1955771 1.0567529 0 52
-1.922255 -5.2092938 1.1125679 0 53
-1.9282805 -5.2256222 1.1694431 0 54
-1.924843 -5.2163067 1.2208574 0 55
-1.9256487 -5.2184901 1.2751062 0 56
-1.921689 -5.2077599 1.3263383 0 57
-1.9228091 -5.2107949 1.381234 0 58
-1.9224218 -5.2097454 1.4353158 0 59
-1.9255072 -5.2181067 1.4923263 0 60
-1.9228903 -5.2110147 1.5452007 0 61
-1.9245358 -5.2154741 1.6017545 0 62
-1.9234296 -5.2124767 1.6563272 0 63
-0.83254164 -2.3445456 -0.7416985 0 0
-0.85199714 -2.3993349 -0.73360068 0 1
-0.88176501 -2.483165 -0.73305213 0 2
-0.91744345 -2.5836401 -0.73561323 0 3
-0.95008606 -2.675566 -0.73386025 0 4
-0.98167616 -2.7645278 -0.72954315 0 5
-1.030524 -2.9020898 -0.73583579 0 6
-1.0741167 -3.0248523 -0.73582131 0 7
-1.1245863 -3.1669815 -0.73792797 0 8
-1.1706429 -3.2966826 -0.73448837 0 9
-1.2314478 -3.4679174 -0.73736608 0 10
-1.280255 -3.6053646 -0.73005491 0 11
-1.3607186 -3.8319607 -0.73724264 0 12
-1.4355482 -4.0426903 -0.73709744 0 13
-1.5102944 -4.2531857 -0.73280507 0 14
-1.6072781 -4.5263042 -0.73458588 0 15
-1.7192906 -4.8417459 -0.73748422 0 16
-1.8235838 -5.1354494 -0.7311303 0 17
-1.848833 -5.2065544 -0.6895836 0 18
-1.8482139 -5.2048111 -0.63781857 0 19
-1.8499045 -5.2095718 -0.58693022 0 20
-1.8522873 -5.2162819 -0.53624868 0 21
-1.8517023 -5.2146349 -0.48474962 0 22
-1.8513912 -5.2137585 -0.43342969 0 23
-1.8474997 -5.2027993 -0.38146153 0 24
-1.8537043 -5.2202725 -0.33157909 0 25
-1.8482785 -5.2049928 -0.2796509 0 26
-1.8519164 -5.2152376 -0.22919095 0 27
-1.8473895 -5.2024889 -0.17778374 0 28
-1.8505422 -5.2113676 -0.12718357 0 29
-1.8500007 -5.2098427 -0.076279208 0 30
-1.8452696 -5.1965194 -0.025359947 0 31
-1.8484457 -5.2054634 0.025403596 0 32
-1.8519763 -5.2154059 0.076360665 0 33
-1.8490895 -5.2072768 0.12708373 0 34
-1.8478382 -5.2037525 0.17782691 0 35
-1.8464122 -5.1997371 0.22850975 0 36
-1.8516268 -5.2144217 0.28015754 0 37
-1.8481413 -5.2046061 0.33058399 0 38
-1.8511015 -5.2129426 0.38220522 0 39
-1.8513986 -5.2137794 0.43343142 0 40
-1.8488154 -5.2065048 0.48399386 0 41
-1.8502854 -5.2106447 0.53566915 0 42
-1.8507147 -5.211853 0.58718723 0 43
-1.850697 -5.2118034 0.63867551 0 44
-1.8520938 -5.2157373 0.69079983 0 45
-1.8499361 -5.209661 0.7416957 0 46
-1.8490707 -5.2072239 0.79315299 0 47
-1.8489428 -5.2068634 0.84503561 0 48
-1.8514923 -5.2140431 0.89835662 0 49
-1.8486549 -5.2060523 0.94921142 0 50
-1.8519665 -5.2153788 1.0034026 0 51
-1.8511471 -5.2130709 1.0556015 0 52
-1.8489716 -5.2069445 1.1071267 0 53
-1.848961 -5.2069149 1.1600809 0 54
-1.855952 -5.2266026 1.2178336 0 55
-1.8526797 -5.2173872 1.2691742 0 56
-1.8513579 -5.213665 1.3219444 0 57
-1.8479844 -5.2041645 1.3733494 0 58
-1.8527308 -5.2175307 1.431076 0 59
-1.8516079 -5.2143688 1.4846334 0 60
-1.8535839 -5.2199335 1.5409702 0 61
-1.8482608 -5.2049427 1.5914201 0 62
-1.8475559 -5.2029576 1.645959 0 63
-0.79425645 -2.3270793 -0.73302794 0 0
-0.81924731 -2.4002995 -0.73076034 0 1
-0.85034877 -2.4914231 -0.73234785 0 2
-0.87960827 -2.5771501 -0.73063064 0 3
-0.92004907 -2.695637 -0.73620665 0 4
-0.9525376 -2.7908247 -0.73333633 0 5
-0.99670064 -2.9202173 -0.73726881 0 6
-1.0369583 -3.0381675 -0.73590297 0 7
-1.0850729 -3.1791377 -0.73759586 0 8
-1.1325986 -3.3183825 -0.73616451 0 9
-1.1798749 -3.4568968 -0.73188263 0 10
-1.2421432 -3.6393354 -0.73378539 0 11
-1.3140746 -3.8500862 -0.73756528 0 12
-1.3787993 -4.039722 -0.73340946 0 13
-1.4620686 -4.2836909 -0.73490793 0 14
-1.5524449 -4.5484834 -0.73503178 0 15
-1.6669022 -4.8838301 -0.74071628 0 16
-1.7661648 -5.1746578 -0.73356497 0 17
-1.7768276 -5.2058988 -0.68655109 0 18
-1.7822976 -5.2219253 -0.637182 0 19
-1.7792352 -5.2129526 -0.58480203 0 20
-1.7782959 -5.2102008 -0.53333521 0 21
-1.7772334 -5.2070875 -0.48198009 0 22
-1.7817364 -5.2202806 -0.43211788 0 23
-1.7751695 -5.2010407 -0.37970343 0 24
-1.7801898 -5.2157493 -0.32987645 0 25
-1.7758011 -5.2028909 -0.27834377 0 26
-1.7762079 -5.204083 -0.22772369 0 27
-1.781664 -5.2200685 -0.17762239 0 28
-1.7819059 -5.2207775 -0.12686889 0 29
-1.7799994 -5.2151918 -0.076031312 0 30
-1.7813642 -5.2191901 -0.025361771 0 31
-1.7785866 -5.2110524 0.025322227 0 32
-1.7734808 -5.1960926 0.075752869 0 33
-1.7771404 -5.2068152 0.12652959 0 34
-1.7797809 -5.2145514 0.17743465 0 35
-1.7779943 -5.2093167 0.22795272 0 36
-1.7797358 -5.2144194 0.2789605 0 37
-1.7767431 -5.2056513 0.32923776 0 38
-1.7804811 -5.2166033 0.38083959 0 39
-1.7785542 -5.2109575 0.43134615 0 40
-1.7795185 -5.2137823 0.48259979 0 41
-1.7754165 -5.2017646 0.53247166 0 42
-1.7819283 -5.2208433 0.58568722 0 43
-1.781556 -5.2197523 0.63691688 0 44
-1.7781558 -5.2097902 0.68706429 0 45
-1.7785612 -5.210978 0.7387138 0 46
-1.7813936 -5.2192769 0.79159254 0 47
-1.777404 -5.2075872 0.84154248 0 48
-1.7764273 -5.2047257 0.89292014 0 49
-1.7813721 -5.2192135 0.94754559 0 50
-1.7790377 -5.2123737 0.99854028 0 51
-1.7772657 -5.2071824 1.0499043 0 52
-1.7806937 -5.2172256 1.1045736 0 53
-1.7734274 -5.1959362 1.1526892 0 54
-1.7843118 -5.2278261 1.2129147 0 55
-1.7832385 -5.2246819 1.265519 0 56
-1.7781364 -5.2097335 1.3153042 0 57
-1.7771498 -5.2068429 1.3681859 0 58
-1.7808642 -5.2177258 1.4250154 0 59
-1.7754295 -5.2018023 1.4747282 0 60
-1.7786034 -5.2111015 1.5317909 0 61
-1.7801449 -5.2156181 1.5878712 0 62
-1.7760497 -5.2036195 1.6391357 0 63
-0.76853585 -2.3456795 -0.73585457 0 0
-0.79625684 -2.4302878 -0.73685354 0 1
-0.82290971 -2.511636 -0.73525941 0 2
-0.85073477 -2.5965621 -0.73311281 0 3
-0.8861894 -2.7047746 -0.73567051 0 4
-0.92014456 -2.8084104 -0.73492867 0 5
-0.9592455 -2.9277523 -0.73613757 0 6
-1.0030255 -3.0613751 -0.73848099 0 7
-1.0380372 -3.1682355 -0.73204958 0 8
-1.0862422 -3.3153641 -0.73247635 0 9
-1.1425666 -3.4872737 -0.73528385 0 10
-1.2009926 -3.6655982 -0.73604739 0 11
-1.2594796 -3.8441091 -0.7333979 0 12
-1.3296887 -4.0583968 -0.73377603 0 13
-1.4125611 -4.3113346 -0.73661488 0 14
-1.5037858 -4.589766 -0.73865896 0 15
-1.5911759 -4.8564925 -0.73354715 0 16
-1.7054347 -5.2052264 -0.73487002 0 17
-1.7059431 -5.2067785 -0.68384898 0 18
-1.7020777 -5.1949806 -0.63129264 0 19
-1.7070421 -5.2101326 -0.58208686 0 20
-1.704412 -5.202105 -0.53032106 0 21
-1.7086374 -5.2150016 -0.48073152 0 22
-1.7068845 -5.2096515 -0.42946818 0 23
-1.7051958 -5.2044973 -0.37839642 0 24
-1.7043997 -5.2020674 -0.32766083 0 25
-1.7085491 -5.2147322 -0.27783227 0 26
-1.7086118 -5.2149234 -0.2272615 0 27
-1.7044604 -5.2022529 -0.17628968 0 28
-1.7022852 -5.1956134 -0.12573922 0 29
-1.7113949 -5.2234178 -0.075838707 0 30
-1.7082059 -5.2136846 -0.025231041 0 31
-1.7060311 -5.207047 0.025198918 0 32
-1.709745 -5.2183824 0.075765595 0 33
-1.7050936 -5.2041855 0.12594666 0 34
-1.7057297 -5.2061272 0.17642097 0 35
-1.7052907 -5.2047868 0.22681975 0 36
-1.7083336 -5.2140741 0.27779722 0 37
-1.708712 -5.215229 0.32848984 0 38
-1.7121261 -5.2256498 0.37993431 0 39
-1.7062176 -5.2076159 0.4293004 0 40
-1.7090762 -5.216341 0.48085499 0 41
-1.7072097 -5.2106438 0.53119153 0 42
-1.7113041 -5.2231407 0.58354014 0 43
-1.7064507 -5.2083273 0.63291454 0 44
-1.7064269 -5.2082548 0.68404287 0 45
-1.7106055 -5.2210088 0.73709816 0 46
-1.7059752 -5.2068763 0.78647071 0 47
-1.7104012 -5.2203846 0.84014827 0 48
-1.7106605 -5.2211761 0.89206624 0 49
-1.706937 -5.2098117 0.94195688 0 50
-1.7109501 -5.2220607 0.99629021 0 51
-1.7094282 -5.2174153 1.0476502 0 52
-1.7079539 -5.2129154 1.0991316 0 53
-1.7085382 -5.2146988 1.1521038 0 54
-1.7066909 -5.2090607 1.2036009 0 55
-1.7047178 -5.2030382 1.2551042 0 56
-1.7037305 -5.2000251 1.3074651 0 57
-1.7043924 -5.2020454 1.3613154 0 58
-1.7074246 -5.2112999 1.4174193 0 59
-1.7069739 -5.2099247 1.470969 0 60
-1.7074772 -5.2114606 1.5256093 0 61
-1.7027731 -5.197103 1.5757408 0 62
-1.7036521 -5.1997857 1.6312058 0 63
-0.73563296 -2.3422053 -0.7318716 0 0
-0.76354152 -2.4310641 -0.73418677 0 1
-0.78988862 -2.5149515 -0.7333312 0 2
-0.82088345 -2.613637 -0.73502821 0 3
-0.85128736 -2.7104409 -0.73430902 0 4
-0.8817817 -2.8075328 -0.73180622 0 5
-0.92086476 -2.9319706 -0.73429561 0 6
-0.95954353 -3.0551212 -0.73407066 0 7
-1.0021878 -3.1908977 -0.73438299 0 8
-1.0518301 -3.3489552 -0.73698449 0 9
-1.103508 -3.5134943 -0.73789561 0 10
-1.1450794 -3.6458545 -0.72920042 0 11
-1.2164408 -3.8730645 -0.73601282 0 12
-1.2802991 -4.076385 -0.73412645 0 13
-1.3628379 -4.3391833 -0.73845387 0 14
-1.4410414 -4.5881772 -0.73549598 0 15
-1.531168 -4.8751345 -0.73346359 0 16
-1.6374538 -5.213541 -0.73314583 0 17
-1.6346333 -5.2045608 -0.6808663 0 18
-1.6419039 -5.2277098 -0.63276863 0 19
-1.6385926 -5.2171669 -0.58057779 0 20
-1.6337388 -5.2017131 -0.52819318 0 21
-1.6351697 -5.2062688 -0.47803691 0 22
-1.638971 -5.2183719 -0.42849329 0 23
-1.6340483 -5.2026987 -0.37677628 0 24
-1.6346052 -5.2044711 -0.32652152 0 25
-1.6362058 -5.2095675 -0.27646428 0 26
-1.6359986 -5.2089081 -0.22610559 0 27
-1.6360552 -5.2090883 -0.1758263 0 28
-1.6383739 -5.2164707 -0.12574691 0 29
-1.6365838 -5.2107716 -0.075357214 0 30
-1.6329948 -5.1993442 -0.02506257 0 31
-1.6357373 -5.208076 0.025104662 0 32
-1.6376696 -5.2142282 0.075407207 0 33
-1.6381052 -5.2156153 0.12572628 0 34
-1.6417421 -5.2271953 0.17643747 0 35
-1.634822 -5.205162 0.22594297 0 36
-1.6337116 -5.2016263 0.27604285 0 37
-1.6360387 -5.2090354 0.32680786 0 38
-1.6326913 -5.1983776 0.37646338 0 39
-1.6401213 -5.2220345 0.42879403 0 40
-1.6365454 -5.210649 0.47843909 0 41
-1.6381079 -5.2156239 0.52960575 0 42
-1.633654 -5.2014427 0.57882798 0 43
-1.6362405 -5.2096777 0.63058603 0 44
-1.634163 -5.2030635 0.68067044 0 45
-1.6363503 -5.2100277 0.73265177 0 46
-1.6349881 -5.2056904 0.78319573 0 47
-1.6416583 -5.2269282 0.83788925 0 48
-1.6357813 -5.2082162 0.88634819 0 49
-1.6368867 -5.2117357 0.93859452 0 50
-1.6352364 -5.206481 0.98940682 0 51
-1.6366997 -5.2111402 1.0422702 0 52
-1.6334196 -5.2006969 1.0922377 0 53
-1.6356919 -5.2079315 1.1460783 0 54
-1.6365979 -5.2108164 1.1992658 0 55
-1.6372402 -5.2128611 1.2525227 0 56
-1.6410233 -5.2249064 1.3085485 0 57
-1.6348318 -5.2051926 1.3567758 0 58
-1.6345673 -5.2043509 1.4099557 0 59
-1.6371478 -5.2125669 1.4659204 0 60
-1.6366495 -5.2109804 1.5194623 0 61
-1.6429631 -5.2310824 1.5797985 0 62
-1.6372083 -5.2127595 1.6288371 0 63
-0.70868516 -2.357415 -0.73384577 0 0
-0.73546159 -2.4464858 -0.73605728 0 1
-0.75805521 -2.5216427 -0.73250884 0 2
-0.79071254 -2.630276 -0.7369175 0 3
-0.81735015 -2.7188849 -0.73381835 0 4
-0.8509863 -2.8307745 -0.7350812 0 5
-0.8862561 -2.9480982 -0.73554975 0 6
-0.9239217 -3.0733914 -0.73567516 0 7
-0.96678972 -3.2159903 -0.7373662 0 8
-1.0030278 -3.3365347 -0.73148173 0 9
-1.0551993 -3.5100813 -0.73439825 0 10
-1.1097146 -3.6914248 -0.73553002 0 11
-1.171333 -3.8963957 -0.73765361 0 12
-1.2320563 -4.0983896 -0.73530531 0 13
-1.3028643 -4.33393 -0.73477793 0 14
-1.3834832 -4.6021056 -0.73494607 0 15
-1.4768177 -4.9125795 -0.73630941 0 16
-1.564217 -5.20331 -0.72894722 0 17
-1.5643765 -5.2038407 -0.6782043 0 18
-1.5625998 -5.1979303 -0.62679094 0 19
-1.5614219 -5.1940122 -0.57582092 0 20
-1.5664631 -5.2107816 -0.52711833 0 21
-1.5644929 -5.2042279 -0.4760471 0 22
-1.5639495 -5.2024202 -0.42557216 0 23
-1.5681719 -5.2164655 -0.37634838 0 24
-1.5671998 -5.2132325 -0.32583752 0 25
-1.562272 -5.1968398 -0.27474862 0 26
-1.5637076 -5.2016153 -0.22493738 0 27
-1.5649279 -5.2056751 -0.17504832 0 28
-1.5648471 -5.2054062 -0.1250069 0 29
-1.5640377 -5.2027135 -0.074956886 0 30
-1.5635914 -5.2012291 -0.02497709 0 31
-1.5654837 -5.2075233 0.025007317 0 32
-1.5638306 -5.2020249 0.074946962 0 33
-1.5689275 -5.2189794 0.12533285 0 34
-1.5608394 -5.1920743 0.17459098 0 35
-1.5629879 -5.1992216 0.22483386 0 36
-1.5659593 -5.209106 0.27539709 0 37
-1.5646241 -5.2046642 0.32530198 0 38
-1.5666088 -5.211266 0.37597325 0 39
-1.5673343 -5.2136798 0.42649323 0 40
-1.5652254 -5.2066646 0.47626999 0 41
-1.5634371 -5.200716 0.52610004 0 42
-1.5690067 -5.2192426 0.57861805 0 43
-1.5656826 -5.2081857 0.62802756 0 44
-1.5680073 -5.2159185 0.6797784 0 45
-1.5653881 -5.2072058 0.72949296 0 46
-1.5644548 -5.2041011 0.78000337 0 47
-1.5655258 -5.2076635 0.83165234 0 48
-1.5649316 -5.2056875 0.88257635 0 49
-1.5682588 -5.2167549 0.93595481 0 50
-1.5659231 -5.2089853 0.98614901 0 51
-1.5633874 -5.2005506 1.0362289 0 52
-1.5688418 -5.2186942 1.0918835 0 53
-1.5661149 -5.2096233 1.1421263 0 54
-1.5619934 -5.1959133 1.1913254 0 55
-1.5671635 -5.2131114 1.2478582 0 56
-1.5613948 -5.193922 1.2958823 0 57
-1.5641475 -5.2030787 1.3511093 0 58
-1.5675056 -5.2142496 1.4073092 0 59
-1.5669552 -5.2124186 1.4603496 0 60
-1.5638855 -5.2022071 1.5111827 0 61
-1.5636641 -5.2014709 1.5649307 0 62
-1.5640092 -5.2026186 1.6195365 0 63
-0.67859674 -2.362298 -0.73271292 0 0
-0.70294309 -2.4470515 -0.73357147 0 1
-0.72847223 -2.5359223 -0.73399937 0 2
-0.75578851 -2.6310143 -0.73446512 0 3
-0.79079109 -2.7528636 -0.7403087 0 4
-0.81390327 -2.8333206 -0.73308814 0 5
-0.8474946 -2.9502573 -0.73343295 0 6
-0.8849768 -3.0807383 -0.73477346 0 7
-0.92261547 -3.2117643 -0.73374069 0 8
-0.96771872 -3.3687756 -0.73588562 0 9
-1.0168259 -3.5397253 -0.73792875 0 10
-1.0675998 -3.7164769 -0.73785025 0 11
-1.1217176 -3.9048688 -0.7365908 0 12
-1.1736271 -4.0855742 -0.73036158 0 13
-1.2487323 -4.3470268 -0.73433948 0 14
-1.3297595 -4.6290946 -0.73658919 0 15
-1.4183402 -4.9374571 -0.73736835 0 16
-1.4909589 -5.1902542 -0.72449499 0 17
-1.4977617 -5.2139359 -0.67706853 0 18
-1.4916005 -5.1924877 -0.6238758 0 19
-1.4993702 -5.2195349 -0.57656288 0 20
-1.4970499 -5.2114577 -0.52528483 0 21
-1.4955108 -5.2061 -0.47450036 0 22
-1.4899263 -5.1866598 -0.42275226 0 23
-1.4951619 -5.2048855 -0.3741582 0 24
-1.4964513 -5.209374 -0.32442173 0 25
-1.4958425 -5.2072549 -0.27430603 0 26
-1.4981763 -5.2153788 -0.22471893 0 27
-1.4980309 -5.2148728 -0.17472498 0 28
-1.4979128 -5.2144618 -0.1247726 0 29
-1.4949259 -5.2040634 -0.074705847 0 30
-1.501371 -5.2265 -0.0250079 0 31
-1.4956759 -5.2066746 0.024913039 0 32
-1.4958804 -5.2073865 0.074753545 0 33
-1.4968915 -5.2109065 0.12468753 0 34
-1.4934701 -5.1989961 0.17419302 0 35
-1.495185 -5.2049656 0.22427025 0 36
-1.4977871 -5.2140241 0.27466264 0 37
-1.4932678 -5.1982918 0.32373157 0 38
-1.492674 -5.1962247 0.3735356 0 39
-1.4996372 -5.2204647 0.42550766 0 40
-1.4953327 -5.2054801 0.47444385 0 41
-1.4948726 -5.2038779 0.52452081 0 42
-1.4976656 -5.2136011 0.57590741 0 43
-1.4965415 -5.2096877 0.62594235 0 44
-1.4959899 -5.207768 0.67626762 0 45
-1.4987947 -5.2175317 0.7283026 0 46
-1.4950153 -5.2043748 0.77723026 0 47
-1.4911311 -5.1908531 0.82597715 0 48
-1.4931849 -5.1980033 0.87809426 0 49
-1.4974926 -5.2129989 0.93190676 0 50
-1.4956717 -5.2066603 0.98215282 0 51
-1.492687 -5.19627 1.0316408 0 52
-1.499042 -5.2183928 1.0878816 0 53
-1.4920801 -5.1941571 1.1346276 0 54
-1.4968679 -5.2108245 1.1904341 0 55
-1.496819 -5.2106543 1.2427703 0 56
-1.4947484 -5.2034459 1.2935748 0 57
-1.4943097 -5.2019186 1.3459347 0 58
-1.4936737 -5.1997046 1.3983207 0 59
-1.4923818 -5.1952076 1.4502766 0 60
-1.4949279 -5.2040706 1.5062703 0 61
-1.4948181 -5.2036886 1.5599498 0 62
-1.4938436 -5.2002959 1.6129735 0 63
-0.65062326 -2.3745639 -0.73398042 0 0
-0.6766063 -2.4693935 -0.73771924 0 1
-0.69978213 -2.553978 -0.73667908 0 2
-0.72609478 -2.6500106 -0.73721987 0 3
-0.74827951 -2.7309775 -0.73189324 0 4
-0.77533525 -2.8297224 -0.72963518 0 5
-0.80884033 -2.9520051 -0.73133957 0 6
-0.84883463 -3.0979712 -0.73633844 0 7
-0.88336778 -3.2240059 -0.73400027 0 8
-0.92440814 -3.37379 -0.73444241 0 9
-0.9763388 -3.5633202 -0.74028873 0 10
-1.0097003 -3.6850786 -0.72909647 0 11
-1.0660697 -3.8908088 -0.7314105 0 12
-1.1332128 -4.135859 -0.73680419 0 13
-1.1986504 -4.3746853 -0.73646623 0 14
-1.2743183 -4.6508489 -0.73750162 0 15
-1.3482059 -4.9205146 -0.73230696 0 16
-1.4252832 -5.2018213 -0.72360855 0 17
-1.4277174 -5.2107058 -0.67431837 0 18
-1.4283189 -5.2129006 -0.62417102 0 19
-1.4245526 -5.1991549 -0.5723334 0 20
-1.4271162 -5.2085114 -0.52317947 0 21
-1.4266945 -5.2069721 -0.47294512 0 22
-1.4249713 -5.2006836 -0.42243519 0 23
-1.4281033 -5.2121143 -0.37338725 0 24
-1.4259351 -5.2042012 -0.32298321 0 25
-1.4272599 -5.2090359 -0.2734547 0 26
-1.4256383 -5.2031174 -0.22341838 0 27
-1.4248624 -5.2002859 -0.17363608 0 28
-1.4233115 -5.1946254 -0.12386981 0 29
-1.4272798 -5.2091084 -0.074520692 0 30
-1.4230506 -5.1936731 -0.024765229 0 31
-1.4276334 -5.2103992 0.024844984 0 32
-1.4264574 -5.2061071 0.074477755 0 33
-1.4264078 -5.2059259 0.12413928 0 34
-1.423962 -5.1969995 0.17352635 0 35
-1.4278736 -5.2112761 0.2237687 0 36
-1.42729 -5.2091455 0.27346045 0 37
-1.4305848 -5.2211704 0.32403636 0 38
-1.4284503 -5.2133803 0.37347797 0 39
-1.4227049 -5.1924114 0.4217633 0 40
-1.4287359 -5.2144227 0.47362182 0 41
-1.4271516 -5.2086406 0.52319247 0 42
-1.4292803 -5.2164097 0.57423288 0 43
-1.4227982 -5.1927519 0.62175846 0 44
-1.4272789 -5.2091055 0.67411125 0 45
-1.4234233 -5.1950336 0.7226643 0 46
-1.4287271 -5.2143912 0.77604377 0 47
-1.4291071 -5.2157774 0.82708436 0 48
-1.4244378 -5.1987362 0.875193 0 49
-1.4229194 -5.1931944 0.92516863 0 50
-1.4275563 -5.2101173 0.97941965 0 51
-1.4262949 -5.205514 1.0299162 0 52
-1.4251965 -5.2015052 1.0806258 0 53
-1.4274267 -5.2096448 1.1340908 0 54
-1.4243822 -5.1985335 1.1835353 0 55
-1.4283891 -5.2131572 1.2390845 0 56
-1.4287587 -5.2145061 1.2918591 0 57
-1.4261428 -5.2049589 1.3420825 0 58
-1.430101 -5.2194052 1.3987838 0 59
-1.425382 -5.2021823 1.4472214 0 60
-1.4253724 -5.202147 1.500527 0 61
-1.4298404 -5.2184539 1.5589876 0 62
-1.424269 -5.1981196 1.6067449 0 63
-0.62094003 -2.3807068 -0.7334637 0 0
-0.64273149 -2.464256 -0.73376787 0 1
-0.665573 -2.5518312 -0.73364371 0 2
-0.68734771 -2.6353161 -0.73072541 0 3
-0.72349995 -2.7739253 -0.74096286 0 4
-0.74725711 -2.8650112 -0.73630935 0 5
-0.77083057 -2.9553926 -0.72977543 0 6
-0.80695218 -3.0938842 -0.73295319 0 7
-0.84263134 -3.2306793 -0.73310524 0 8
-0.88112056 -3.3782485 -0.73299897 0 9
-0.92508411 -3.5468063 -0.73443925 0 10
-0.97402424 -3.7344446 -0.73643827 0 11
-1.0245769 -3.9282653 -0.73602778 0 12
-1.0847296 -4.1588926 -0.7384755 0 13
-1.1400257 -4.3709006 -0.73341376 0 14
-1.210196 -4.639936 -0.73335594 0 15
-1.2899822 -4.9458389 -0.73365968 0 16
-1.3578196 -5.2059298 -0.72180289 0 17
-1.355527 -5.1971402 -0.67035514 0 18
-1.3557732 -5.1980844 -0.62035388 0 19
-1.3554142 -5.1967077 -0.5701862 0 20
-1.3591375 -5.2109828 -0.52170956 0 21
-1.3581082 -5.207036 -0.47139847 0 22
-1.356167 -5.1995935 -0.42096031 0 23
-1.3530196 -5.1875267 -0.37040597 0 24
-1.3592651 -5.211472 -0.32237276 0 25
-1.3593498 -5.2117972 -0.27270156 0 26
-1.3537918 -5.1904874 -0.22214445 0 27
-1.3566703 -5.2015233 -0.1731073 0 28
-1.3549955 -5.1951027 -0.12347454 0 29
-1.3586296 -5.2090354 -0.074275039 0 30
-1.3590714 -5.2107291 -0.024764998 0 31
-1.3586773 -5.2092185 0.024757817 0 32
-1.3574703 -5.2045908 0.074211657 0 33
-1.3573614 -5.2041736 0.12369013 0 34
-1.3572781 -5.2038536 0.17318486 0 35
-1.3598493 -5.2137122 0.22313844 0 36
-1.3602763 -5.2153497 0.27288741 0 37
-1.3569497 -5.2025948 0.32182366 0 38
-1.3584659 -5.2084084 0.37189698 0 39
-1.3588046 -5.2097063 0.42177904 0 40
-1.3580911 -5.2069712 0.47139257 0 41
-1.3606813 -5.2169018 0.52230215 0 42
-1.3541042 -5.1916847 0.56963509 0 43
-1.3571965 -5.2035408 0.62100506 0 44
-1.3560821 -5.1992683 0.67062962 0 45
-1.3571563 -5.2033868 0.72145033 0 46
-1.3553892 -5.1966124 0.77085912 0 47
-1.3564429 -5.2006521 0.82197881 0 48
-1.3566923 -5.2016077 0.87280202 0 49
-1.3571322 -5.2032948 0.92392516 0 50
-1.3562783 -5.2000208 0.9743129 0 51
-1.3586204 -5.2090001 1.027223 0 52
-1.3562297 -5.1998343 1.0767326 0 53
-1.3597058 -5.2131619 1.1311313 0 54
-1.357671 -5.2053604 1.1811996 0 55
-1.3610517 -5.2183223 1.2362407 0 56
-1.3557103 -5.1978431 1.2835039 0 57
-1.3574507 -5.2045159 1.3375632 0 58
-1.3569252 -5.2025013 1.3896769 0 59
-1.3598666 -5.2137785 1.4456863 0 60
-1.3570681 -5.2030487 1.4958607 0 61
-1.3585123 -5.2085862 1.5509318 0 62
-1.3530613 -5.1876869 1.5982563 0 63
-0.59583747 -2.4051819 -0.73869103 0 0
-0.61410326 -2.4789145 -0.73582846 0 1
-0.63578594 -2.5664396 -0.73554033 0 2
-0.65732312 -2.6533775 -0.73343688 0 3
-0.68270761 -2.7558455 -0.73383552 0 4
-0.71156847 -2.8723466 -0.73589021 0 5
-0.74042577 -2.9888332 -0.73572904 0 6
-0.77180839 -3.1155133 -0.73577321 0 7
-0.80423445 -3.2464056 -0.73437428 0 8
-0.84386539 -3.4063816 -0.73679602 0 9
-0.88181686 -3.5595779 -0.73478299 0 10
-0.93052858 -3.7562099 -0.73841816 0 11
-0.96867687 -3.9102008 -0.73035604 0 12
-1.0286522 -4.1522994 -0.73500329 0 13
-1.0861374 -4.384347 -0.73337352 0 14
-1.1579407 -4.6741915 -0.73646396 0 15
-1.2324274 -4.9748669 -0.73566204 0 16
-1.2901249 -5.2077713 -0.71980423 0 17
-1.2919943 -5.2153172 -0.67059982 0 18
-1.2912508 -5.212316 -0.62011057 0 19
-1.2906841 -5.2100286 -0.56986332 0 20
-1.2866129 -5.193594 -0.51834553 0 21
-1.2901101 -5.2077112 -0.4699879 0 22
-1.2874256 -5.1968751 -0.41942683 0 23
-1.2876639 -5.1978374 -0.36998361 0 24
-1.2886429 -5.2017889 -0.32076934 0 25
-1.2938738 -5.2229037 -0.27242962 0 26
-1.2874594 -5.1970115 -0.22172935 0 27
-1.2906724 -5.209981 -0.17284752 0 28
-1.2910665 -5.2115722 -0.12347932 0 29
-1.2923664 -5.2168193 -0.074153818 0 30
-1.2841433 -5.1836257 -0.02455928 0 31
-1.2908148 -5.210556 0.024686871 0 32
-1.2895112 -5.2052937 0.073989995 0 33
-1.2891934 -5.204011 0.12330016 0 34
-1.2873061 -5.1963925 0.1723967 0 35
-1.2887146 -5.2020783 0.22194554 0 36
-1.2880138 -5.1992497 0.2711958 0 37
-1.290258 -5.2083087 0.32117137 0 38
-1.2916986 -5.2141232 0.37114286 0 39
-1.288936 -5.2029719 0.41991889 0 40
-1.2893862 -5.2047892 0.46972418 0 41
-1.2877649 -5.198245 0.51880968 0 42
-1.2921503 -5.2159467 0.57051063 0 43
-1.2864753 -5.1930389 0.61781716 0 44
-1.2885609 -5.201458 0.6688177 0 45
-1.2910777 -5.211617 0.72033584 0 46
-1.2894983 -5.2052417 0.76972896 0 47
-1.2882419 -5.20017 0.81933701 0 48
-1.2892958 -5.2044244 0.87054861 0 49
-1.285836 -5.1904583 0.91876888 0 50
-1.2919375 -5.2150879 0.97408575 0 51
-1.2902143 -5.2081323 1.0238457 0 52
-1.2907645 -5.2103524 1.0755428 0 53
-1.2900475 -5.2074585 1.1263667 0 54
-1.2933544 -5.2208076 1.1810067 0 55
-1.2901391 -5.207828 1.2299035 0 56
-1.2887868 -5.2023697 1.2806116 0 57
-1.2918782 -5.2148485 1.3360351 0 58
-1.2861882 -5.1918802 1.3825108 0 59
-1.2883285 -5.20052 1.4375086 0 60
-1.2889099 -5.202867 1.4911392 0 61
-1.2908342 -5.2106342 1.5466985 0 62
-1.2890046 -5.2032485 1.5980468 0 63
-0.56469637 -2.4058375 -0.73670405 0 0
-0.57795334 -2.4623177 -0.72873735 0 1
-0.60209137 -2.5651553 -0.73299503 0 2
-0.62690985 -2.6708925 -0.73609179 0 3
-0.65016842 -2.7699833 -0.73541576 0 4
-0.67364937 -2.8700218 -0.73311698 0 5
-0.70179236 -2.9899225 -0.73381752 0 6
-0.7295872 -3.10834 -0.7319051 0 7
-0.76252663 -3.2486753 -0.73271126 0 8
-0.79903579 -3.4042194 -0.73414761 0 9
-0.83749717 -3.5680807 -0.73435682 0 10
-0.8770296 -3.7365048 -0.73236901 0 11
-0.92325097 -3.9334269 -0.73251837 0 12
-0.97725344 -4.1634994 -0.73480308 0 13
-1.0392194 -4.4274998 -0.73839843 0 14
-1.1028149 -4.6984429 -0.7380926 0 15
-1.1679323 -4.9758692 -0.73363107 0 16
-1.2237822 -5.2138124 -0.71850502 0 17
-1.2196448 -5.1961856 -0.66616106 0 18
-1.2209914 -5.2019224 -0.61704117 0 19
-1.2221397 -5.2068152 -0.5678252 0 20
-1.2191749 -5.1941838 -0.51686907 0 21
-1.2199759 -5.1975965 -0.46768582 0 22
-1.2207413 -5.2008572 -0.41850507 0 23
-1.2188165 -5.192657 -0.36852023 0 24
-1.2221243 -5.2067494 -0.32012433 0 25
-1.2195083 -5.1956038 -0.27020302 0 26
-1.2231629 -5.211174 -0.22167516 0 27
-1.2212087 -5.2028489 -0.17209969 0 28
-1.2196559 -5.1962333 -0.12275127 0 29
-1.2176014 -5.18748 -0.073518403 0 30
-1.2180248 -5.1892838 -0.024513274 0 31
-1.2201053 -5.1981478 0.024555145 0 32
-1.2193432 -5.1949005 0.073623568 0 33
-1.2209605 -5.2017908 0.12288257 0 34
-1.2200667 -5.1979833 0.17193876 0 35
-1.2247287 -5.217845 0.22195892 0 36
-1.2239947 -5.2147179 0.27119708 0 37
-1.2217841 -5.2053003 0.32003525 0 38
-1.2205924 -5.200223 0.36905721 0 39
-1.2197164 -5.1964912 0.41815376 0 40
-1.2194797 -5.1954823 0.46749556 0 41
-1.2212116 -5.2028608 0.51773256 0 42
-1.2224762 -5.2082486 0.56798154 0 43
-1.223246 -5.2115283 0.61818057 0 44
-1.2180277 -5.1892962 0.66527784 0 45
-1.2200903 -5.1980834 0.71633744 0 46
-1.2216296 -5.2046418 0.76736081 0 47
-1.2208948 -5.2015109 0.81712115 0 48
-1.2194446 -5.1953325 0.86645412 0 49
-1.2230546 -5.2107129 0.91962254 0 50
-1.218534 -5.191453 0.96679938 0 51
-1.21684 -5.184236 1.0161299 0 52
-1.2192397 -5.1944594 1.0690866 0 53
-1.2209244 -5.2016373 1.1217754 0 54
-1.218279 -5.1903672 1.1706433 0 55
-1.2224013 -5.2079291 1.2262847 0 56
-1.2187182 -5.1922379 1.2743324 0 57
-1.2180578 -5.1894245 1.3255841 0 58
-1.2192907 -5.1946774 1.379159 0 59
-1.2213179 -5.2033138 1.4340212 0 60
-1.2244334 -5.2165871 1.4906435 0 61
-1.2245095 -5.2169113 1.5439755 0 62
-1.2208477 -5.2013106 1.5927205 0 63
-0.53106588 -2.3945329 -0.73118746 0 0
-0.55149174 -2.4866314 -0.73387063 0 1
-0.57221287 -2.5800612 -0.73518819 0 2
-0.59318888 -2.6746407 -0.73505896 0 3
-0.6192348 -2.7920794 -0.73920465 0 4
-0.64254242 -2.8971715 -0.73797804 0 5
-0.66333777 -2.990936 -0.73200899 0 6
-0.69669187 -3.1413271 -0.73759943 0 7
-0.72337162 -3.2616239 -0.73357004 0 8
-0.75808895 -3.4181614 -0.73508841 0 9
-0.79570836 -3.5877845 -0.73634267 0 10
-0.83362371 -3.7587414 -0.73466277 0 11
-0.88011461 -3.9683652 -0.73695379 0 12
-0.92400819 -4.1662779 -0.7332328 0 13
-0.97459191 -4.3943558 -0.7308169 0 14
-1.0382314 -4.6813011 -0.73333877 0 15
-1.1120104 -5.0139642 -0.73717594 0 16
-1.1523223 -5.1957273 -0.71400607 0 17
-1.1543207 -5.2047381 -0.66538751 0 18
-1.1552641 -5.2089925 -0.61614817 0 19
-1.1524981 -5.1965203 -0.56511432 0 20
-1.1546044 -5.2060175 -0.51659483 0 21
-1.1545523 -5.2057829 -0.46710968 0 22
-1.1530975 -5.199223 -0.41720107 0 23
-1.1521039 -5.1947427 -0.36763507 0 24
-1.1507057 -5.1884384 -0.31810454 0 25
-1.1522379 -5.1953468 -0.26943246 0 26
-1.1533276 -5.2002606 -0.22059095 0 27
-1.153053 -5.1990223 -0.17149118 0 28
-1.1524112 -5.1961288 -0.1224048 0 29
-1.1521779 -5.1950765 -0.07341972 0 30
-1.1547261 -5.2065663 -0.024525983 0 31
-1.1524445 -5.1962786 0.024477523 0 32
-1.1523023 -5.1956372 0.073427647 0 33
-1.1543137 -5.2047067 0.12260687 0 34
-1.1515379 -5.1921906 0.17126583 0 35
-1.1556103 -5.2105532 0.22102755 0 36
-1.1509535 -5.1895556 0.26913211 0 37
-1.1518824 -5.1937442 0.31842983 0 38
-1.1545058 -5.2055731 0.36840153 0 39
-1.152808 -5.1979175 0.41709632 0 40
-1.1529298 -5.1984668 0.46645319 0 41
-1.1543415 -5.2048316 0.51647717 0 42
-1.1555183 -5.2101378 0.5665952 0 43
-1.1535419 -5.2012267 0.61522961 0 44
-1.1520706 -5.194593 0.66409051 0 45
-1.1520993 -5.1947222 0.7138679 0 46
-1.1507035 -5.1884289 0.76282656 0 47
-1.1511471 -5.1904287 0.81309503 0 48
-1.1531153 -5.1993032 0.86468619 0 49
-1.1555227 -5.2101579 0.9169476 0 50
-1.1564128 -5.2141714 0.96830893 0 51
-1.1526996 -5.1974287 1.0158606 0 52
-1.1549678 -5.2076559 1.0687988 0 53
-1.1522791 -5.1955333 1.1173189 0 54
-1.153012 -5.1988378 1.1692678 0 55
-1.1538024 -5.2024012 1.2215501 0 56
-1.1549848 -5.2077327 1.2745533 0 57
-1.1547781 -5.2068005 1.3262951 0 58
-1.1568501 -5.2161431 1.3809769 0 59
-1.1497741 -5.184238 1.4247599 0 60
-1.1550589 -5.2080665 1.484038 0 61
-1.153224 -5.1997933 1.5345964 0 62
-1.1550403 -5.2079825 1.5902942 0 63
-0.50621742 -2.4230616 -0.7379424 0 0
-0.52159286 -2.4966576 -0.73488128 0 1
-0.54092586 -2.5891972 -0.7358405 0 2
-0.56157452 -2.6880338 -0.73678631 0 3
-0.58282971 -2.7897742 -0.73664129 0 4
-0.60802305 -2.9103646 -0.73937833 0 5
-0.62934446 -3.0124218 -0.73531795 0 6
-0.65307146 -3.1259935 -0.73205811 0 7
-0.68426478 -3.2753034 -0.73469877 0 8
-0.71286345 -3.412194 -0.73186469 0 9
-0.74962848 -3.5881736 -0.7344752 0 10
-0.78689462 -3.7665517 -0.73424262 0 11
-0.82992846 -3.9725378 -0.73577785 0 12
-0.87384892 -4.1827674 -0.7341882 0 13
-0.92488664 -4.4270649 -0.73430979 0 14
-0.98223436 -4.7015653 -0.73456568 0 15
-1.0505772 -5.0286951 -0.73738676 0 16
-1.0846515 -5.1917953 -0.71157908 0 17
-1.0833207 -5.1854262 -0.6611656 0 18
-1.0833775 -5.1856976 -0.61177075 0 19
-1.086691 -5.2015581 -0.56416637 0 20
-1.0877162 -5.2064652 -0.51527303 0 21
-1.0842876 -5.1900539 -0.46446687 0 22
-1.0859135 -5.1978364 -0.4159869 0 23
-1.0864251 -5.200285 -0.36705408 0 24
-1.0853984 -5.1953707 -0.31768724 0 25
-1.0822022 -5.1800718 -0.26792991 0 26
-1.0857036 -5.1968317 -0.21986257 0 27
-1.0863767 -5.2000532 -0.1710716 0 28
-1.0865103 -5.2006931 -0.12218836 0 29
-1.0897673 -5.2162833 -0.07352449 0 30
-1.0837913 -5.1876783 -0.024372391 0 31
-1.0845939 -5.1915202 0.02439044 0 32
-1.0851594 -5.1942272 0.073213607 0 33
-1.087014 -5.203104 0.122245 0 34
-1.0859872 -5.1981893 0.17101029 0 35
-1.0832258 -5.1849713 0.2193608 0 36
-1.0853078 -5.1949372 0.26869881 0 37
-1.0863403 -5.1998792 0.31796294 0 38
-1.0848395 -5.1926956 0.36651841 0 39
-1.0815281 -5.1768451 0.41430694 0 40
-1.0867087 -5.2016425 0.46550396 0 41
-1.085886 -5.1977048 0.51440609 0 42
-1.0855229 -5.1959662 0.56355989 0 43
-1.088158 -5.20858 0.61447024 0 44
-1.0826876 -5.1823955 0.66077918 0 45
-1.0856791 -5.1967139 0.71225327 0 46
-1.086337 -5.1998634 0.7624861 0 47
-1.0860012 -5.198256 0.81216788 0 48
-1.0847449 -5.1922426 0.86122853 0 49
-1.0848564 -5.1927767 0.91147202 0 50
-1.0867773 -5.2019711 0.9634887 0 51
-1.0888356 -5.2118235 1.0159804 0 52
-1.0888513 -5.2118983 1.0668409 0 53
-1.0863818 -5.2000775 1.115339 0 54
-1.0885929 -5.2106614 1.168828 0 55
-1.0858616 -5.1975875 1.2171926 0 56
-1.0865082 -5.2006826 1.269462 0 57
-1.0860419 -5.198451 1.3206668 0 58
-1.0846094 -5.1915941 1.3708429 0 59
-1.0837286 -5.1873779 1.4218529 0 60
-1.0863253 -5.1998076 1.4777666 0 61
-1.0867808 -5.2019877 1.5311843 0 62
-1.0844328 -5.1907487 1.5808403 0 63
-0.47631058 -2.4287164 -0.7378251 0 0
-0.48950177 -2.4959786 -0.73285431 0 1
-0.50969726 -2.5989559 -0.73677701 0 2
-0.52349108 -2.669291 -0.72982931 0 3
-0.54367751 -2.7722216 -0.73018605 0 4
-0.57145631 -2.9138665 -0.73842692 0 5
-0.59194964 -3.0183623 -0.73493564 0 6
-0.61570328 -3.1394827 -0.7333886 0 7
-0.645356 -3.2906823 -0.73631275 0 8
-0.67614341 -3.4476681 -0.7376343 0 9
-0.70877343 -3.614049 -0.73793191 0 10
-0.74174321 -3.7821624 -0.73545212 0 11
-0.78179991 -3.9864123 -0.73651141 0 12
-0.825553 -4.2095098 -0.73704469 0 13
-0.87486267 -4.4609413 -0.73808867 0 14
-0.92094785 -4.6959305 -0.73186064 0 15
-0.98467541 -5.0208783 -0.73440951 0 16
-1.0173113 -5.1872892 -0.70919341 0 17
-1.0174403 -5.1879468 -0.65984195 0 18
-1.0181921 -5.1917806 -0.61096513 0 19
-1.0182458 -5.1920547 -0.56173509 0 20
-1.0209492 -5.2058392 -0.51392984 0 21
-1.0165358 -5.1833348 -0.46271196 0 22
-1.0213596 -5.2079315 -0.41575828 0 23
-1.0193083 -5.1974721 -0.36594319 0 24
-1.0231531 -5.2170768 -0.31822115 0 25
-1.0185102 -5.1934028 -0.26795137 0 26
-1.0205448 -5.2037768 -0.21960889 0 27
-1.018098 -5.1913009 -0.17035894 0 28
-1.0203046 -5.2025523 -0.12192805 0 29
-1.0191242 -5.1965332 -0.073063947 0 30
-1.0209227 -5.2057037 -0.024396256 0 31
-1.0200458 -5.2012324 0.024375299 0 32
-1.017985 -5.1907248 0.072982281 0 33
-1.0182887 -5.1922731 0.12168715 0 34
-1.0203062 -5.2025604 0.17072845 0 35
-1.020265 -5.2023501 0.21954867 0 36
-1.0191469 -5.1966491 0.26811889 0 37
-1.020677 -5.2044506 0.31745103 0 38
-1.0189985 -5.1958923 0.36583197 0 39
-1.0183001 -5.1923313 0.41451287 0 40
-1.0173968 -5.1877255 0.46310389 0 41
-1.0203147 -5.2026038 0.51361036 0 42
-1.017658 -5.1890574 0.56141078 0 43
-1.021173 -5.2069802 0.61275381 0 44
-1.0190417 -5.1961126 0.66088051 0 45
-1.0219067 -5.2107215 0.71239698 0 46
-1.0175165 -5.1883354 0.75890362 0 47
-1.0203735 -5.2029037 0.81087238 0 48
-1.0221053 -5.2117338 0.86231166 0 49
-1.0200816 -5.2014151 0.91071779 0 50
-1.0190598 -5.1962051 0.96002722 0 51
-1.0154674 -5.1778874 1.0068548 0 52
-1.0193409 -5.1976385 1.061276 0 53
-1.0179098 -5.190341 1.1104821 0 54
-1.0187904 -5.1948314 1.1623791 0 55
-1.019195 -5.1968942 1.2140036 0 56
-1.0192572 -5.1972113 1.2654598 0 57
-1.0201316 -5.2016702 1.3181981 0 58
-1.0186286 -5.194006 1.3680691 0 59
-1.016717 -5.1842589 1.4174641 0 60
-1.0192274 -5.1970596 1.4733125 0 61
-1.0196841 -5.199388 1.5266131 0 62
-1.0193896 -5.1978865 1.5790772 0 63
-0.44766036 -2.441196 -0.73988807 0 0
-0.45782366 -2.496619 -0.73133403 0 1
-0.47589055 -2.5951419 -0.73398137 0 2
-0.49655879 -2.7078505 -0.73864681 0 3
-0.5122264 -2.7932894 -0.73402065 0 4
-0.53439754 -2.9141941 -0.73678899 0 5
-0.55403668 -3.0212908 -0.7339344 0 6
-0.57646054 -3.1435735 -0.73263299 0 7
-0.60306084 -3.288631 -0.73413897 0 8
-0.63102221 -3.4411108 -0.73451573 0 9
-0.65818 -3.5892086 -0.73115212 0 10
-0.6932171 -3.7802739 -0.73337191 0 11
-0.73080653 -3.9852579 -0.7345823 0 12
-0.76935279 -4.1954598 -0.73287284 0 13
-0.81276911 -4.4322186 -0.73162746 0 14
-0.86686528 -4.7272177 -0.73501992 0 15
-0.92544091 -5.0466442 -0.73645812 0 16
-0.95208102 -5.1919193 -0.70817226 0 17
-0.95351547 -5.1997414 -0.65980095 0 18
-0.95301479 -5.1970115 -0.61015552 0 19
-0.95476472 -5.2065539 -0.56199116 0 20
-0.95255595 -5.194509 -0.51161629 0 21
-0.95207602 -5.1918917 -0.46239579 0 22
-0.95286596 -5.1961994 -0.41385502 0 23
-0.95158619 -5.1892209 -0.36451083 0 24
-0.95241803 -5.1937571 -0.31606051 0 25
-0.95177501 -5.1902504 -0.26716471 0 26
-0.95370209 -5.2007594 -0.21897008 0 27
-0.9527877 -5.1957731 -0.17010836 0 28
-0.95227563 -5.1929803 -0.12142012 0 29
-0.95282125 -5.1959558 -0.072885588 0 30
-0.95195985 -5.1912584 -0.024271863 0 31
-0.95177066 -5.190227 0.02426704 0 32
-0.9495346 -5.1780329 0.072634175 0 33
-0.95184845 -5.1906509 0.12136564 0 34
-0.9535467 -5.1999116 0.17024387 0 35
-0.95467818 -5.2060823 0.21919419 0 36
-0.95363784 -5.2004089 0.26768762 0 37
-0.9513002 -5.1876612 0.31568956 0 38
-0.95265931 -5.1950727 0.3649219 0 39
-0.95291209 -5.1964512 0.41387504 0 40
-0.95382738 -5.2014422 0.46324638 0 41
-0.95285648 -5.1961479 0.5117777 0 42
-0.95354229 -5.1998878 0.56127161 0 43
-0.953915 -5.2019205 0.61073184 0 44
-0.9542613 -5.2038088 0.660317 0 45
-0.95282191 -5.1959596 0.70872337 0 46
-0.95436716 -5.2043858 0.75947744 0 47
-0.95212483 -5.1921582 0.80731201 0 48
-0.95174819 -5.190104 0.85673177 0 49
-0.95275497 -5.1955943 0.90757871 0 50
-0.951989 -5.1914172 0.95690751 0 51
-0.95483071 -5.2069139 1.0101396 0 52
-0.95238733 -5.1935897 1.0579782 0 53
-0.95156103 -5.1890836 1.107626 0 54
-0.95232296 -5.1932383 1.1593149 0 55
-0.95119643 -5.1870952 1.2088908 0 56
-0.95141065 -5.1882634 1.2603372 0 57
-0.95572805 -5.2118073 1.3176893 0 58
-0.95394617 -5.2020903 1.3670055 0 59
-0.95336664 -5.1989298 1.4181629 0 60
-0.9518106 -5.1904445 1.4680082 0 61
-0.95143312 -5.188386 1.5198328 0 62
-0.95331371 -5.1986413 1.5756263 0 63
-0.41497481 -2.4310737 -0.73521805 0 0
-0.42895803 -2.5129926 -0.73452973 0 1
-0.44433135 -2.603055 -0.7346186 0 2
-0.46087539 -2.699976 -0.73489738 0 3
-0.47941521 -2.808589 -0.73643631 0 4
-0.49818042 -2.9185226 -0.73627889 0 5
-0.51570147 -3.021167 -0.73230857 0 6
-0.53597748 -3.1399515 -0.73019761 0 7
-0.56244832 -3.2950273 -0.73396742 0 8
-0.59059703 -3.4599328 -0.73692751 0 9
-0.61969346 -3.6303902 -0.73793316 0 10
-0.64885497 -3.801229 -0.7358337 0 11
-0.68116742 -3.9905269 -0.73395413 0 12
-0.72017527 -4.2190495 -0.73539102 0 13
-0.76471376 -4.4799719 -0.7379021 0 14
-0.81179398 -4.755785 -0.73785388 0 15
-0.86344844 -5.0583959 -0.73656797 0 16
-0.88584107 -5.18958 -0.70631403 0 17
-0.88794446 -5.2019024 -0.65863985 0 18
-0.88784093 -5.2012959 -0.60933071 0 19
-0.88652301 -5.1935749 -0.55937123 0 20
-0.88785505 -5.2013788 -0.51117897 0 21
-0.88513565 -5.1854472 -0.46081764 0 22
-0.88613695 -5.1913133 -0.41256681 0 23
-0.88773066 -5.2006497 -0.36451933 0 24
-0.88665318 -5.1943378 -0.31540853 0 25
-0.88736087 -5.1984835 -0.26700664 0 26
-0.88837647 -5.2044334 -0.2186483 0 27
-0.88754153 -5.1995416 -0.1698616 0 28
-0.88687599 -5.1956429 -0.12121823 0 29
-0.88761169 -5.1999531 -0.072783053 0 30
-0.88509434 -5.1852055 -0.024190847 0 31
-0.88630068 -5.1922727 0.024223818 0 32
-0.88660401 -5.1940494 0.072700426 0 33
-0.88799989 -5.2022271 0.12137184 0 34
-0.8860091 -5.1905642 0.16956833 0 35
-0.88682193 -5.1953259 0.21826568 0 36
-0.88794714 -5.2019181 0.26718307 0 37
-0.88529116 -5.1863585 0.314924 0 38
-0.88838547 -5.2044859 0.3647882 0 39
-0.88648736 -5.1933661 0.41272998 0 40
-0.88526368 -5.1861973 0.4608843 0 41
-0.88882554 -5.2070642 0.5117377 0 42
-0.88733405 -5.1983261 0.559883 0 43
-0.88953447 -5.2112174 0.610493 0 44
-0.88460058 -5.1823125 0.65615952 0 45
-0.8894487 -5.2107148 0.70919055 0 46
-0.88700926 -5.1964235 0.7566666 0 47
-0.88606042 -5.190865 0.80535597 0 48
-0.88618231 -5.1915793 0.85511184 0 49
-0.8863768 -5.1927185 0.90510404 0 50
-0.88576055 -5.1891084 0.95440215 0 51
-0.88721073 -5.1976042 1.0061409 0 52
-0.88577878 -5.1892152 1.0547885 0 53
-0.88695675 -5.196116 1.1067153 0 54
-0.88817561 -5.2032566 1.1590255 0 55
-0.88849407 -5.2051225 1.2104543 0 56
-0.88839465 -5.2045398 1.261542 0 57
-0.88772011 -5.2005882 1.3119937 0 58
-0.88822144 -5.2035251 1.3644092 0 59
-0.88681781 -5.195302 1.4140918 0 60
-0.88867563 -5.2061858 1.4692585 0 61
-0.88785774 -5.2013946 1.5203303 0 62
-0.88614398 -5.1913548 1.5699966 0 63
-0.38529536 -2.4375315 -0.73568255 0 0
-0.39851058 -2.521136 -0.73542213 0 1
-0.41157395 -2.60378 -0.73333955 0 2
-0.42790034 -2.7070675 -0.73533988 0 3
-0.44225162 -2.7978594 -0.73214161 0 4
-0.45955762 -2.9073439 -0.73197782 0 5
-0.48192397 -3.0488424 -0.73752469 0 6
-0.5000177 -3.1633105 -0.73414445 0 7
-0.52288055 -3.30795 -0.73535818 0 8
-0.5477367 -3.4651997 -0.73655909 0 9
-0.57305473 -3.6253717 -0.73542517 0 10
-0.60016751 -3.7968979 -0.73351127 0 11
-0.63186622 -3.9974368 -0.73374051 0 12
-0.66572428 -4.2116361 -0.7326166 0 13
-0.70415682 -4.4547758 -0.73227042 0 14
-0.74962723 -4.7424393 -0.73429769 0 15
-0.79852068 -5.0517588 -0.73411626 0 16
-0.82183772 -5.1992717 -0.70620435 0 17
-0.81902373 -5.1814694 -0.65472806 0 18
-0.82182598 -5.1991978 -0.60785508 0 19
-0.82136208 -5.1962628 -0.55853069 0 20
-0.82208407 -5.2008305 -0.51009303 0 21
-0.81928885 -5.1831465 -0.45968318 0 22
-0.82048059 -5.1906862 -0.41168404 0 23
-0.81951201 -5.1845584 -0.36265773 0 24
-0.82216269 -5.2013278 -0.31519526 0 25
-0.82276994 -5.2051692 -0.26681024 0 26
-0.82189131 -5.1996107 -0.21800461 0 27
-0.8192789 -5.183084 -0.16898206 0 28
-0.82033825 -5.1897855 -0.12083708 0 29
-0.8205651 -5.1912208 -0.072514117 0 30
-0.82168937 -5.1983333 -0.024203125 0 31
-0.82073975 -5.1923256 0.024175154 0 32
-0.8209421 -5.1936054 0.072547436 0 33
-0.82097846 -5.1938357 0.12093139 0 34
-0.82070148 -5.1920834 0.16927546 0 35
-0.82076144 -5.1924629 0.21770492 0 36
-0.82089221 -5.1932902 0.26620135 0 37
-0.82105571 -5.1943245 0.31477088 0 38
-0.8198517 -5.1867075 0.36280805 0 39
-0.8207314 -5.1922727 0.41180989 0 40
-0.81992733 -5.1871858 0.4600414 0 41
-0.82022983 -5.1890998 0.50894248 0 42
-0.82224 -5.2018166 0.55912769 0 43
-0.82175773 -5.1987658 0.6078046 0 44
-0.82064426 -5.1917214 0.65602356 0 45
-0.81940472 -5.1838794 0.7041136 0 46
-0.82029337 -5.1895013 0.75413287 0 47
-0.82131732 -5.1959791 0.80452174 0 48
-0.8203795 -5.1900468 0.85313338 0 49
-0.82236171 -5.2025867 0.90499306 0 50
-0.81885183 -5.1803818 0.95087337 0 51
-0.82101929 -5.1940942 1.0034313 0 52
-0.82022607 -5.1890759 1.0526304 0 53
-0.82038009 -5.1900501 1.1031914 0 54
-0.82097065 -5.1937861 1.1545801 0 55
-0.81862324 -5.178936 1.2019329 0 56
-0.82164109 -5.1980281 1.2574195 0 57
-0.82351333 -5.2098722 1.3116821 0 58
-0.8215673 -5.1975608 1.3600936 0 59
-0.82057083 -5.191257 1.4101378 0 60
-0.82065088 -5.1917634 1.46223 0 61
-0.81917536 -5.1824288 1.5117283 0 62
-0.82142848 -5.1966825 1.5684347 0 63
-0.35296828 -2.426089 -0.73086387 0 0
-0.3669318 -2.5220656 -0.73432165 0 1
-0.37945852 -2.6081667 -0.73320544 0 2
-0.39396635 -2.7078848 -0.7341904 0 3
-0.41218638 -2.8331182 -0.73998582 0 4
-0.42578527 -2.9265885 -0.73544925 0 5
-0.44312125 -3.0457456 -0.73540187 0 6
-0.46064305 -3.1661799 -0.73344034 0 7
-0.48001108 -3.2993035 -0.73206866 0 8
-0.5007121 -3.4415898 -0.73017663 0 9
-0.52731037 -3.6244102 -0.7338593 0 10
-0.55473727 -3.8129258 -0.73523432 0 11
-0.58556557 -4.0248213 -0.73738962 0 12
-0.61682552 -4.2396827 -0.73612034 0 13
-0.65127516 -4.476469 -0.73446441 0 14
-0.69379991 -4.7687583 -0.73699611 0 15
-0.73897314 -5.0792513 -0.73673522 0 16
-0.75580949 -5.1949739 -0.70430493 0 17
-0.75738466 -5.2058005 -0.65657616 0 18
-0.75393254 -5.1820731 -0.60472345 0 19
-0.7577793 -5.2085133 -0.55880368 0 20
-0.75535488 -5.1918492 -0.50826275 0 21
-0.75463766 -5.1869197 -0.45916009 0 22
-0.75686425 -5.2022238 -0.41182983 0 23
-0.75452507 -5.1861458 -0.36209241 0 24
-0.75436604 -5.1850524 -0.31362319 0 25
-0.75483209 -5.1882558 -0.26544744 0 26
-0.757029 -5.2033563 -0.21775492 0 27
-0.75518656 -5.1906924 -0.1689146 0 28
-0.75485921 -5.1884422 -0.12058057 0 29
-0.75620252 -5.1976752 -0.072468914 0 30
-0.75521368 -5.1908784 -0.024123356 0 31
-0.75558466 -5.1934285 0.024135208 0 32
-0.75761622 -5.2073922 0.072604395 0 33
-0.75555962 -5.1932569 0.12069246 0 34
-0.75650883 -5.1997805 0.16921034 0 35
-0.75333852 -5.17799 0.21669336 0 36
-0.75577539 -5.1947398 0.26577917 0 37
-0.75543255 -5.1923828 0.31406659 0 38
-0.75648648 -5.1996274 0.36303365 0 39
-0.75666636 -5.2008638 0.41172218 0 40
-0.75681299 -5.2018714 0.46048367 0 41
-0.7550326 -5.1896343 0.50804591 0 42
-0.7568053 -5.2018185 0.55808538 0 43
-0.75728023 -5.2050834 0.60740858 0 44
-0.75458997 -5.1865921 0.65415347 0 45
-0.75347978 -5.1789608 0.70213401 0 46
-0.75611138 -5.1970491 0.75382155 0 47
