# .PCD v0.7 - Point Cloud Data file format
VERSION 0.7
FIELDS x y z intensity ring
SIZE 4 4 4 4 2
TYPE F F F F U
COUNT 1 1 1 1 1
WIDTH 1271
HEIGHT 1
VIEWPOINT 0 0 0 1 0 0 0
POINTS 1271
DATA ascii
0.68362808 -5.3954144 0.83175373 0 48
0.68508863 -5.4069409 0.88490552 0 49
0.68489212 -5.4053903 0.93616533 0 50
0.6856246 -5.411171 0.98889858 0 51
0.68622798 -5.4159331 1.0417194 0 52
0.68569767 -5.4117479 1.0930073 0 53
0.68489188 -5.4053879 1.1439468 0 54
0.68491066 -5.4055362 1.1964054 0 55
0.68635416 -5.4169292 1.2516776 0 56
0.68543434 -5.4096694 1.3029026 0 57
0.68551016 -5.4102678 1.3561879 0 58
0.68413472 -5.3994126 1.4067448 0 59
0.68499535 -5.4062052 1.4621137 0 60
0.68480939 -5.4047375 1.5155665 0 61
0.68544412 -5.4097466 1.5711473 0 62
0.68594176 -5.4136744 1.6267917 0 63
0.33968735 -2.4399536 -0.73439783 0 0
0.3499777 -2.5138686 -0.73129493 0 1
0.36388156 -2.613739 -0.73412943 0 2
0.37802491 -2.7153299 -0.73556525 0 3
0.3924531 -2.8189666 -0.73564577 0 4
0.40898803 -2.9377363 -0.73760515 0 5
0.42639533 -3.0627718 -0.73886621 0 6
0.4400717 -3.1610084 -0.73160207 0 7
0.46039939 -3.3070207 -0.73313934 0 8
0.48246068 -3.4654856 -0.73460352 0 9
0.50636411 -3.6371827 -0.73580146 0 10
0.53079259 -3.8126509 -0.73453844 0 11
0.55783141 -4.0068688 -0.73345864 0 12
0.58844215 -4.2267442 -0.73323208 0 13
0.62251747 -4.4715052 -0.73300844 0 14
0.66106457 -4.7483869 -0.73320603 0 15
0.7042501 -5.0585856 -0.73309612 0 16
0.72507775 -5.2081895 -0.7054792 0 17
0.72747517 -5.22541 -0.65847307 0 18
0.72470742 -5.2055292 -0.60692948 0 19
0.72482669 -5.2063861 -0.55808705 0 20
0.72747719 -5.2254248 -0.51110238 0 21
0.72429156 -5.2025423 -0.46014035 0 22
0.72398037 -5.2003069 -0.41131812 0 23
0.72632748 -5.2171659 -0.3639397 0 24
0.72403622 -5.2007079 -0.31429505 0 25
0.72791106 -5.2285404 -0.26727462 0 26
0.72819775 -5.2305999 -0.21870363 0 27
0.72482204 -5.2063527 -0.16927607 0 28
0.7264058 -5.2177291 -0.12115517 0 29
0.72505826 -5.2080493 -0.072550058 0 30
0.72316343 -5.1944389 -0.024118794 0 31
0.72457159 -5.2045536 0.024165757 0 32
0.72482646 -5.2063842 0.072526865 0 33
0.7248401 -5.2064824 0.12089402 0 34
0.72502285 -5.2077951 0.16932295 0 35
0.72582334 -5.2135448 0.21799052 0 36
0.72400314 -5.2004704 0.26583973 0 37
0.72595572 -5.2144961 0.3151283 0 38
0.72492313 -5.2070785 0.36323601 0 39
0.72600424 -5.2148442 0.41246796 0 40
0.725649 -5.2122927 0.46100271 0 41
0.7274695 -5.225369 0.51109695 0 42
0.72488564 -5.2068095 0.55813241 0 43
0.72454178 -5.2043395 0.60679072 0 44
0.72451383 -5.2041388 0.65579259 0 45
0.72558516 -5.2118344 0.70597291 0 46
0.72595 -5.2144547 0.75568485 0 47
0.72663242 -5.2193561 0.80592924 0 48
0.72604269 -5.2151203 0.85490847 0 49
0.7255187 -5.2113566 0.90403724 0 50
0.7260977 -5.2155156 0.95470178 0 51
0.72601199 -5.2149 1.0046932 0 52
0.72438753 -5.2032318 1.0526129 0 53
0.72503608 -5.20789 1.1039534 0 54
0.72492868 -5.2071185 1.1543754 0 55
0.72504485 -5.207953 1.2053589 0 56
0.72659242 -5.219069 1.2590536 0 57
0.72532302 -5.2099509 1.3081115 0 58
0.72548002 -5.2110791 1.3598984 0 59
0.72558331 -5.2118206 1.4118485 0 60
0.72484642 -5.2065277 1.4623744 0 61
0.72550386 -5.2112503 1.5159746 0 62
0.7244755 -5.2038636 1.5663029 0 63
0.36852413 -2.4280939 -0.73213685 0 0
0.38406852 -2.5305111 -0.73745441 0 1
0.39709234 -2.6163211 -0.73617047 0 2
0.41272315 -2.7193079 -0.73796189 0 3
0.42688283 -2.8126018 -0.73529905 0 4
0.44512001 -2.932761 -0.73767447 0 5
0.4607816 -3.0359504 -0.73370725 0 6
0.48215765 -3.1767907 -0.73657143 0 7
0.50301903 -3.31424 -0.73605537 0 8
0.52294403 -3.4455202 -0.73167908 0 9
0.54930192 -3.6191843 -0.73347133 0 10
0.58024412 -3.8230526 -0.73786122 0 11
0.60898179 -4.0123968 -0.73578566 0 12
0.64335871 -4.2388954 -0.73665679 0 13
0.67911267 -4.4744678 -0.73480755 0 14
0.71900564 -4.7373104 -0.73280561 0 15
0.76223087 -5.0221086 -0.72911304 0 16
0.76292151 -5.0266585 -0.682109 0 17
0.75810111 -4.9948988 -0.63055253 0 18
0.76279408 -5.0258193 -0.5870257 0 19
0.75985682 -5.0064669 -0.53761804 0 20
0.76256835 -5.024332 -0.4923133 0 21
0.76128542 -5.0158792 -0.44442523 0 22
0.76248801 -5.0238028 -0.39806902 0 23
0.76091796 -5.0134583 -0.35035563 0 24
0.76153028 -5.0174928 -0.30376571 0 25
0.76193476 -5.0201573 -0.25708193 0 26
0.76296514 -5.0269465 -0.21056475 0 27
0.7611177 -5.0147743 -0.16333915 0 28
0.75998509 -5.0073118 -0.11647749 0 29
0.76070452 -5.0120516 -0.069944754 0 30
0.76023793 -5.0089774 -0.023299305 0 31
0.76280934 -5.0259199 0.023378113 0 32
0.75997841 -5.0072675 0.06987799 0 33
0.75996721 -5.0071936 0.11647474 0 34
0.76199114 -5.0205288 0.16352658 0 35
0.7611177 -5.0147738 0.21005487 0 36
0.762133 -5.0214634 0.2571488 0 37
0.76186281 -5.0196834 0.30389836 0 38
0.76083219 -5.0128932 0.35031614 0 39
0.76047111 -5.0105143 0.39701608 0 40
0.76117527 -5.0151534 0.44436091 0 41
0.7619459 -5.0202308 0.49191144 0 42
0.76037431 -5.0098763 0.53798413 0 43
0.76011336 -5.0081568 0.58496273 0 44
0.76010746 -5.0081177 0.63222128 0 45
0.76121289 -5.0154009 0.68058139 0 46
0.76043016 -5.0102444 0.72739059 0 47
0.7595371 -5.0043602 0.77411497 0 48
0.761204 -5.0153427 0.82363123 0 49
0.76010239 -5.0080843 0.87033033 0 50
0.76059806 -5.0113502 0.91897184 0 51
0.7603007 -5.0093908 0.96682829 0 52
0.75995845 -5.0071363 1.0147566 0 53
0.76037699 -5.0098939 1.0638843 0 54
0.76114357 -5.0149446 1.1137627 0 55
0.76008856 -5.0079937 1.1611545 0 56
0.76221919 -5.0220318 1.2136894 0 57
0.76234818 -5.0228815 1.2634003 0 58
0.76278406 -5.0257535 1.3138837 0 59
0.76267099 -5.0250082 1.3636795 0 60
0.76194793 -5.0202441 1.4125772 0 61
0.75962448 -5.0049357 1.4585639 0 62
0.76034474 -5.0096812 1.5105562 0 63
0.40010643 -2.4340584 -0.73536319 0 0
0.41425115 -2.5201082 -0.73585159 0 1
0.42908698 -2.6103623 -0.73592281 0 2
0.44348821 -2.6979725 -0.73359644 0 3
0.46222907 -2.8119833 -0.73656756 0 4
0.47780997 -2.90677 -0.73255938 0 5
0.49871546 -3.0339491 -0.73465008 0 6
0.52148187 -3.1724491 -0.73699582 0 7
0.54255545 -3.3006511 -0.73446357 0 8
0.57124591 -3.4751902 -0.73941547 0 9
0.59272885 -3.6058822 -0.73219728 0 10
0.62209642 -3.7845404 -0.73184931 0 11
0.65431952 -3.9805706 -0.73136955 0 12
0.69673079 -4.2385807 -0.73803514 0 13
0.73747909 -4.4864745 -0.7382127 0 14
0.77951062 -4.7421741 -0.73498505 0 15
0.79708606 -4.8490949 -0.70536441 0 16
0.79610163 -4.8431058 -0.65847981 0 17
0.79569608 -4.8406386 -0.61226773 0 18
0.79604566 -4.8427653 -0.56674516 0 19
0.7949245 -4.8359447 -0.5203169 0 20
0.7954635 -4.8392239 -0.47509786 0 21
0.79532558 -4.8383851 -0.42953265 0 22
0.79312354 -4.8249888 -0.38305947 0 23
0.79630244 -4.8443274 -0.33919492 0 24
0.79425073 -4.8318458 -0.29309553 0 25
0.79625362 -4.8440309 -0.24854508 0 26
0.7954213 -4.8389668 -0.20308515 0 27
0.79361469 -4.8279767 -0.1575608 0 28
0.79270965 -4.8224711 -0.11239606 0 29
0.79479349 -4.8351479 -0.067607284 0 30
0.79559642 -4.8400326 -0.022557257 0 31
0.79617995 -4.8435822 0.022573801 0 32
0.79399109 -4.8302665 0.067539029 0 33
0.79762328 -4.8523626 0.11309274 0 34
0.79627943 -4.8441877 0.15808985 0 35
0.79528278 -4.8381248 0.20304981 0 36
0.79377586 -4.8289571 0.24777165 0 37
0.79459161 -4.8339195 0.29322132 0 38
0.79660243 -4.8461523 0.33932269 0 39
0.79678458 -4.8472605 0.38482767 0 40
0.79687464 -4.8478084 0.43036923 0 41
0.79503775 -4.8366337 0.47484356 0 42
0.79317868 -4.8253241 0.51917416 0 43
0.79454333 -4.8336258 0.56567556 0 44
0.7950055 -4.8364377 0.6117363 0 45
0.79395014 -4.8300176 0.65670025 0 46
0.794568 -4.833776 0.70313609 0 47
0.79530454 -4.8382568 0.74987686 0 48
0.79605907 -4.8428469 0.79685086 0 49
0.79569417 -4.8406272 0.84286541 0 50
0.79482776 -4.8353567 0.88842356 0 51
0.7975899 -4.85216 0.93830413 0 52
0.79366559 -4.8282862 0.98041415 0 53
0.79333729 -4.8262887 1.0268885 0 54
0.79511362 -4.8370957 1.0763545 0 55
0.79594094 -4.8421283 1.1248813 0 56
0.79442763 -4.832922 1.1702591 0 57
0.79755431 -4.8519435 1.2227788 0 58
0.79550952 -4.8395038 1.2676539 0 59
0.79682982 -4.8475356 1.3180767 0 60
0.79330051 -4.8260655 1.3605818 0 61
0.79433537 -4.8323607 1.411011 0 62
0.79318839 -4.8253832 1.4578159 0 63
0.42781344 -2.4165797 -0.73161662 0 0
0.44770482 -2.5289397 -0.73998183 0 1
0.4619742 -2.6095428 -0.73723751 0 2
0.47656173 -2.6919429 -0.73349488 0 3
0.49838659 -2.8152246 -0.73896599 0 4
0.51392251 -2.9029818 -0.7331419 0 5
0.53349823 -3.0135589 -0.73124593 0 6
0.55972147 -3.1616852 -0.73603851 0 7
0.58277887 -3.2919295 -0.73406196 0 8
0.6097151 -3.4440832 -0.73433656 0 9
0.63802373 -3.6039898 -0.73335063 0 10
0.67293108 -3.8011701 -0.73660958 0 11
0.70667684 -3.9917889 -0.73497176 0 12
0.74311668 -4.1976256 -0.73243964 0 13
0.79216927 -4.4747076 -0.73782361 0 14
0.82719374 -4.6725497 -0.72571564 0 15
0.82975519 -4.6870184 -0.6832208 0 16
0.82537252 -4.6622624 -0.63522375 0 17
0.8276515 -4.6751356 -0.5925765 0 18
0.8307969 -4.6929026 -0.5503608 0 19
0.8275311 -4.6744556 -0.5039984 0 20
0.82549399 -4.6629481 -0.45875362 0 21
0.82672465 -4.6698999 -0.41544628 0 22
0.82753772 -4.6744928 -0.37189126 0 23
0.82497263 -4.6600037 -0.3269743 0 24
0.82811606 -4.6777596 -0.28434497 0 25
0.82564151 -4.6637816 -0.23979937 0 26
0.82945168 -4.6853042 -0.19704928 0 27
0.82994729 -4.6881037 -0.15331751 0 28
0.82644683 -4.6683307 -0.10903217 0 29
0.82838935 -4.6793036 -0.065565668 0 30
0.82881063 -4.6816831 -0.021865103 0 31
0.82774967 -4.6756902 0.021837115 0 32
0.82880044 -4.6816254 0.065598205 0 33
0.82675511 -4.6700721 0.10907283 0 34
0.82775033 -4.6756935 0.15291166 0 35
0.82753605 -4.6744833 0.19659419 0 36
0.82556474 -4.6633482 0.23977709 0 37
0.82788563 -4.6764579 0.28426585 0 38
0.82782787 -4.6761317 0.32810593 0 39
0.82631826 -4.6676044 0.37134323 0 40
0.82809824 -4.677659 0.41613653 0 41
0.82757413 -4.6746984 0.45990962 0 42
0.82776576 -4.6757808 0.50414133 0 43
0.82815629 -4.6779866 0.54861152 0 44
0.82896906 -4.6825781 0.59351987 0 45
0.82983994 -4.6874976 0.63866204 0 46
0.82775307 -4.6757092 0.68157226 0 47
0.82690495 -4.6709185 0.72546232 0 48
0.82840866 -4.6794124 0.77157682 0 49
0.831038 -4.6942649 0.8190977 0 50
0.8276059 -4.6748781 0.86074275 0 51
0.82941347 -4.6850886 0.90789968 0 52
0.82842505 -4.6795049 0.9521997 0 53
0.82958013 -4.6860294 0.99914044 0 54
0.82879686 -4.6816053 1.0439435 0 55
0.82597226 -4.6656499 1.0861607 0 56
0.82721639 -4.6726775 1.1338344 0 57
0.82830906 -4.6788497 1.1816336 0 58
0.82843596 -4.6795669 1.2283356 0 59
0.82975602 -4.6870232 1.27711 0 60
0.82715672 -4.6723404 1.3200108 0 61
0.82709044 -4.6719666 1.3670434 0 62
0.82886344 -4.6819816 1.4174643 0 63
0.45635331 -2.4051237 -0.729792 0 0
0.47527653 -2.5048549 -0.73458904 0 1
0.49105701 -2.5880229 -0.73280829 0 2
0.51133329 -2.6948853 -0.73595417 0 3
0.52903563 -2.7881823 -0.73351979 0 4
0.55224842 -2.9105208 -0.73670512 0 5
0.57533365 -3.032187 -0.737427 0 6
0.5976845 -3.1499829 -0.73496962 0 7
0.62584561 -3.2984009 -0.73716527 0 8
0.64991045 -3.42523 -0.7319653 0 9
0.68635553 -3.6173069 -0.73772204 0 10
0.71900153 -3.7893615 -0.7359789 0 11
0.76004398 -4.0056677 -0.73919207 0 12
0.79823267 -4.206934 -0.73572087 0 13
0.84141231 -4.434504 -0.73284513 0 14
0.85797405 -4.5217896 -0.70388579 0 15
0.85731781 -4.5183311 -0.66011828 0 16
0.85522294 -4.5072904 -0.61549544 0 17
0.85551071 -4.5088072 -0.57278436 0 18
0.85515362 -4.5069251 -0.52974337 0 19
0.85757709 -4.5196977 -0.48841253 0 20
0.85792196 -4.5215149 -0.44584319 0 21
0.85819191 -4.5229378 -0.40328047 0 22
0.85717452 -4.5175757 -0.36021864 0 23
0.85648364 -4.5139346 -0.31744018 0 24
0.85554874 -4.5090075 -0.27470583 0 25
0.85574347 -4.5100336 -0.23241754 0 26
0.8568114 -4.5156622 -0.19034338 0 27
0.85605025 -4.5116506 -0.14787996 0 28
0.85635465 -4.5132551 -0.10564821 0 29
0.85533696 -4.5078917 -0.063306458 0 30
0.85526079 -4.5074902 -0.021099083 0 31
0.85643917 -4.5137005 0.021128153 0 32
0.85381967 -4.4998946 0.063194156 0 33
0.85516006 -4.506959 0.10550084 0 34
0.85663402 -4.5147271 0.14798079 0 35
0.85701489 -4.5167346 0.19038859 0 36
0.85640901 -4.5135412 0.23259829 0 37
0.85478604 -4.5049877 0.27446094 0 38
0.85654128 -4.5142384 0.31746155 0 39
0.8562699 -4.5128083 0.35983849 0 40
0.85633755 -4.5131645 0.40240905 0 41
0.85565096 -4.5095463 0.44466302 0 42
0.85619831 -4.5124307 0.48762727 0 43
0.85409164 -4.501328 0.52908552 0 44
0.8547222 -4.5046515 0.57225645 0 45
0.85278898 -4.494463 0.61374378 0 46
0.85883516 -4.5263281 0.66128659 0 47
0.85506368 -4.5064511 0.70149809 0 48
0.85732824 -4.5183859 0.74670738 0 49
0.85259449 -4.4934378 0.78582549 0 50
0.85515553 -4.5069351 0.83169425 0 51
0.85701978 -4.5167603 0.87725604 0 52
0.85607034 -4.5117564 0.92013818 0 53
0.85535073 -4.5079641 0.96334356 0 54
0.85542953 -4.5083795 1.0075855 0 55
0.85648853 -4.5139604 1.0532196 0 56
0.85407615 -4.5012465 1.0947019 0 57
0.85443956 -4.5031619 1.1398312 0 58
0.85429353 -4.5023923 1.1844971 0 59
0.8570469 -4.5169034 1.2335345 0 60
0.85761791 -4.5199127 1.2798301 0 61
0.85703987 -4.5168662 1.3246437 0 62
0.85694146 -4.5163479 1.3704054 0 63
0.48929739 -2.4161508 -0.7349081 0 0
0.50445038 -2.4909766 -0.73228276 0 1
0.5242188 -2.588593 -0.73473936 0 2
0.54279447 -2.6803195 -0.73374361 0 3
0.5649156 -2.7895536 -0.73565245 0 4
0.58346885 -2.8811698 -0.73103666 0 5
0.61448008 -3.0343032 -0.73972332 0 6
0.63605148 -3.1408226 -0.73460162 0 7
0.6645059 -3.2813306 -0.73512083 0 8
0.69537282 -3.4337516 -0.73555803 0 9
0.7287972 -3.5988014 -0.73571998 0 10
0.76026601 -3.7541943 -0.73090911 0 11
0.80380571 -3.9691935 -0.73422968 0 12
0.84547347 -4.1749487 -0.73189002 0 13
0.88502705 -4.3702645 -0.72397262 0 14
0.88495785 -4.3699226 -0.68188775 0 15
0.88206375 -4.3556318 -0.63788462 0 16
0.88487875 -4.3695321 -0.59812444 0 17
0.88674313 -4.3787384 -0.55760384 0 18
0.88221705 -4.3563886 -0.51328564 0 19
0.88328683 -4.361671 -0.47247368 0 20
0.88713068 -4.380652 -0.43299633 0 21
0.88619035 -4.3760085 -0.3911218 0 22
0.88439488 -4.3671427 -0.34906429 0 23
0.88336998 -4.362082 -0.30750185 0 24
0.88400066 -4.3651958 -0.26658639 0 25
0.88107753 -4.3507619 -0.22475103 0 26
0.88489199 -4.3695974 -0.18463118 0 27
0.88366812 -4.363554 -0.14337106 0 28
0.88090259 -4.3498979 -0.10207012 0 29
0.88265663 -4.3585591 -0.061357096 0 30
0.88482749 -4.3692789 -0.020501511 0 31
0.88356787 -4.3630586 0.020472325 0 32
0.88185 -4.3545761 0.061301023 0 33
0.88119882 -4.3513603 0.10210444 0 34
0.88888681 -4.3893242 0.14421776 0 35
0.88477772 -4.3690333 0.18460736 0 36
0.88377249 -4.3640695 0.22543848 0 37
0.88515466 -4.3708944 0.26693439 0 38
0.88264316 -4.3584924 0.30724883 0 39
0.88472664 -4.3687811 0.34919521 0 40
0.88452399 -4.3677802 0.39038637 0 41
0.88632941 -4.3766952 0.43260524 0 42
0.88757181 -4.3828306 0.47476575 0 43
0.88367045 -4.3635654 0.51413119 0 44
0.88194126 -4.3550267 0.55458438 0 45
0.88449514 -4.3676376 0.5978651 0 46
0.88457656 -4.3680396 0.63970178 0 47
0.88532972 -4.3717589 0.68217427 0 48
0.8817479 -4.3540721 0.72129017 0 49
0.88140398 -4.3523736 0.76299351 0 50
0.88552868 -4.3727417 0.80887884 0 51
0.88241321 -4.3573575 0.84833974 0 52
0.8826949 -4.358748 0.89107949 0 53
0.88295001 -4.3600078 0.93397522 0 54
0.88280439 -4.3592887 0.97661728 0 55
0.88192731 -4.3549581 1.0185736 0 56
0.88263178 -4.3584366 1.0625297 0 57
0.88195837 -4.3551111 1.1050185 0 58
0.88228744 -4.3567362 1.148945 0 59
0.88474196 -4.3688564 1.1959845 0 60
0.87968528 -4.3438869 1.2329574 0 61
0.88431168 -4.3667316 1.2837063 0 62
0.88329184 -4.3616958 1.3266745 0 63
0.51999694 -2.4147289 -0.73636478 0 0
0.53773952 -2.4971206 -0.73597717 0 1
0.55794495 -2.5909495 -0.73729992 0 2
0.57729352 -2.6807992 -0.7357626 0 3
0.59824926 -2.7781122 -0.7345196 0 4
0.62145889 -2.8858914 -0.73411804 0 5
0.64394259 -2.9902999 -0.73087102 0 6
0.67510492 -3.1350098 -0.73512805 0 7
0.70390767 -3.2687621 -0.73418874 0 8
0.73807716 -3.4274361 -0.73609364 0 9
0.77093792 -3.5800328 -0.7337656 0 10
0.80844277 -3.7541952 -0.73278934 0 11
0.85233724 -3.9580297 -0.73404783 0 12
0.90028471 -4.180685 -0.73478079 0 13
0.90930218 -4.2225599 -0.7013033 0 14
0.90876198 -4.2200518 -0.66019547 0 15
0.90857869 -4.2192001 -0.61949354 0 16
0.91167033 -4.2335572 -0.58100206 0 17
0.90862197 -4.2194014 -0.53869539 0 18
0.91037655 -4.2275491 -0.49938649 0 19
0.90951097 -4.2235293 -0.45868641 0 20
0.90773702 -4.215292 -0.41772336 0 21
0.90962648 -4.2240658 -0.37851247 0 22
0.91093576 -4.2301459 -0.33898386 0 23
0.91163141 -4.2333765 -0.29919645 0 24
0.90872753 -4.2198915 -0.25837541 0 25
0.90784824 -4.2158084 -0.21833979 0 26
0.90946543 -4.2233181 -0.17890936 0 27
0.91004455 -4.2260075 -0.13920891 0 28
0.9091261 -4.2217422 -0.099317767 0 29
0.91085702 -4.2297802 -0.059697386 0 30
0.91120929 -4.2314162 -0.019905701 0 31
0.91124535 -4.2315836 0.019906487 0 32
0.90887374 -4.2205701 0.059567396 0 33
0.90708375 -4.2122583 0.099094652 0 34
0.91027677 -4.2270861 0.13924444 0 35
0.91039652 -4.2276421 0.17909253 0 36
0.90872967 -4.2199016 0.21855178 0 37
0.9130007 -4.2397346 0.25959036 0 38
0.90935272 -4.2227945 0.29844859 0 39
0.91322696 -4.2407856 0.33983648 0 40
0.90685844 -4.2112117 0.37736064 0 41
0.91116297 -4.2312012 0.4192999 0 42
0.90876645 -4.2200723 0.45831096 0 43
0.91049582 -4.2281027 0.49945191 0 44
0.91448241 -4.2466159 0.54216993 0 45
0.90986979 -4.2251959 0.57985461 0 46
0.91038716 -4.2275982 0.62072659 0 47
0.9067449 -4.2106848 0.65873009 0 48
0.90929574 -4.2225299 0.70129836 0 49
0.91143608 -4.2324691 0.74388218 0 50
0.91172391 -4.2338061 0.78519273 0 51
0.91043311 -4.2278118 0.82523549 0 52
0.91119856 -4.2313662 0.86726326 0 53
0.91231865 -4.2365675 0.90986693 0 54
0.90910268 -4.2216334 0.94821084 0 55
0.91052592 -4.2282429 0.99148017 0 56
0.90895534 -4.2209496 1.0316589 0 57
0.9105978 -4.2285767 1.0756726 0 58
0.90884322 -4.2204289 1.1158613 0 59
0.91022784 -4.2268586 1.1600885 0 60
0.9121902 -4.235971 1.2054194 0 61
0.91259259 -4.2378397 1.2490199 0 62
0.91019267 -4.2266951 1.2889189 0 63
0.5509395 -2.4138112 -0.73809505 0 0
0.56848097 -2.4906647 -0.73607898 0 1
0.59117246 -2.5900822 -0.73906577 0 2
0.61105275 -2.6771829 -0.73677665 0 3
0.63365287 -2.7762001 -0.73601848 0 4
0.65455776 -2.86779 -0.73150551 0 5
0.68511218 -3.0016568 -0.73565024 0 6
0.71515387 -3.1332774 -0.73672825 0 7
0.74717897 -3.2735877 -0.73728049 0 8
0.78092629 -3.4214437 -0.73681337 0 9
0.81318682 -3.5627856 -0.7322247 0 10
0.85635626 -3.7519221 -0.7343455 0 11
0.89985806 -3.9425149 -0.73316717 0 12
0.9357872 -4.0999298 -0.72255534 0 13
0.93692935 -4.1049342 -0.68362921 0 14
0.93420601 -4.0930028 -0.64206821 0 15
0.94035381 -4.1199374 -0.60657096 0 16
0.93678826 -4.1043158 -0.56480354 0 17
0.93684417 -4.1045609 -0.52546465 0 18
0.93300146 -4.0877252 -0.48418817 0 19
0.93357706 -4.0902467 -0.44542462 0 20
0.93367106 -4.0906587 -0.40647954 0 21
0.93614346 -4.101491 -0.36853236 0 22
0.93675905 -4.104188 -0.32978833 0 23
0.9357518 -4.0997748 -0.29054537 0 24
0.93466604 -4.0950179 -0.25141433 0 25
0.93720049 -4.106122 -0.21323979 0 26
0.93325585 -4.0888395 -0.17368555 0 27
0.93569696 -4.099535 -0.13541155 0 28
0.93622625 -4.1018538 -0.096760869 0 29
0.93593436 -4.100575 -0.058031876 0 30
0.93501061 -4.0965276 -0.019323776 0 31
0.93267196 -4.0862813 0.019275442 0 32
0.9342345 -4.0931273 0.057926476 0 33
0.93667239 -4.1038084 0.096806973 0 34
0.93422031 -4.0930653 0.13519785 0 35
0.93697673 -4.1051416 0.17437804 0 36
0.93486375 -4.0958843 0.21270812 0 37
0.93475765 -4.0954194 0.25143898 0 38
0.93868631 -4.1126318 0.29145652 0 39
0.93700475 -4.1052647 0.32987484 0 40
0.93601876 -4.1009445 0.36848325 0 41
0.936418 -4.102694 0.40767545 0 42
0.93599337 -4.1008334 0.44657749 0 43
0.93691248 -4.1048603 0.48621783 0 44
0.93337309 -4.0893536 0.52351779 0 45
0.93659031 -4.1034489 0.56468415 0 46
0.93470955 -4.0952086 0.60293019 0 47
0.93402094 -4.0921917 0.64194095 0 48
0.93558002 -4.0990224 0.68264467 0 49
0.93506002 -4.0967441 0.72199392 0 50
0.9342649 -4.0932603 0.76120043 0 51
0.93708885 -4.1056333 0.80357563 0 52
0.93247551 -4.0854206 0.8396368 0 53
0.93620211 -4.101748 0.88331795 0 54
0.93468207 -4.0950885 0.92229962 0 55
0.93313724 -4.0883198 0.96128756 0 56
0.9362911 -4.102138 1.0053576 0 57
0.93695289 -4.1050372 1.0470982 0 58
0.93646127 -4.1028833 1.0877452 0 59
0.93156272 -4.0814214 1.1232314 0 60
0.93352765 -4.0900302 1.1670678 0 61
0.93502283 -4.096581 1.2106838 0 62
0.93505603 -4.0967269 1.2526969 0 63
0.58018249 -2.4052191 -0.73759353 0 0
0.59892184 -2.4829054 -0.73590672 0 1
0.61859995 -2.5644836 -0.73387641 0 2
0.64181113 -2.6607084 -0.73435915 0 3
0.66492504 -2.7565298 -0.73291582 0 4
0.69342953 -2.8746989 -0.73538721 0 5
0.71972191 -2.9836972 -0.7333622 0 6
0.7518841 -3.1170297 -0.73502624 0 7
0.78581637 -3.2577 -0.73582286 0 8
0.82082677 -3.4028399 -0.73492503 0 9
0.85868245 -3.5597754 -0.7337206 0 10
0.90466666 -3.7504089 -0.73617095 0 11
0.94969761 -3.9370904 -0.73427457 0 12
0.95909268 -3.9760387 -0.70274657 0 13
0.95704156 -3.9675355 -0.66265684 0 14
0.95711815 -3.9678531 -0.62423503 0 15
0.95872027 -3.9744947 -0.58684897 0 16
0.96134877 -3.9853916 -0.55002326 0 17
0.95791614 -3.9711614 -0.50985628 0 18
0.95564502 -3.9617462 -0.47062236 0 19
0.95936781 -3.9771793 -0.43436351 0 20
0.95949441 -3.977704 -0.39639792 0 21
0.95766234 -3.9701092 -0.35775831 0 22
0.95764434 -3.9700344 -0.31993058 0 23
0.95914727 -3.976265 -0.28260684 0 24
0.95411617 -3.9554079 -0.24354485 0 25
0.95820206 -3.9723465 -0.20688879 0 26
0.95798725 -3.9714561 -0.16918693 0 27
0.95935959 -3.9771452 -0.1317486 0 28
0.95764071 -3.9700193 -0.093921632 0 29
0.95777428 -3.9705732 -0.056354482 0 30
0.96055585 -3.9821043 -0.01883832 0 31
0.95808649 -3.9718673 0.018789891 0 32
0.9586603 -3.9742463 0.056406617 0 33
0.95851636 -3.9736495 0.094007514 0 34
0.95949847 -3.977721 0.13176768 0 35
0.96101636 -3.9840136 0.1697219 0 36
0.96220404 -3.9889371 0.20775287 0 37
0.95665431 -3.9659302 0.24419273 0 38
0.95874548 -3.9745994 0.28248847 0 39
0.95898169 -3.9755788 0.32037735 0 40
0.95595789 -3.963043 0.35712156 0 41
0.96197593 -3.9879916 0.39742312 0 42
0.96069413 -3.9826777 0.434964 0 43
0.95838141 -3.9730902 0.47196993 0 44
0.95616698 -3.9639099 0.50892526 0 45
0.95771265 -3.9703176 0.54794288 0 46
0.96038938 -3.9814143 0.58787072 0 47
0.9586032 -3.9740095 0.62520361 0 48
0.95897716 -3.9755597 0.66399705 0 49
0.96003509 -3.9799454 0.70343709 0 50
0.95418978 -3.955713 0.73774773 0 51
0.96162832 -3.9865503 0.78252339 0 52
0.95656627 -3.9655652 0.81735969 0 53
0.95657796 -3.9656136 0.85646951 0 54
0.95544726 -3.9609261 0.8946619 0 55
0.95716041 -3.9680283 0.93570006 0 56
0.95452797 -3.9571152 0.9726184 0 57
0.95659119 -3.9656684 1.0144721 0 58
0.95714319 -3.967957 1.0550144 0 59
0.95969206 -3.9785235 1.0980779 0 60
0.95651418 -3.9653492 1.1347611 0 61
0.9562481 -3.964246 1.1749604 0 62
0.95632136 -3.9645498 1.2157837 0 63
0.60740292 -2.3888221 -0.73479998 0 0
0.63125241 -2.4826183 -0.73806649 0 1
0.64937031 -2.5538733 -0.73306966 0 2
0.67207855 -2.6431811 -0.73174721 0 3
0.70037144 -2.7544529 -0.73459786 0 4
0.73341721 -2.8844166 -0.74012423 0 5
0.75811601 -2.9815533 -0.735071 0 6
0.79136193 -3.1123042 -0.73615092 0 7
0.82536906 -3.2460492 -0.73542809 0 8
0.8641181 -3.3984432 -0.73621464 0 9
0.90836763 -3.5724697 -0.73858351 0 10
0.94844878 -3.7301025 -0.73441875 0 11
0.97698569 -3.842334 -0.7187885 0 12
0.97940385 -3.8518441 -0.68287271 0 13
0.98330027 -3.8671682 -0.64786398 0 14
0.98205876 -3.8622854 -0.60948056 0 15
0.97828573 -3.8474467 -0.56982297 0 16
0.98102158 -3.8582065 -0.53409487 0 17
0.97877407 -3.8493676 -0.49572694 0 18
0.98270315 -3.86482 -0.460509 0 19
0.97913808 -3.8507988 -0.42184404 0 20
0.97822982 -3.8472271 -0.38456488 0 21
0.98008746 -3.8545327 -0.34840307 0 22
0.98132539 -3.8594015 -0.31196389 0 23
0.97847182 -3.8481786 -0.27433771 0 24
0.97911155 -3.8506947 -0.2378207 0 25
0.98143983 -3.8598516 -0.20164309 0 26
0.98192441 -3.8617573 -0.16501558 0 27
0.98191887 -3.8617356 -0.12831576 0 28
0.98135269 -3.8595085 -0.091585763 0 29
0.97829968 -3.8475015 -0.054774322 0 30
0.97878498 -3.8494103 -0.018266134 0 31
0.97575939 -3.8375111 0.01820967 0 32
0.98070031 -3.8569431 0.054908734 0 33
0.980753 -3.8571503 0.091529801 0 34
0.98041457 -3.8558192 0.12811917 0 35
0.98306298 -3.866235 0.16520692 0 36
0.98049784 -3.8561468 0.20144956 0 37
0.97969168 -3.8529761 0.23796162 0 38
0.98331124 -3.8672113 0.27569455 0 39
0.98108989 -3.858475 0.31188902 0 40
0.97968048 -3.8529322 0.34825838 0 41
0.9818278 -3.8613772 0.38597932 0 42
0.98050934 -3.8561921 0.42243484 0 43
0.98299754 -3.8659775 0.46064693 0 44
0.97852302 -3.8483801 0.49559978 0 45
0.98061168 -3.8565943 0.53387171 0 46
0.9826088 -3.8644488 0.57234102 0 47
0.97880691 -3.8494964 0.60746241 0 48
0.97915459 -3.8508639 0.64513254 0 49
0.97774822 -3.8453329 0.68171835 0 50
0.97868425 -3.8490143 0.72003818 0 51
0.98163068 -3.8606019 0.76011276 0 52
0.98125118 -3.8591094 0.79784429 0 53
0.98353595 -3.8680949 0.83795667 0 54
0.98418224 -3.8706369 0.8769353 0 55
0.98203856 -3.862206 0.91352463 0 56
0.98165274 -3.8606887 0.95181268 0 57
0.97861558 -3.8487442 0.98756498 0 58
0.9801774 -3.8548865 1.0280776 0 59
0.97832119 -3.8475864 1.0651789 0 60
0.98152179 -3.8601737 1.1080332 0 61
0.97985965 -3.8536367 1.1456615 0 62
0.9799937 -3.8541641 1.1855382 0 63
0.63315046 -2.3677909 -0.73067039 0 0
0.65792042 -2.460423 -0.73381758 0 1
0.68308651 -2.5545366 -0.73561555 0 2
0.70633405 -2.6414754 -0.73362398 0 3
0.73760355 -2.7584138 -0.73801732 0 4
0.76104969 -2.8460953 -0.73263711 0 5
0.78840238 -2.948386 -0.72922891 0 6
0.828848 -3.0996404 -0.73551065 0 7
0.86905384 -3.2499981 -0.73868799 0 8
0.90669549 -3.3907664 -0.73691118 0 9
0.95221055 -3.5609789 -0.73857272 0 10
0.99835724 -3.7335534 -0.73745954 0 11
1.0033456 -3.7522085 -0.70418346 0 12
1.0027685 -3.7500505 -0.66696185 0 13
1.0028654 -3.7504129 -0.63032234 0 14
1.0050861 -3.7587175 -0.59504253 0 15
1.0010736 -3.7437119 -0.5562405 0 16
1.0001485 -3.7402525 -0.51942962 0 17
1.0002253 -3.7405396 -0.48325932 0 18
1.0035645 -3.753027 -0.44862488 0 19
1.0046245 -3.7569914 -0.41288975 0 20
0.99858177 -3.7343931 -0.37448522 0 21
1.0002437 -3.740608 -0.33919173 0 22
1.0008461 -3.7428613 -0.30351555 0 23
1.001147 -3.7439866 -0.26776722 0 24
1.0023713 -3.7485652 -0.23225681 0 25
1.0002913 -3.7407863 -0.19605075 0 26
1.0022724 -3.7481952 -0.16067748 0 27
1.0039934 -3.7546313 -0.12515771 0 28
1.0011886 -3.7441423 -0.089133531 0 29
1.0020697 -3.7474372 -0.053521145 0 30
1.0018573 -3.7466426 -0.017835593 0 31
1.0041043 -3.7550459 0.017875595 0 32
1.0020404 -3.7473276 0.053519577 0 33
1.0008734 -3.7429636 0.089105472 0 34
1.0052873 -3.75947 0.125319 0 35
0.99953008 -3.7379396 0.16023785 0 36
1.0023758 -3.7485819 0.19645929 0 37
1.0066472 -3.7645557 0.23324758 0 38
1.0028497 -3.7503541 0.2682226 0 39
1.0007156 -3.7423732 0.30347598 0 40
1.0021627 -3.7477851 0.33984253 0 41
1.0035689 -3.7530437 0.3763555 0 42
1.0000802 -3.7399971 0.4110221 0 43
1.0029322 -3.7506623 0.44834223 0 44
1.0019079 -3.7468321 0.4840723 0 45
1.0014635 -3.7451701 0.52011257 0 46
1.0049837 -3.7583342 0.55841309 0 47
0.99973851 -3.7387192 0.59187657 0 48
0.99974656 -3.738749 0.628362 0 49
1.0021818 -3.7478564 0.66657162 0 50
1.0015404 -3.7454576 0.7029165 0 51
1.0038044 -3.7539244 0.74148327 0 52
0.99942094 -3.7375314 0.77519101 0 53
1.0008703 -3.7429519 0.81345117 0 54
0.99949908 -3.7378237 0.84956533 0 55
1.0010463 -3.7436099 0.88831753 0 56
1.0004817 -3.7414987 0.92539072 0 57
1.0016072 -3.7457075 0.96421379 0 58
1.0015899 -3.7456429 1.0021518 0 59
1.0015683 -3.7455618 1.040265 0 60
1.0062702 -3.7631457 1.0836518 0 61
1.0023773 -3.7485874 1.1180108 0 62
1.0023241 -3.7483888 1.1567055 0 63
0.66808295 -2.3807344 -0.73714399 0 0
0.68817592 -2.4523365 -0.73387414 0 1
0.71099955 -2.533669 -0.73206866 0 2
0.7401768 -2.6376431 -0.7350319 0 3
0.7699883 -2.7438774 -0.73660558 0 4
0.79949093 -2.8490109 -0.73586267 0 5
0.83347863 -2.9701273 -0.73708534 0 6
0.86469817 -3.0813789 -0.73364496 0 7
0.90161574 -3.2129359 -0.73272866 0 8
0.94399327 -3.3639495 -0.73355031 0 9
0.99279141 -3.5378432 -0.73625058 0 10
1.0232503 -3.6463847 -0.7226724 0 11
1.0222247 -3.6427295 -0.68594444 0 12
1.0204452 -3.6363885 -0.64892924 0 13
1.0200251 -3.6348913 -0.61296862 0 14
1.0227314 -3.6445353 -0.57891345 0 15
1.0205244 -3.6366706 -0.5421598 0 16
1.0213798 -3.639719 -0.50717384 0 17
1.0189812 -3.6311717 -0.47071272 0 18
1.0189998 -3.6312375 -0.43553144 0 19
1.0231198 -3.6459196 -0.40203527 0 20
1.0215312 -3.6402586 -0.36627734 0 21
1.0200914 -3.6351275 -0.33073935 0 22
1.0225978 -3.6440589 -0.29650074 0 23
1.0207249 -3.6373854 -0.26102108 0 24
1.0223424 -3.6431491 -0.22648714 0 25
1.0237634 -3.6482131 -0.19184433 0 26
1.0219717 -3.6418281 -0.1566446 0 27
1.0183264 -3.6288381 -0.12137271 0 28
1.0201027 -3.6351681 -0.086831324 0 29
1.0191529 -3.631783 -0.052044414 0 30
1.0235661 -3.6475098 -0.017422277 0 31
1.0238041 -3.6483576 0.017426327 0 32
1.0195025 -3.633029 0.052062269 0 33
1.0225074 -3.6437373 0.087036021 0 34
1.0209187 -3.6380761 0.1216817 0 35
1.0222259 -3.6427338 0.15668356 0 36
1.0226914 -3.6443925 0.19164342 0 37
1.0194954 -3.6330037 0.22585642 0 38
1.0238274 -3.6484408 0.26181445 0 39
1.0216302 -3.6406109 0.29622018 0 40
1.0173706 -3.6254318 0.3298572 0 41
1.0220032 -3.6419404 0.36644658 0 42
1.0225071 -3.6437359 0.40179449 0 43
1.0191854 -3.6318991 0.4356108 0 44
1.0219693 -3.6418195 0.47209302 0 45
1.0252106 -3.6533701 0.509076 0 46
1.0194867 -3.6329725 0.54160851 0 47
1.0200839 -3.6351008 0.57741487 0 48
1.0219258 -3.6416645 0.61411077 0 49
1.0238922 -3.6486719 0.65112126 0 50
1.0185297 -3.6295624 0.68346506 0 51
1.0226543 -3.6442606 0.72225147 0 52
1.0245908 -3.6511614 0.75983286 0 53
1.0196563 -3.6335773 0.79234594 0 54
1.0177858 -3.6269114 0.82713819 0 55
1.0200219 -3.6348798 0.86542791 0 56
1.0210416 -3.638514 0.90295637 0 57
1.0220283 -3.64203 0.94068921 0 58
1.0207711 -3.6375499 0.97651583 0 59
1.0244567 -3.6506839 1.0173359 0 60
1.0189736 -3.6311445 1.0491689 0 61
1.0242083 -3.6497982 1.0922207 0 62
1.0226407 -3.6442122 1.1283531 0 63
0.69896525 -2.3779891 -0.73889929 0 0
0.72242248 -2.457794 -0.73810989 0 1
0.74559563 -2.5366328 -0.7355184 0 2
0.77078408 -2.6223278 -0.73334974 0 3
0.79997975 -2.7216561 -0.73322558 0 4
0.83494914 -2.8406274 -0.73629344 0 5
0.86975318 -2.9590361 -0.73693126 0 6
0.90404058 -3.0756872 -0.73488104 0 7
0.94202232 -3.2049072 -0.73348391 0 8
0.98503959 -3.3512585 -0.73336875 0 9
1.0351365 -3.5216961 -0.73548347 0 10
1.0410955 -3.5419693 -0.70446241 0 11
1.0368366 -3.5274799 -0.66659278 0 12
1.0429425 -3.5482533 -0.63544166 0 13
1.0393627 -3.5360742 -0.5984146 0 14
1.0406249 -3.5403683 -0.56435704 0 15
1.0376861 -3.5303705 -0.52817476 0 16
1.0372027 -3.5287256 -0.49344742 0 17
1.0348916 -3.5208631 -0.45802829 0 18
1.039284 -3.5358067 -0.42558604 0 19
1.0405711 -3.5401855 -0.39175731 0 20
1.0396465 -3.5370395 -0.35715091 0 21
1.0384836 -3.5330834 -0.32259241 0 22
1.0413265 -3.5427556 -0.28927812 0 23
1.0357049 -3.5236297 -0.25375265 0 24
1.0368599 -3.5275593 -0.22007714 0 25
1.0388689 -3.5343943 -0.18651672 0 26
1.0389991 -3.5348372 -0.15258065 0 27
1.0405214 -3.5400164 -0.11882088 0 28
1.0408814 -3.5412412 -0.084887058 0 29
1.0409023 -3.5413122 -0.050927512 0 30
1.0356481 -3.5234368 -0.016889196 0 31
1.0416363 -3.5438097 0.016986851 0 32
1.0396619 -3.5370922 0.050866824 0 33
1.0417768 -3.5442874 0.084960081 0 34
1.043777 -3.5510924 0.11919265 0 35
1.0411173 -3.5420437 0.15289171 0 36
1.0408403 -3.5411012 0.18687066 0 37
1.0415721 -3.543591 0.22107734 0 38
1.041224 -3.5424068 0.25510487 0 39
1.0396086 -3.536911 0.2888009 0 40
1.0402025 -3.5389314 0.32312638 0 41
1.0388414 -3.5343006 0.35687432 0 42
1.0404127 -3.5396461 0.39169765 0 43
1.040549 -3.5401103 0.42610404 0 44
1.0424995 -3.5467463 0.46139544 0 45
1.0394768 -3.5364623 0.49452931 0 46
1.0380594 -3.5316401 0.52836472 0 47
1.0397726 -3.5374689 0.56389487 0 48
1.0370994 -3.5283742 0.59711152 0 49
1.0363914 -3.5259652 0.63145018 0 50
1.0411148 -3.5420351 0.66934329 0 51
1.0402485 -3.539088 0.70388931 0 52
1.0360674 -3.524863 0.7361449 0 53
1.0415535 -3.5435276 0.77544373 0 54
1.0364587 -3.5261946 0.80701464 0 55
1.0378547 -3.5309436 0.84365648 0 56
1.0415819 -3.5436242 0.88251966 0 57
1.040585 -3.5402331 0.91763192 0 58
1.0416162 -3.543741 0.95469868 0 59
1.0392878 -3.5358195 0.98881316 0 60
1.037642 -3.53022 1.0236175 0 61
1.0408094 -3.5409961 1.0634106 0 62
1.039405 -3.5362179 1.0987892 0 63
0.72833544 -2.3698149 -0.73908633 0 0
0.74937236 -2.4382637 -0.73495638 0 1
0.77355278 -2.5169406 -0.73251116 0 2
0.80513382 -2.6196969 -0.73532712 0 3
0.84245884 -2.741143 -0.74121022 0 4
0.86929417 -2.8284581 -0.73585421 0 5
0.90518028 -2.9452221 -0.73620737 0 6
0.93903434 -3.0553746 -0.73273116 0 7
0.98091197 -3.1916335 -0.73315114 0 8
1.0304455 -3.3528028 -0.73642379 0 9
1.0534987 -3.4278121 -0.71852756 0 10
1.0559802 -3.4358859 -0.68589419 0 11
1.0583322 -3.4435387 -0.65314013 0 12
1.0594484 -3.4471707 -0.61962539 0 13
1.0607045 -3.4512577 -0.5862239 0 14
1.0564214 -3.4373217 -0.5499599 0 15
1.0595458 -3.4474874 -0.51768482 0 16
1.0582049 -3.4431248 -0.4832603 0 17
1.0591756 -3.4462833 -0.44998652 0 18
1.0571382 -3.4396539 -0.41554588 0 19
1.0601356 -3.4494069 -0.38312533 0 20
1.0622994 -3.4564474 -0.35030565 0 21
1.0601699 -3.4495184 -0.31612879 0 22
1.061444 -3.4536643 -0.28304785 0 23
1.0591717 -3.4462705 -0.24910074 0 24
1.0611625 -3.4527478 -0.21620753 0 25
1.0581002 -3.4427841 -0.18235509 0 26
1.0590551 -3.4458911 -0.14929214 0 27
1.05606 -3.4361455 -0.11576157 0 28
1.0568652 -3.4387658 -0.082735889 0 29
1.0599558 -3.4488218 -0.049781084 0 30
1.0592934 -3.4466665 -0.016582388 0 31
1.0531108 -3.4265499 0.016485605 0 32
1.0573759 -3.4404275 0.049659919 0 33
1.0609297 -3.4519906 0.083054073 0 34
1.0637261 -3.4610889 0.1166019 0 35
1.0566418 -3.4380388 0.14895193 0 36
1.0579864 -3.4424136 0.18233548 0 37
1.0569592 -3.4390714 0.21535113 0 38
1.0574635 -3.4407125 0.24869899 0 39
1.0587883 -3.4450228 0.28233966 0 40
1.0586185 -3.4444709 0.31566623 0 41
1.0555236 -3.4344008 0.34807125 0 42
1.057544 -3.4409742 0.38218874 0 43
1.0619806 -3.45541 0.41744938 0 44
1.058001 -3.4424615 0.44948751 0 45
1.0576891 -3.4414465 0.48302472 0 46
1.0587461 -3.4448857 0.51729411 0 47
1.0549643 -3.4325807 0.54920137 0 48
1.0561235 -3.4363523 0.58369213 0 49
1.0581112 -3.4428198 0.61884332 0 50
1.0621719 -3.4560323 0.65550983 0 51
1.0587839 -3.4450088 0.68771529 0 52
1.0562205 -3.4366682 0.72038394 0 53
1.0580751 -3.4427023 0.75616974 0 54
1.0640097 -3.4620118 0.79525983 0 55
1.0620035 -3.4554846 0.82868439 0 56
1.0575753 -3.4410765 0.86015439 0 57
1.0623146 -3.456497 0.89924532 0 58
1.0588238 -3.4451385 0.9315719 0 59
1.0594063 -3.4470336 0.96755362 0 60
1.0559366 -3.4357443 0.9999128 0 61
1.0626081 -3.4574518 1.0421664 0 62
1.0542166 -3.4301479 1.0697777 0 63
0.75320357 -2.3475435 -0.73497331 0 0
0.77821207 -2.4254887 -0.73393458 0 1
0.80457932 -2.5076687 -0.73263669 0 2
0.8331874 -2.5968328 -0.73172975 0 3
0.8687681 -2.7077286 -0.735008 0 4
0.90814 -2.8304408 -0.73921937 0 5
0.94376069 -2.9414616 -0.73811233 0 6
0.97678792 -3.044399 -0.73292404 0 7
1.0154808 -3.1649945 -0.72984505 0 8
1.0639005 -3.3159065 -0.73113787 0 9
1.077913 -3.35958 -0.70694989 0 10
1.0800462 -3.3662286 -0.67458886 0 11
1.077125 -3.3571239 -0.63921356 0 12
1.0760837 -3.3538785 -0.60518891 0 13
1.0743138 -3.348362 -0.57094699 0 14
1.0760788 -3.3538632 -0.53868324 0 15
1.0761654 -3.3541331 -0.50561535 0 16
1.0754015 -3.3517525 -0.47225603 0 17
1.0819592 -3.372191 -0.44201592 0 18
1.0808704 -3.3687975 -0.40856048 0 19
1.0773416 -3.3577988 -0.37439355 0 20
1.0765934 -3.3554673 -0.34138736 0 21
1.0772971 -3.3576605 -0.30890119 0 22
1.0753528 -3.3516006 -0.27574602 0 23
1.0727073 -3.3433552 -0.24259698 0 24
1.0752033 -3.3511345 -0.2106566 0 25
1.0763335 -3.3546572 -0.1783748 0 26
1.0756686 -3.3525848 -0.14581169 0 27
1.0755552 -3.3522313 -0.11337154 0 28
1.0772554 -3.3575304 -0.08109396 0 29
1.075361 -3.3516262 -0.048565332 0 30
1.0781759 -3.3603995 -0.016229903 0 31
1.0747348 -3.3496742 0.016178105 0 32
1.0741597 -3.3478823 0.04851108 0 33
1.0769168 -3.3564751 0.081068471 0 34
1.0762368 -3.3543561 0.1134434 0 35
1.0763135 -3.3545949 0.14589912 0 36
1.0753083 -3.3514619 0.17820491 0 37
1.0727323 -3.3434331 0.21017247 0 38
1.0753617 -3.3516283 0.24319729 0 39
1.0762092 -3.3542695 0.2759656 0 40
1.0762244 -3.3543172 0.30859363 0 41
1.0771854 -3.3573122 0.34157506 0 42
1.079833 -3.3655643 0.37525937 0 43
1.075768 -3.3528945 0.4066318 0 44
1.076152 -3.3540914 0.43964347 0 45
1.0766491 -3.3556406 0.47280383 0 46
1.0734397 -3.3456378 0.50433475 0 47
1.0788624 -3.3625393 0.54007673 0 48
1.0769436 -3.3565588 0.57234466 0 49
1.0762603 -3.354429 0.60528827 0 50
1.0749254 -3.3502686 0.63790828 0 51
1.0740678 -3.3475955 0.67085487 0 52
1.0760816 -3.3538723 0.7057488 0 53
1.0753722 -3.3516612 0.7390216 0 54
1.079522 -3.3645949 0.77587277 0 55
1.0780228 -3.3599224 0.80888474 0 56
1.0785056 -3.3614271 0.84349591 0 57
1.0776178 -3.35866 0.87717307 0 58
1.0776753 -3.3588395 0.91175079 0 59
1.0797153 -3.3651974 0.94823784 0 60
1.0799122 -3.3658111 0.98335028 0 61
1.074789 -3.3498435 1.0136374 0 62
1.07741 -3.3580122 1.0513328 0 63
0.77952087 -2.3306601 -0.73263305 0 0
0.81260908 -2.4295893 -0.73814315 0 1
0.84018779 -2.5120456 -0.73687816 0 2
0.87059087 -2.6029468 -0.73641336 0 3
0.89779258 -2.6842761 -0.73158324 0 4
0.93711019 -2.8018303 -0.7347011 0 5
0.98071301 -2.9321969 -0.73875779 0 6
1.0206529 -3.0516117 -0.73762619 0 7
1.0600255 -3.1693301 -0.73379517 0 8
1.0907594 -3.2612205 -0.72198272 0 9
1.0902653 -3.259743 -0.68871039 0 10
1.0891072 -3.2562802 -0.65518957 0 11
1.0909581 -3.2618144 -0.6235733 0 12
1.0923951 -3.2661109 -0.59173083 0 13
1.0953231 -3.2748654 -0.56066889 0 14
1.088647 -3.2549047 -0.5248993 0 15
1.0931426 -3.2683458 -0.4946723 0 16
1.0938327 -3.2704091 -0.46265501 0 17
1.0928206 -3.2673831 -0.43000692 0 18
1.0955195 -3.2754526 -0.39884341 0 19
1.0918696 -3.2645397 -0.36546454 0 20
1.0956243 -3.2757657 -0.33462384 0 21
1.0901664 -3.2594476 -0.3010762 0 22
1.0932882 -3.2687812 -0.27001783 0 23
1.0917932 -3.2643113 -0.23781765 0 24
1.0920211 -3.2649927 -0.20607013 0 25
1.0939835 -3.27086 -0.17462119 0 26
1.0935836 -3.2696643 -0.14277935 0 27
1.090963 -3.2618291 -0.11075948 0 28
1.0972314 -3.2805707 -0.07955502 0 29
1.0892311 -3.2566512 -0.047379632 0 30
1.0951066 -3.2742181 -0.015877506 0 31
1.0957233 -3.2760615 0.015886446 0 32
1.0967222 -3.2790484 0.047705479 0 33
1.0875565 -3.2516441 0.07885354 0 34
1.0980058 -3.282886 0.1114745 0 35
1.0913005 -3.2628381 0.14248125 0 36
1.0932156 -3.2685642 0.17449862 0 37
1.0924474 -3.2662673 0.20615058 0 38
1.0857021 -3.2460997 0.23649086 0 39
1.0909269 -3.2617211 0.26943463 0 40
1.0933373 -3.2689281 0.30195192 0 41
1.0905479 -3.2605879 0.33307341 0 42
1.0913973 -3.2631276 0.36530647 0 43
1.0929717 -3.2678347 0.39791578 0 44
1.0900545 -3.2591128 0.42891851 0 45
1.0940714 -3.2711229 0.46275601 0 46
1.0926983 -3.2670176 0.49447125 0 47
1.0882922 -3.2538438 0.52472824 0 48
1.0914212 -3.2631991 0.55867159 0 49
1.095239 -3.2746139 0.59327137 0 50
1.0959831 -3.2768385 0.62644553 0 51
1.0936162 -3.2697618 0.65790224 0 52
1.0924082 -3.2661498 0.69006401 0 53
1.0925822 -3.2666705 0.72318929 0 54
1.0885463 -3.2546031 0.75353843 0 55
1.0938432 -3.2704403 0.79052079 0 56
1.0885127 -3.2545028 0.81996173 0 57
1.0939971 -3.2709007 0.85770166 0 58
1.0880013 -3.2529738 0.88657838 0 59
1.0920184 -3.2649844 0.92371392 0 60
1.091115 -3.2622836 0.95695138 0 61
1.0879517 -3.2528257 0.98825389 0 62
1.0935713 -3.2696276 1.0277935 0 63
0.80986232 -2.325907 -0.73421383 0 0
0.83910173 -2.4098818 -0.73523498 0 1
0.86771733 -2.4920652 -0.73409152 0 2
0.9037351 -2.5955074 -0.7373969 0 3
0.93429071 -2.6832626 -0.73438257 0 4
0.97228158 -2.7923715 -0.73530024 0 5
1.0109119 -2.903317 -0.73455793 0 6
1.057273 -3.0364652 -0.73705178 0 7
1.098532 -3.1549599 -0.73354006 0 8
1.1125972 -3.1953549 -0.7103762 0 9
1.1078676 -3.1817715 -0.67506397 0 10
1.1110287 -3.1908503 -0.64472467 0 11
1.1063012 -3.1772728 -0.60996568 0 12
1.1053184 -3.1744504 -0.5775432 0 13
1.1072905 -3.1801143 -0.5467369 0 14
1.1094327 -3.1862664 -0.51599139 0 15
1.1085048 -3.1836014 -0.48387247 0 16
1.1081686 -3.1826363 -0.45213157 0 17
1.1141057 -3.1996872 -0.42286873 0 18
1.1116478 -3.1926284 -0.39039305 0 19
1.1044767 -3.1720331 -0.35660189 0 20
1.106232 -3.1770742 -0.32590729 0 21
1.1069391 -3.179105 -0.29488996 0 22
1.1131654 -3.1969867 -0.2651979 0 23
1.1044207 -3.1718719 -0.23205493 0 24
1.1140921 -3.1996481 -0.20279521 0 25
1.1046406 -3.1725037 -0.17008255 0 26
1.1084188 -3.1833546 -0.13959502 0 27
1.1098825 -3.1875582 -0.10869273 0 28
1.1111708 -3.1912582 -0.077714629 0 29
1.1110213 -3.1908288 -0.046617243 0 30
1.1086668 -3.1840668 -0.015505276 0 31
1.1052359 -3.1742136 0.015457295 0 32
1.1075513 -3.1808631 0.046471648 0 33
1.1095647 -3.1866455 0.077602297 0 34
1.1109825 -3.1907177 0.10880046 0 35
1.1066457 -3.1782622 0.13937171 0 36
1.1053023 -3.1744041 0.17018443 0 37
1.1085602 -3.1837609 0.20178826 0 38
1.1113464 -3.1917627 0.23351015 0 39
1.10755 -3.1808596 0.26386014 0 40
1.113551 -3.1980944 0.29665139 0 41
1.1124266 -3.194865 0.32773226 0 42
1.1097813 -3.1872675 0.35831457 0 43
1.1110834 -3.1910071 0.39019483 0 44
1.1146945 -3.2013781 0.42309219 0 45
1.1080996 -3.1824379 0.45210341 0 46
1.1114759 -3.1921346 0.48516944 0 47
1.1130689 -3.1967099 0.51768261 0 48
1.111362 -3.1918073 0.54874718 0 49
1.1125642 -3.19526 0.58132923 0 50
1.110803 -3.190202 0.6124478 0 51
1.1120335 -3.1937361 0.64530772 0 52
1.1081128 -3.1824758 0.67521334 0 53
1.1102659 -3.1886594 0.7088877 0 54
1.112462 -3.1949666 0.74284178 0 55
1.1058867 -3.1760824 0.77094156 0 56
1.108695 -3.1841478 0.80560994 0 57
1.1074044 -3.1804411 0.83748853 0 58
1.1107697 -3.1901066 0.87310082 0 59
1.1095196 -3.186516 0.90530545 0 60
1.1073712 -3.1803463 0.93683946 0 61
1.1059155 -3.1761653 0.96902168 0 62
1.1073481 -3.1802795 1.0039117 0 63
0.84072769 -2.3222046 -0.73625284 0 0
0.87179816 -2.4080255 -0.73788339 0 1
0.90026683 -2.4866598 -0.73570454 0 2
0.93376541 -2.5791874 -0.73596674 0 3
0.97274268 -2.6868479 -0.73858172 0 4
1.0048355 -2.7754924 -0.73405373 0 5
1.0496755 -2.8993466 -0.73676336 0 6
1.0930415 -3.0191295 -0.73605072 0 7
1.1204507 -3.0948377 -0.72271007 0 8
1.123381 -3.1029315 -0.69284767 0 9
1.1167359 -3.0845768 -0.65730625 0 10
1.1189966 -3.0908213 -0.6272462 0 11
1.1190584 -3.090992 -0.59599829 0 12
1.1232796 -3.1026514 -0.5669505 0 13
1.1232586 -3.1025934 -0.53574336 0 14
1.1205207 -3.095031 -0.50340974 0 15
1.1280062 -3.1157069 -0.47562546 0 16
1.1262152 -3.11076 -0.44385448 0 17
1.1220273 -3.0991924 -0.41137969 0 18
1.119103 -3.091115 -0.37963405 0 19
1.123799 -3.1040859 -0.35049027 0 20
1.1225699 -3.1006913 -0.31946367 0 21
1.1228777 -3.1015413 -0.28895417 0 22
1.1239001 -3.1043651 -0.25864157 0 23
1.1212234 -3.096972 -0.22756669 0 24
1.1226611 -3.1009431 -0.19739927 0 25
1.1230916 -3.1021321 -0.16703759 0 26
1.1220177 -3.0991659 -0.1364979 0 27
1.1277137 -3.1148989 -0.1066799 0 28
1.1226796 -3.1009941 -0.07584694 0 29
1.1188533 -3.0904253 -0.045347944 0 30
1.1218295 -3.0986459 -0.015155336 0 31
1.1205729 -3.0951753 0.015138361 0 32
1.1216838 -3.0982437 0.045462668 0 33
1.1233116 -3.10274 0.07588964 0 34
1.1283084 -3.1165416 0.10673615 0 35
1.1259278 -3.109966 0.13697357 0 36
1.1232972 -3.1027002 0.16706817 0 37
1.1277821 -3.115088 0.19829971 0 38
1.1258448 -3.1097369 0.22850467 0 39
1.1260816 -3.1103909 0.25914359 0 40
1.1221064 -3.0994108 0.28875566 0 41
1.1246364 -3.1063991 0.32005176 0 42
1.124941 -3.1072404 0.35084644 0 43
1.1222677 -3.0998564 0.38070762 0 44
1.1264503 -3.1114094 0.41300136 0 45
1.1287463 -3.1177511 0.44485199 0 46
1.1205313 -3.0950603 0.47247368 0 47
1.1260638 -3.110342 0.50590008 0 48
1.1274769 -3.1142449 0.53775531 0 49
1.1225082 -3.1005206 0.56656116 0 50
1.1185904 -3.089699 0.59574902 0 51
1.1187363 -3.0901022 0.62710029 0 52
1.1206732 -3.0954521 0.65962374 0 53
1.12593 -3.109972 0.69441974 0 54
1.124789 -3.1068203 0.72550833 0 55
1.1235422 -3.1033766 0.75658977 0 56
1.1189774 -3.0907683 0.78540617 0 57
1.1228124 -3.1013608 0.82023835 0 58
1.1224345 -3.100317 0.85223937 0 59
1.120232 -3.0942333 0.88293421 0 60
1.1216046 -3.0980248 0.91658336 0 61
1.1204693 -3.0948889 0.94835675 0 62
1.1304402 -3.1224301 0.98996365 0 63
0.86669737 -2.304991 -0.7341187 0 0
0.89314312 -2.3753238 -0.7311728 0 1
0.93047768 -2.4746156 -0.73547065 0 2
0.9641453 -2.5641549 -0.7350046 0 3
0.99724197 -2.6521759 -0.73236626 0 4
1.0398088 -2.7653825 -0.73470592 0 5
1.0787001 -2.8688145 -0.73231995 0 6
1.1173474 -2.9715974 -0.72775716 0 7
1.1404418 -3.0330172 -0.71149474 0 8
1.1335653 -3.014729 -0.6762144 0 9
1.1378757 -3.0261927 -0.64779758 0 10
1.1391748 -3.0296476 -0.61762774 0 11
1.1424276 -3.0382986 -0.58850229 0 12
1.140426 -3.0329754 -0.55673897 0 13
1.1384081 -3.0276086 -0.52517277 0 14
1.1393685 -3.0301628 -0.49510026 0 15
1.1393883 -3.0302155 -0.46467847 0 16
1.1357586 -3.0205624 -0.43294474 0 17
1.1347117 -3.0177779 -0.40239459 0 18
1.1424425 -3.0383379 -0.37484923 0 19
1.1378776 -3.0261979 -0.34324962 0 20
1.1332628 -3.0139246 -0.31193629 0 21
1.1415426 -3.0359447 -0.28412911 0 22
1.1388888 -3.028887 -0.2535007 0 23
1.1410376 -3.0346019 -0.22399777 0 24
1.14094 -3.0343423 -0.19403802 0 25
1.138375 -3.0275209 -0.16376142 0 26
1.1422644 -3.0378647 -0.13440645 0 27
1.1401918 -3.0323524 -0.10432511 0 28
1.1380774 -3.0267291 -0.074367158 0 29
1.1399382 -3.0316782 -0.044688214 0 30
1.1395615 -3.0306761 -0.014890308 0 31
1.1398923 -3.0315559 0.014894631 0 32
1.1422594 -3.0378513 0.044779208 0 33
1.1373029 -3.0246692 0.074316546 0 34
1.1336629 -3.0149889 0.10372774 0 35
1.1410949 -3.0347545 0.13426884 0 36
1.1377097 -3.0257514 0.1636657 0 37
1.1402655 -3.0325482 0.19392329 0 38
1.1361793 -3.0216813 0.22304405 0 39
1.1391023 -3.0294549 0.25354823 0 40
1.1391687 -3.0296314 0.28353828 0 41
1.1400416 -3.0319531 0.31380218 0 42
1.1381258 -3.0268579 0.34332448 0 43
1.1410154 -3.034543 0.37438104 0 44
1.1446942 -3.0443268 0.40593463 0 45
1.1368281 -3.0234065 0.43335238 0 46
1.1368352 -3.0234256 0.46363726 0 47
1.140643 -3.0335524 0.49565408 0 48
1.1395931 -3.0307603 0.52571946 0 49
1.1378378 -3.0260921 0.55547541 0 50
1.1410899 -3.0347409 0.5878132 0 51
1.137655 -3.0256059 0.61680382 0 52
1.1402442 -3.0324917 0.64914596 0 53
1.1342877 -3.0166504 0.67664534 0 54
1.1403737 -3.0328362 0.71145225 0 55
1.1369799 -3.0238104 0.74054432 0 56
1.1377794 -3.0259364 0.77242833 0 57
1.139292 -3.0299594 0.80499864 0 58
1.1334503 -3.0144231 0.83239645 0 59
1.1394494 -3.0303781 0.86864561 0 60
1.1379863 -3.0264869 0.89949012 0 61
1.1384401 -3.027694 0.93198556 0 62
1.1372868 -3.0246263 0.96331602 0 63
0.89180213 -2.2860322 -0.73151773 0 0
0.92732644 -2.3770947 -0.73517233 0 1
0.96035141 -2.4617503 -0.73510116 0 2
0.99953443 -2.5621917 -0.7379092 0 3
1.0380021 -2.6607993 -0.73821622 0 4
1.0763381 -2.7590687 -0.73648912 0 5
1.1194346 -2.8695416 -0.73596376 0 6
1.1528729 -2.9552572 -0.7271722 0 7
1.1549152 -2.9604924 -0.69776028 0 8
1.1485276 -2.9441185 -0.66349381 0 9
1.149123 -2.9456446 -0.63353199 0 10
1.1531278 -2.9559104 -0.60544044 0 11
1.1501944 -2.948391 -0.57378376 0 12
1.1486037 -2.9443135 -0.54301554 0 13
1.1511042 -2.9507232 -0.51425248 0 14
1.1521251 -2.9533403 -0.48482627 0 15
1.151969 -2.9529397 -0.45496619 0 16
1.1557487 -2.9626288 -0.42664573 0 17
1.1444895 -2.9337673 -0.39303932 0 18
1.1475947 -2.9417269 -0.36464342 0 19
1.152266 -2.9537015 -0.33660832 0 20
1.155388 -2.9617043 -0.30797869 0 21
1.1471417 -2.9405658 -0.27650201 0 22
1.1520402 -2.9531226 -0.24832648 0 23
1.1498691 -2.9475572 -0.21859977 0 24
1.1527085 -2.9548357 -0.18984585 0 25
1.1533689 -2.9565287 -0.16067638 0 26
1.1448547 -2.9347034 -0.1304552 0 27
1.1487098 -2.9445856 -0.10178383 0 28
1.1458057 -2.9371412 -0.072506666 0 29
1.1524885 -2.9542716 -0.043752793 0 30
1.1514866 -2.9517035 -0.014570766 0 31
1.1527442 -2.9549272 0.014586679 0 32
1.1537517 -2.95751 0.043800753 0 33
1.1535281 -2.9569366 0.072995342 0 34
1.1530257 -2.9556491 0.10216627 0 35
1.158188 -2.9688816 0.1319745 0 36
1.1560827 -2.9634852 0.16105443 0 37
1.1556627 -2.9624083 0.19033238 0 38
