# .PCD v0.7 - Point Cloud Data file format
VERSION 0.7
FIELDS x y z intensity ring
SIZE 4 4 4 4 2
TYPE F F F F U
COUNT 1 1 1 1 1
WIDTH 1283
HEIGHT 1
VIEWPOINT 0 0 0 1 0 0 0
POINTS 1283
DATA ascii
1.0423399 -1.7716826 -0.14202236 0 24
1.0486798 -1.7824585 -0.12378572 0 25
1.0451612 -1.7764779 -0.10435496 0 26
1.0466219 -1.7789608 -0.085476533 0 27
1.0468284 -1.7793117 -0.066479847 0 28
1.0522269 -1.7884877 -0.047722414 0 29
1.050897 -1.7862272 -0.028594034 0 30
1.0406905 -1.7688792 -0.0094382428 0 31
1.0487758 -1.7826216 0.0095115686 0 32
1.0452409 -1.7766134 0.028440135 0 33
1.0412301 -1.7697961 0.047223669 0 34
1.0483382 -1.781878 0.066575736 0 35
1.0462068 -1.7782552 0.085442632 0 36
1.0504792 -1.785517 0.10488594 0 37
1.044263 -1.7749513 0.12326437 0 38
1.0427011 -1.7722967 0.14207157 0 39
1.0550288 -1.7932501 0.16299181 0 40
1.0529596 -1.7897329 0.18190262 0 41
1.0416557 -1.7705195 0.19900458 0 42
1.0397894 -1.7673475 0.21770255 0 43
1.0402312 -1.7680984 0.23689495 0 44
1.046928 -1.7794812 0.25768375 0 45
1.0486672 -1.7824372 0.2774519 0 46
1.0453631 -1.776821 0.29590449 0 47
1.0444001 -1.7751844 0.31499195 0 48
1.0431887 -1.7731253 0.33401868 0 49
1.0542859 -1.7919874 0.35722885 0 50
1.0394931 -1.7668438 0.37165904 0 51
1.0414131 -1.7701073 0.39188904 0 52
1.0487316 -1.7825466 0.41439304 0 53
1.0532809 -1.7902794 0.43609968 0 54
1.0490664 -1.7831157 0.45426071 0 55
1.0453638 -1.7768222 0.47257346 0 56
1.0394462 -1.7667642 0.48978537 0 57
1.0397667 -1.767309 0.50991714 0 58
1.0437567 -1.7740908 0.53202331 0 59
1.0458349 -1.7776231 0.55336839 0 60
1.0398537 -1.7674568 0.57047319 0 61
1.0392816 -1.7664843 0.59052163 0 62
1.0485961 -1.7823163 0.61646819 0 63
1.0561177 -1.7456297 -0.60822481 0 0
1.0596745 -1.7515088 -0.58982682 0 1
1.0541255 -1.742337 -0.56650627 0 2
1.0553346 -1.7443354 -0.54700434 0 3
1.0633256 -1.7575437 -0.53094202 0 4
1.0577846 -1.7483848 -0.5081715 0 5
1.0612684 -1.7541435 -0.4898673 0 6
1.0628521 -1.756761 -0.47067827 0 7
1.0577204 -1.748279 -0.44866529 0 8
1.0630734 -1.7571267 -0.43117556 0 9
1.0645366 -1.7595451 -0.41205776 0 10
1.0626491 -1.7564254 -0.39172325 0 11
1.0639853 -1.7586342 -0.37265605 0 12
1.0548902 -1.743601 -0.35014245 0 13
1.0577493 -1.7483267 -0.33177221 0 14
1.0571356 -1.7473122 -0.31232923 0 15
1.0627058 -1.7565191 -0.29467744 0 16
1.0605125 -1.7528939 -0.27486232 0 17
1.0554802 -1.7445762 -0.25448942 0 18
1.0633273 -1.7575464 -0.23721507 0 19
1.0606527 -1.7531255 -0.21754082 0 20
1.0572426 -1.7474892 -0.19786227 0 21
1.0558282 -1.7451514 -0.17867754 0 22
1.0572968 -1.7475786 -0.16001023 0 23
1.0644345 -1.7593765 -0.14207436 0 24
1.0578161 -1.7484372 -0.12231712 0 25
1.066345 -1.7625343 -0.10429824 0 26
1.052464 -1.7395908 -0.084200315 0 27
1.0623084 -1.7558624 -0.066086784 0 28
1.0528094 -1.7401617 -0.046774827 0 29
1.0590554 -1.7504857 -0.028228214 0 30
1.0567132 -1.7466142 -0.009388065 0 31
1.0598689 -1.7518301 0.0094161006 0 32
1.0547529 -1.7433741 0.028113533 0 33
1.0620084 -1.7553664 0.047183521 0 34
1.0543545 -1.7427156 0.065591969 0 35
1.0541699 -1.7424104 0.084336795 0 36
1.052591 -1.7398007 0.10295297 0 37
1.0574895 -1.7478971 0.12227935 0 38
1.0574472 -1.7478273 0.14114173 0 39
1.0559686 -1.7453835 0.15980925 0 40
1.0578603 -1.74851 0.1790214 0 41
1.0624818 -1.7561489 0.19884276 0 42
1.0521207 -1.7390233 0.2157909 0 43
1.0585907 -1.7497175 0.2361584 0 44
1.0662537 -1.7623832 0.25708702 0 45
1.0485425 -1.733109 0.27175999 0 46
1.0611442 -1.753938 0.29424441 0 47
1.0574417 -1.7478182 0.31241968 0 48
1.0538408 -1.7418662 0.33054623 0 49
1.060007 -1.7520584 0.35184085 0 50
1.0569985 -1.7470858 0.37020892 0 51
1.0640523 -1.7587448 0.39224052 0 52
1.056962 -1.7470255 0.40912583 0 53
1.0610684 -1.7538127 0.43036234 0 54
1.0580003 -1.7487416 0.44878405 0 55
1.0628693 -1.7567894 0.4706859 0 56
1.0602204 -1.7524111 0.48938352 0 57
1.0633906 -1.757651 0.51086473 0 58
1.0614661 -1.7544701 0.5300135 0 59
1.060147 -1.7522899 0.5494988 0 60
1.0516564 -1.7382559 0.56517929 0 61
1.0639923 -1.7586454 0.59223002 0 62
1.0645757 -1.7596098 0.61309582 0 63
1.0695208 -1.7196805 -0.60372001 0 0
1.0670693 -1.7157387 -0.58215564 0 1
1.0722992 -1.724148 -0.56483674 0 2
1.0771314 -1.7319175 -0.54722232 0 3
1.0641539 -1.7110511 -0.52081054 0 4
1.073174 -1.7255543 -0.50533313 0 5
1.0738993 -1.7267206 -0.48586011 0 6
1.0777867 -1.7329712 -0.46781984 0 7
1.0728338 -1.7250073 -0.44604483 0 8
1.0761395 -1.7303226 -0.42781299 0 9
1.0709625 -1.7219986 -0.40631822 0 10
1.0667926 -1.7152938 -0.38544637 0 11
1.0668586 -1.7154001 -0.36624685 0 12
1.0751064 -1.7286617 -0.34977075 0 13
1.0660789 -1.7141461 -0.32774878 0 14
1.0689353 -1.718739 -0.30954793 0 15
1.0749373 -1.7283896 -0.29215375 0 16
1.065864 -1.7138005 -0.27076697 0 17
1.0668629 -1.7154069 -0.25212896 0 18
1.0669612 -1.715565 -0.233302 0 19
1.0732199 -1.7256283 -0.21574999 0 20
1.0661509 -1.714262 -0.19556965 0 21
1.0705401 -1.7213194 -0.17757186 0 22
1.075443 -1.7292027 -0.15952648 0 23
1.0699964 -1.720445 -0.13998243 0 24
1.0697725 -1.7200851 -0.12124477 0 25
1.0679426 -1.7171429 -0.10238154 0 26
1.0774903 -1.7324946 -0.084491752 0 27
1.0690132 -1.7188644 -0.065184087 0 28
1.0724101 -1.7243261 -0.046700101 0 29
1.0694814 -1.719617 -0.027940385 0 30
1.074386 -1.7275032 -0.0093556456 0 31
1.0744368 -1.727585 0.009356088 0 32
1.0734738 -1.7260365 0.028044689 0 33
1.0749922 -1.7284778 0.046812542 0 34
1.0723548 -1.7242372 0.065387838 0 35
1.0765086 -1.7309163 0.08441478 0 36
1.071425 -1.7227421 0.10271538 0 37
1.0730654 -1.7253797 0.12161797 0 38
1.0767815 -1.731355 0.14087011 0 39
1.0715723 -1.7229791 0.15895231 0 40
1.0702295 -1.7208201 0.17752035 0 41
1.0727051 -1.7248005 0.19677192 0 42
1.0656011 -1.713378 0.21421838 0 43
1.074558 -1.7277799 0.23496312 0 44
1.0673801 -1.7162384 0.25225118 0 45
1.0683995 -1.7178776 0.27141112 0 46
1.0668273 -1.7153497 0.28994957 0 47
1.0751252 -1.7286918 0.31134045 0 48
1.0712185 -1.7224101 0.32932886 0 49
1.0675783 -1.7165573 0.3473216 0 50
1.0701275 -1.7206559 0.36736903 0 51
1.0669519 -1.7155498 0.38550389 0 52
1.073854 -1.7266477 0.40741521 0 53
1.0744054 -1.7275344 0.42712364 0 54
1.0672396 -1.7160126 0.44371903 0 55
1.078367 -1.7339042 0.46807173 0 56
1.0715863 -1.7230016 0.48481363 0 57
1.0693257 -1.7193667 0.50352103 0 58
1.0764101 -1.7307577 0.52680886 0 59
1.0752198 -1.7288438 0.54625118 0 60
1.0760626 -1.7301989 0.56681901 0 61
1.0768729 -1.7315019 0.58750415 0 62
1.0688943 -1.7186731 0.60336637 0 63
1.089386 -1.704525 -0.60305661 0 0
1.0811054 -1.6915686 -0.57842153 0 1
1.0813199 -1.6919044 -0.55858737 0 2
1.0860445 -1.699297 -0.54109406 0 3
1.0834954 -1.6953082 -0.52003473 0 4
1.0794865 -1.6890357 -0.4984881 0 5
1.0844668 -1.6968281 -0.48116487 0 6
1.0890031 -1.703926 -0.46355885 0 7
1.0808654 -1.6911932 -0.4407047 0 8
1.0804704 -1.6905752 -0.42123872 0 9
1.0880133 -1.7023772 -0.40481463 0 10
1.0895394 -1.7047651 -0.38606182 0 11
1.0846463 -1.6971091 -0.36516163 0 12
1.0904881 -1.7062495 -0.34792283 0 13
1.0818688 -1.6927631 -0.32617924 0 14
1.0838284 -1.6958294 -0.30779883 0 15
1.0854318 -1.6983382 -0.28930828 0 16
1.079705 -1.6893775 -0.2689856 0 17
1.0888602 -1.7037024 -0.25235751 0 18
1.0781136 -1.6868875 -0.23118748 0 19
1.0822707 -1.693392 -0.21336734 0 20
1.0788987 -1.688116 -0.19408564 0 21
1.0796022 -1.6892169 -0.17561635 0 22
1.0872116 -1.7011229 -0.15815736 0 23
1.0870297 -1.7008383 -0.13946417 0 24
1.0791694 -1.6885395 -0.11994749 0 25
1.0839591 -1.6960337 -0.10190995 0 26
1.0846765 -1.6971563 -0.083412506 0 27
1.0792422 -1.6886535 -0.064536788 0 28
1.0841678 -1.6963603 -0.046300258 0 29
1.0798452 -1.6895969 -0.027666273 0 30
1.0849159 -1.6975309 -0.0092648733 0 31
1.0865 -1.7000096 0.0092784017 0 32
1.0807095 -1.6909491 0.027688414 0 33
1.0739059 -1.6803039 0.045862015 0 34
1.082556 -1.6938384 0.064734951 0 35
1.0850111 -1.69768 0.083438247 0 36
1.0721502 -1.6775569 0.10079972 0 37
1.0834967 -1.6953102 0.12042846 0 38
1.0900903 -1.7056271 0.13985683 0 39
1.0794015 -1.6889027 0.15702122 0 40
1.0871809 -1.7010747 0.17684914 0 41
1.0879195 -1.7022305 0.19570842 0 42
1.0856271 -1.6986437 0.21402904 0 43
1.0861322 -1.6994339 0.23290697 0 44
1.0765661 -1.6844662 0.24950819 0 45
1.0872456 -1.7011762 0.27086419 0 46
1.0825657 -1.6938535 0.28854433 0 47
1.0891843 -1.7042096 0.30931985 0 48
1.0850821 -1.6977909 0.32714802 0 49
1.0800501 -1.6899176 0.34459257 0 50
1.0822699 -1.6933908 0.36436158 0 51
1.0897017 -1.705019 0.38611934 0 52
1.0819043 -1.6928188 0.40254167 0 53
1.0873131 -1.7012815 0.42390639 0 54
1.0808007 -1.6910919 0.4406783 0 55
1.0864381 -1.6999127 0.46246701 0 56
1.0849659 -1.6976092 0.48138633 0 57
1.0824807 -1.6937206 0.49987078 0 58
1.08031 -1.6903241 0.51850581 0 59
1.0817326 -1.6925501 0.53894573 0 60
1.0836673 -1.6955773 0.55979997 0 61
1.0789104 -1.6881343 0.5772472 0 62
1.0770271 -1.6851876 0.59621507 0 63
1.0929644 -1.6646568 -0.59366131 0 0
1.096472 -1.6699991 -0.57561284 0 1
1.0945792 -1.6671163 -0.55480522 0 2
1.0933534 -1.6652491 -0.53449303 0 3
1.0997596 -1.6750063 -0.5179162 0 4
1.0967313 -1.6703939 -0.4969289 0 5
1.0889404 -1.6585279 -0.47406533 0 6
1.1033814 -1.6805226 -0.46084818 0 7
1.0950946 -1.6679012 -0.43811098 0 8
1.0893302 -1.6591216 -0.41670758 0 9
1.0890118 -1.6586366 -0.3975676 0 10
1.0934153 -1.6653435 -0.38015047 0 11
1.0944449 -1.6669116 -0.36153248 0 12
1.0999519 -1.6752992 -0.34434369 0 13
1.0987422 -1.6734567 -0.32503787 0 14
1.0934734 -1.6654321 -0.30469906 0 15
1.0947944 -1.667444 -0.28631711 0 16
1.1029762 -1.6799054 -0.26961651 0 17
1.0909709 -1.6616204 -0.24809252 0 18
1.1033913 -1.6805376 -0.23215914 0 19
1.1006049 -1.6762936 -0.21290207 0 20
1.0951557 -1.6679941 -0.19330588 0 21
1.1007599 -1.6765298 -0.17569128 0 22
1.0988492 -1.6736196 -0.15684471 0 23
1.0996305 -1.6748097 -0.13842817 0 24
1.0992032 -1.6741589 -0.11987703 0 25
1.0936481 -1.6656981 -0.10088759 0 26
1.0988814 -1.6736687 -0.082915969 0 27
1.0959193 -1.6691573 -0.064301848 0 28
1.1005725 -1.6762444 -0.046117101 0 29
1.0981336 -1.6725296 -0.027605824 0 30
1.0914237 -1.6623102 -0.0091452003 0 31
1.0966446 -1.670262 0.0091889473 0 32
1.097957 -1.6722609 0.027601389 0 33
1.0936185 -1.665653 0.045825705 0 34
1.0915329 -1.6624765 0.064044483 0 35
1.0990812 -1.6739728 0.082931042 0 36
1.0927104 -1.6642698 0.10080108 0 37
1.0966836 -1.6703213 0.11960224 0 38
1.0933326 -1.6652175 0.13763535 0 39
1.1040356 -1.6815189 0.157585 0 40
1.0924757 -1.6639124 0.17436905 0 41
1.0993754 -1.674421 0.19405068 0 42
1.0955164 -1.6685436 0.21191776 0 43
1.099786 -1.6750464 0.23140056 0 44
1.1015626 -1.6777524 0.25050116 0 45
1.1024952 -1.6791726 0.26949891 0 46
1.0995728 -1.6747218 0.28756678 0 47
1.0991856 -1.674132 0.30629075 0 48
1.1019994 -1.6784177 0.32600144 0 49
1.0920258 -1.6632271 0.34186238 0 50
1.0919391 -1.6630951 0.36070472 0 51
1.1007085 -1.6764516 0.38268611 0 52
1.092979 -1.6646788 0.3990159 0 53
1.099824 -1.6751043 0.42072177 0 54
1.097363 -1.6713561 0.43901849 0 55
1.0942075 -1.6665502 0.45701656 0 56
1.0937905 -1.665915 0.47617683 0 57
1.0933167 -1.6651932 0.49538171 0 58
1.0977269 -1.6719104 0.51695895 0 59
1.098296 -1.6727773 0.53690934 0 60
1.0982043 -1.6726373 0.55664259 0 61
1.095421 -1.6683981 0.57506102 0 62
1.0984398 -1.6729962 0.59663534 0 63
1.1014647 -1.6334671 -0.58732402 0 0
1.1098802 -1.6459472 -0.57198346 0 1
1.1036059 -1.6366422 -0.54913831 0 2
1.1038383 -1.636987 -0.52973837 0 3
1.1145505 -1.6528732 -0.51527125 0 4
1.1035491 -1.6365582 -0.49086282 0 5
1.104473 -1.6379282 -0.47202349 0 6
1.1045023 -1.6379719 -0.45286974 0 7
1.0987241 -1.6294028 -0.43151471 0 8
1.1054686 -1.6394049 -0.41513819 0 9
1.0975808 -1.6277071 -0.39335924 0 10
1.1118829 -1.6489172 -0.37949309 0 11
1.1093467 -1.6451561 -0.35974532 0 12
1.1077724 -1.6428213 -0.34044221 0 13
1.1076959 -1.6427078 -0.32168674 0 14
1.1050649 -1.638806 -0.30229092 0 15
1.1086535 -1.6441281 -0.28463286 0 16
1.1130803 -1.6506928 -0.26710454 0 17
1.1088222 -1.6443783 -0.24753517 0 18
1.1095848 -1.6455091 -0.22918764 0 19
1.1082592 -1.6435431 -0.21045741 0 20
1.1159798 -1.6549929 -0.19337486 0 21
1.1057731 -1.6398563 -0.1732599 0 22
1.1114936 -1.6483397 -0.15574467 0 23
1.1087245 -1.6442332 -0.13701741 0 24
1.1093667 -1.6451856 -0.11877022 0 25
1.1099402 -1.646036 -0.10051575 0 26
1.1027684 -1.6354005 -0.081685722 0 27
1.1140956 -1.6521984 -0.064171433 0 28
1.1082523 -1.6435329 -0.045588616 0 29
1.1014 -1.6333711 -0.027180981 0 30
1.1109781 -1.6475754 -0.0091386028 0 31
1.1120179 -1.6491172 0.0091471551 0 32
1.1110618 -1.6476995 0.027419418 0 33
1.1078392 -1.6429204 0.045571625 0 34
1.0955826 -1.6247439 0.063105099 0 35
1.1108313 -1.6473576 0.08228296 0 36
1.1048125 -1.6384318 0.1000514 0 37
1.1100007 -1.6461259 0.11883809 0 38
1.1112525 -1.6479822 0.13732982 0 39
1.1012076 -1.6330857 0.15430337 0 40
1.115899 -1.654873 0.1748465 0 41
1.108557 -1.6439848 0.19208862 0 42
1.1141118 -1.6522226 0.21156883 0 43
1.1032082 -1.6360526 0.22787052 0 44
1.1054792 -1.6394206 0.24678889 0 45
1.107098 -1.6418211 0.26566899 0 46
1.1045389 -1.638026 0.28357646 0 47
1.1124421 -1.6497464 0.30430895 0 48
1.1118755 -1.6489062 0.32290056 0 49
1.1058979 -1.6400414 0.33986613 0 50
1.1111562 -1.6478394 0.3603321 0 51
1.1077484 -1.6427857 0.37808192 0 52
1.1068139 -1.6413999 0.39666829 0 53
1.1015733 -1.6336281 0.4136754 0 54
1.1059231 -1.6400788 0.43434203 0 55
1.1083591 -1.6436914 0.45445108 0 56
1.1056217 -1.6396317 0.47251445 0 57
1.1160549 -1.6551042 0.49642542 0 58
1.1053269 -1.6391946 0.51100701 0 59
1.1027859 -1.6354264 0.52923334 0 60
1.1077193 -1.6427425 0.55118507 0 61
1.1063952 -1.6407789 0.57018739 0 62
1.1111232 -1.6477904 0.5924741 0 63
1.1157508 -1.6115459 -0.58433104 0 0
1.1266539 -1.6272939 -0.57027251 0 1
1.1166046 -1.6127791 -0.54569715 0 2
1.125869 -1.6261604 -0.53067476 0 3
1.1208196 -1.618867 -0.50892806 0 4
1.1180643 -1.6148875 -0.48844963 0 5
1.1185316 -1.6155623 -0.46950617 0 6
1.1186688 -1.6157606 -0.45049784 0 7
1.1161137 -1.6120701 -0.43052655 0 8
1.1208712 -1.6189415 -0.41341525 0 9
1.1191872 -1.6165093 -0.39394915 0 10
1.1203206 -1.6181463 -0.37555337 0 11
1.1114855 -1.6053853 -0.35401055 0 12
1.1246098 -1.6243415 -0.33945271 0 13
1.1204635 -1.6183527 -0.31959122 0 14
1.1195074 -1.616972 -0.30077994 0 15
1.1236753 -1.6229918 -0.28334436 0 16
1.1191115 -1.6164001 -0.2637623 0 17
1.1227776 -1.621695 -0.24618028 0 18
1.1189119 -1.6161116 -0.22699229 0 19
1.1219536 -1.620505 -0.20925812 0 20
1.1077902 -1.6000481 -0.18853228 0 21
1.1250517 -1.6249799 -0.17313668 0 22
1.119081 -1.6163559 -0.15401119 0 23
1.1234196 -1.6226224 -0.13635738 0 24
1.117487 -1.6140535 -0.11750583 0 25
1.1166549 -1.6128517 -0.099320322 0 26
1.1236221 -1.6229148 -0.081746019 0 27
1.1200272 -1.6177225 -0.063362516 0 28
1.1206695 -1.6186503 -0.04527723 0 29
1.1244385 -1.6240941 -0.02725463 0 30
1.1219238 -1.6204619 -0.0090640476 0 31
1.1193146 -1.6166933 0.009042968 0 32
1.1188923 -1.6160834 0.027120199 0 33
1.1171775 -1.6136066 0.045136146 0 34
1.1225935 -1.6214292 0.063507698 0 35
1.1153606 -1.6109823 0.081144981 0 36
1.1247045 -1.6244782 0.10003628 0 37
1.1170073 -1.6133606 0.11745539 0 38
1.1219078 -1.6204388 0.13617389 0 39
1.11568 -1.6114435 0.15354313 0 40
1.121781 -1.6202556 0.17263333 0 41
1.1182696 -1.6151839 0.19031574 0 42
1.1271583 -1.6280224 0.21022888 0 43
1.1250303 -1.6249487 0.22823352 0 44
1.1248935 -1.6247513 0.24664423 0 45
1.120616 -1.618573 0.26411688 0 46
1.1211296 -1.6193148 0.28270242 0 47
1.1190099 -1.6162533 0.30064625 0 48
1.1165031 -1.6126326 0.31846163 0 49
1.1289129 -1.6305568 0.34075159 0 50
1.1183439 -1.6152914 0.35619497 0 51
1.1213738 -1.6196674 0.37590641 0 52
1.1223801 -1.621121 0.39507306 0 53
1.1120147 -1.6061494 0.41014865 0 54
1.1102091 -1.6035416 0.42824891 0 55
1.1168811 -1.6131786 0.44977796 0 56
1.1178937 -1.614641 0.46923843 0 57
1.1203313 -1.6181618 0.48944002 0 58
1.1145542 -1.6098175 0.50608313 0 59
1.1189932 -1.6162292 0.52743381 0 60
1.1239955 -1.6234543 0.54930925 0 61
1.1201953 -1.6179653 0.56700337 0 62
1.118006 -1.6148032 0.58551204 0 63
1.1301243 -1.5901678 -0.58157432 0 0
1.138507 -1.6019627 -0.56625861 0 1
1.1303161 -1.5904375 -0.54279947 0 2
1.1345006 -1.5963254 -0.5254513 0 3
1.1267592 -1.5854326 -0.5027349 0 4
1.1301355 -1.5901835 -0.48514414 0 5
1.1401122 -1.6042212 -0.470249 0 6
1.1254311 -1.5835639 -0.44534576 0 7
1.1342168 -1.595926 -0.42990726 0 8
1.1287345 -1.588212 -0.40908149 0 9
1.1339146 -1.5955009 -0.39219767 0 10
1.1232499 -1.5804949 -0.36999255 0 11
1.1298149 -1.5897323 -0.35359564 0 12
1.1272937 -1.5861847 -0.33435029 0 13
1.1319519 -1.5927392 -0.31725782 0 14
1.1240511 -1.5816222 -0.29675302 0 15
1.1269163 -1.5856538 -0.27922392 0 16
1.1366819 -1.5993947 -0.26324826 0 17
1.1314301 -1.5920051 -0.24376678 0 18
1.1317689 -1.5924817 -0.22561097 0 19
1.1326008 -1.5936522 -0.20757332 0 20
1.1371739 -1.6000869 -0.19017012 0 21
1.1289515 -1.5885175 -0.17071792 0 22
1.1248194 -1.5827032 -0.15211105 0 23
1.1368064 -1.5995699 -0.13558461 0 24
1.1345962 -1.59646 -0.11723183 0 25
1.1371459 -1.6000475 -0.099385388 0 26
1.1342731 -1.5960052 -0.081086993 0 27
1.1298904 -1.5898385 -0.062809803 0 28
1.1359909 -1.5984224 -0.045098741 0 29
1.134979 -1.5969986 -0.02703209 0 30
1.1349479 -1.5969548 -0.0090099415 0 31
1.1374491 -1.6004744 0.0090297982 0 32
1.127546 -1.5865397 0.026855057 0 33
1.1374466 -1.6004707 0.045156531 0 34
1.1362784 -1.598827 0.063164905 0 35
1.1329541 -1.5941495 0.080992714 0 36
1.1286682 -1.5881188 0.098644443 0 37
1.1273073 -1.5862039 0.1164787 0 38
1.1401346 -1.6042528 0.13598156 0 39
1.131116 -1.5915631 0.15296257 0 40
1.1245975 -1.582391 0.17005952 0 41
1.1376824 -1.6008025 0.19025518 0 42
1.1346262 -1.5965022 0.20794451 0 43
1.1348106 -1.5967615 0.2262173 0 44
1.1323955 -1.5933633 0.24397475 0 45
1.1212591 -1.5776937 0.25967646 0 46
1.1301796 -1.5902456 0.28003252 0 47
1.1355342 -1.5977796 0.29978457 0 48
1.1297898 -1.589697 0.31665185 0 49
1.1248937 -1.5828078 0.33363849 0 50
1.1333007 -1.594637 0.35468659 0 51
1.1348386 -1.596801 0.37380981 0 52
1.1338745 -1.5954444 0.39218378 0 53
1.1388644 -1.6024656 0.41275281 0 54
1.1255577 -1.5837421 0.42662516 0 55
1.1333101 -1.5946501 0.44846356 0 56
1.127996 -1.587173 0.46525159 0 57
1.1361592 -1.5986592 0.48772997 0 58
1.1265572 -1.5851486 0.50264484 0 59
1.1200458 -1.5759864 0.51875645 0 60
1.137303 -1.6002685 0.54615474 0 61
1.1302181 -1.5902997 0.56213599 0 62
1.1296599 -1.5895141 0.58133525 0 63
1.1397007 -1.562592 -0.57657087 0 0
1.1373965 -1.5594327 -0.55612689 0 1
1.1467435 -1.5722482 -0.54136324 0 2
1.1430035 -1.5671202 -0.52042502 0 3
1.1409085 -1.5642478 -0.50042802 0 4
1.1462178 -1.5715274 -0.48371583 0 5
1.1438392 -1.5682663 -0.46379733 0 6
1.1473742 -1.5731127 -0.44634059 0 7
1.1434799 -1.5677736 -0.42607903 0 8
1.1441594 -1.5687053 -0.40765005 0 9
1.1446687 -1.5694034 -0.38921303 0 10
1.1434164 -1.5676864 -0.37025753 0 11
1.1467109 -1.5722034 -0.35280642 0 12
1.1401982 -1.5632741 -0.33245122 0 13
1.1393385 -1.5620954 -0.31392077 0 14
1.1454358 -1.5704551 -0.29727799 0 15
1.1472415 -1.5729309 -0.27944654 0 16
1.1427994 -1.5668404 -0.26018333 0 17
1.1397934 -1.5627192 -0.24141032 0 18
1.1368582 -1.5586948 -0.22278793 0 19
1.145279 -1.5702403 -0.20634261 0 20
1.1416893 -1.5653186 -0.18769222 0 21
1.1467025 -1.5721918 -0.17046589 0 22
1.1391356 -1.5618172 -0.1514385 0 23
1.1416061 -1.5652044 -0.13385145 0 24
1.1395556 -1.5623932 -0.11575044 0 25
1.1373624 -1.559386 -0.097721055 0 26
1.148984 -1.5753198 -0.080747753 0 27
1.1460977 -1.5713625 -0.062631905 0 28
1.1479082 -1.5738449 -0.044800166 0 29
1.1400425 -1.5630608 -0.026692903 0 30
1.1410496 -1.5644414 -0.0089049917 0 31
1.1336353 -1.554276 0.0088471286 0 32
1.143308 -1.5675379 0.026769361 0 33
1.1432632 -1.5674764 0.044618882 0 34
1.1510978 -1.578218 0.062905155 0 35
1.1400092 -1.5630149 0.080117032 0 36
1.1466377 -1.572103 0.098517977 0 37
1.1404918 -1.5636768 0.11584554 0 38
1.1472803 -1.5729841 0.13451675 0 39
1.1390325 -1.5616759 0.15142481 0 40
1.1471683 -1.5728304 0.17053513 0 41
1.1439615 -1.5684339 0.18806578 0 42
1.1347264 -1.5557719 0.20444135 0 43
1.1431464 -1.5673163 0.22402023 0 44
1.1380143 -1.5602798 0.24103348 0 45
1.1333444 -1.5538772 0.25803071 0 46
1.1430712 -1.5672132 0.27843073 0 47
1.1425669 -1.5665218 0.29653344 0 48
1.1478028 -1.5737004 0.31625295 0 49
1.1476555 -1.5734985 0.33462557 0 50
1.1469368 -1.5725131 0.35287595 0 51
1.1407738 -1.5640632 0.36940181 0 52
1.1384585 -1.5608889 0.38710141 0 53
1.1441776 -1.56873 0.40765652 0 54
1.1435534 -1.5678742 0.42610639 0 55
1.1450453 -1.5699197 0.44543466 0 56
1.1480154 -1.573992 0.46549064 0 57
1.1319274 -1.5519344 0.47768515 0 58
1.1472123 -1.5728908 0.50319302 0 59
1.1455284 -1.5705822 0.52157474 0 60
1.1383284 -1.5607105 0.53739053 0 61
1.1392165 -1.5619283 0.55701685 0 62
1.1397003 -1.5625914 0.57657063 0 63
1.1490211 -1.5353571 -0.57169175 0 0
1.1497357 -1.5363119 -0.55288154 0 1
1.1571946 -1.5462787 -0.53728026 0 2
1.1559978 -1.5446795 -0.51765412 0 3
1.1554029 -1.5438846 -0.49842101 0 4
1.1566952 -1.5456116 -0.4800806 0 5
1.1494023 -1.5358664 -0.45836064 0 6
1.1553562 -1.5438223 -0.44202751 0 7
1.151035 -1.538048 -0.42181516 0 8
1.1546111 -1.5428267 -0.40458402 0 9
1.1445605 -1.5293967 -0.38275278 0 10
1.1514703 -1.5386299 -0.36671132 0 11
1.1536993 -1.5416083 -0.34909788 0 12
1.1520219 -1.5393667 -0.33035457 0 13
1.15028 -1.5370393 -0.3117044 0 14
1.1545268 -1.542714 -0.2946918 0 15
1.1462237 -1.5316191 -0.27459037 0 16
1.1579188 -1.5472465 -0.25927439 0 17
1.1581731 -1.5475862 -0.24125436 0 18
1.1643305 -1.5558139 -0.22440559 0 19
1.1559644 -1.5446349 -0.20483024 0 20
1.1525053 -1.5400128 -0.1863431 0 21
1.1567724 -1.5457146 -0.16912456 0 22
1.1579847 -1.5473347 -0.15140346 0 23
1.1563995 -1.5452164 -0.13334808 0 24
1.1551275 -1.5435166 -0.11539555 0 25
1.1541916 -1.542266 -0.097530223 0 26
1.1478509 -1.5337934 -0.07933668 0 27
1.1655117 -1.5573925 -0.062641583 0 28
1.1536816 -1.5415846 -0.044282332 0 29
1.1551657 -1.5435678 -0.026600577 0 30
1.1517217 -1.5389657 -0.0088399239 0 31
1.1626351 -1.5535486 0.0089236889 0 32
1.1521246 -1.5395042 0.026530549 0 33
1.1462599 -1.5316675 0.043997459 0 34
1.158519 -1.5480486 0.062265754 0 35
1.1485637 -1.5347459 0.079385951 0 36
1.1586831 -1.5482677 0.097909756 0 37
1.1551728 -1.5435772 0.11540008 0 38
1.1436399 -1.5281665 0.13187672 0 39
1.155865 -1.544502 0.1511263 0 40
1.1487441 -1.5349871 0.16795081 0 41
1.1516232 -1.5388342 0.18620048 0 42
1.1592556 -1.5490329 0.20541345 0 43
1.1554755 -1.5439817 0.22269894 0 44
1.1543927 -1.5425349 0.24046691 0 45
1.1579509 -1.5472894 0.25928158 0 46
1.1544201 -1.5425715 0.27655393 0 47
1.1456221 -1.5308154 0.2924189 0 48
1.1514459 -1.5385971 0.3120203 0 49
1.1663884 -1.5585639 0.33447435 0 50
1.1477976 -1.5337222 0.34731206 0 51
1.1586032 -1.5481609 0.36898291 0 52
1.151877 -1.5391734 0.38519952 0 53
1.1504487 -1.5372647 0.40312546 0 54
1.1526481 -1.5402036 0.42240632 0 55
1.1579033 -1.5472258 0.44300202 0 56
1.1508774 -1.5378375 0.45894888 0 57
1.1531283 -1.5408453 0.47860014 0 58
1.1460549 -1.5313935 0.4943884 0 59
1.1493522 -1.5357995 0.51467824 0 60
1.1524385 -1.5399235 0.53507197 0 61
1.1512034 -1.5382732 0.55358732 0 62
1.159567 -1.5494488 0.57693881 0 63
1.1756539 -1.5313272 -0.57553053 0 0
1.1731848 -1.528111 -0.55507982 0 1
1.1647742 -1.5171559 -0.5320974 0 2
1.1605431 -1.5116448 -0.51132721 0 3
1.1704136 -1.5245016 -0.49677214 0 4
1.1643116 -1.5165534 -0.47546592 0 5
1.1619132 -1.5134294 -0.45589402 0 6
1.1663313 -1.5191842 -0.43904626 0 7
1.1651658 -1.5176661 -0.42012289 0 8
1.1586925 -1.5092344 -0.39948103 0 9
1.1608112 -1.5119941 -0.3819409 0 10
1.1644716 -1.5167619 -0.3648845 0 11
1.1569736 -1.5069954 -0.34445539 0 12
1.1718489 -1.526371 -0.33063298 0 13
1.1669333 -1.5199683 -0.31112888 0 14
1.1670849 -1.5201658 -0.29310381 0 15
1.1690993 -1.5227897 -0.2755639 0 16
1.1588223 -1.5094035 -0.25530148 0 17
1.165774 -1.5184582 -0.23893018 0 18
1.1596971 -1.5105429 -0.21991606 0 19
1.1696085 -1.5234528 -0.20391308 0 20
1.1672159 -1.5203365 -0.18568489 0 21
1.1637144 -1.5157756 -0.16740181 0 22
1.1590197 -1.5096606 -0.14910036 0 23
1.1642103 -1.5164216 -0.13208857 0 24
1.163209 -1.5151173 -0.11433307 0 25
1.1657561 -1.518435 -0.09692236 0 26
1.1717824 -1.5262845 -0.079687551 0 27
1.1586409 -1.5091671 -0.061270278 0 28
1.1536928 -1.5027223 -0.043570213 0 29
1.1719036 -1.5264424 -0.026551779 0 30
1.1698179 -1.5237256 -0.0088343434 0 31
1.1765679 -1.5325177 0.0088853175 0 32
1.1661787 -1.5189854 0.026422068 0 33
1.1635947 -1.5156198 0.043944165 0 34
1.1607102 -1.5118624 0.061379705 0 35
1.1672363 -1.520363 0.079378396 0 36
1.1639614 -1.5160973 0.09677314 0 37
1.1647679 -1.5171477 0.11448628 0 38
1.1618272 -1.5133173 0.13181819 0 39
1.1583616 -1.5088032 0.14901569 0 40
1.1656624 -1.5183129 0.16768202 0 41
1.1706148 -1.5247637 0.18622559 0 42
1.1634524 -1.5154343 0.20283982 0 43
1.161428 -1.5127974 0.22024427 0 44
1.1730374 -1.5279191 0.24041885 0 45
1.1694815 -1.5232874 0.25764981 0 46
1.1642268 -1.516443 0.2744154 0 47
1.1627269 -1.5144893 0.29200932 0 48
1.1620879 -1.5136571 0.30983701 0 49
1.1680602 -1.521436 0.32956401 0 50
1.1649565 -1.5173934 0.34683204 0 51
1.1721834 -1.5268067 0.36730096 0 52
1.1528639 -1.5016423 0.37932596 0 53
1.1652371 -1.517759 0.40173739 0 54
1.1665641 -1.5194875 0.42062712 0 55
1.1720958 -1.5266926 0.4412162 0 56
1.1612266 -1.5125351 0.45562464 0 57
1.1686321 -1.5221812 0.47723028 0 58
1.1621126 -1.5136892 0.49324882 0 59
1.1574383 -1.5076007 0.50995928 0 60
1.1610087 -1.5122514 0.53037727 0 61
1.1600268 -1.5109724 0.54885429 0 62
1.1677147 -1.5209861 0.57164395 0 63
1.1798401 -1.4982747 -0.5685178 0 0
1.179993 -1.498469 -0.54954153 0 1
1.1850482 -1.5048885 -0.53286541 0 2
1.1770415 -1.4947208 -0.51045972 0 3
1.1686249 -1.4840325 -0.48823062 0 4
1.1801445 -1.4986614 -0.47437024 0 5
1.1738029 -1.4906081 -0.45333311 0 6
1.1688905 -1.4843699 -0.43310601 0 7
1.1725228 -1.4889826 -0.4161424 0 8
1.1708169 -1.4868163 -0.39732784 0 9
1.1698182 -1.4855479 -0.37886542 0 10
1.1706636 -1.4866216 -0.36106941 0 11
1.1848847 -1.5046808 -0.34723032 0 12
1.1694902 -1.4851314 -0.32479042 0 13
1.1837372 -1.5032237 -0.31065735 0 14
1.182309 -1.5014101 -0.29226854 0 15
1.1789457 -1.4971389 -0.27352479 0 16
1.1764685 -1.4939932 -0.25512254 0 17
1.1730416 -1.4896413 -0.23664761 0 18
1.1818999 -1.5008905 -0.22060996 0 19
1.1786357 -1.4967452 -0.20226289 0 20
1.1759963 -1.4933937 -0.18414645 0 21
1.1774359 -1.4952216 -0.16671821 0 22
1.1746562 -1.4916917 -0.14874101 0 23
1.1787261 -1.49686 -0.13163723 0 24
1.1816272 -1.5005441 -0.11432116 0 25
1.1723272 -1.4887341 -0.095939435 0 26
1.1756387 -1.4929395 -0.078695416 0 27
1.1835557 -1.5029932 -0.061605826 0 28
1.1675385 -1.482653 -0.043401297 0 29
1.1591023 -1.4719398 -0.025849702 0 30
1.1808356 -1.4995389 -0.0087776333 0 31
1.1694041 -1.4850222 0.0086926585 0 32
1.1830997 -1.5024141 0.026384879 0 33
1.178645 -1.4967571 0.043814167 0 34
1.1890436 -1.5099623 0.061891478 0 35
1.1769652 -1.494624 0.078784212 0 36
1.1819588 -1.5009652 0.096727654 0 37
1.1710355 -1.4870939 0.11329643 0 38
1.1827072 -1.5019157 0.13208184 0 39
1.1711533 -1.4872435 0.14829746 0 40
1.181824 -1.5007941 0.16733955 0 41
1.1878359 -1.5084287 0.18600039 0 42
1.1752831 -1.4924878 0.20168756 0 43
1.1793755 -1.4976848 0.22013877 0 44
1.1774802 -1.495278 0.23754306 0 45
1.1712551 -1.4873728 0.25399199 0 46
1.1773802 -1.4951509 0.27316159 0 47
1.1808816 -1.4995973 0.29191566 0 48
1.1778132 -1.4957007 0.30910265 0 49
1.1777889 -1.49567 0.32709512 0 50
1.1844703 -1.5041547 0.34710893 0 51
1.1751237 -1.4922854 0.362445 0 52
1.1785678 -1.4966589 0.38169912 0 53
1.176456 -1.4939773 0.39924151 0 54
1.1649745 -1.4793969 0.41346344 0 55
1.1778113 -1.4956983 0.43641141 0 56
1.1792614 -1.4975399 0.45544124 0 57
1.1652743 -1.4797777 0.46839297 0 58
1.1833583 -1.5027426 0.49438602 0 59
1.1810262 -1.499781 0.51218784 0 60
1.1803705 -1.4989483 0.53076202 0 61
1.1730412 -1.489641 0.54630399 0 62
1.1775228 -1.4953319 0.56740117 0 63
1.1866785 -1.4694215 -0.5630638 0 0
1.1874286 -1.4703503 -0.54454303 0 1
1.1900936 -1.4736503 -0.52694619 0 2
1.1833159 -1.4652576 -0.50532877 0 3
1.1844555 -1.4666688 -0.48727292 0 4
1.1889168 -1.4721931 -0.47058415 0 5
1.1864911 -1.4691894 -0.45122212 0 6
1.1836709 -1.4656973 -0.43187195 0 7
1.1901308 -1.4736964 -0.41592881 0 8
1.1926233 -1.4767827 -0.3985354 0 9
1.1860245 -1.4686118 -0.37823692 0 10
1.1906432 -1.4743309 -0.36161283 0 11
1.1845548 -1.4667919 -0.3418223 0 12
1.1856765 -1.4681807 -0.32424733 0 13
1.1855952 -1.46808 -0.30638424 0 14
1.1946821 -1.4793321 -0.29080847 0 15
1.1887244 -1.4719548 -0.27157372 0 16
1.1921591 -1.4762079 -0.2545695 0 17
1.1841664 -1.466311 -0.23523672 0 18
1.1895036 -1.4729196 -0.21863203 0 19
1.1886566 -1.4718709 -0.20086148 0 20
1.1873719 -1.4702801 -0.18308289 0 21
1.1873722 -1.4702805 -0.16555272 0 22
1.1869547 -1.4697635 -0.14799865 0 23
1.1941147 -1.4786295 -0.13131535 0 24
1.1842992 -1.4664754 -0.11282653 0 25
1.1826103 -1.4643838 -0.095300145 0 26
1.1835728 -1.4655758 -0.078014292 0 27
1.1870819 -1.469921 -0.060843945 0 28
1.1895463 -1.4729726 -0.043542817 0 29
1.1938374 -1.4782861 -0.026216974 0 30
1.1775049 -1.4580621 -0.0086189499 0 31
1.1857023 -1.4682126 0.0086789522 0 32
1.1876546 -1.4706302 0.026081199 0 33
1.1934555 -1.4778132 0.043685909 0 34
1.1890721 -1.4723854 0.060945954 0 35
1.1942312 -1.4787736 0.078716822 0 36
1.1879859 -1.4710404 0.095733345 0 37
1.1961442 -1.4811425 0.11395498 0 38
1.1868057 -1.469579 0.1305116 0 39
1.1854728 -1.4679285 0.14781387 0 40
1.1750208 -1.4549862 0.16383058 0 41
1.1772532 -1.4577506 0.18152268 0 42
1.1907494 -1.4744624 0.20121513 0 43
1.1791774 -1.4601331 0.21673407 0 44
1.1900715 -1.4736228 0.23640974 0 45
1.1873317 -1.4702303 0.25353867 0 46
1.1898457 -1.4733434 0.27182987 0 47
1.1865958 -1.469319 0.28884009 0 48
1.1901448 -1.4737136 0.30755994 0 49
1.1901977 -1.4737792 0.32548377 0 50
1.1896996 -1.4731624 0.3433069 0 51
1.184175 -1.4663216 0.35964835 0 52
1.1964707 -1.4815469 0.38156834 0 53
1.1906632 -1.4743556 0.39788041 0 54
1.1862458 -1.4688858 0.41457108 0 55
1.185595 -1.4680799 0.43257397 0 56
1.1908267 -1.474558 0.45287094 0 57
1.1856756 -1.4681797 0.46930128 0 58
1.1888729 -1.4721388 0.48909017 0 59
1.1923721 -1.4764717 0.50919616 0 60
1.1949553 -1.4796704 0.52909881 0 61
1.1934646 -1.4778246 0.54731113 0 62
1.1770461 -1.4574939 0.55849332 0 63
1.2039001 -1.4538066 -0.56271046 0 0
1.2043546 -1.4543555 -0.54406285 0 1
1.1963495 -1.4446887 -0.52181095 0 2
1.196064 -1.4443439 -0.50315028 0 3
1.2005273 -1.4497337 -0.48651424 0 4
1.1961064 -1.4443951 -0.46636468 0 5
1.201772 -1.4512367 -0.45021293 0 6
1.2025605 -1.452189 -0.43221611 0 7
1.1967421 -1.4451628 -0.41199777 0 8
1.1994076 -1.4483814 -0.39482111 0 9
1.2014815 -1.4508859 -0.37744814 0 10
1.2056509 -1.4559208 -0.3607063 0 11
1.2016798 -1.4511254 -0.34158906 0 12
1.1942106 -1.4421058 -0.32170746 0 13
1.1993165 -1.4482715 -0.30530488 0 14
1.1960969 -1.4443835 -0.28680784 0 15
1.1959333 -1.4441861 -0.26914325 0 16
1.1925416 -1.4400903 -0.25085089 0 17
1.1951417 -1.44323 -0.23387387 0 18
1.196097 -1.4443837 -0.21656308 0 19
1.1929942 -1.4406369 -0.19858599 0 20
1.1980006 -1.4466825 -0.18196507 0 21
1.1908104 -1.4379997 -0.16355433 0 22
1.195308 -1.4434309 -0.14681599 0 23
1.198649 -1.4474655 -0.12984687 0 24
1.1928982 -1.4405209 -0.11194975 0 25
1.1942112 -1.4421065 -0.094798848 0 26
1.1989907 -1.4478781 -0.077851139 0 27
1.2016714 -1.4511153 -0.060672566 0 28
1.2051883 -1.4553622 -0.043457028 0 29
1.1990643 -1.4479668 -0.025938796 0 30
1.1915261 -1.4388639 -0.0085914237 0 31
1.2022449 -1.4518079 0.0086687123 0 32
1.1989219 -1.447795 0.025935717 0 33
1.2014192 -1.4508108 0.043321121 0 34
1.1970707 -1.4455595 0.06044028 0 35
1.1891677 -1.4360161 0.077213332 0 36
1.1921288 -1.4395918 0.094633542 0 37
1.1978035 -1.4464445 0.11241011 0 38
1.195915 -1.4441638 0.1295507 0 39
1.1882279 -1.4348812 0.14594637 0 40
1.1959219 -1.4441723 0.16425636 0 41
1.1976138 -1.4462155 0.18190633 0 42
1.197956 -1.4466285 0.1994119 0 43
1.1993625 -1.4483272 0.21715434 0 44
1.2011005 -1.4504257 0.23503993 0 45
1.1988397 -1.4476957 0.25217569 0 46
1.1931069 -1.4407729 0.26850715 0 47
1.1969562 -1.4454212 0.28701389 0 48
1.1991087 -1.4480207 0.30525202 0 49
1.19138 -1.4386877 0.32094494 0 50
1.1961606 -1.4444604 0.34002015 0 51
1.1967875 -1.4452175 0.35805455 0 52
1.1989981 -1.4478871 0.37666798 0 53
1.2003896 -1.4495674 0.3951444 0 54
1.1960387 -1.4443134 0.41175562 0 55
1.1892972 -1.4361725 0.42744908 0 56
1.2005222 -1.4497274 0.4497447 0 57
1.2009234 -1.450212 0.46824282 0 58
1.199249 -1.4481901 0.48599622 0 59
1.1947981 -1.4428153 0.50261778 0 60
1.1943686 -1.4422965 0.52094692 0 61
1.2015703 -1.4509932 0.54280502 0 62
1.1935579 -1.4413174 0.55787641 0 63
1.2143089 -1.4302071 -0.55931324 0 0
1.2083611 -1.423202 -0.53792644 0 1
1.2116573 -1.4270842 -0.52079439 0 2
1.2087908 -1.423708 -0.50110167 0 3
1.2114611 -1.4268529 -0.4837983 0 4
1.2146565 -1.4306166 -0.46670312 0 5
1.1971666 -1.410017 -0.44195887 0 6
1.208838 -1.4237635 -0.42814758 0 7
1.2201256 -1.4370581 -0.41393316 0 8
1.2139554 -1.4297909 -0.39379275 0 9
1.2070135 -1.4216146 -0.37366614 0 10
1.1966282 -1.4093829 -0.3527953 0 11
1.2084594 -1.4233177 -0.33851558 0 12
1.2046446 -1.4188246 -0.31979418 0 13
1.2021755 -1.4159164 -0.30157769 0 14
1.204565 -1.418731 -0.28463373 0 15
1.2104884 -1.4257075 -0.26845318 0 16
1.20358 -1.4175708 -0.24948734 0 17
1.1980028 -1.4110019 -0.23102105 0 18
1.2094653 -1.4245024 -0.21579571 0 19
1.2123218 -1.4278668 -0.19886556 0 20
1.215593 -1.4317195 -0.18194938 0 21
1.2042813 -1.4183967 -0.16299666 0 22
1.200983 -1.414512 -0.14536567 0 23
1.2033571 -1.4173083 -0.12845926 0 24
1.2042193 -1.4183238 -0.11136706 0 25
1.2067617 -1.4213182 -0.094400622 0 26
1.2103249 -1.4255149 -0.077443071 0 27
1.210457 -1.4256704 -0.06022647 0 28
1.2126294 -1.4282291 -0.043088824 0 29
1.2132921 -1.4290097 -0.025864504 0 30
1.2108409 -1.4261227 -0.008603598 0 31
1.2153794 -1.431468 0.008635846 0 32
1.2133994 -1.429136 0.025866792 0 33
1.2073518 -1.4220133 0.042901292 0 34
1.2020353 -1.4157515 0.05980745 0 35
1.2022147 -1.4159627 0.07692413 0 36
1.2130342 -1.4287058 0.094891295 0 37
1.1903747 -1.4020177 0.11008671 0 38
1.2028764 -1.4167421 0.12840794 0 39
1.2228899 -1.4403138 0.14801724 0 40
1.2106237 -1.4258668 0.16385511 0 41
1.2130799 -1.4287597 0.18157321 0 42
1.2059395 -1.4203498 0.19781864 0 43
1.2004706 -1.4139085 0.21419086 0 44
1.2039814 -1.4180436 0.23217396 0 45
1.203671 -1.4176779 0.24950619 0 46
1.2051975 -1.4194759 0.2672798 0 47
1.2126602 -1.4282653 0.28654656 0 48
1.2084584 -1.4233166 0.30315384 0 49
1.21329 -1.4290071 0.32208925 0 50
1.2059575 -1.4203709 0.33781475 0 51
1.210156 -1.4253159 0.3567836 0 52
1.209704 -1.4247836 0.37449908 0 53
1.2100908 -1.4252392 0.39253914 0 54
1.2090743 -1.4240419 0.41018397 0 55
1.2081257 -1.4229246 0.42789531 0 56
1.2073188 -1.4219742 0.44570675 0 57
1.2038417 -1.417879 0.46254778 0 58
1.2060891 -1.420526 0.48165306 0 59
1.2079346 -1.4226997 0.50074679 0 60
1.2171317 -1.433532 0.52314746 0 61
1.2050589 -1.4193127 0.53645635 0 62
1.2120504 -1.4275472 0.55827296 0 63
1.2243129 -1.4065642 -0.55591261 0 0
1.2144556 -1.3952397 -0.53296161 0 1
1.2195849 -1.4011325 -0.51675743 0 2
1.2303244 -1.4134706 -0.50278527 0 3
1.2145699 -1.395371 -0.47815162 0 4
1.2222009 -1.4041378 -0.46293283 0 5
1.2284275 -1.4112914 -0.44705915 0 6
1.220968 -1.4027215 -0.42630249 0 7
1.2165384 -1.3976325 -0.40685502 0 8
1.2184209 -1.3997952 -0.38962832 0 9
1.2301395 -1.4132582 -0.3754172 0 10
1.2219449 -1.4038438 -0.35514307 0 11
1.2264144 -1.4089786 -0.33866632 0 12
1.2336835 -1.4173297 -0.32285205 0 13
1.2151679 -1.3960578 -0.30050784 0 14
1.2275548 -1.4102887 -0.28594673 0 15
1.2127123 -1.3932369 -0.26512697 0 16
1.2236565 -1.4058101 -0.25004676 0 17
1.2205664 -1.4022601 -0.23202956 0 18
1.2192299 -1.4007246 -0.2144486 0 19
1.2240626 -1.4062766 -0.19793995 0 20
1.2145991 -1.3954045 -0.17921878 0 21
1.2091064 -1.3890941 -0.16132568 0 22
1.2221125 -1.4040363 -0.14582242 0 23
1.2129837 -1.3935487 -0.127648 0 24
1.2217615 -1.403633 -0.11138476 0 25
1.224255 -1.4064977 -0.094408996 0 26
1.2293445 -1.4123449 -0.077542961 0 27
1.2240864 -1.406304 -0.060039673 0 28
1.219198 -1.4006879 -0.042706985 0 29
1.2234427 -1.4055645 -0.025710505 0 30
1.2227981 -1.404824 -0.0085651698 0 31
1.2151575 -1.396046 0.0085116504 0 32
1.2012058 -1.3800174 0.025243198 0 33
1.2272279 -1.4099132 0.042988267 0 34
1.2166528 -1.3977638 0.059675064 0 35
1.2129422 -1.393501 0.076508358 0 36
1.2192134 -1.4007057 0.09402021 0 37
1.2180494 -1.3993683 0.11104634 0 38
1.2302811 -1.4134209 0.12946828 0 39
1.2200944 -1.4017178 0.14558163 0 40
1.2134126 -1.3940414 0.16190024 0 41
1.2141256 -1.3948605 0.17914891 0 42
1.2216252 -1.4034765 0.19754581 0 43
1.2144786 -1.3952661 0.2136129 0 44
1.2207609 -1.4024836 0.23206654 0 45
1.2185354 -1.3999268 0.24900031 0 46
1.2116511 -1.3920176 0.26489493 0 47
1.2256985 -1.4081562 0.28551432 0 48
1.2176043 -1.398857 0.30111036 0 49
1.2195561 -1.4010994 0.31915495 0 50
1.2178411 -1.3991292 0.33629888 0 51
1.2280787 -1.4108906 0.35692579 0 52
1.2247009 -1.4070101 0.37375742 0 53
1.2159828 -1.3969941 0.38884866 0 54
1.2175732 -1.3988212 0.40720108 0 55
1.2222635 -1.4042097 0.4267548 0 56
1.2313813 -1.4146849 0.44813415 0 57
1.2168195 -1.3979555 0.46089455 0 58
1.2286065 -1.4114969 0.48367748 0 59
1.2274747 -1.4101968 0.50162071 0 60
1.2302965 -1.4134386 0.52129608 0 61
1.2200323 -1.4016465 0.53540891 0 62
1.2267026 -1.4093096 0.55699766 0 63
1.2299094 -1.3783978 -0.5507161 0 0
1.2249085 -1.3727931 -0.53010076 0 1
1.2298207 -1.3782985 -0.51387447 0 2
1.2327746 -1.3816088 -0.49680629 0 3
1.2290397 -1.377423 -0.47714403 0 4
1.2263727 -1.3744341 -0.45807689 0 5
1.2311372 -1.3797737 -0.44183734 0 6
1.2311621 -1.3798018 -0.42390576 0 7
1.2320307 -1.3807752 -0.40632722 0 8
1.2262075 -1.3742489 -0.38668528 0 9
1.2356045 -1.3847805 -0.3718603 0 10
1.2287228 -1.3770679 -0.35216498 0 11
1.2286607 -1.3769984 -0.33458561 0 12
1.2295907 -1.3780407 -0.31732252 0 13
1.2342151 -1.3832234 -0.30098921 0 14
1.2337301 -1.3826798 -0.28340331 0 15
1.224427 -1.3722535 -0.26397911 0 16
1.2285093 -1.3768287 -0.24756011 0 17
1.2305709 -1.3791392 -0.23069017 0 18
1.236998 -1.3863422 -0.21455917 0 19
1.2241015 -1.3718888 -0.19520357 0 20
1.2212632 -1.3687077 -0.17770527 0 21
1.2367326 -1.3860449 -0.16272539 0 22
1.221927 -1.3694518 -0.14378016 0 23
1.2333297 -1.382231 -0.1279908 0 24
1.2302456 -1.3787745 -0.11060421 0 25
1.2297603 -1.3782307 -0.093519568 0 26
1.2314966 -1.3801767 -0.076602414 0 27
1.2271849 -1.3753443 -0.059357658 0 28
1.2258428 -1.3738402 -0.04234479 0 29
1.2252389 -1.3731635 -0.025391493 0 30
1.2361866 -1.3854328 -0.0085389754 0 31
1.2331111 -1.381986 0.008517731 0 32
1.2379969 -1.3874617 0.025655886 0 33
1.2235852 -1.3713102 0.042266808 0 34
1.2298009 -1.3782762 0.059484195 0 35
1.2349327 -1.3840275 0.076816149 0 36
1.221162 -1.3685943 0.092865691 0 37
1.2203737 -1.3677108 0.10971669 0 38
1.2305517 -1.3791176 0.1277025 0 39
1.2336618 -1.3826033 0.14516094 0 40
1.2224387 -1.3700252 0.16084464 0 41
1.2382988 -1.3878 0.18018413 0 42
1.2338771 -1.3828446 0.19676247 0 43
1.2286409 -1.3769761 0.21310964 0 44
1.2230462 -1.370706 0.22927953 0 45
1.2304267 -1.3789775 0.2479465 0 46
1.2230887 -1.3707536 0.26369056 0 47
1.22666 -1.3747561 0.2817792 0 48
1.2355186 -1.3846842 0.30130708 0 49
1.2223874 -1.3699677 0.31546354 0 50
1.2273604 -1.375541 0.3342315 0 51
1.2347823 -1.383859 0.35390171 0 52
1.2298741 -1.3783582 0.37013569 0 53
1.2334507 -1.3823667 0.38896945 0 54
1.2328583 -1.3817028 0.40660018 0 55
1.2317132 -1.3804194 0.42409554 0 56
1.2327218 -1.3815497 0.44240606 0 57
1.2286015 -1.376932 0.45890939 0 58
1.2279139 -1.3761613 0.47670695 0 59
1.2337914 -1.3827485 0.49721605 0 60
1.219725 -1.3669839 0.50965595 0 61
1.2273641 -1.3755451 0.53116345 0 62
1.2292018 -1.3776047 0.55039924 0 63
1.2269217 -1.3414756 -0.54195112 0 0
1.2389179 -1.354592 -0.52891511 0 1
1.2405021 -1.3563241 -0.51133013 0 2
1.235108 -1.3504263 -0.49101755 0 3
1.2304069 -1.3452863 -0.4712171 0 4
1.2368798 -1.3523636 -0.45575571 0 5
1.246801 -1.363211 -0.44140959 0 6
1.2430562 -1.3591167 -0.4222149 0 7
1.2365589 -1.3520126 -0.40230724 0 8
1.2395904 -1.3553272 -0.38562092 0 9
1.2403419 -1.3561488 -0.36823952 0 10
1.2332455 -1.3483899 -0.34868276 0 11
1.2379532 -1.3535372 -0.3325586 0 12
1.2401515 -1.3559407 -0.31572118 0 13
1.2435611 -1.3596686 -0.2991685 0 14
1.2449708 -1.36121 -0.28211918 0 15
1.2441849 -1.3603506 -0.26461241 0 16
1.2326733 -1.3477643 -0.24504107 0 17
1.2403942 -1.3562061 -0.22938807 0 18
1.2397962 -1.3555521 -0.21213731 0 19
1.2470201 -1.3634505 -0.19616994 0 20
1.2388988 -1.354571 -0.17783432 0 21
1.2429798 -1.359033 -0.16133635 0 22
1.24101 -1.3568794 -0.14405143 0 23
1.2359457 -1.3513422 -0.12652828 0 24
1.2380142 -1.3536038 -0.10979793 0 25
1.2402489 -1.3560473 -0.093042113 0 26
1.2402263 -1.3560225 -0.076102488 0 27
1.2481651 -1.3647026 -0.059556268 0 28
1.2417933 -1.3577358 -0.042315863 0 29
1.2400558 -1.355836 -0.025351133 0 30
1.2384001 -1.3540257 -0.0084386189 0 31
1.2501767 -1.3669019 0.0085188653 0 32
1.2416307 -1.3575579 0.025383329 0 33
1.2358862 -1.3512771 0.042114571 0 34
1.2460029 -1.3623384 0.0594531 0 35
1.2359691 -1.3513678 0.075841263 0 36
1.2389647 -1.354643 0.092945762 0 37
1.2435476 -1.3596538 0.11028868 0 38
1.2345188 -1.349782 0.1263822 0 39
1.2430527 -1.3591127 0.14428855 0 40
1.2401463 -1.355935 0.16096857 0 41
1.2404892 -1.3563099 0.17806262 0 42
1.2427042 -1.3587316 0.195491 0 43
1.2353331 -1.3506724 0.21137366 0 44
1.2361373 -1.3515517 0.22860083 0 45
1.2360435 -1.3514491 0.24571103 0 46
1.2416024 -1.357527 0.26406318 0 47
1.2338001 -1.3489962 0.27958778 0 48
1.2495247 -1.366189 0.30060318 0 49
1.2291367 -1.3438975 0.31291699 0 50
1.2436373 -1.3597521 0.33408558 0 51
1.2381465 -1.3537486 0.35006845 0 52
1.2447261 -1.3609424 0.36954111 0 53
1.2440335 -1.3601851 0.38700309 0 54
1.2367383 -1.3522089 0.40236562 0 55
1.2385713 -1.3542129 0.42069152 0 56
1.2381283 -1.3537285 0.43833917 0 57
1.2348051 -1.350095 0.45499119 0 58
1.2466129 -1.3630054 0.47742358 0 59
1.2412313 -1.3571213 0.49345186 0 60
1.2340391 -1.3492576 0.50866604 0 61
1.2387769 -1.3544378 0.52885497 0 62
1.2417724 -1.3577129 0.54851091 0 63
1.248291 -1.3315879 -0.54411662 0 0
1.2573726 -1.3412756 -0.52971256 0 1
1.2475098 -1.3307546 -0.50743526 0 2
1.2507931 -1.334257 -0.4906936 0 3
1.250141 -1.3335614 -0.47245899 0 4
1.2506073 -1.3340588 -0.45473498 0 5
1.2429578 -1.3258989 -0.43424404 0 6
1.2524072 -1.3359787 -0.41977942 0 7
1.2499495 -1.3333571 -0.40129924 0 8
1.2468696 -1.3300716 -0.38276851 0 9
1.2496896 -1.3330799 -0.36612043 0 10
1.2438197 -1.3268182 -0.34703332 0 11
1.2562149 -1.3400406 -0.33301264 0 12
1.2506378 -1.3340913 -0.31419075 0 13
1.2453122 -1.3284104 -0.2956377 0 14
1.2568502 -1.3407183 -0.28105402 0 15
1.251186 -1.3346761 -0.26259109 0 16
1.2339622 -1.316303 -0.24206142 0 17
1.250015 -1.333427 -0.22811778 0 18
1.2525712 -1.3361537 -0.21149595 0 19
1.2503731 -1.333809 -0.19410266 0 20
1.2502385 -1.3336655 -0.17709467 0 21
1.2480507 -1.3313316 -0.15985757 0 22
1.2568724 -1.340742 -0.14396814 0 23
1.248974 -1.3323165 -0.12617533 0 24
1.2505816 -1.3340315 -0.10944941 0 25
1.2549183 -1.3386575 -0.092900701 0 26
1.2549103 -1.338649 -0.075987726 0 27
1.2488233 -1.3321557 -0.058801614 0 28
1.2594496 -1.3434912 -0.042351376 0 29
1.2415037 -1.3243477 -0.02504592 0 30
1.2484555 -1.3317634 -0.0083949147 0 31
1.2560263 -1.3398395 0.0084458226 0 32
1.2448281 -1.327894 0.025112987 0 33
1.2479271 -1.3311998 0.041963909 0 34
1.2520216 -1.3355675 0.058952209 0 35
1.2516824 -1.3352057 0.075792275 0 36
1.2430913 -1.3260413 0.092025153 0 37
1.241032 -1.3238447 0.10861364 0 38
1.2518343 -1.3353677 0.12646429 0 39
1.2532357 -1.3368626 0.14355156 0 40
1.2384609 -1.3211019 0.15862925 0 41
1.2501322 -1.333552 0.1770796 0 42
1.2503775 -1.3338137 0.19410335 0 43
1.2465625 -1.3297441 0.21048138 0 44
1.2468448 -1.3300452 0.22753924 0 45
1.2562633 -1.3400922 0.24643615 0 46
1.2504138 -1.3338524 0.26242903 0 47
1.2491564 -1.3325111 0.27933353 0 48
1.2534075 -1.3370459 0.29755953 0 49
1.2512176 -1.3347098 0.31433639 0 50
1.2543561 -1.3380579 0.33251992 0 51
1.2516155 -1.3351344 0.34920841 0 52
1.2506295 -1.3340826 0.36639583 0 53
1.2547864 -1.3385167 0.38519886 0 54
1.2556388 -1.3394262 0.40312582 0 55
1.258876 -1.3428793 0.42194763 0 56
1.2539964 -1.337674 0.43810052 0 57
1.2537016 -1.3373597 0.45586011 0 58
1.250576 -1.3340255 0.47262338 0 59
1.2482028 -1.3314939 0.48967743 0 60
1.2549205 -1.3386598 0.51044965 0 61
1.2526753 -1.3362648 0.52773368 0 62
1.2466359 -1.3298224 0.54339516 0 63
1.2650623 -1.3166521 -0.54432875 0 0
1.256759 -1.3080102 -0.52263868 0 1
1.2675753 -1.3192675 -0.50896001 0 2
1.25173 -1.302776 -0.4847399 0 3
1.2614113 -1.3128521 -0.47058171 0 4
1.2639011 -1.3154435 -0.45365295 0 5
1.2602973 -1.3116927 -0.434634 0 6
1.2663877 -1.3180315 -0.41900143 0 7
1.2633016 -1.3148196 -0.40036505 0 8
1.2536595 -1.3047843 -0.37989891 0 9
1.2616835 -1.3131354 -0.36487612 0 10
1.2583114 -1.3096259 -0.34655735 0 11
1.2571787 -1.308447 -0.32897815 0 12
1.2569903 -1.3082509 -0.31172165 0 13
1.2536342 -1.304758 -0.29378229 0 14
1.2584354 -1.309755 -0.27778605 0 15
1.2602649 -1.311659 -0.26109177 0 16
1.262741 -1.314236 -0.24451822 0 17
1.2660878 -1.3177193 -0.22807671 0 18
1.2674959 -1.3191848 -0.21126103 0 19
1.26217 -1.3136418 -0.19341178 0 20
1.267228 -1.3189062 -0.17719057 0 21
1.2574573 -1.3087369 -0.15898915 0 22
1.2600399 -1.3114249 -0.14247304 0 23
1.2603765 -1.3117751 -0.12568821 0 24
1.2578216 -1.309116 -0.10866599 0 25
1.2666483 -1.3183028 -0.09256202 0 26
1.2608111 -1.3122275 -0.075362273 0 27
1.2553358 -1.3065289 -0.058347385 0 28
1.2650326 -1.3166212 -0.041991528 0 29
1.2593504 -1.3107073 -0.025078919 0 30
1.2540132 -1.3051523 -0.0083237411 0 31
1.2573889 -1.3086658 0.0083461478 0 32
1.266901 -1.3185657 0.025229283 0 33
1.2661046 -1.3177369 0.042027112 0 34
1.2483138 -1.2992206 0.058021005 0 35
1.2616752 -1.3131269 0.075413927 0 36
1.2670074 -1.3186765 0.092588253 0 37
1.2589141 -1.3102531 0.10876038 0 38
1.2661644 -1.3177992 0.12626542 0 39
1.2625248 -1.3140111 0.142754 0 40
1.2681985 -1.3199162 0.16034724 0 41
1.2599486 -1.3113297 0.1761727 0 42
1.250514 -1.3015105 0.19162565 0 43
1.2612935 -1.3127296 0.21022725 0 44
1.264564 -1.3161335 0.22780225 0 45
1.2660606 -1.3176911 0.24516104 0 46
1.2676821 -1.3193787 0.26262841 0 47
1.2675353 -1.3192259 0.27979475 0 48
1.2630107 -1.3145169 0.29597965 0 49
1.2626936 -1.3141868 0.31313604 0 50
1.2663251 -1.3179663 0.33137158 0 51
1.2534665 -1.3045833 0.34522298 0 52
1.2640913 -1.3156414 0.36557245 0 53
1.2597044 -1.3110757 0.38173071 0 54
1.251157 -1.3021797 0.3965162 0 55
1.2489115 -1.2998426 0.41321918 0 56
1.2680421 -1.3197534 0.43730494 0 57
1.2570996 -1.3083646 0.45121166 0 58
1.2570033 -1.3082644 0.46893725 0 59
1.2657763 -1.3173951 0.49017945 0 60
1.2564505 -1.3076891 0.50449318 0 61
1.2634836 -1.315009 0.52543515 0 62
1.2648598 -1.3164413 0.54424161 0 63
1.2708232 -1.2905055 -0.53993881 0 0
1.2670194 -1.2866427 -0.5202868 0 1
1.2725954 -1.2923051 -0.50455707 0 2
1.2682699 -1.2879126 -0.48497558 0 3
1.2731198 -1.2928376 -0.46898356 0 4
1.2641245 -1.2837031 -0.44803354 0 5
1.263768 -1.2833409 -0.4303562 0 6
1.2673949 -1.2870241 -0.41406721 0 7
1.2737172 -1.2934443 -0.3985953 0 8
1.2734202 -1.2931427 -0.38103968 0 9
1.2742863 -1.2940222 -0.36389163 0 10
1.2749674 -1.2947139 -0.34673375 0 11
1.2729133 -1.2926279 -0.32891136 0 12
1.2681115 -1.2877518 -0.31052926 0 13
1.2674389 -1.2870687 -0.29328635 0 14
1.2664138 -1.2860277 -0.27603564 0 15
1.2632604 -1.2828255 -0.25842485 0 16
1.2762734 -1.2960401 -0.24403422 0 17
1.2647405 -1.2843285 -0.22497205 0 18
1.2770644 -1.2968434 -0.21018209 0 19
1.2724044 -1.2921112 -0.19253083 0 20
1.2699178 -1.2895861 -0.17533614 0 21
1.2730527 -1.2927696 -0.15893906 0 22
1.2676324 -1.2872652 -0.14153105 0 23
1.2648674 -1.2844574 -0.1245516 0 24
1.2739197 -1.2936499 -0.10867426 0 25
1.269246 -1.2889038 -0.091586731 0 26
