# .PCD v0.7 - Point Cloud Data file format
VERSION 0.7
FIELDS x y z intensity ring
SIZE 4 4 4 4 2
TYPE F F F F U
COUNT 1 1 1 1 1
WIDTH 1366
HEIGHT 1
VIEWPOINT 0 0 0 1 0 0 0
POINTS 1366
DATA ascii
-2.8607113 2.86953 -0.73461616 0 12
-3.0234201 3.0327404 -0.73578334 0 13
-3.1992979 3.2091603 -0.73574257 0 14
-3.3761914 3.3865991 -0.73134613 0 15
-3.5946171 3.6056983 -0.73080319 0 16
-3.8692827 3.8812103 -0.7352649 0 17
-4.1758556 4.1887283 -0.73820853 0 18
-4.4634886 4.4772482 -0.73006862 0 19
-4.5776768 4.5917883 -0.68837744 0 20
-4.5786948 4.5928097 -0.62826657 0 21
-4.5725145 4.5866103 -0.56734306 0 22
-4.5732594 4.587357 -0.50744694 0 23
-4.5760407 4.5901475 -0.44781703 0 24
-4.5778475 4.5919595 -0.38810778 0 25
-4.5843635 4.598496 -0.3287549 0 26
-4.5775061 4.5916171 -0.26850313 0 27
-4.5644822 4.5785532 -0.2081946 0 28
-4.5661106 4.5801868 -0.14873829 0 29
-4.5750961 4.5891995 -0.089408509 0 30
-4.5777574 4.5918689 -0.02981849 0 31
-4.5782981 4.5924115 0.029822012 0 32
-4.5717649 4.5858583 0.089343414 0 33
-4.5769668 4.5910759 0.14909193 0 34
-4.5767903 4.590899 0.20875598 0 35
-4.576026 4.5901327 0.26841632 0 36
-4.5645795 4.5786505 0.32733613 0 37
-4.5780458 4.5921588 0.38812461 0 38
-4.5789094 4.5930247 0.44809777 0 39
-4.568985 4.5830693 0.50697267 0 40
-4.5748701 4.5889726 0.5676353 0 41
-4.5795059 4.5936232 0.62837785 0 42
-4.5710049 4.5850959 0.68737411 0 43
-4.5694766 4.5835633 0.74740458 0 44
-4.5713692 4.5854611 0.80812746 0 45
-4.5775876 4.5916986 0.86986136 0 46
-4.5682416 4.582324 0.92874575 0 47
-4.5795913 4.593709 0.99202508 0 48
-4.5750947 4.5891986 1.0521346 0 49
-4.5863342 4.6004725 1.1161362 0 50
-4.5742521 4.5883532 1.1746448 0 51
-4.569478 4.5835643 1.2350087 0 52
-4.5814881 4.5956111 1.3002235 0 53
-4.5800581 4.5941768 1.3619961 0 54
-4.5632062 4.5772729 1.4191738 0 55
-4.5799961 4.5941148 1.4870664 0 56
-4.5779047 4.5920172 1.5492942 0 57
-4.5753345 4.5894389 1.6115727 0 58
-4.5738463 4.5879464 1.674466 0 59
-4.5782561 4.5923691 1.7398614 0 60
0 0 0 0 61
0 0 0 0 62
0 0 0 0 63
-1.7619891 1.7244841 -0.73498392 0 0
-1.8232503 1.7844412 -0.73505706 0 1
-1.8823683 1.842301 -0.732723 0 2
-1.9528003 1.9112338 -0.7331304 0 3
-2.040107 1.996682 -0.7378304 0 4
-2.1049001 2.060096 -0.73243213 0 5
-2.1952467 2.1485195 -0.73393792 0 6
-2.2834518 2.2348471 -0.73242968 0 7
-2.3752692 2.3247101 -0.72977203 0 8
-2.5054846 2.4521537 -0.73604679 0 9
-2.6204855 2.5647068 -0.73468649 0 10
-2.7481132 2.6896179 -0.7337479 0 11
-2.9106388 2.8486841 -0.73838627 0 12
-3.0701978 3.0048468 -0.73811948 0 13
-3.2207031 3.1521485 -0.73169607 0 14
-3.4363732 3.3632278 -0.73536861 0 15
-3.6650643 3.5870512 -0.7361024 0 16
-3.9387274 3.8548892 -0.73939776 0 17
-4.1905303 4.1013322 -0.73183203 0 18
-4.5365558 4.4399924 -0.73303437 0 19
-4.6477337 4.5488038 -0.69044894 0 20
-4.658556 4.5593958 -0.63148409 0 21
-4.6587043 4.5595412 -0.57103753 0 22
-4.6514902 4.5524807 -0.50987744 0 23
-4.6641107 4.5648322 -0.45090848 0 24
-4.6594577 4.5602784 -0.39024311 0 25
-4.6559176 4.5568137 -0.32984304 0 26
-4.6540313 4.5549674 -0.2696861 0 27
-4.6623087 4.5630684 -0.21008149 0 28
-4.6541171 4.5550513 -0.1497692 0 29
-4.65626 4.5571489 -0.08989276 0 30
-4.6511188 4.5521169 -0.029929478 0 31
-4.6495647 4.5505958 0.029919477 0 32
-4.6531215 4.5540771 0.089832164 0 33
-4.6570845 4.5579557 0.1498647 0 34
-4.6675925 4.5682397 0.21031956 0 35
-4.6593699 4.5601926 0.26999545 0 36
-4.6558871 4.5567837 0.32984087 0 37
-4.6566548 4.5575352 0.39000836 0 38
-4.6549554 4.555872 0.45002341 0 39
-4.6593375 4.5601606 0.5107376 0 40
-4.6628065 4.5635557 0.5715403 0 41
-4.6554418 4.5563478 0.63106191 0 42
-4.6521916 4.5531669 0.69111121 0 43
-4.6507468 4.551753 0.75148588 0 44
-4.6598029 4.560616 0.81378549 0 45
-4.6548829 4.5558009 0.87383813 0 46
-4.6616921 4.5624652 0.93626809 0 47
-4.658958 4.5597892 0.99699634 0 48
-4.658236 4.5590825 1.0582823 0 49
-4.6548896 4.5558071 1.119102 0 50
-4.6602502 4.5610538 1.1822369 0 51
-4.659307 4.5601306 1.2440377 0 52
-4.6600547 4.5608625 1.3065058 0 53
-4.662137 4.5629005 1.3696157 0 54
-4.6546426 4.5555654 1.4300812 0 55
-4.654644 4.5555673 1.4930027 0 56
-4.6605353 4.5613332 1.5581591 0 57
-4.6709123 4.5714893 1.6253154 0 58
-4.6532598 4.5542121 1.68291 0 59
-4.6527896 4.5537519 1.7467744 0 60
0 0 0 0 61
0 0 0 0 62
0 0 0 0 63
-1.7723622 1.6924741 -0.73057449 0 0
-1.8443981 1.761263 -0.73479617 0 1
-1.9072673 1.8212985 -0.73364198 0 2
-1.9853365 1.8958488 -0.73653769 0 3
-2.067677 1.9744776 -0.73896468 0 4
-2.1475198 2.0507219 -0.73843199 0 5
-2.2336934 2.1330111 -0.73796701 0 6
-2.3128903 2.2086382 -0.7331056 0 7
-2.421731 2.3125732 -0.73525453 0 8
-2.5423691 2.4277735 -0.73805666 0 9
-2.6606266 2.5407007 -0.73712587 0 10
-2.781395 2.6560254 -0.73385853 0 11
-2.9264305 2.7945235 -0.73361963 0 12
-3.0913939 2.9520512 -0.73443282 0 13
-3.2630706 3.1159899 -0.73256123 0 14
-3.4805508 3.323667 -0.73602092 0 15
-3.7117174 3.544414 -0.73666316 0 16
-3.9410522 3.7634118 -0.73109168 0 17
-4.2490134 4.0574918 -0.73327678 0 18
-4.6156135 4.4075675 -0.7369957 0 19
-4.7369332 4.5234189 -0.6953845 0 20
-4.7385068 4.5249214 -0.63473141 0 21
-4.7440491 4.5302143 -0.5746271 0 22
-4.7392392 4.5256209 -0.51335728 0 23
-4.7352991 4.5218587 -0.45238104 0 24
-4.7450266 4.531148 -0.39271361 0 25
-4.745532 4.53163 -0.33221892 0 26
-4.7314811 4.5182128 -0.27093419 0 27
-4.7265229 4.5134778 -0.21045823 0 28
-4.7437091 4.5298896 -0.15084839 0 29
-4.7536879 4.5394187 -0.090689197 0 30
-4.7445712 4.5307126 -0.030170055 0 31
-4.7380228 4.5244594 0.030128416 0 32
-4.7414455 4.5277281 0.090455644 0 33
-4.7401409 4.5264821 0.15073492 0 34
-4.7493691 4.5352945 0.21147552 0 35
-4.7413306 4.5276184 0.27149817 0 36
-4.7423329 4.5285754 0.33199495 0 37
-4.7363582 4.5228696 0.39199615 0 38
-4.7427959 4.5290174 0.45309722 0 39
-4.744554 4.5306964 0.513933 0 40
-4.7384233 4.5248418 0.57394564 0 41
-4.7504234 4.5363011 0.63632768 0 42
-4.7544212 4.5401192 0.69795179 0 43
-4.7369204 4.523407 0.75636536 0 44
-4.7395959 4.5259619 0.81793946 0 45
-4.7431464 4.5293522 0.87988555 0 46
-4.7425213 4.5287552 0.94124639 0 47
-4.7283874 4.5152583 0.99989694 0 48
-4.7438698 4.5300431 1.0650015 0 49
-4.7369084 4.5233951 1.1253632 0 50
-4.7399988 4.5263462 1.1882585 0 51
-4.7389464 4.5253415 1.2503496 0 52
-4.7450318 4.5311527 1.3146098 0 53
-4.7452908 4.5313997 1.3775709 0 54
-4.7362089 4.5227275 1.4379463 0 55
-4.7277355 4.514636 1.4985274 0 56
-4.7430129 4.5292249 1.5669954 0 57
-4.743187 4.5293908 1.6309609 0 58
-4.7316689 4.5183916 1.6910456 0 59
-4.7308302 4.517591 1.7550851 0 60
0 0 0 0 61
0 0 0 0 62
0 0 0 0 63
-1.8053647 1.6820387 -0.73559701 0 0
-1.8676856 1.7401023 -0.73549366 0 1
-1.9437937 1.8110113 -0.73907024 0 2
-2.0033605 1.8665092 -0.73465413 0 3
-2.0701718 1.9287565 -0.73132491 0 4
-2.1639254 2.0161057 -0.735493 0 5
-2.241874 2.0887294 -0.73212886 0 6
-2.3341177 2.1746719 -0.7313028 0 7
-2.4451368 2.2781072 -0.73380035 0 8
-2.5541685 2.3796909 -0.73293191 0 9
-2.6778753 2.4949472 -0.73334956 0 10
-2.8121223 2.6200237 -0.73341006 0 11
-2.97124 2.7682719 -0.73626369 0 12
-3.1197002 2.9065905 -0.73261118 0 13
-3.3161006 3.0895748 -0.73588192 0 14
-3.4991355 3.2601063 -0.73141843 0 15
-3.7442389 3.4884665 -0.73454863 0 16
-4.003973 3.7304578 -0.73419893 0 17
-4.3182755 4.0232902 -0.73663634 0 18
-4.6786795 4.3590746 -0.73845118 0 19
-4.8329554 4.5028114 -0.70129943 0 20
-4.8250709 4.4954658 -0.63887388 0 21
-4.8190908 4.4898939 -0.5769856 0 22
-4.8244123 4.4948521 -0.51655722 0 23
-4.8240685 4.4945321 -0.45554721 0 24
-4.8269467 4.4972134 -0.39488691 0 25
-4.8322134 4.5021205 -0.33438632 0 26
-4.8168616 4.4878173 -0.27264267 0 27
-4.8239923 4.4944611 -0.21232139 0 28
-4.8120532 4.4833374 -0.15125719 0 29
-4.8266416 4.4969292 -0.091019176 0 30
-4.8294473 4.4995432 -0.030355649 0 31
-4.8275785 4.4978023 0.030343903 0 32
-4.8268132 4.4970894 0.091022417 0 33
-4.8400931 4.5094619 0.15213856 0 34
-4.8165941 4.4875684 0.21199577 0 35
-4.8224454 4.4930201 0.27295873 0 36
-4.8292809 4.4993882 0.33418339 0 37
-4.819253 4.4900455 0.39425752 0 38
-4.8310308 4.5010185 0.45620468 0 39
-4.8149343 4.4860215 0.51554239 0 40
-4.8213263 4.4919767 0.57725322 0 41
-4.8319693 4.501893 0.63978732 0 42
-4.8103933 4.481791 0.69802552 0 43
-4.8316565 4.5016017 0.76259607 0 44
-4.8249645 4.4953666 0.82307023 0 45
-4.8266921 4.4969764 0.885059 0 46
-4.8256078 4.495966 0.94669271 0 47
-4.8354573 4.5051427 1.0107474 0 48
-4.8268313 4.4971061 1.071131 0 49
-4.8240561 4.4945207 1.1328517 0 50
-4.8288651 4.4990005 1.1965772 0 51
-4.8184719 4.4893179 1.2566721 0 52
-4.8335543 4.5033698 1.323693 0 53
-4.8236871 4.4941764 1.384182 0 54
-4.839252 4.508678 1.4522889 0 55
-4.8275576 4.4977827 1.5125228 0 56
-4.8283143 4.4984875 1.5767828 0 57
-4.8237891 4.4942713 1.6395497 0 58
-4.8226738 4.4932327 1.7036951 0 59
0 0 0 0 60
0 0 0 0 61
0 0 0 0 62
0 0 0 0 63
-1.8246944 1.6586087 -0.73510736 0 0
-1.9003645 1.7273912 -0.73994201 0 1
-1.9458457 1.7687327 -0.73152566 0 2
-2.0194719 1.8356574 -0.73222953 0 3
-2.1175165 1.9247779 -0.7396332 0 4
-2.1921232 1.9925936 -0.7366935 0 5
-2.2835968 2.0757413 -0.7373631 0 6
-2.3768938 2.1605463 -0.73632556 0 7
-2.4793379 2.2536659 -0.73569214 0 8
-2.5929029 2.356894 -0.73567492 0 9
-2.7297277 2.4812648 -0.73913819 0 10
-2.8564198 2.5964253 -0.73658067 0 11
-2.9833465 2.7117989 -0.73094547 0 12
-3.1449659 2.8587077 -0.73023432 0 13
-3.3352494 3.0316713 -0.7318033 0 14
-3.5442464 3.2216451 -0.73251188 0 15
-3.7868919 3.4422047 -0.73455703 0 16
-4.0705533 3.7000473 -0.7380091 0 17
-4.3820486 3.9831898 -0.73910415 0 18
-4.6908698 4.2639017 -0.73204452 0 19
-4.9093394 4.4624858 -0.70436764 0 20
-4.9050722 4.4586072 -0.64215887 0 21
-4.9007387 4.454668 -0.58015901 0 22
-4.9100637 4.4631443 -0.51981258 0 23
-4.9051371 4.4586658 -0.45799074 0 24
-4.9020944 4.4559002 -0.39652222 0 25
-4.9021454 4.4559464 -0.3354086 0 26
-4.9118986 4.4648123 -0.27489361 0 27
-4.8944678 4.4489679 -0.21299933 0 28
-4.9041519 4.4577703 -0.1524176 0 29
-4.9126077 4.4654565 -0.091597907 0 30
-4.9098973 4.4629931 -0.030514071 0 31
-4.9011416 4.4550343 0.030459655 0 32
-4.9058914 4.4593515 0.091472678 0 33
-4.9054084 4.4589128 0.15245666 0 34
-4.9163837 4.4688892 0.21395308 0 35
-4.9129066 4.4657288 0.27495003 0 36
-4.9118352 4.4647546 0.33607161 0 37
-4.9042468 4.4578571 0.39669633 0 38
-4.9128861 4.4657097 0.45871425 0 39
-4.9116125 4.4645524 0.51997656 0 40
-4.9020653 4.455874 0.58031607 0 41
-4.9025726 4.4563351 0.64183164 0 42
-4.9037457 4.4574013 0.70356512 0 43
-4.9091277 4.4622936 0.76610529 0 44
-4.9108787 4.4638848 0.82829988 0 45
-4.91854 4.470849 0.89175272 0 46
-4.9080215 4.461288 0.95202661 0 47
-4.9167142 4.4691896 1.0161685 0 48
-4.9095502 4.4626775 1.0772283 0 49
-4.904592 4.4581704 1.1388046 0 50
-4.9094462 4.4625831 1.2028564 0 51
-4.9180336 4.4703889 1.2682059 0 52
-4.9137497 4.466495 1.3305137 0 53
-4.9072986 4.4606309 1.3923301 0 54
-4.9039617 4.4575977 1.4551491 0 55
-4.9130669 4.4658742 1.5219935 0 56
-4.9084668 4.4616923 1.5849217 0 57
-4.9022236 4.456018 1.6474606 0 58
-4.9059472 4.4594026 1.7136118 0 59
0 0 0 0 60
0 0 0 0 61
0 0 0 0 62
0 0 0 0 63
-1.8355856 1.6277436 -0.73137617 0 0
-1.8983471 1.6833987 -0.73104137 0 1
-1.9891527 1.7639225 -0.73959649 0 2
-2.0499651 1.8178492 -0.73512536 0 3
-2.1310601 1.8897619 -0.73619163 0 4
-2.1993909 1.9503555 -0.73102105 0 5
-2.3017142 2.0410929 -0.73505342 0 6
-2.3842609 2.1142929 -0.73049867 0 7
-2.5053728 2.2216914 -0.73525548 0 8
-2.6156671 2.3194971 -0.7339859 0 9
-2.7349544 2.4252777 -0.73242295 0 10
-2.8750224 2.5494859 -0.7332381 0 11
-3.0331817 2.6897368 -0.7349965 0 12
-3.2066383 2.8435533 -0.73637974 0 13
-3.3920503 3.007971 -0.73609501 0 14
-3.613513 3.2043579 -0.73862827 0 15
-3.851835 3.4156947 -0.73895133 0 16
-4.0864334 3.6237297 -0.73275399 0 17
-4.3914247 3.894187 -0.7325536 0 18
-4.7565484 4.217968 -0.73414457 0 19
-4.9854536 4.4209542 -0.70743501 0 20
-5.0031562 4.4366531 -0.64780861 0 21
-4.9971414 4.4313192 -0.58507657 0 22
-5.0042424 4.4376159 -0.52396655 0 23
-5.005373 4.4386187 -0.46221873 0 24
-4.9951396 4.4295435 -0.39961246 0 25
-5.0019951 4.4356232 -0.33848298 0 26
-4.9956498 4.429996 -0.27651125 0 27
-4.9925079 4.4272103 -0.21488053 0 28
-4.99231 4.4270344 -0.15345404 0 29
-4.9940705 4.428596 -0.092094503 0 30
-5.0000048 4.4338579 -0.030732909 0 31
-5.0040402 4.4374366 0.030757714 0 32
-4.9969521 4.4311509 0.092147633 0 33
-4.9997668 4.4336472 0.15368323 0 34
-4.9920535 4.4268074 0.21486098 0 35
-5.0006528 4.4344325 0.27678815 0 36
-5.0008564 4.4346132 0.33840594 0 37
-4.9941316 4.4286499 0.39953184 0 38
-4.9927359 4.427412 0.46105176 0 39
-4.9958315 4.4301572 0.52308589 0 40
-5.0013471 4.4350486 0.58556896 0 41
-4.9863248 4.4217272 0.64562929 0 42
-4.9963531 4.4306197 0.70898169 0 43
-4.9998345 4.4337072 0.77169436 0 44
-5.0033684 4.4368405 0.83463472 0 45
-5.0032945 4.4367752 0.89715987 0 46
-4.9913611 4.4261932 0.95756263 0 47
-4.9936628 4.4282341 1.0207409 0 48
-4.998415 4.4324484 1.0846857 0 49
-4.9918175 4.4265981 1.1463324 0 50
-4.9901228 4.4250951 1.2091998 0 51
-4.9987807 4.4327726 1.2748758 0 52
-4.9974289 4.4315739 1.3383154 0 53
-4.9943604 4.428853 1.4014742 0 54
-4.9875026 4.4227719 1.4636899 0 55
-4.9886527 4.4237914 1.5284418 0 56
-4.9933448 4.4279523 1.5946269 0 57
-4.9933467 4.4279537 1.6596602 0 58
-5.0007644 4.4345317 1.7275536 0 59
0 0 0 0 60
0 0 0 0 61
0 0 0 0 62
0 0 0 0 63
-1.8558396 1.6053787 -0.73152548 0 0
-1.9296136 1.6691964 -0.7351222 0 1
-1.9868234 1.7186853 -0.73081738 0 2
-2.0680106 1.7889155 -0.73365277 0 3
-2.1486673 1.858687 -0.73432308 0 4
-2.2222757 1.9223614 -0.73071539 0 5
-2.3169715 2.0042772 -0.73199999 0 6
-2.4435558 2.1137779 -0.74064612 0 7
-2.5454803 2.2019467 -0.73902392 0 8
-2.6587532 2.2999327 -0.73808455 0 9
-2.7820897 2.4066236 -0.73706508 0 10
-2.9391961 2.5425274 -0.74157524 0 11
-3.0877872 2.6710649 -0.74021357 0 12
-3.2267907 2.7913086 -0.73307014 0 13
-3.4060955 2.9464147 -0.73122537 0 14
-3.6258104 3.1364775 -0.73320305 0 15
-3.8595731 3.3386919 -0.73250449 0 16
-4.1362381 3.5780189 -0.73373997 0 17
-4.4562712 3.8548608 -0.73540819 0 18
-4.8294458 4.1776724 -0.73741138 0 19
-5.0754533 4.3904791 -0.71249133 0 20
-5.0833421 4.3973031 -0.65114069 0 21
-5.0924892 4.4052157 -0.58985329 0 22
-5.0758843 4.390852 -0.52577478 0 23
-5.0823364 4.3964334 -0.46429861 0 24
-5.073319 4.3886328 -0.4015193 0 25
-5.0696402 4.3854508 -0.33938572 0 26
-5.0815015 4.3957109 -0.27825037 0 27
-5.0900822 4.4031339 -0.21673346 0 28
-5.0914717 4.4043355 -0.15482566 0 29
-5.0820336 4.3961716 -0.092712738 0 30
-5.087605 4.400991 -0.030936381 0 31
-5.0830069 4.3970132 0.030908421 0 32
-5.090148 4.4031906 0.092860766 0 33
-5.0851731 4.3988872 0.15463413 0 34
-5.0782456 4.3928947 0.21622947 0 35
-5.0800028 4.3944144 0.27816829 0 36
-5.0813198 4.3955541 0.34016761 0 37
-5.0873575 4.4007769 0.40263036 0 38
-5.0755372 4.3905516 0.46367744 0 39
-5.0765409 4.3914199 0.52584285 0 40
-5.0827584 4.3967986 0.58872622 0 41
-5.0821028 4.3962312 0.6509819 0 42
-5.0808225 4.395124 0.71324503 0 43
-5.0816889 4.3958731 0.77592653 0 44
-5.0866537 4.4001679 0.83943874 0 45
-5.0636225 4.3802447 0.89825147 0 46
-5.0856581 4.3993068 0.96520191 0 47
-5.0893641 4.4025126 1.0291595 0 48
-5.0616088 4.3785033 1.0866333 0 49
-5.0757408 4.3907275 1.153119 0 50
-5.0794168 4.3939075 1.217653 0 51
-5.0857153 4.3993564 1.2831538 0 52
-5.0880609 4.4013853 1.3479911 0 53
-5.0768089 4.3916516 1.4093502 0 54
-5.0716734 4.3872094 1.4724483 0 55
-5.0961103 4.4083481 1.5446401 0 56
-5.0897017 4.4028044 1.6079875 0 57
-5.0772185 4.3920064 1.6694607 0 58
-5.0714383 4.3870058 1.7332019 0 59
0 0 0 0 60
0 0 0 0 61
0 0 0 0 62
0 0 0 0 63
-1.8820459 1.5880141 -0.73410279 0 0
-1.9525639 1.6475152 -0.73609203 0 1
-2.0321281 1.7146491 -0.73967057 0 2
-2.0871904 1.7611089 -0.73271912 0 3
-2.1767926 1.8367126 -0.73616081 0 4
-2.2594678 1.9064714 -0.73518074 0 5
-2.3559949 1.9879181 -0.73655027 0 6
-2.4596052 2.0753415 -0.73772001 0 7
-2.543941 2.1465015 -0.7308588 0 8
-2.6710236 2.2537298 -0.73374218 0 9
-2.8051174 2.3668742 -0.7353996 0 10
-2.9399822 2.4806693 -0.7340219 0 11
-3.0911906 2.6082542 -0.73328555 0 12
-3.2672131 2.756777 -0.73449671 0 13
-3.45715 2.9170401 -0.7344299 0 14
-3.6725025 3.098748 -0.7348842 0 15
-3.9147086 3.3031144 -0.73520446 0 16
-4.197041 3.5413377 -0.73674548 0 17
-4.5182209 3.8123398 -0.73783952 0 18
-4.8226871 4.0692396 -0.72868407 0 19
-5.168005 4.3606086 -0.7179023 0 20
-5.1669226 4.359695 -0.65493029 0 21
-5.1688704 4.3613386 -0.59244382 0 22
-5.1675792 4.360249 -0.52967912 0 23
-5.1644039 4.3575697 -0.46686554 0 24
-5.1559787 4.350461 -0.40379694 0 25
-5.1773272 4.368474 -0.34297279 0 26
-5.1684985 4.3610249 -0.28005654 0 27
-5.1745043 4.3660922 -0.21802564 0 28
-5.1772742 4.3684292 -0.15578958 0 29
-5.1751761 4.3666592 -0.093425333 0 30
-5.1761961 4.3675199 -0.031146159 0 31
-5.1751904 4.3666716 0.03114011 0 32
-5.1757259 4.3671231 0.093435258 0 33
-5.1634951 4.3568029 0.15537496 0 34
-5.1633682 4.3566961 0.21755643 0 35
-5.1586189 4.3526888 0.2795212 0 36
-5.169518 4.3618851 0.34245548 0 37
-5.168407 4.3609471 0.40477026 0 38
-5.1616368 4.3552351 0.46661538 0 39
-5.1580372 4.3521981 0.52870107 0 40
-5.1550646 4.3496895 0.59086144 0 41
-5.1743455 4.3659582 0.65587115 0 42
-5.1792049 4.3700585 0.71945804 0 43
-5.1666398 4.3594565 0.78065354 0 44
-5.166532 4.3593655 0.84371084 0 45
-5.1639414 4.3571796 0.90647453 0 46
-5.1753979 4.3668466 0.97196901 0 47
-5.163496 4.3568034 1.0332386 0 48
-5.1870198 4.3766527 1.1019199 0 49
-5.1535058 4.3483744 1.158551 0 50
-5.1753135 4.366775 1.2276767 0 51
-5.1591501 4.353137 1.288079 0 52
-5.1716676 4.363699 1.3558229 0 53
-5.1603227 4.354126 1.4175638 0 54
-5.1684489 4.3609829 1.484864 0 55
-5.1674271 4.3601208 1.5498886 0 56
-5.1644578 4.3576155 1.6145548 0 57
-5.1730595 4.3648734 1.6831989 0 58
-5.1626325 4.3560753 1.7459302 0 59
0 0 0 0 60
0 0 0 0 61
0 0 0 0 62
0 0 0 0 63
-1.9013698 1.5647045 -0.7340799 0 0
-1.9749814 1.6252822 -0.73695326 0 1
-2.0201721 1.6624712 -0.72782284 0 2
-2.1194973 1.7442093 -0.73647565 0 3
-2.1994631 1.810016 -0.7362451 0 4
-2.2923722 1.8864744 -0.73828357 0 5
-2.3725276 1.9524369 -0.73415774 0 6
-2.4728577 2.035002 -0.73413402 0 7
-2.5853167 2.1275485 -0.73517418 0 8
-2.6973143 2.2197154 -0.73341095 0 9
-2.8177497 2.318826 -0.73118097 0 10
-2.988497 2.4593399 -0.73852837 0 11
-3.1381686 2.58251 -0.73684078 0 12
-3.32039 2.7324665 -0.73884195 0 13
-3.4768124 2.861192 -0.73107749 0 14
-3.6909912 3.0374475 -0.73105472 0 15
-3.9319193 3.2357156 -0.73090905 0 16
-4.2183056 3.4713929 -0.73292983 0 17
-4.5348778 3.7319117 -0.73301041 0 18
-4.907043 4.0381794 -0.73387164 0 19
-5.2655191 4.3331819 -0.72399181 0 20
-5.256546 4.3257976 -0.65949827 0 21
-5.2581444 4.3271132 -0.59653246 0 22
-5.2530141 4.3228912 -0.53294742 0 23
-5.2543774 4.3240128 -0.47015703 0 24
-5.2661042 4.3336635 -0.40821731 0 25
-5.2571054 4.3262582 -0.34470758 0 26
-5.2634401 4.3314714 -0.28229365 0 27
-5.2696385 4.3365722 -0.21977066 0 28
-5.2534738 4.3232694 -0.15647101 0 29
-5.2619486 4.3302441 -0.094023451 0 30
-5.2607918 4.3292918 -0.031332493 0 31
-5.2617888 4.3301125 0.031338431 0 32
-5.2542048 4.3238711 0.093885086 0 33
-5.2575617 4.3266335 0.15659277 0 34
-5.2630796 4.3311744 0.21949711 0 35
-5.2551184 4.3246226 0.2818473 0 36
-5.2629461 4.3310647 0.34509054 0 37
-5.2586455 4.3275256 0.40763915 0 38
-5.2477269 4.3185401 0.46956196 0 39
-5.2423043 4.3140779 0.53186083 0 40
-5.2596607 4.328361 0.59670454 0 41
-5.2549376 4.3244743 0.65929651 0 42
-5.2542176 4.3238816 0.72243792 0 43
-5.2511668 4.3213711 0.78533703 0 44
-5.2586503 4.3275294 0.84999985 0 45
-5.2536626 4.3234248 0.9128229 0 46
-5.253962 4.3236713 0.97666514 0 47
-5.2512474 4.3214374 1.0400863 0 48
-5.2474608 4.3183212 1.1033959 0 49
-5.2472634 4.3181586 1.1676033 0 50
-5.2559457 4.3253036 1.2340941 0 51
-5.2583923 4.3273172 1.2994733 0 52
-5.2467136 4.3177061 1.3614753 0 53
-5.2560568 4.3253951 1.4291437 0 54
-5.2717228 4.3382874 1.4990947 0 55
-5.2540464 4.3237405 1.5598043 0 56
-5.2609067 4.3293862 1.6279411 0 57
-5.2490964 4.3196673 1.6905289 0 58
-5.2638927 4.3318434 1.7620277 0 59
0 0 0 0 60
0 0 0 0 61
0 0 0 0 62
0 0 0 0 63
-1.9331014 1.5513489 -0.73891008 0 0
-1.9738975 1.5840883 -0.72922522 0 1
-2.0667436 1.658599 -0.73719794 0 2
-2.1328502 1.7116508 -0.73374659 0 3
-2.217546 1.7796206 -0.7349174 0 4
-2.2997177 1.845565 -0.73328495 0 5
-2.4033587 1.9287388 -0.73630357 0 6
-2.5121021 2.0160074 -0.73836946 0 7
-2.6118619 2.0960665 -0.73533785 0 8
-2.7437751 2.2019291 -0.73862594 0 9
-2.8565378 2.2924232 -0.73387587 0 10
-3.0015464 2.4087954 -0.73437798 0 11
-3.1567914 2.5333822 -0.73384362 0 12
-3.3274329 2.670325 -0.73304719 0 13
-3.5210335 2.8256929 -0.7330144 0 14
-3.7393064 3.0008612 -0.73326027 0 15
-3.9963927 3.2071774 -0.73550749 0 16
-4.2789321 3.4339206 -0.73607147 0 17
-4.5780015 3.6739292 -0.73262328 0 18
-4.9814234 3.9976823 -0.73758811 0 19
-5.3380647 4.2838931 -0.72666878 0 20
-5.3386097 4.2843308 -0.66313446 0 21
-5.3507137 4.2940445 -0.6009987 0 22
-5.3497996 4.2933111 -0.53737009 0 23
-5.3377876 4.2836709 -0.47287151 0 24
-5.3547344 4.2972713 -0.41096053 0 25
-5.347445 4.2914214 -0.34714481 0 26
-5.343504 4.2882586 -0.28373814 0 27
-5.3503375 4.2937427 -0.22091758 0 28
-5.3452563 4.2896647 -0.15762173 0 29
-5.3402481 4.285646 -0.094473772 0 30
-5.3586273 4.3003955 -0.031597856 0 31
-5.3501439 4.2935872 0.031547833 0 32
-5.3302426 4.277616 0.094296761 0 33
-5.3411112 4.2863383 0.15749949 0 34
-5.3419414 4.2870049 0.22057091 0 35
-5.3551483 4.2976031 0.28435645 0 36
-5.3540626 4.2967319 0.34757441 0 37
-5.3317184 4.2788005 0.40919414 0 38
-5.3298368 4.2772903 0.47216719 0 39
-5.3627849 4.3037319 0.53867441 0 40
-5.3513708 4.2945719 0.60107249 0 41
-5.3272676 4.2752285 0.66172558 0 42
-5.339375 4.284945 0.72684717 0 43
-5.3506536 4.2939963 0.79225922 0 44
-5.3543811 4.2969875 0.85686821 0 45
-5.338625 4.2843432 0.9183622 0 46
-5.3570285 4.2991123 0.98592281 0 47
-5.3557949 4.2981219 1.0502459 0 48
-5.3391318 4.2847495 1.1115091 0 49
-5.3483334 4.2921343 1.1782598 0 50
-5.355154 4.2976079 1.244886 0 51
-5.3419595 4.2870188 1.3069987 0 52
-5.3478355 4.2917347 1.3739176 0 53
-5.346633 4.2907696 1.4393169 0 54
-5.3535409 4.2963133 1.5072241 0 55
-5.3461924 4.2904162 1.5713793 0 56
-5.3492637 4.292881 1.638824 0 57
-5.3384218 4.2841802 1.7022021 0 58
0 0 0 0 59
0 0 0 0 60
0 0 0 0 61
0 0 0 0 62
0 0 0 0 63
-1.9533206 1.528473 -0.73939866 0 0
-2.0105321 1.5732409 -0.7355569 0 1
-2.0818739 1.629066 -0.73539406 0 2
-2.1533449 1.684992 -0.73361379 0 3
-2.2323112 1.7467831 -0.73263699 0 4
-2.3178089 1.8136851 -0.73188698 0 5
-2.4287136 1.900468 -0.73685628 0 6
-2.5209835 1.972669 -0.73379469 0 7
-2.6309698 2.0587332 -0.73353481 0 8
-2.7536092 2.1546986 -0.7340852 0 9
-2.8968892 2.2668152 -0.7370258 0 10
-3.0140069 2.3584597 -0.73027593 0 11
-3.1783645 2.4870696 -0.73169398 0 12
-3.3660328 2.63392 -0.73436022 0 13
-3.5773857 2.7993035 -0.73752427 0 14
-3.7947021 2.9693537 -0.73690742 0 15
-4.0471363 3.1668835 -0.73762387 0 16
-4.2821803 3.350805 -0.72948718 0 17
-4.614327 3.6107099 -0.73127592 0 18
-4.98388 3.8998852 -0.73079604 0 19
-5.4206247 4.2416377 -0.73075229 0 20
-5.442173 4.2584991 -0.66944349 0 21
-5.4491696 4.2639742 -0.60612231 0 22
-5.4455047 4.261106 -0.54167932 0 23
-5.4451408 4.2608213 -0.47770429 0 24
-5.4293609 4.2484736 -0.41264734 0 25
-5.4269795 4.2466106 -0.34889176 0 26
-5.4412107 4.2577462 -0.28612468 0 27
-5.4429069 4.2590737 -0.22256054 0 28
-5.4400516 4.2568393 -0.15886153 0 29
-5.4369459 4.2544093 -0.095251754 0 30
-5.4361305 4.2537708 -0.031744029 0 31
-5.4423614 4.2586465 0.031780414 0 32
-5.4383693 4.2555227 0.095276684 0 33
-5.4435687 4.2595916 0.15896423 0 34
-5.450736 4.2651997 0.22288066 0 35
-5.4289389 4.2481437 0.28547937 0 36
-5.4296303 4.2486844 0.34906217 0 37
-5.4462795 4.2617126 0.41393322 0 38
-5.4441843 4.2600732 0.47762039 0 39
-5.431942 4.2504935 0.54033023 0 40
-5.4459558 4.2614594 0.60576487 0 41
-5.4352393 4.2530737 0.66859061 0 42
-5.4546986 4.2683005 0.73534578 0 43
-5.4483709 4.2633491 0.79890519 0 44
-5.4411273 4.2576809 0.86230671 0 45
-5.4488325 4.26371 0.92823124 0 46
-5.4392109 4.2561812 0.99134088 0 47
-5.4276023 4.2470975 1.0540065 0 48
-5.4373589 4.2547321 1.1209818 0 49
-5.4454317 4.2610493 1.1880183 0 50
-5.4320741 4.250597 1.2505224 0 51
-5.435524 4.2532964 1.3169951 0 52
-5.442564 4.2588053 1.3846958 0 53
-5.4349561 4.252852 1.4489061 0 54
-5.4368052 4.2542992 1.5158236 0 55
-5.4427972 4.2589874 1.5842609 0 56
-5.4405246 4.2572093 1.6506206 0 57
-5.4383631 4.255518 1.7172543 0 58
0 0 0 0 59
0 0 0 0 60
0 0 0 0 61
0 0 0 0 62
0 0 0 0 63
-1.9578761 1.4935914 -0.73411542 0 0
-2.0158169 1.5377922 -0.73051709 0 1
-2.0942125 1.5975974 -0.73275781 0 2
-2.1853418 1.6671166 -0.73747504 0 3
-2.2657776 1.728478 -0.73658925 0 4
-2.3407557 1.7856761 -0.73214406 0 5
-2.4531336 1.871405 -0.7372278 0 6
-2.5264046 1.9273007 -0.72841942 0 7
-2.6464558 2.0188832 -0.73087573 0 8
-2.7722318 2.1148331 -0.7320618 0 9
-2.9322476 2.2369034 -0.73896778 0 10
-3.0718231 2.3433805 -0.73724693 0 11
-3.2330689 2.4663887 -0.73724997 0 12
-3.4148231 2.6050425 -0.7379604 0 13
-3.5942748 2.7419395 -0.73399961 0 14
-3.8203681 2.9144177 -0.73487669 0 15
-4.0671806 3.1027021 -0.73426801 0 16
-4.3530788 3.3208032 -0.73455328 0 17
-4.6879125 3.5762353 -0.73591298 0 18
-5.0530591 3.8547921 -0.73393399 0 19
-5.4937172 4.1909537 -0.73360312 0 20
-5.5274553 4.2166915 -0.67350507 0 21
-5.5352015 4.2226009 -0.60987025 0 22
-5.5191498 4.2103553 -0.54381394 0 23
-5.5357013 4.2229819 -0.4810572 0 24
-5.532124 4.220253 -0.41648203 0 25
-5.5340805 4.2217455 -0.35241309 0 26
-5.5301681 4.218761 -0.2880528 0 27
-5.5464377 4.2311726 -0.22464947 0 28
-5.5357175 4.2229943 -0.16012666 0 29
-5.5380802 4.2247968 -0.096106164 0 30
-5.5487633 4.2329464 -0.032095373 0 31
-5.5345387 4.2220955 0.032013096 0 32
-5.5390248 4.2255173 0.096122555 0 33
-5.5278616 4.2170014 0.15989943 0 34
-5.5426188 4.2282591 0.2244948 0 35
-5.5352359 4.2226272 0.28831679 0 36
-5.5342522 4.2218766 0.352424 0 37
-5.5297041 4.2184067 0.41629985 0 38
-5.5288916 4.2177873 0.48046544 0 39
-5.5366259 4.2236872 0.54553592 0 40
-5.5184512 4.2098227 0.60802472 0 41
-5.5394187 4.2258182 0.67496276 0 42
-5.5344663 4.2220397 0.73904449 0 43
-5.5348849 4.2223592 0.80391705 0 44
-5.5324211 4.22048 0.86848474 0 45
-5.5346756 4.2221994 0.93393993 0 46
-5.5177979 4.2093244 0.99615508 0 47
-5.5300016 4.2186341 1.0637376 0 48
-5.5281668 4.2172341 1.1289265 0 49
-5.5252209 4.2149868 1.1940279 0 50
-5.525229 4.214993 1.2599406 0 51
-5.5280323 4.2171316 1.3267447 0 52
-5.5266309 4.2160625 1.3927889 0 53
-5.5199699 4.2109814 1.4576557 0 54
-5.5265617 4.2160101 1.526279 0 55
-5.5298309 4.2185035 1.5943749 0 56
-5.5125604 4.2053289 1.6566619 0 57
-5.5279322 4.2170553 1.7290324 0 58
0 0 0 0 59
0 0 0 0 60
0 0 0 0 61
0 0 0 0 62
0 0 0 0 63
-1.9786458 1.4713038 -0.73506391 0 0
-2.0297091 1.509274 -0.72877085 0 1
-2.1240551 1.579429 -0.73634851 0 2
-2.1953487 1.6324422 -0.73402244 0 3
-2.2780788 1.6939597 -0.73376125 0 4
-2.376781 1.7673537 -0.73655891 0 5
-2.4661388 1.8337994 -0.73430401 0 6
-2.5622742 1.9052849 -0.73195124 0 7
-2.6930311 2.0025146 -0.73688245 0 8
-2.8108206 2.090102 -0.73540956 0 9
-2.9382107 2.184828 -0.73364455 0 10
-3.0898621 2.2975945 -0.73474014 0 11
-3.2408493 2.4098673 -0.73221147 0 12
-3.4257925 2.5473895 -0.7335062 0 13
-3.6139877 2.6873298 -0.7312218 0 14
-3.8691797 2.8770883 -0.737405 0 15
-4.1216559 3.0648277 -0.73724324 0 16
-4.408361 3.278019 -0.73702431 0 17
-4.7523108 3.533777 -0.7391451 0 18
-5.1255093 3.8112843 -0.73759437 0 19
-5.5865426 4.1541047 -0.73912162 0 20
-5.6267581 4.1840086 -0.67928457 0 21
-5.6229343 4.1811652 -0.6138255 0 22
-5.6208682 4.1796288 -0.54873097 0 23
-5.6380477 4.1924033 -0.48543459 0 24
-5.6243892 4.1822467 -0.41952479 0 25
-5.6284614 4.1852751 -0.3551192 0 26
-5.6334023 4.1889491 -0.29072505 0 27
-5.6349964 4.1901345 -0.22613242 0 28
-5.6309261 4.187108 -0.16137917 0 29
-5.6320519 4.1879449 -0.096835934 0 30
-5.6297994 4.1862702 -0.032263916 0 31
-5.6293802 4.1859584 0.032261513 0 32
-5.6300468 4.1864538 0.09680146 0 33
-5.6288681 4.1855774 0.16132018 0 34
-5.6251283 4.1827965 0.22573642 0 35
-5.6296763 4.1861787 0.29053277 0 36
-5.6217899 4.1803141 0.35469827 0 37
-5.6175022 4.1771259 0.41901109 0 38
-5.6274862 4.1845498 0.48452526 0 39
-5.6295772 4.1861048 0.54958117 0 40
-5.6222186 4.1806331 0.61374736 0 41
-5.6221375 4.180573 0.67872679 0 42
-5.6261253 4.183538 0.74435854 0 43
-5.625309 4.1829309 0.80951875 0 44
-5.6311316 4.1872606 0.87583148 0 45
-5.6220984 4.1805439 0.93994647 0 46
-5.6364999 4.1912522 1.0082042 0 47
-5.6303935 4.1867118 1.0730648 0 48
-5.6315393 4.1875639 1.1394352 0 49
-5.6305842 4.1868534 1.2055805 0 50
-5.6299524 4.1863837 1.2719862 0 51
-5.6265016 4.1838174 1.3379291 0 52
-5.6305199 4.1868057 1.4058896 0 53
-5.62641 4.1837497 1.4720668 0 54
-5.6163774 4.1762896 1.536785 0 55
-5.6313338 4.1874113 1.6086731 0 56
-5.6325092 4.1882849 1.6771052 0 57
-5.6161122 4.1760921 1.7404202 0 58
0 0 0 0 59
0 0 0 0 60
0 0 0 0 61
0 0 0 0 62
0 0 0 0 63
-1.9986774 1.4483792 -0.73583364 0 0
-2.0664492 1.4974914 -0.73529541 0 1
-2.142823 1.552837 -0.73617965 0 2
-2.2145586 1.6048216 -0.73379189 0 3
-2.3073554 1.6720685 -0.73651296 0 4
-2.3952527 1.7357649 -0.73561329 0 5
-2.4836617 1.799832 -0.73287636 0 6
-2.6069586 1.8891816 -0.73802412 0 7
-2.719182 1.9705064 -0.73735219 0 8
-2.8338175 2.0535791 -0.73476404 0 9
-2.9683168 2.1510465 -0.73450184 0 10
-3.1094241 2.2533026 -0.73274779 0 11
-3.2900696 2.3842108 -0.73665255 0 12
-3.4728668 2.5166783 -0.73690373 0 13
-3.6637161 2.6549809 -0.73462242 0 14
-3.8894048 2.8185303 -0.73459882 0 15
-4.1488504 3.0065424 -0.73543906 0 16
-4.4189816 3.2022982 -0.73216128 0 17
-4.7564311 3.4468372 -0.73313838 0 18
-5.1273232 3.7156112 -0.73122519 0 19
-5.591516 4.0519972 -0.73313206 0 20
-5.7189622 4.1443539 -0.68421191 0 21
-5.7177687 4.1434884 -0.61856931 0 22
-5.731904 4.1537323 -0.5545426 0 23
-5.7277188 4.1506991 -0.4887239 0 24
-5.7256532 4.1492023 -0.42324051 0 25
-5.7243409 4.1482511 -0.35792318 0 26
-5.7250681 4.1487784 -0.29280078 0 27
-5.7200375 4.1451325 -0.22748247 0 28
-5.7269354 4.1501312 -0.16265589 0 29
-5.7073545 4.135942 -0.09724889 0 30
-5.7193241 4.1446157 -0.032482445 0 31
-5.731132 4.153173 0.032549512 0 32
-5.7195482 4.1447783 0.097456656 0 33
-5.7248263 4.148603 0.162596 0 34
-5.7285166 4.1512771 0.22781968 0 35
-5.7266054 4.1498923 0.2928794 0 36
-5.7199845 4.1450944 0.35765079 0 37
-5.7244215 4.1483097 0.42314944 0 38
-5.7193894 4.1446629 0.48801315 0 39
-5.7128186 4.1399012 0.55269611 0 40
-5.7341924 4.1553903 0.62034607 0 41
-5.7219133 4.146492 0.68456495 0 42
-5.7216296 4.1462865 0.75019193 0 43
-5.7222209 4.1467152 0.81606561 0 44
-5.7265406 4.1498456 0.88266742 0 45
-5.7250018 4.1487303 0.94854987 0 46
-5.7184482 4.143981 1.0136713 0 47
-5.7151985 4.1416259 1.0794396 0 48
-5.7145662 4.1411681 1.1458443 0 49
-5.7262864 4.1496611 1.2150543 0 50
-5.7225289 4.1469378 1.2812846 0 51
-5.7252064 4.1488786 1.349167 0 52
-5.7287631 4.1514559 1.4175667 0 53
-5.7299199 4.1522942 1.4856776 0 54
-5.7206812 4.1455994 1.5512595 0 55
-5.730576 4.1527696 1.6223131 0 56
-5.731461 4.1534114 1.6912338 0 57
-5.7182479 4.1438355 1.7561483 0 58
0 0 0 0 59
0 0 0 0 60
0 0 0 0 61
0 0 0 0 62
0 0 0 0 63
-2.0182772 1.4250662 -0.7365424 0 0
-2.0744479 1.4647272 -0.73167741 0 1
-2.1527262 1.5199981 -0.73310524 0 2
-2.2381973 1.5803477 -0.73513001 0 3
-2.319972 1.6380872 -0.73405516 0 4
-2.4169738 1.7065781 -0.73578376 0 5
-2.5107009 1.7727572 -0.73436731 0 6
-2.6178274 1.848397 -0.73461103 0 7
-2.7258887 1.9246969 -0.73269773 0 8
-2.8534727 2.0147815 -0.73338121 0 9
-3.0092633 2.1247823 -0.73811299 0 10
-3.1345642 2.2132547 -0.73220342 0 11
-3.3139262 2.3398988 -0.73549622 0 12
-3.4988065 2.4704392 -0.73590642 0 13
-3.6936507 2.6080148 -0.73413885 0 14
-3.907095 2.7587237 -0.73147768 0 15
-4.19836 2.9643803 -0.73769802 0 16
-4.4892612 3.16978 -0.73729193 0 17
-4.8274179 3.408546 -0.73756391 0 18
-5.2100358 3.6787047 -0.73651427 0 19
-5.6684089 4.0023532 -0.73670542 0 20
-5.8107343 4.1028466 -0.68910348 0 21
-5.8332496 4.1187439 -0.62553608 0 22
-5.8151193 4.1059427 -0.5576666 0 23
-5.8167682 4.1071067 -0.49197569 0 24
-5.8155322 4.1062341 -0.42611974 0 25
-5.8232737 4.1117001 -0.36092052 0 26
-5.8142958 4.105361 -0.29476011 0 27
-5.8296103 4.1161742 -0.22980984 0 28
-5.8144789 4.1054902 -0.16369611 0 29
-5.82973 4.1162586 -0.098464176 0 30
-5.8208075 4.1099586 -0.032769311 0 31
-5.8117318 4.1035509 0.032718219 0 32
-5.8267794 4.1141758 0.098414347 0 33
-5.8230791 4.1115627 0.16393822 0 34
-5.8182583 4.1081586 0.22936232 0 35
-5.8161983 4.1067047 0.29485658 0 36
-5.8154006 4.1061411 0.36043254 0 37
-5.8142834 4.1053524 0.42602825 0 38
-5.8178711 4.1078854 0.49206898 0 39
-5.828702 4.1155334 0.5589692 0 40
-5.8225603 4.1111965 0.62438983 0 41
-5.8067999 4.1000686 0.6886369 0 42
-5.8137541 4.1049786 0.75559545 0 43
-5.8266644 4.1140943 0.82368368 0 44
-5.816947 4.107233 0.88875055 0 45
-5.8260903 4.1136889 0.95684546 0 46
-5.8132215 4.1046023 1.0214469 0 47
-5.8228359 4.1113911 1.0901384 0 48
-5.823709 4.1120076 1.1575029 0 49
-5.8240156 4.1122241 1.2249693 0 50
-5.8140635 4.1051974 1.2903794 0 51
-5.8231087 4.1115837 1.360221 0 52
-5.8036427 4.0978389 1.4235191 0 53
-5.8248949 4.1128449 1.4970771 0 54
-5.8188791 4.1085973 1.5640696 0 55
-5.805387 4.099071 1.6290996 0 56
-5.8172164 4.1074233 1.7015063 0 57
0 0 0 0 58
0 0 0 0 59
0 0 0 0 60
0 0 0 0 61
0 0 0 0 62
0 0 0 0 63
-2.0319283 1.3975852 -0.73519707 0 0
-2.0961456 1.4417547 -0.73302203 0 1
-2.174293 1.4955055 -0.73413181 0 2
-2.2389567 1.5399818 -0.72910464 0 3
-2.3495579 1.6160548 -0.737073 0 4
-2.4324844 1.6730926 -0.73418707 0 5
-2.5434005 1.7493821 -0.73758405 0 6
-2.6424119 1.8174834 -0.73518294 0 7
-2.7463019 1.8889401 -0.73188597 0 8
-2.8758945 1.9780755 -0.73283708 0 9
-3.0246971 2.0804236 -0.73556823 0 10
-3.1730781 2.182482 -0.7348755 0 11
-3.3338006 2.2930288 -0.73359382 0 12
-3.498024 2.4059839 -0.72946399 0 13
-3.7494454 2.5789146 -0.73886967 0 14
-3.9682219 2.7293918 -0.73658264 0 15
-4.2156978 2.8996086 -0.734424 0 16
-4.5005455 3.0955303 -0.73283827 0 17
-4.8357024 3.3260555 -0.73252553 0 18
-5.2131124 3.5856426 -0.73066103 0 19
-5.6635709 3.8954735 -0.72979593 0 20
-5.9198833 4.0717683 -0.69605726 0 21
-5.9208198 4.0724125 -0.62950921 0 22
-5.9217763 4.0730705 -0.56304932 0 23
-5.9227877 4.0737662 -0.49666837 0 24
-5.930861 4.079319 -0.43086219 0 25
-5.9097857 4.0648232 -0.36315709 0 26
-5.9169383 4.0697427 -0.29740417 0 27
-5.9249592 4.0752597 -0.23157565 0 28
-5.9189501 4.0711265 -0.16521546 0 29
-5.9305735 4.0791211 -0.09931273 0 30
-5.9195199 4.0715184 -0.03304068 0 31
-5.9186697 4.0709338 0.033035934 0 32
-5.9156623 4.0688653 0.099063031 0 33
-5.9204297 4.072144 0.16525675 0 34
-5.9150314 4.0684314 0.23118763 0 35
-5.9176536 4.0702348 0.29744014 0 36
-5.9128571 4.0669355 0.36334583 0 37
-5.919282 4.0713549 0.43002102 0 38
-5.9269638 4.0766382 0.49701855 0 39
-5.9106984 4.0654511 0.56199604 0 40
-5.9214721 4.0728612 0.62957853 0 41
-5.9209895 4.0725293 0.69618738 0 42
-5.907609 4.0633259 0.76124221 0 43
-5.9245777 4.0749974 0.83037883 0 44
-5.9199147 4.0717897 0.89676499 0 45
-5.9203815 4.0721111 0.9640348 0 46
-5.9173312 4.070013 1.0308685 0 47
-5.9148698 4.0683203 1.0979201 0 48
-5.9104381 4.0652719 1.1647172 0 49
-5.9129577 4.0670052 1.2330648 0 50
-5.9054704 4.0618548 1.2994828 0 51
-5.9191794 4.0712843 1.3708645 0 52
-5.9126949 4.066824 1.4378929 0 53
-5.9178267 4.070354 1.5079839 0 54
-5.9150705 4.0684581 1.5763588 0 55
-5.9190679 4.0712075 1.6468278 0 56
-5.9182744 4.070662 1.7162946 0 57
0 0 0 0 58
0 0 0 0 59
0 0 0 0 60
0 0 0 0 61
0 0 0 0 62
0 0 0 0 63
-2.0524688 1.3748471 -0.73645651 0 0
-2.1131985 1.4155269 -0.7328431 0 1
-2.2051909 1.4771481 -0.73837554 0 2
-2.2595024 1.5135286 -0.72967947 0 3
-2.3679228 1.5861541 -0.73665994 0 4
-2.4416215 1.6355212 -0.73081958 0 5
-2.5608866 1.7154111 -0.73648226 0 6
-2.6621773 1.7832607 -0.73452574 0 7
-2.778214 1.8609879 -0.7342366 0 8
-2.9048293 1.9458011 -0.73405778 0 9
-3.0382013 2.0351405 -0.73271114 0 10
-3.1843534 2.1330404 -0.73135704 0 11
-3.3795755 2.2638102 -0.73748529 0 12
-3.553077 2.3800302 -0.73478597 0 13
-3.7561707 2.5160728 -0.7340427 0 14
-3.9867654 2.6705365 -0.73387378 0 15
-4.2259903 2.8307815 -0.73009783 0 16
-4.5689464 3.0605109 -0.73779249 0 17
-4.8963943 3.2798517 -0.73555428 0 18
-5.3028717 3.5521307 -0.73706394 0 19
-5.7469645 3.8496068 -0.73438668 0 20
-6.0175929 4.0308871 -0.70166498 0 21
-6.0181961 4.031291 -0.63454401 0 22
-6.016696 4.0302863 -0.56731939 0 23
-6.0172305 4.0306444 -0.50039405 0 24
-6.0237274 4.0349965 -0.43397141 0 25
-6.0157509 4.0296535 -0.36659607 0 26
-6.0203919 4.0327621 -0.30008891 0 27
-6.0231919 4.0346375 -0.23345834 0 28
-6.0062099 4.023262 -0.16625765 0 29
-6.0210738 4.0332189 -0.099990182 0 30
-6.0117092 4.0269461 -0.033276346 0 31
-6.0238838 4.0351014 0.033343736 0 32
-6.0266137 4.0369301 0.10008218 0 33
-6.015965 4.0297971 0.16652769 0 34
-6.0202179 4.0326457 0.23334306 0 35
-6.01332 4.0280252 0.29973641 0 36
-6.0070176 4.0238032 0.36606386 0 37
-6.0281153 4.0379357 0.43428752 0 38
-6.0209079 4.0331078 0.50069988 0 39
-6.0280056 4.0378618 0.56838578 0 40
-6.0173006 4.0306916 0.6344496 0 41
-6.0266924 4.0369825 0.70272601 0 42
-6.0278831 4.0377803 0.77028441 0 43
-6.0199285 4.0324516 0.83673006 0 44
-6.0261879 4.0366445 0.905276 0 45
-6.0241761 4.0352969 0.97278267 0 46
-6.0122151 4.0272851 1.0386927 0 47
-6.0171494 4.0305905 1.1076218 0 48
-6.0268273 4.0370727 1.1777815 0 49
-6.0181575 4.0312653 1.2445713 0 50
-6.0134435 4.0281076 1.3122436 0 51
-6.0210428 4.0331984 1.3828654 0 52
-6.0187402 4.0316558 1.451516 0 53
-6.0193624 4.0320725 1.5211083 0 54
-6.0148487 4.0290489 1.5896262 0 55
-6.0177546 4.0309954 1.6603686 0 56
-6.0163169 4.0300326 1.7302252 0 57
0 0 0 0 58
0 0 0 0 59
0 0 0 0 60
0 0 0 0 61
0 0 0 0 62
0 0 0 0 63
-2.0706682 1.3504527 -0.73697263 0 0
-2.1356196 1.392813 -0.73462367 0 1
-2.2108498 1.4418765 -0.7342782 0 2
-2.2921073 1.4948713 -0.73421723 0 3
-2.3792698 1.551717 -0.73419851 0 4
-2.4644227 1.6072522 -0.73167348 0 5
-2.5871472 1.687291 -0.73801184 0 6
-2.6841838 1.7505766 -0.73460281 0 7
-2.7875786 1.8180087 -0.73074812 0 8
-2.9310532 1.9115803 -0.73468912 0 9
-3.060076 1.9957267 -0.73201293 0 10
-3.2463472 2.1172094 -0.73956007 0 11
-3.3949349 2.2141159 -0.73484033 0 12
-3.5642815 2.3245604 -0.73113656 0 13
-3.7756238 2.4623942 -0.73187172 0 14
-4.0437346 2.6372511 -0.73833525 0 15
-4.2892413 2.7973664 -0.73502702 0 16
-4.5915861 2.99455 -0.73544663 0 17
-4.9301281 3.2153413 -0.73462695 0 18
-5.2861438 3.4475284 -0.72879153 0 19
-5.8235164 3.7979929 -0.73814529 0 20
-6.1322126 3.9993191 -0.70924211 0 21
-6.126935 3.9958773 -0.64078003 0 22
-6.1277542 3.9964116 -0.57311428 0 23
-6.1269269 3.9958718 -0.50539213 0 24
-6.1126862 3.9865844 -0.43681565 0 25
-6.1190553 3.9907382 -0.36987299 0 26
-6.117661 3.9898288 -0.30246902 0 27
-6.1130867 3.9868457 -0.23502472 0 28
-6.1298881 3.997803 -0.16830769 0 29
-6.1140904 3.9875 -0.100713 0 30
-6.1212244 3.9921529 -0.033608276 0 31
-6.1200757 3.9914038 0.033601969 0 32
-6.1222892 3.9928472 0.10084806 0 33
-6.1255412 3.9949682 0.16818835 0 34
-6.1253014 3.9948115 0.23549432 0 35
-6.1181879 3.9901726 0.30249506 0 36
-6.1133947 3.9870465 0.36953083 0 37
-6.1151023 3.9881601 0.43698829 0 38
-6.1274118 3.9961882 0.50543213 0 39
-6.1290736 3.997272 0.57323766 0 40
-6.129694 3.9976766 0.64106864 0 41
-6.1268029 3.9957912 0.70861644 0 42
-6.1173925 3.9896538 0.77539486 0 43
-6.1232176 3.9934528 0.84419745 0 44
-6.1282501 3.9967349 0.91315627 0 45
-6.112483 3.9864519 0.97905284 0 46
-6.109087 3.984237 1.0468854 0 47
-6.1230769 3.993361 1.1179972 0 48
-6.1157317 3.9885707 1.1854813 0 49
-6.1323638 3.9994178 1.2579241 0 50
-6.1279116 3.9965141 1.3263985 0 51
-6.1206751 3.9917946 1.3943692 0 52
-6.125752 3.9951057 1.4653654 0 53
-6.1292825 3.9974082 1.5363479 0 54
-6.1277685 3.9964209 1.6063603 0 55
-6.1179996 3.9900496 1.6743635 0 56
-6.1158047 3.9886181 1.7445997 0 57
0 0 0 0 58
0 0 0 0 59
0 0 0 0 60
0 0 0 0 61
0 0 0 0 62
0 0 0 0 63
-2.0700443 1.3140534 -0.7309444 0 0
-2.1479776 1.3635252 -0.73305178 0 1
-2.2324362 1.4171389 -0.73560441 0 2
-2.3172736 1.4709934 -0.73642892 0 3
-2.4085798 1.528954 -0.73738575 0 4
-2.4967992 1.5849552 -0.73544401 0 5
-2.6013315 1.6513119 -0.73621011 0 6
-2.7041395 1.7165738 -0.73423195 0 7
-2.8338597 1.7989196 -0.73702604 0 8
-2.9587114 1.8781748 -0.73577738 0 9
-3.0801113 1.9552387 -0.73099905 0 10
-3.2478971 2.0617483 -0.7340821 0 11
-3.4099607 2.1646256 -0.73227596 0 12
-3.5911202 2.2796245 -0.73083669 0 13
-3.8343353 2.4340162 -0.73739511 0 14
-4.058589 2.5763712 -0.7352075 0 15
-4.3023195 2.7310901 -0.73145795 0 16
-4.6535239 2.9540329 -0.73949337 0 17
-4.9833002 3.1633732 -0.73669815 0 18
-5.3716831 3.4099169 -0.73474836 0 19
-5.83041 3.7011142 -0.73319507 0 20
-6.2220345 3.9497154 -0.71395952 0 21
-6.2152128 3.945385 -0.64488995 0 22
-6.2297697 3.9546256 -0.57806379 0 23
-6.2158289 3.945776 -0.50868475 0 24
-6.2143898 3.9448626 -0.44058374 0 25
-6.2170968 3.9465809 -0.37283763 0 26
-6.2224722 3.9499934 -0.30522656 0 27
-6.2377377 3.9596837 -0.23792714 0 28
-6.2293625 3.9543672 -0.16969104 0 29
-6.2274446 3.9531498 -0.10177179 0 30
-6.2215738 3.9494228 -0.033890039 0 31
-6.218101 3.9472184 0.033871122 0 32
-6.2283988 3.9537554 0.10178739 0 33
-6.2195692 3.9481504 0.16942427 0 34
-6.2302527 3.9549325 0.23764163 0 35
-6.2297826 3.954634 0.30558515 0 36
-6.2292457 3.954293 0.37356621 0 37
-6.2173462 3.9467392 0.44079331 0 38
-6.2252579 3.9517617 0.5094564 0 39
-6.2183299 3.9473639 0.57700229 0 40
-6.2129321 3.9439373 0.64465332 0 41
-6.23032 3.9549751 0.71491027 0 42
-6.2118926 3.9432776 0.78116792 0 43
-6.2107487 3.9425514 0.84951723 0 44
-6.2294526 3.9544246 0.92092109 0 45
-6.2263927 3.952482 0.98943859 0 46
-6.2223177 3.9498951 1.057886 0 47
-6.2227592 3.9501755 1.1272438 0 48
-6.2155161 3.9455774 1.1953287 0 49
-6.2287416 3.9539731 1.2676249 0 50
-6.2178664 3.9470694 1.3352629 0 51
-6.2261434 3.9523237 1.4072183 0 52
-6.2197452 3.9482622 1.4761245 0 53
-6.2303834 3.9550152 1.5493822 0 54
-6.2292838 3.9543171 1.6201029 0 55
-6.2190118 3.9477966 1.6885953 0 56
-6.233644 3.9570849 1.764201 0 57
0 0 0 0 58
0 0 0 0 59
0 0 0 0 60
0 0 0 0 61
0 0 0 0 62
0 0 0 0 63
-2.0978379 1.2957861 -0.73507673 0 0
-2.1714571 1.3412589 -0.73538053 0 1
-2.241802 1.3847095 -0.7330246 0 2
-2.3370812 1.4435612 -0.73702687 0 3
-2.4174078 1.4931771 -0.73441172 0 4
-2.5090647 1.5497915 -0.73338813 0 5
-2.6236908 1.6205933 -0.73684263 0 6
-2.7164195 1.6778697 -0.73190892 0 7
-2.8435359 1.7563865 -0.73387009 0 8
-2.9790928 1.840117 -0.73516333 0 9
-3.1130836 1.9228801 -0.7331574 0 10
-3.2793519 2.0255802 -0.7355063 0 11
-3.4375801 2.1233139 -0.73254484 0 12
-3.6391149 2.2477973 -0.7349236 0 13
-3.8527308 2.3797431 -0.73524964 0 14
-4.0860829 2.5238791 -0.73451054 0 15
-4.3776398 2.7039673 -0.73855484 0 16
-4.6599731 2.8783579 -0.73483825 0 17
-4.9992394 3.0879149 -0.7333858 0 18
-5.3787775 3.3223467 -0.73007554 0 19
-5.9076667 3.6490295 -0.73721206 0 20
-6.3336287 3.9121363 -0.72119015 0 21
-6.3407197 3.9165165 -0.65286618 0 22
-6.3263397 3.9076343 -0.58252192 0 23
-6.3379583 3.9148109 -0.51470107 0 24
-6.322988 3.9055638 -0.4448446 0 25
-6.3328633 3.9116638 -0.37686712 0 26
-6.3245029 3.9064999 -0.30785185 0 27
-6.3182516 3.9026384 -0.23914967 0 28
-6.3510766 3.9229136 -0.17167959 0 29
-6.3387651 3.9153092 -0.10279648 0 30
-6.3380647 3.9148765 -0.034259774 0 31
-6.3245373 3.9065211 0.034186654 0 32
-6.3381662 3.9149394 0.10278677 0 33
-6.3236313 3.9059613 0.1709377 0 34
-6.3400555 3.9161062 0.23997496 0 35
-6.3340197 3.9123781 0.3083151 0 36
-6.3389645 3.9154322 0.3772302 0 37
-6.3375316 3.9145472 0.44586778 0 38
-6.3268046 3.9079213 0.51379526 0 39
-6.3333297 3.9119518 0.58316553 0 40
-6.3241372 3.9062736 0.65115875 0 41
-6.3263392 3.907634 0.72036016 0 42
-6.3236856 3.9059949 0.78912669 0 43
-6.3354125 3.9132383 0.85992217 0 44
-6.3295693 3.9096291 0.9285444 0 45
-6.3344598 3.9126499 0.99889064 0 46
-6.3299947 3.9098918 1.0679381 0 47
-6.3298073 3.909776 1.1378404 0 48
-6.3393674 3.9156811 1.2097958 0 49
-6.3321285 3.9112098 1.2787809 0 50
-6.3367095 3.9140396 1.3503464 0 51
-6.3250961 3.9068661 1.4186181 0 52
-6.3511815 3.9229784 1.4957566 0 53
-6.3274126 3.9082971 1.5614424 0 54
-6.3320298 3.911149 1.6341934 0 55
-6.3323479 3.9113452 1.7061805 0 56
0 0 0 0 57
0 0 0 0 58
0 0 0 0 59
0 0 0 0 60
0 0 0 0 61
0 0 0 0 62
0 0 0 0 63
-2.1103241 1.2679188 -0.73393333 0 0
-2.1906636 1.3161882 -0.73634833 0 1
-2.2635844 1.3600003 -0.73462331 0 2
-2.3488078 1.4112039 -0.73519695 0 3
-2.4341812 1.4624978 -0.73398864 0 4
-2.5293493 1.5196764 -0.73379976 0 5
-2.6234424 1.5762091 -0.73127437 0 6
-2.7420893 1.6474942 -0.73331153 0 7
-2.8622928 1.7197145 -0.73319799 0 8
-3.0026677 1.8040543 -0.7354511 0 9
-3.1523783 1.8940028 -0.736871 0 10
-3.30878 1.9879715 -0.73656821 0 11
-3.4665768 2.0827787 -0.73321098 0 12
-3.6656265 2.2023714 -0.73475301 0 13
-3.8681357 2.3240421 -0.73268038 0 14
-4.1264381 2.4792347 -0.736229 0 15
-4.3943076 2.6401753 -0.73583412 0 16
-4.6846175 2.8145986 -0.7332114 0 17
-5.0733795 3.0481734 -0.73870766 0 18
-5.4605455 3.2807894 -0.73564279 0 19
-5.9106698 3.5512316 -0.73208225 0 20
-6.4352188 3.8663895 -0.72728932 0 21
-6.4409103 3.8698094 -0.65823287 0 22
-6.4414377 3.870126 -0.58869356 0 23
-6.4415255 3.8701787 -0.51920766 0 24
-6.4237461 3.8594968 -0.44856054 0 25
-6.4348855 3.8661895 -0.38008058 0 26
-6.4464478 3.8731363 -0.31144586 0 27
-6.4469666 3.8734479 -0.24220049 0 28
-6.4486918 3.8744845 -0.17301735 0 29
-6.4442949 3.8718426 -0.10372793 0 30
-6.4391012 3.8687222 -0.034546163 0 31
-6.4473462 3.8736761 0.034590397 0 32
-6.4329267 3.8650124 0.10354494 0 33
-6.4405465 3.8695908 0.17279883 0 34
-6.4479647 3.8740475 0.24223799 0 35
-6.4460521 3.8728986 0.31142676 0 36
-6.4296532 3.8630457 0.37977153 0 37
-6.4372778 3.8676267 0.44950542 0 38
-6.4491143 3.8747382 0.51981938 0 39
-6.4327064 3.8648801 0.58789563 0 40
-6.4473505 3.8736784 0.65889102 0 41
-6.4436908 3.8714797 0.72824681 0 42
-6.4438839 3.8715959 0.79812491 0 43
-6.4357491 3.8667083 0.86702186 0 44
-6.4300175 3.8632646 0.93624043 0 45
-6.437799 3.8679397 1.00761 0 46
-6.443326 3.8712604 1.0789456 0 47
-6.4468679 3.8733885 1.1502343 0 48
-6.4288464 3.862561 1.2177157 0 49
-6.439261 3.8688183 1.2907115 0 50
-6.4476962 3.8738863 1.3637434 0 51
-6.4414902 3.8701577 1.4339415 0 52
-6.4481616 3.874166 1.5072631 0 53
-6.4435697 3.871407 1.57824 0 54
-6.4262404 3.8609953 1.6461302 0 55
-6.4318805 3.8643839 1.7200651 0 56
0 0 0 0 57
0 0 0 0 58
0 0 0 0 59
0 0 0 0 60
0 0 0 0 61
0 0 0 0 62
0 0 0 0 63
-2.1354835 1.2475592 -0.73729241 0 0
-2.1981299 1.2841576 -0.73349482 0 1
-2.2797978 1.3318683 -0.73451459 0 2
-2.3537178 1.3750527 -0.73138613 0 3
-2.4633353 1.4390918 -0.73738796 0 4
-2.5476897 1.4883721 -0.73375553 0 5
-2.6460493 1.5458341 -0.73222208 0 6
-2.7861269 1.6276681 -0.73968005 0 7
-2.8872874 1.6867665 -0.73423201 0 8
-3.0202329 1.764434 -0.73438376 0 9
-3.1769388 1.8559822 -0.73722166 0 10
-3.312156 1.9349767 -0.73196775 0 11
-3.513366 2.0525246 -0.73771328 0 12
-3.6902978 2.155889 -0.73432899 0 13
-3.9031959 2.2802649 -0.73395479 0 14
-4.1472993 2.4228711 -0.73457992 0 15
-4.4046397 2.5732107 -0.73221046 0 16
-4.7379065 2.7679067 -0.73616916 0 17
-5.09934 2.9790578 -0.7370981 0 18
-5.454958 3.1868117 -0.72955567 0 19
-5.9960709 3.5029321 -0.73726904 0 20
-6.5433087 3.8226309 -0.73413748 0 21
-6.5634212 3.8343809 -0.66588414 0 22
-6.5492864 3.826123 -0.59420532 0 23
-6.5535355 3.8286057 -0.52440172 0 24
-6.5443254 3.8232248 -0.45366332 0 25
-6.5534515 3.8285565 -0.38427404 0 26
-6.5371904 3.8190567 -0.31353739 0 27
-6.5531111 3.8283577 -0.24440113 0 28
-6.5546074 3.8292317 -0.17458254 0 29
-6.5493746 3.8261747 -0.1046541 0 30
-6.5554752 3.8297386 -0.034915224 0 31
-6.5540409 3.8289008 0.034907583 0 32
-6.5563574 3.8302541 0.10476567 0 33
