# .PCD v0.7 - Point Cloud Data file format
VERSION 0.7
FIELDS x y z intensity ring
SIZE 4 4 4 4 2
TYPE F F F F U
COUNT 1 1 1 1 1
WIDTH 1329
HEIGHT 1
VIEWPOINT 0 0 0 1 0 0 0
POINTS 1329
DATA ascii
1.4482129 3.0310369 -0.73760253 0 8
1.5136571 3.1680086 -0.73715162 0 9
1.5851238 3.3175848 -0.73671436 0 10
1.6644289 3.4835665 -0.73670423 0 11
1.7411546 3.6441493 -0.7322312 0 12
1.8350008 3.8405647 -0.73132795 0 13
1.9458046 4.0724716 -0.73281592 0 14
2.0652738 4.3225145 -0.73265243 0 15
2.205601 4.6162128 -0.73434347 0 16
2.364197 4.9481459 -0.73573518 0 17
2.5508847 5.3388739 -0.73849726 0 18
2.5469785 5.3306985 -0.68224293 0 19
2.5445397 5.3255944 -0.62663585 0 20
2.5475686 5.3319335 -0.57246983 0 21
2.5465024 5.3297019 -0.51743907 0 22
2.5435677 5.3235598 -0.46220279 0 23
2.5445888 5.3256969 -0.40780523 0 24
2.5439973 5.3244591 -0.35320932 0 25
2.5420957 5.3204794 -0.29854485 0 26
2.5461702 5.3290067 -0.24458641 0 27
2.5528674 5.3430238 -0.1906912 0 28
2.547708 5.3322258 -0.13590972 0 29
2.5426233 5.3215833 -0.0813739 0 30
2.5491855 5.3353176 -0.027193105 0 31
2.5439191 5.324295 0.027136926 0 32
2.5508349 5.3387699 0.081636705 0 33
2.5449131 5.3263755 0.13576062 0 34
2.5487919 5.3344941 0.19038677 0 35
2.549202 5.3353519 0.24487764 0 36
2.539896 5.3158751 0.2982865 0 37
2.5474348 5.3316536 0.3536866 0 38
2.5420687 5.3204226 0.40740138 0 39
2.5503821 5.3378224 0.46344113 0 40
2.54074 5.3176417 0.51626819 0 41
2.5495336 5.3360462 0.57291138 0 42
2.5441406 5.324759 0.6265375 0 43
2.5452583 5.3270984 0.68178213 0 44
2.5429606 5.322289 0.73620319 0 45
2.5451651 5.3269033 0.79205227 0 46
2.5416677 5.3195834 0.8462351 0 47
2.5438712 5.3241954 0.90243417 0 48
2.5497482 5.3364954 0.96026921 0 49
2.5466759 5.3300653 1.0149617 0 50
2.5443246 5.3251443 1.0699992 0 51
2.550535 5.3381419 1.1289096 0 52
2.553328 5.3439879 1.1867044 0 53
2.5462999 5.329278 1.2400491 0 54
2.5455773 5.3277659 1.2965113 0 55
2.5521688 5.3415613 1.3570602 0 56
2.5445867 5.3256922 1.4102913 0 57
2.5449619 5.326478 1.4680229 0 58
2.5499387 5.336894 1.5287941 0 59
2.5471628 5.3310843 1.5852427 0 60
2.546977 5.3306952 1.6435232 0 61
2.5462275 5.3291268 1.7017182 0 62
2.5502212 5.3374858 1.7634703 0 63
1.0376852 2.2422903 -0.73656654 0 0
1.070037 2.3121982 -0.73408335 0 1
1.1160977 2.4117286 -0.73928034 0 2
1.1533289 2.4921801 -0.73679787 0 3
1.1960627 2.5845215 -0.73608726 0 4
1.2491174 2.6991653 -0.7396239 0 5
1.2941698 2.7965174 -0.73627323 0 6
1.3473694 2.9114742 -0.73541516 0 7
1.410812 3.0485644 -0.73759049 0 8
1.4663863 3.1686528 -0.73305047 0 9
1.5374972 3.3223131 -0.73351061 0 10
1.6177224 3.4956684 -0.73500115 0 11
1.7075149 3.6896973 -0.73710877 0 12
1.8000295 3.8896081 -0.73639649 0 13
1.8958976 4.0967655 -0.7329371 0 14
2.0212471 4.3676281 -0.73603076 0 15
2.1500161 4.6458797 -0.73480165 0 16
2.2983358 4.9663773 -0.73418832 0 17
2.476403 5.3511553 -0.7359283 0 18
2.472573 5.3428793 -0.67985928 0 19
2.4705431 5.3384933 -0.62453181 0 20
2.4762635 5.3508539 -0.57118887 0 21
2.4747834 5.3476558 -0.51618868 0 22
2.4802287 5.3594222 -0.46263358 0 23
2.4738371 5.3456106 -0.40697002 0 24
2.4804366 5.3598714 -0.35350841 0 25
2.4790006 5.3567681 -0.29884803 0 26
2.4826701 5.3646975 -0.24480486 0 27
2.4773421 5.3531847 -0.18995228 0 28
2.4753494 5.3488784 -0.13554811 0 29
2.4744434 5.346921 -0.081289932 0 30
2.4756773 5.349587 -0.027108626 0 31
2.4780583 5.3547325 0.0271347 0 32
2.4756193 5.349462 0.081328563 0 33
2.479507 5.3578625 0.13577577 0 34
2.4749963 5.3481159 0.18977243 0 35
2.4771776 5.352829 0.24426328 0 36
2.4786139 5.3559327 0.29880142 0 37
2.4768438 5.352108 0.35299638 0 38
2.4748497 5.3477988 0.40713662 0 39
2.4757121 5.3496623 0.4617911 0 40
2.4733114 5.3444748 0.51588166 0 41
2.4751227 5.3483887 0.57092565 0 42
2.474195 5.3463845 0.62545496 0 43
2.4760518 5.3503966 0.68081582 0 44
2.4732509 5.3443441 0.73499161 0 45
2.477313 5.3531218 0.79136145 0 46
2.4767513 5.3519082 0.84646851 0 47
2.4780796 5.3547783 0.90238482 0 48
2.4820166 5.3632855 0.95952547 0 49
2.4812942 5.3617244 1.0151036 0 50
2.4748285 5.347753 1.0683465 0 51
2.4740095 5.345983 1.1240493 0 52
2.4810989 5.3613024 1.1836851 0 53
2.4769504 5.3523383 1.2382342 0 54
2.4748874 5.3478799 1.2939025 0 55
2.4796293 5.3581271 1.3534201 0 56
2.4784844 5.3556528 1.4100481 0 57
2.4744976 5.3470378 1.4651926 0 58
2.4735405 5.3449697 1.5222795 0 59
2.4747927 5.3476758 1.5810078 0 60
2.4760971 5.3504944 1.6401162 0 61
2.4819658 5.3631759 1.7027166 0 62
2.4815433 5.3622627 1.7614416 0 63
1.0076268 2.2494998 -0.73480922 0 0
1.0429147 2.3282795 -0.73506188 0 1
1.0848216 2.4218354 -0.73823363 0 2
1.1217287 2.5042293 -0.73622662 0 3
1.1662365 2.6035922 -0.7373786 0 4
1.2084317 2.6977916 -0.73512012 0 5
1.2545775 2.8008111 -0.73328668 0 6
1.3131145 2.9314933 -0.73633766 0 7
1.3676031 3.0531373 -0.73457259 0 8
1.4274862 3.1868248 -0.73313826 0 9
1.5003269 3.3494399 -0.73537099 0 10
1.5673748 3.4991226 -0.73161972 0 11
1.6582755 3.7020559 -0.73544848 0 12
1.7533879 3.9143918 -0.73695099 0 13
1.857673 4.1472058 -0.7378186 0 14
1.9693507 4.396523 -0.73676348 0 15
2.0859492 4.656826 -0.73242074 0 16
2.2445545 5.0109086 -0.73663563 0 17
2.4105353 5.3814559 -0.7359634 0 18
2.4039507 5.366756 -0.67908472 0 19
2.4072018 5.3740144 -0.6251772 0 20
2.4123507 5.3855085 -0.5716784 0 21
2.4043317 5.3676066 -0.51522171 0 22
2.4093974 5.3789158 -0.46172392 0 23
2.4072256 5.3740668 -0.40685216 0 24
2.4105136 5.3814077 -0.35294721 0 25
2.4074073 5.3744726 -0.29816172 0 26
2.4063935 5.3722095 -0.24377894 0 27
2.4113908 5.3833656 -0.18995669 0 28
2.4065149 5.3724804 -0.13538609 0 29
2.4111905 5.3829188 -0.0813803 0 30
2.4066494 5.3727803 -0.027074149 0 31
2.4142058 5.3896503 0.027159158 0 32
2.4049838 5.3690624 0.081170812 0 33
2.4165781 5.3949461 0.13595223 0 34
2.4095504 5.3792572 0.18981174 0 35
2.410816 5.3820825 0.24422695 0 36
2.4010611 5.3603048 0.29737574 0 37
2.4120719 5.3848867 0.35317537 0 38
2.4111083 5.3827353 0.4075084 0 39
2.409193 5.3784595 0.46168479 0 40
2.4066951 5.3728828 0.51572812 0 41
2.4112334 5.3830142 0.57141364 0 42
2.4129677 5.3868861 0.62667465 0 43
2.4099932 5.3802457 0.68079168 0 44
2.4114425 5.383481 0.73624033 0 45
2.4099023 5.3800426 0.79090071 0 46
2.4131503 5.3872938 0.84730792 0 47
2.4129536 5.3868551 0.902722 0 48
2.4117241 5.3841095 0.95787305 0 49
2.4060159 5.3713665 1.0112512 0 50
2.4127674 5.3864388 1.0700672 0 51
2.4109893 5.3824697 1.1254023 0 52
2.4102926 5.3809142 1.1813821 0 53
2.4148526 5.3910947 1.2402369 0 54
2.4087784 5.3775339 1.2938131 0 55
2.4073389 5.37432 1.3499312 0 56
2.4092212 5.3785224 1.4081631 0 57
2.4097114 5.3796163 1.4658895 0 58
2.4037409 5.3662877 1.5198178 0 59
2.4092107 5.3784986 1.5812424 0 60
2.4080098 5.3758178 1.6386783 0 61
2.4074254 5.3745131 1.6967893 0 62
2.410217 5.3807459 1.7576447 0 63
0.9772076 2.2555237 -0.73279637 0 0
1.0130955 2.3383577 -0.73425519 0 1
1.0519685 2.4280818 -0.73613894 0 2
1.0859834 2.5065928 -0.73294008 0 3
1.1368629 2.6240292 -0.73915166 0 4
1.174209 2.7102289 -0.73451924 0 5
1.2167729 2.8084719 -0.73131984 0 6
1.2873837 2.971451 -0.74234188 0 7
1.3236966 3.0552659 -0.73111331 0 8
1.3913994 3.2115331 -0.73483086 0 9
1.4514865 3.3502219 -0.73156881 0 10
1.5376606 3.549123 -0.738065 0 11
1.6047254 3.7039175 -0.73184294 0 12
1.7057319 3.9370537 -0.7372129 0 13
1.7961202 4.1456819 -0.73356283 0 14
1.8986323 4.3822932 -0.73041129 0 15
2.0410006 4.7108979 -0.73692214 0 16
2.1789811 5.0293751 -0.73535585 0 17
2.3366573 5.3933125 -0.73359996 0 18
2.345114 5.4128318 -0.68121457 0 19
2.3388758 5.3984332 -0.62462497 0 20
2.3354039 5.3904195 -0.56910837 0 21
2.3387988 5.3982553 -0.51536417 0 22
2.3372583 5.3947001 -0.46057701 0 23
2.3413277 5.4040923 -0.40691492 0 24
2.346503 5.416038 -0.35329935 0 25
2.3409901 5.4033136 -0.29814222 0 26
2.333533 5.3861017 -0.24308887 0 27
2.3426034 5.4070373 -0.18976119 0 28
2.3406792 5.4025955 -0.13540944 0 29
2.3380761 5.3965874 -0.081146158 0 30
2.3368979 5.393868 -0.027033566 0 31
2.3395414 5.3999696 0.027064146 0 32
2.3363698 5.3926492 0.081086941 0 33
2.337045 5.3942075 0.13519922 0 34
2.3426566 5.4071598 0.1897655 0 35
2.3444922 5.411397 0.24423052 0 36
2.3365209 5.3929977 0.29757303 0 37
2.3422348 5.4061861 0.35265672 0 38
2.3409894 5.4033117 0.40685615 0 39
2.3482487 5.4200673 0.46274275 0 40
2.3396094 5.4001269 0.51554281 0 41
2.3439944 5.4102473 0.57120174 0 42
2.3415353 5.404572 0.62533528 0 43
2.3330641 5.3850193 0.67771435 0 44
2.3396099 5.4001279 0.73452699 0 45
2.3440607 5.4104009 0.79106641 0 46
2.3397834 5.4005284 0.84480047 0 47
2.3405092 5.4022036 0.90040314 0 48
2.3443007 5.410955 0.95744818 0 49
2.3440757 5.4104352 1.0131035 0 50
2.339489 5.3998485 1.0669355 0 51
2.3390625 5.3988638 1.1227316 0 52
2.3412573 5.4039307 1.1800255 0 53
2.3412287 5.4038639 1.2364581 0 54
2.3390217 5.3987699 1.2919048 0 55
2.3427501 5.4073758 1.350896 0 56
2.331821 5.3821502 1.4014999 0 57
2.3434112 5.4089017 1.4659066 0 58
2.3373146 5.3948298 1.5196466 0 59
2.3424599 5.4067063 1.5809476 0 60
2.3330376 5.3849583 1.6325963 0 61
2.3354657 5.3905621 1.6926616 0 62
2.3378518 5.3960695 1.7531273 0 63
0.9471181 2.2619169 -0.73103446 0 0
0.98318136 2.3480437 -0.73344493 0 1
1.0161513 2.4267826 -0.73190153 0 2
1.0527388 2.5141613 -0.73131275 0 3
1.0933517 2.6111536 -0.73168236 0 4
1.1410675 2.7251089 -0.73469377 0 5
1.1916335 2.845871 -0.73718715 0 6
1.2377512 2.9560099 -0.73462647 0 7
1.2891672 3.0788019 -0.73289663 0 8
1.3475621 3.2182612 -0.7325235 0 9
1.4116651 3.3713527 -0.73233718 0 10
1.4899259 3.5582559 -0.73609865 0 11
1.5654777 3.7386894 -0.73485434 0 12
1.6525891 3.9467297 -0.73516405 0 13
1.7477711 4.1740446 -0.73472309 0 14
1.8568927 4.4346495 -0.73527646 0 15
1.9718193 4.7091188 -0.73279554 0 16
2.1102509 5.0397229 -0.73301935 0 17
2.2695699 5.4202094 -0.73340702 0 18
2.2731135 5.4286723 -0.67963904 0 19
2.2740026 5.4307957 -0.6250869 0 20
2.2677376 5.415834 -0.56880444 0 21
2.2714024 5.4245858 -0.51517242 0 22
2.2757905 5.4350657 -0.4615992 0 23
2.2667434 5.4134598 -0.40549082 0 24
2.2697804 5.4207125 -0.35175705 0 25
2.2723551 5.4268613 -0.29787725 0 26
2.2747159 5.4324994 -0.2439021 0 27
2.2718623 5.425684 -0.18942088 0 28
2.2704794 5.4223819 -0.13519539 0 29
2.273602 5.4298391 -0.081219636 0 30
2.2702956 5.4219427 -0.027032314 0 31
2.2711763 5.424046 0.027042801 0 32
2.2713463 5.4244518 0.08113905 0 33
2.2721953 5.4264798 0.13529757 0 34
2.2711308 5.4239373 0.18935989 0 35
2.2669165 5.4138722 0.2430658 0 36
2.2709 5.4233861 0.29768652 0 37
2.2727475 5.4277983 0.35221687 0 38
2.2680085 5.4164805 0.4057171 0 39
2.2736509 5.429956 0.46116522 0 40
2.2703192 5.421999 0.51492679 0 41
2.2655435 5.4105935 0.56825411 0 42
2.2733757 5.4292989 0.62491459 0 43
2.2692873 5.4195347 0.67849511 0 44
2.2678342 5.4160643 0.73284614 0 45
2.2740083 5.4308095 0.78990227 0 46
2.2714796 5.4247704 0.8441596 0 47
2.2726505 5.427567 0.89990467 0 48
2.2763851 5.4364853 0.95694035 0 49
2.2666781 5.4133034 1.0083452 0 50
2.2691469 5.419199 1.0651652 0 51
2.2691407 5.4191847 1.1210701 0 52
2.2699344 5.4210796 1.1775862 0 53
2.2728944 5.4281487 1.2355264 0 54
2.2691212 5.419138 1.2900044 0 55
2.2721884 5.4264631 1.3485826 0 56
2.2762535 5.4361711 1.4081719 0 57
2.2748153 5.4327369 1.4646746 0 58
2.2694435 5.4199076 1.5187352 0 59
2.2689369 5.4186978 1.5761768 0 60
2.2764759 5.4367027 1.6396734 0 61
2.2726572 5.4275823 1.6953828 0 62
2.2699082 5.4210172 1.7520318 0 63
0.93021184 2.3005383 -0.73976392 0 0
0.95702386 2.3668482 -0.7355873 0 1
0.99411929 2.4585903 -0.73775196 0 2
1.024109 2.5327587 -0.73300391 0 3
1.0673693 2.6397474 -0.73596132 0 4
1.1035039 2.7291129 -0.73205966 0 5
1.151289 2.8472917 -0.7338326 0 6
1.2046064 2.9791529 -0.73664105 0 7
1.2515529 3.095258 -0.73309505 0 8
1.3152497 3.2527885 -0.73664552 0 9
1.374517 3.3993645 -0.73469502 0 10
1.4483309 3.5819161 -0.73725325 0 11
1.5283782 3.7798841 -0.73920143 0 12
1.6041275 3.9672222 -0.73525143 0 13
1.69609 4.1946578 -0.73462486 0 14
1.8033299 4.4598765 -0.73572689 0 15
1.9195006 4.7471819 -0.73499018 0 16
2.0557523 5.0841508 -0.73574907 0 17
2.2041736 5.4512162 -0.73387969 0 18
2.2026739 5.4475074 -0.67855489 0 19
2.2027829 5.4477773 -0.62387663 0 20
2.1998847 5.4406095 -0.56852251 0 21
2.2002923 5.4416175 -0.51418161 0 22
2.2057018 5.4549956 -0.4609535 0 23
2.2073534 5.4590802 -0.40684417 0 24
2.1980686 5.4361181 -0.35097632 0 25
2.2028911 5.4480448 -0.29753065 0 26
2.2019253 5.4456558 -0.24325877 0 27
2.2038331 5.4503746 -0.18932246 0 28
2.2035089 5.4495726 -0.13518755 0 29
2.2024722 5.4470091 -0.081065223 0 30
2.20193 5.4456682 -0.027013566 0 31
2.2043767 5.4517188 0.027043581 0 32
2.2047203 5.4525685 0.081147969 0 33
2.1988566 5.4380665 0.13490212 0 34
2.203372 5.449234 0.18928285 0 35
2.2028096 5.4478431 0.24335647 0 36
2.2011356 5.4437027 0.29729354 0 37
2.2032623 5.4489632 0.3518056 0 38
2.2052021 5.4537601 0.40644768 0 39
2.2042162 5.4513221 0.46064308 0 40
2.2002525 5.4415193 0.51417232 0 41
2.2000003 5.4408956 0.56855243 0 42
2.2044475 5.4518938 0.62434804 0 43
2.2026062 5.44734 0.67853403 0 44
2.2030964 5.4485526 0.7335211 0 45
2.2063074 5.4564939 0.78963232 0 46
2.2008917 5.4431 0.84273684 0 47
2.2098954 5.4653673 0.90159845 0 48
2.205245 5.453866 0.95515436 0 49
2.2000825 5.4410987 1.0084072 0 50
2.1997726 5.4403324 1.0639219 0 51
2.2058747 5.4554234 1.1228707 0 52
2.1948693 5.428206 1.1731827 0 53
2.2026861 5.4475374 1.2336813 0 54
2.2006755 5.442565 1.289042 0 55
2.2013941 5.4443421 1.3461968 0 56
2.2058353 5.4553266 1.4060014 0 57
2.1998425 5.440505 1.4593658 0 58
2.2083354 5.4615092 1.5226682 0 59
2.2080848 5.4608898 1.5804322 0 60
2.2041833 5.4512405 1.6357601 0 61
2.2042248 5.4513431 1.6942104 0 62
2.2063258 5.4565392 1.7546114 0 63
0.89689225 2.2990801 -0.73569298 0 0
0.9261989 2.3742044 -0.7342785 0 1
0.95671582 2.452431 -0.73231828 0 2
0.99730867 2.5564861 -0.73626602 0 3
1.0336185 2.6495619 -0.73509854 0 4
1.0768998 2.7605085 -0.73687351 0 5
1.1205617 2.872431 -0.73670483 0 6
1.1680323 2.9941165 -0.73673397 0 7
1.2174565 3.1208096 -0.73554552 0 8
1.2697202 3.2547817 -0.73350567 0 9
1.3335139 3.4183092 -0.73518997 0 10
1.4019737 3.5937984 -0.73609501 0 11
1.4722564 3.7739601 -0.73444706 0 12
1.5515728 3.9772785 -0.73352379 0 13
1.6439111 4.2139769 -0.73441261 0 14
1.7376475 4.4542599 -0.73122025 0 15
1.8546911 4.7542872 -0.73250389 0 16
1.9869767 5.0933867 -0.73349434 0 17
2.1346707 5.4719834 -0.73308629 0 18
2.1314833 5.4638124 -0.67726994 0 19
2.1357527 5.4747567 -0.62391162 0 20
2.1328976 5.4674377 -0.56854236 0 21
2.1330338 5.4677868 -0.51413715 0 22
2.1328504 5.4673166 -0.45974371 0 23
2.1378446 5.4801183 -0.40642217 0 24
2.1335623 5.4691415 -0.35138801 0 25
2.1379883 5.4804873 -0.29784417 0 26
2.1292167 5.4580016 -0.24262238 0 27
2.1317203 5.4644198 -0.18888554 0 28
2.1362803 5.476109 -0.13518398 0 29
2.1351888 5.4733109 -0.081059799 0 30
2.133435 5.4688153 -0.026996214 0 31
2.1399648 5.4855537 0.027078843 0 32
2.1406522 5.4873157 0.081267208 0 33
2.1296837 5.4591994 0.13476655 0 34
2.1380854 5.4807358 0.18944953 0 35
2.1329057 5.4674582 0.24304274 0 36
2.1358297 5.4749537 0.29754344 0 37
2.1321082 5.4654145 0.35114852 0 38
2.1319957 5.465126 0.4053103 0 39
2.1335521 5.4691157 0.45989498 0 40
2.1397197 5.4849253 0.51574868 0 41
2.1330304 5.4677782 0.56857777 0 42
2.1360843 5.4756064 0.62400848 0 43
2.1357832 5.4748344 0.67863619 0 44
2.1329107 5.4674716 0.73248184 0 45
2.1363442 5.4762726 0.78863347 0 46
2.1373351 5.4788132 0.84413326 0 47
2.1331427 5.4680662 0.89764875 0 48
2.1369054 5.4777117 0.95465642 0 49
2.1357617 5.4747796 1.0097058 0 50
2.1286199 5.4564719 1.0618793 0 51
2.132956 5.4675879 1.1198914 0 52
2.1378977 5.4802551 1.1786612 0 53
2.1387472 5.4824328 1.2355347 0 54
2.1379499 5.4803891 1.2916763 0 55
2.1354556 5.4739952 1.3469342 0 56
2.1351519 5.4732165 1.4037395 0 57
2.1331635 5.4681191 1.4596267 0 58
2.1409996 5.4882064 1.5226564 0 59
2.1325529 5.4665542 1.5743634 0 60
2.1371474 5.478332 1.63588 0 61
2.138582 5.4820089 1.6954401 0 62
2.1351719 5.473268 1.7514156 0 63
0.8645978 2.2994072 -0.73234034 0 0
0.89419138 2.3781116 -0.73203093 0 1
0.93078828 2.4754415 -0.7357161 0 2
0.96186668 2.558095 -0.73326755 0 3
0.99723071 2.6521459 -0.73235798 0 4
1.0382096 2.7611296 -0.733576 0 5
1.0829763 2.8801875 -0.73522311 0 6
1.1245391 2.9907241 -0.73244137 0 7
1.1732876 3.1203711 -0.73198646 0 8
1.2317172 3.2757652 -0.73476571 0 9
1.2866163 3.4217699 -0.73247623 0 10
1.3573421 3.6098661 -0.73591179 0 11
1.4248345 3.7893627 -0.7339794 0 12
1.5046299 4.0015793 -0.73453784 0 13
1.5965768 4.2461133 -0.73653609 0 14
1.6961226 4.5108566 -0.73703176 0 15
1.7990137 4.7844963 -0.73369449 0 16
1.9241436 5.1172805 -0.73347259 0 17
2.0631993 5.4871011 -0.73165745 0 18
2.0710752 5.5080466 -0.67954487 0 19
2.066432 5.495698 -0.62335527 0 20
2.065383 5.492908 -0.56850702 0 21
2.0663197 5.4954 -0.51430553 0 22
2.0646098 5.4908519 -0.45955321 0 23
2.067265 5.4979138 -0.40582603 0 24
2.0658932 5.4942651 -0.35134348 0 25
2.0650744 5.4920878 -0.29707214 0 26
2.068536 5.5012941 -0.24339774 0 27
2.0710201 5.5079002 -0.18949391 0 28
2.0688252 5.5020628 -0.13518646 0 29
2.0657976 5.4940114 -0.080984041 0 30
2.0706773 5.506989 -0.027056918 0 31
2.068084 5.500092 0.027023034 0 32
2.0698287 5.5047321 0.081142068 0 33
2.0638449 5.4888177 0.13486102 0 34
2.0674307 5.4983544 0.18916549 0 35
2.0639246 5.4890299 0.24285513 0 36
2.0699306 5.5050025 0.29777071 0 37
2.0679843 5.4998264 0.35169911 0 38
2.0671184 5.4975238 0.40579724 0 39
2.0682755 5.5006013 0.46036917 0 40
2.0701973 5.505712 0.51527065 0 41
2.066052 5.4946876 0.56869119 0 42
2.0727019 5.5123734 0.62524664 0 43
2.0689886 5.5024972 0.67886025 0 44
2.0611448 5.481637 0.73092884 0 45
2.0645347 5.4906521 0.78698885 0 46
2.0643749 5.4902272 0.84191716 0 47
2.0701494 5.5055847 0.89956105 0 48
2.0634263 5.4877043 0.95190406 0 49
2.0639212 5.4890208 1.0075755 0 50
2.068815 5.5020361 1.0657151 0 51
2.0735445 5.5146141 1.1242161 0 52
2.0678086 5.4993596 1.1772125 0 53
2.0629392 5.4864092 1.230621 0 54
2.0661261 5.4948845 1.2890073 0 55
2.0674918 5.498517 1.3466108 0 56
2.0641227 5.4895568 1.4013146 0 57
2.0640731 5.4894247 1.4584286 0 58
2.0689449 5.5023813 1.5194161 0 59
2.0680711 5.5000572 1.5765692 0 60
2.0690765 5.5027313 1.6354449 0 61
2.0686605 5.5016246 1.6935116 0 62
2.0627463 5.4858966 1.7472081 0 63
0.83748072 2.313236 -0.73340935 0 0
0.86992586 2.4028537 -0.73629868 0 1
0.89574593 2.4741724 -0.73201007 0 2
0.93550277 2.5839863 -0.7373361 0 3
0.97167611 2.683902 -0.73777193 0 4
1.003769 2.772547 -0.7332747 0 5
1.0506588 2.9020629 -0.73745358 0 6
1.0927484 3.0183198 -0.73585331 0 7
1.1341224 3.1326008 -0.73152858 0 8
1.1873788 3.2797019 -0.73231846 0 9
1.248693 3.4490602 -0.73497564 0 10
1.3145078 3.6308498 -0.7368387 0 11
1.3860972 3.8285894 -0.73822027 0 12
1.4537694 4.0155091 -0.73375797 0 13
1.5420265 4.2592874 -0.73547661 0 14
1.6357893 4.5182734 -0.73490149 0 15
1.7404579 4.8073816 -0.73386657 0 16
1.8695273 5.1638894 -0.73680246 0 17
1.9975481 5.5174999 -0.73238027 0 18
1.9966152 5.5149231 -0.67731309 0 19
1.9973323 5.5169039 -0.62292773 0 20
1.9979588 5.5186348 -0.56858397 0 21
2.0021534 5.530221 -0.51522136 0 22
1.9918501 5.5017614 -0.45838174 0 23
2.0011749 5.5275178 -0.40616414 0 24
2.0038607 5.5349369 -0.35234198 0 25
1.9984052 5.5198679 -0.29722312 0 26
1.9939412 5.5075374 -0.24257085 0 27
2.0003247 5.5251698 -0.18922751 0 28
1.9952554 5.5111675 -0.13479714 0 29
1.9949301 5.5102692 -0.080855981 0 30
1.9988971 5.5212264 -0.027004065 0 31
1.9968262 5.5155058 0.026976088 0 32
1.9943633 5.5087032 0.08083301 0 33
1.9948372 5.5100121 0.13476889 0 34
1.9997723 5.5236435 0.18917523 0 35
1.9989214 5.5212936 0.24317671 0 36
1.999615 5.5232091 0.29740304 0 37
1.9979485 5.5186062 0.35130242 0 38
2.0009768 5.5269709 0.40612394 0 39
1.9990727 5.5217113 0.46004385 0 40
1.9988364 5.5210586 0.51436776 0 41
2.0003695 5.5252934 0.56927001 0 42
2.0018475 5.5293756 0.62433594 0 43
1.9966288 5.5149608 0.67731768 0 44
1.9974509 5.5172319 0.73234469 0 45
1.9948356 5.5100079 0.78618789 0 46
1.9998755 5.5239291 0.84325045 0 47
1.9989841 5.5214663 0.89807183 0 48
1.997426 5.5171628 0.95268148 0 49
1.999427 5.5226898 1.0091666 0 50
1.9953723 5.5114903 1.0627135 0 51
1.9990839 5.5217423 1.1205733 0 52
1.9975556 5.5175209 1.1757532 0 53
1.9977763 5.5181303 1.2321329 0 54
1.9977466 5.5180483 1.2885811 0 55
1.9938521 5.5072918 1.3426538 0 56
1.996117 5.5135469 1.4010671 0 57
1.9996104 5.5231967 1.4607581 0 58
2.000628 5.5260077 1.5190321 0 59
1.9991233 5.5218511 1.5756508 0 60
1.9977232 5.5179839 1.6325537 0 61
1.9969807 5.515933 1.6902294 0 62
1.9967337 5.5152507 1.7486051 0 63
0.81107193 2.329381 -0.73531049 0 0
0.83626723 2.4017413 -0.73275131 0 1
0.86428797 2.4822161 -0.73119026 0 2
0.89945787 2.5832233 -0.73390692 0 3
0.9333728 2.6806264 -0.73366106 0 4
0.97061503 2.7875853 -0.7340399 0 5
1.0066568 2.8910961 -0.731466 0 6
1.0565469 3.0343795 -0.73654556 0 7
1.0980633 3.153614 -0.73322713 0 8
1.1501319 3.303154 -0.73434162 0 9
1.2036433 3.4568374 -0.73342359 0 10
1.2639679 3.6300883 -0.73347455 0 11
1.3308002 3.8220294 -0.73374456 0 12
1.4074129 4.0420589 -0.73539144 0 13
1.4906886 4.2812252 -0.73604393 0 14
1.5840394 4.5493264 -0.73672855 0 15
1.6853787 4.8403707 -0.73568326 0 16
1.8048857 5.1835923 -0.73639137 0 17
1.9264209 5.532639 -0.7311902 0 18
1.9307238 5.5449967 -0.67803955 0 19
1.9277328 5.5364065 -0.62240624 0 20
1.9292849 5.5408645 -0.56838709 0 21
1.9321822 5.5491853 -0.5147357 0 22
1.9313333 5.5467472 -0.46011633 0 23
1.92897 5.5399594 -0.40530482 0 24
1.9330969 5.5518122 -0.3518765 0 25
1.930221 5.5435524 -0.29719794 0 26
1.9298418 5.5424633 -0.24304557 0 27
1.9311429 5.5462003 -0.1891202 0 28
1.9361196 5.560493 -0.13541105 0 29
1.9344712 5.555759 -0.081168309 0 30
1.9263049 5.5323057 -0.026940366 0 31
1.9299439 5.5427566 0.026991259 0 32
1.9313235 5.5467191 0.081036232 0 33
1.932448 5.5499487 0.13515428 0 34
1.9306438 5.5447669 0.18907133 0 35
1.93335 5.5525389 0.2434874 0 36
1.9290125 5.540082 0.29701188 0 37
1.9353037 5.5581498 0.35227817 0 38
1.9297678 5.5422511 0.40547249 0 39
1.928857 5.5396352 0.45952636 0 40
1.9290609 5.5402212 0.51390421 0 41
1.9305521 5.5445037 0.56876045 0 42
1.9345311 5.5559311 0.62460119 0 43
1.9326483 5.5505238 0.67871541 0 44
1.9311538 5.5462313 0.73298657 0 45
1.9353082 5.5581632 0.78960365 0 46
1.9335942 5.5532408 0.84403163 0 47
1.9327575 5.5508375 0.89891553 0 48
1.9279683 5.5370827 0.95195556 0 49
1.9283952 5.5383091 1.0076115 0 50
1.9300152 5.5429616 1.0641253 0 51
1.9275182 5.5357904 1.1185297 0 52
1.9230494 5.5229559 1.1717838 0 53
1.9325366 5.5502028 1.2338949 0 54
1.9351563 5.5577269 1.2921925 0 55
1.9314196 5.5469952 1.3464415 0 56
1.9315131 5.5472636 1.4034934 0 57
1.9277987 5.5365958 1.4579222 0 58
1.9298259 5.542418 1.5169053 0 59
1.9279572 5.5370512 1.5731044 0 60
1.9296155 5.5418139 1.6324606 0 61
1.9298761 5.542562 1.6909897 0 62
1.9321738 5.549161 1.7516912 0 63
0.78305131 2.3412156 -0.73595113 0 0
0.80838239 2.4169519 -0.73430377 0 1
0.83623958 2.5002413 -0.73341548 0 2
0.87232274 2.6081247 -0.73787832 0 3
0.89668816 2.680974 -0.73068327 0 4
0.93346715 2.7909381 -0.73184496 0 5
0.9738034 2.9115381 -0.73355287 0 6
1.0137992 3.0311198 -0.73267299 0 7
1.0621332 3.1756318 -0.73525417 0 8
1.1071371 3.3101873 -0.73282325 0 9
1.1611853 3.4717839 -0.7335099 0 10
1.2205766 3.6493561 -0.73427957 0 11
1.2837532 3.8382452 -0.73377174 0 12
1.3608503 4.0687551 -0.73714823 0 13
1.4367071 4.2955565 -0.73541492 0 14
1.5303743 4.5756083 -0.73788142 0 15
1.6224053 4.8507686 -0.73417592 0 16
1.7341411 5.1848431 -0.73348427 0 17
1.8668065 5.5814943 -0.73455763 0 18
1.8624977 5.5686111 -0.67807537 0 19
1.8662419 5.5798063 -0.62465817 0 20
1.8636085 5.5719328 -0.56918037 0 21
1.8621012 5.5674262 -0.51426494 0 22
1.867377 5.5832 -0.46120054 0 23
1.8627491 5.5693631 -0.40574956 0 24
1.8631157 5.5704594 -0.35157973 0 25
1.8627098 5.5692453 -0.29732496 0 26
1.8627039 5.5692282 -0.24319644 0 27
1.8642585 5.5738759 -0.18926793 0 28
1.8685346 5.5866609 -0.13547853 0 29
1.8664948 5.5805621 -0.081189223 0 30
1.8619863 5.5670824 -0.02699618 0 31
1.8609203 5.5638952 0.026980726 0 32
1.8641263 5.5734806 0.081086196 0 33
1.8648421 5.5756207 0.13521081 0 34
1.8682938 5.5859408 0.1896776 0 35
1.8668259 5.5815525 0.24373463 0 36
1.8616524 5.5660839 0.29715616 0 37
1.8673565 5.5831389 0.35238001 0 38
1.8631306 5.5705037 0.40583265 0 39
1.8652772 5.5769219 0.46068195 0 40
1.8625057 5.5686355 0.51437664 0 41
1.8622867 5.5679808 0.56877667 0 42
1.8598564 5.5607142 0.6225208 0 43
1.8594574 5.5595217 0.67696857 0 44
1.8619479 5.5669675 0.73264581 0 45
1.8609591 5.5640111 0.7871241 0 46
1.8656139 5.5779285 0.84423339 0 47
1.8623763 5.5682483 0.89795864 0 48
1.8620011 5.5671268 0.95311236 0 49
1.864277 5.5739312 1.0098454 0 50
1.8637466 5.5723457 1.0652862 0 51
1.8612298 5.5648208 1.1196864 0 52
1.865777 5.5784163 1.178594 0 53
1.8649622 5.5759802 1.234434 0 54
1.865132 5.5764875 1.2911245 0 55
1.8609056 5.5638518 1.3448771 0 56
1.866706 5.5811939 1.4061642 0 57
1.8621058 5.56744 1.4599044 0 58
1.8605354 5.5627446 1.5160924 0 59
1.866805 5.5814896 1.5790886 0 60
1.8594378 5.559463 1.6308011 0 61
1.8588428 5.5576839 1.6885021 0 62
1.8623554 5.5681858 1.7503356 0 63
0.7516517 2.3427069 -0.73345906 0 0
0.77861875 2.4267561 -0.73431814 0 1
0.80423748 2.5066032 -0.73232543 0 2
0.83521521 2.603153 -0.73351061 0 3
0.87078369 2.7140107 -0.73671323 0 4
0.90056646 2.8068361 -0.73305452 0 5
0.94205415 2.9361427 -0.73677766 0 6
0.97514266 3.0392711 -0.73168957 0 7
1.0212413 3.1829491 -0.73398536 0 8
1.0650679 3.319545 -0.73194021 0 9
1.1254731 3.5078127 -0.73814219 0 10
1.1747934 3.6615314 -0.73376727 0 11
1.2408341 3.8673637 -0.73636585 0 12
1.3049701 4.0672593 -0.73391455 0 13
1.3812045 4.304862 -0.73404491 0 14
1.46123 4.5542812 -0.73148924 0 15
1.5642198 4.8752742 -0.73491818 0 16
1.6757853 5.2229958 -0.73591089 0 17
1.7914984 5.5836439 -0.73188603 0 18
1.795916 5.5974126 -0.67884207 0 19
1.7947195 5.5936828 -0.62369394 0 20
1.7952203 5.5952439 -0.56926364 0 21
1.7916481 5.5841103 -0.51373219 0 22
1.7908865 5.581737 -0.45922586 0 23
1.7949452 5.5943866 -0.40593395 0 24
1.7976207 5.6027255 -0.35219446 0 25
1.7952195 5.5952415 -0.29751179 0 26
1.7971463 5.6012473 -0.24361123 0 27
1.7933666 5.5894666 -0.18903422 0 28
1.7922819 5.5860858 -0.13491994 0 29
1.7970114 5.6008263 -0.081156425 0 30
1.7943741 5.592607 -0.027010918 0 31
1.7910444 5.5822287 0.026960794 0 32
1.7932079 5.5889721 0.080984652 0 33
1.7932018 5.588953 0.13498919 0 34
1.7920913 5.5854917 0.18889979 0 35
1.7930722 5.5885491 0.24305896 0 36
1.7947723 5.5938478 0.29743767 0 37
1.7925639 5.5869646 0.35120374 0 38
1.7923691 5.5863576 0.40535134 0 39
1.7927477 5.5875378 0.45970312 0 40
1.7937384 5.5906253 0.51433158 0 41
1.7918348 5.5846925 0.5681901 0 42
1.796962 5.6006727 0.62447327 0 43
1.7936336 5.5902987 0.67797935 0 44
1.7955616 5.5963078 0.73354596 0 45
1.7916188 5.5840192 0.78677845 0 46
1.7947663 5.5938292 0.84323603 0 47
1.7945869 5.5932698 0.89836711 0 48
1.7969179 5.6005349 0.95497698 0 49
1.7949835 5.5945063 1.0094979 0 50
1.7980595 5.6040931 1.067048 0 51
1.7898866 5.57862 1.11795 0 52
1.7955042 5.5961289 1.1775825 0 53
1.7999691 5.6100445 1.2369819 0 54
1.7916133 5.584002 1.2876662 0 55
1.7932478 5.5890961 1.3455474 0 56
1.792966 5.5882182 1.4022733 0 57
1.796249 5.5984502 1.4621336 0 58
1.7924998 5.5867648 1.516517 0 59
1.7954046 5.5958185 1.5767772 0 60
1.7956892 5.5967054 1.635125 0 61
1.7938091 5.5908456 1.6917477 0 62
1.7937233 5.5905786 1.7503089 0 63
0.72501713 2.3590181 -0.73571903 0 0
0.74743855 2.4319715 -0.73305976 0 1
0.77415907 2.518913 -0.73308527 0 2
0.80640352 2.6238282 -0.73648673 0 3
0.83695358 2.7232301 -0.73636657 0 4
0.86702567 2.8210769 -0.73393393 0 5
0.90180767 2.9342484 -0.7334643 0 6
0.94008553 3.058795 -0.73355144 0 7
0.97958273 3.1873085 -0.73215765 0 8
1.0257586 3.3375528 -0.73307425 0 9
1.0775684 3.5061283 -0.73494399 0 10
1.1282887 3.6711593 -0.73286098 0 11
1.1932926 3.8826652 -0.73642975 0 12
1.2554562 4.0849295 -0.73426187 0 13
1.325784 4.3137579 -0.73272651 0 14
1.4108076 4.5904026 -0.73444897 0 15
1.4976634 4.8730087 -0.7317453 0 16
1.6127567 5.2474928 -0.7365126 0 17
1.7296528 5.6278424 -0.73483604 0 18
1.7245089 5.6111054 -0.67787975 0 19
1.7228054 5.6055627 -0.62260938 0 20
1.725383 5.6139498 -0.5689652 0 21
1.7262293 5.616703 -0.51473898 0 22
1.7262747 5.6168509 -0.46033359 0 23
1.7290553 5.6258984 -0.40664697 0 24
1.7314211 5.6335959 -0.35277003 0 25
1.7272267 5.6199484 -0.2976737 0 26
1.7288995 5.625391 -0.24371827 0 27
1.7279729 5.6223764 -0.18941431 0 28
1.7273104 5.6202207 -0.13522117 0 29
1.7255976 5.6146479 -0.081043109 0 30
1.7305509 5.6307645 -0.027090386 0 31
1.7229401 5.6060009 0.026971243 0 32
1.7256336 5.6147652 0.081044801 0 33
1.7239622 5.6093264 0.13495906 0 34
1.7253207 5.6137466 0.18912359 0 35
1.7264707 5.6174884 0.2433759 0 36
1.7308073 5.6315989 0.29829079 0 37
1.7269523 5.6190557 0.35185951 0 38
1.7267148 5.6182828 0.40609652 0 39
1.7265947 5.6178918 0.46041891 0 40
1.7278672 5.6220326 0.51522744 0 41
1.7256643 5.6148648 0.56905794 0 42
1.7220905 5.6032367 0.62235099 0 43
1.7246065 5.611423 0.67791808 0 44
1.7273166 5.6202407 0.73384351 0 45
1.7274046 5.6205273 0.78886992 0 46
1.7244059 5.6107702 0.84252965 0 47
1.7301145 5.6293445 0.90067619 0 48
1.7264826 5.6175275 0.95418233 0 49
1.7240956 5.6097608 1.0083487 0 50
1.7238152 5.6088486 1.0638371 0 51
1.7253712 5.6139112 1.1206858 0 52
1.7257564 5.6151648 1.1770338 0 53
1.7278396 5.6219425 1.2348273 0 54
1.7272985 5.620182 1.2910138 0 55
1.7269099 5.6189179 1.3475127 0 56
1.7232878 5.6071324 1.4015961 0 57
1.7259634 5.6158381 1.4610214 0 58
1.7222415 5.6037283 1.5152587 0 59
1.7273473 5.6203403 1.5775827 0 60
1.7268627 5.6187639 1.6352422 0 61
1.7276579 5.6213512 1.6944221 0 62
1.727412 5.6205511 1.75291 0 63
0.6964007 2.3692639 -0.73618817 0 0
0.71814197 2.4432313 -0.73373652 0 1
0.7456913 2.5369582 -0.73561281 0 2
0.77140868 2.6244528 -0.73394406 0 3
0.80058128 2.7237027 -0.73377693 0 4
0.83257878 2.8325629 -0.73420316 0 5
0.86446559 2.9410472 -0.7324512 0 6
0.90777433 3.0883901 -0.73791611 0 7
0.94689554 3.2214866 -0.73727834 0 8
0.98506653 3.3513503 -0.73338878 0 9
1.0348519 3.5207279 -0.73528129 0 10
1.0835359 3.6863585 -0.73317993 0 11
1.1445733 3.8940175 -0.73585784 0 12
1.2064886 4.1046629 -0.73508668 0 13
1.2772286 4.3453312 -0.73536623 0 14
1.3540398 4.6066551 -0.73432988 0 15
1.4416884 4.9048491 -0.73380899 0 16
1.543432 5.2509971 -0.73428518 0 17
1.6572418 5.6381955 -0.73347163 0 18
1.6603545 5.6487851 -0.67991394 0 19
1.6565914 5.635983 -0.62367851 0 20
1.6606344 5.6497378 -0.57047963 0 21
1.6583996 5.6421347 -0.51516181 0 22
1.6579746 5.6406889 -0.46058157 0 23
1.6547265 5.6296377 -0.40541589 0 24
1.6564646 5.6355515 -0.35159042 0 25
1.6555194 5.6323352 -0.29722908 0 26
1.6569104 5.6370678 -0.24332307 0 27
1.6621317 5.6548314 -0.18980479 0 28
1.6578741 5.6403465 -0.13520469 0 29
1.6577393 5.6398878 -0.081107065 0 30
1.6570264 5.6374626 -0.027022541 0 31
1.6612151 5.6517134 0.027090847 0 32
1.6589706 5.6440773 0.08116731 0 33
1.6599479 5.6474023 0.13537382 0 34
1.656008 5.6339979 0.18910551 0 35
1.6555877 5.6325679 0.24312882 0 36
1.657058 5.6375704 0.29750532 0 37
1.6580282 5.640871 0.3519223 0 38
1.6599977 5.6475716 0.40670738 0 39
1.6582258 5.6415429 0.46065131 0 40
1.6562982 5.634985 0.51450902 0 41
1.6588284 5.6435933 0.56985915 0 42
1.6599787 5.6475072 0.62495375 0 43
1.6570668 5.6375999 0.67856765 0 44
1.6603348 5.6487184 0.73484051 0 45
1.6571685 5.6379461 0.78839511 0 46
1.6575673 5.6393027 0.8436898 0 47
1.6582447 5.6416078 0.89930785 0 48
1.6583219 5.64187 0.95478123 0 49
1.6590911 5.6444869 1.0108473 0 50
1.6556728 5.6328578 1.064449 0 51
1.6586127 5.6428599 1.1223085 0 52
1.658085 5.6410642 1.1780999 0 53
1.6570674 5.6376023 1.2336981 0 54
1.661226 5.6517506 1.2934753 0 55
1.655425 5.6320143 1.3456701 0 56
1.6569762 5.6372919 1.4039359 0 57
1.660519 5.6493449 1.4643159 0 58
1.6618086 5.6537323 1.5231392 0 59
1.6592997 5.6451969 1.5787133 0 60
1.6628525 5.6572838 1.6403779 0 61
1.6574477 5.638896 1.6934392 0 62
1.6587365 5.6432805 1.7535051 0 63
0.66418755 2.3668532 -0.73284596 0 0
0.68686044 2.4476485 -0.73247129 0 1
0.7165013 2.5532749 -0.73773348 0 2
0.74161851 2.6427808 -0.73646361 0 3
0.76527274 2.7270734 -0.73209453 0 4
0.79827929 2.8446932 -0.73474741 0 5
0.83024758 2.9586132 -0.73422796 0 6
0.86589205 3.0856335 -0.73465794 0 7
0.90350312 3.2196617 -0.73426253 0 8
0.94510275 3.3679032 -0.73441243 0 9
0.988976 3.5242469 -0.73342109 0 10
1.0449967 3.7238786 -0.73803085 0 11
1.0981941 3.913449 -0.73692232 0 12
1.1610276 4.1373582 -0.73832941 0 13
1.226022 4.368968 -0.73675931 0 14
1.2996343 4.6312876 -0.7356534 0 15
1.3875839 4.9446983 -0.73716241 0 16
1.4739127 5.2523341 -0.73188239 0 17
1.5829273 5.640811 -0.73122448 0 18
1.5899909 5.6659822 -0.67957914 0 19
1.5961143 5.6878033 -0.62719363 0 20
1.5898288 5.6654048 -0.57004452 0 21
1.5871568 5.6558828 -0.51459628 0 22
1.5862819 5.6527653 -0.45994017 0 23
1.5864968 5.6535311 -0.40570101 0 24
1.5917118 5.6721148 -0.35262379 0 25
1.5893232 5.6636028 -0.29782528 0 26
1.5946517 5.682591 -0.24442318 0 27
1.590042 5.6661644 -0.18951459 0 28
1.5930213 5.6767812 -0.13559826 0 29
1.5885453 5.660831 -0.081121206 0 30
1.5924 5.6745672 -0.027104488 0 31
1.5929531 5.6765385 0.027113903 0 32
1.5902455 5.6668897 0.081208028 0 33
1.5881206 5.659317 0.1351811 0 34
1.5858834 5.6513453 0.18901893 0 35
1.5916024 5.6717253 0.24395582 0 36
1.5918956 5.6727695 0.29830733 0 37
1.5872841 5.6563363 0.35164288 0 38
1.5879225 5.6586113 0.40606555 0 39
1.5898749 5.6655688 0.46098197 0 40
1.5879408 5.6586766 0.5148505 0 41
1.5882988 5.6599526 0.56949592 0 42
1.5883923 5.6602855 0.62415928 0 43
1.5883484 5.6601291 0.67887717 0 44
1.5881317 5.6593571 0.73362857 0 45
1.5935446 5.6786461 0.79128653 0 46
1.5888299 5.6618447 0.84407556 0 47
1.5891736 5.6630697 0.89954609 0 48
1.5860173 5.6518221 0.95309299 0 49
1.5911171 5.6699958 1.0118352 0 50
1.5914823 5.6712971 1.067934 0 51
1.5860932 5.6520929 1.1201812 0 52
1.5892643 5.663393 1.1785927 0 53
1.5842022 5.6453543 1.2310385 0 54
1.5937864 5.6795077 1.2952447 0 55
1.5887975 5.6617293 1.3480002 0 56
1.5917841 5.6723723 1.4076914 0 57
1.590145 5.6665311 1.4635917 0 58
1.5912046 5.6703076 1.5222183 0 59
1.5876703 5.6577129 1.5766346 0 60
1.5877956 5.6581593 1.6348469 0 61
1.587293 5.6563683 1.6926969 0 62
1.5897146 5.6649981 1.7540466 0 63
0.63749379 2.3840337 -0.73568273 0 0
0.65903032 2.4645736 -0.73505557 0 1
0.68780613 2.5721865 -0.74069804 0 2
0.7081219 2.6481614 -0.7354809 0 3
0.7359587 2.7522626 -0.73637158 0 4
0.76167011 2.8484154 -0.73323435 0 5
0.79574376 2.9758406 -0.73601925 0 6
0.82618272 3.089673 -0.73314553 0 7
0.86852199 3.248009 -0.73823589 0 8
0.90718037 3.3925798 -0.73730522 0 9
0.94897014 3.5488608 -0.73605937 0 10
0.99767917 3.7310178 -0.73695868 0 11
1.0401732 3.8899324 -0.7300303 0 12
1.1010762 4.1176915 -0.73234832 0 13
1.1624756 4.3473067 -0.73064071 0 14
1.2414831 4.6427708 -0.73499697 0 15
1.3198534 4.9358516 -0.73336858 0 16
1.413186 5.2848873 -0.73394161 0 17
1.5238655 5.6987953 -0.7362563 0 18
1.5235088 5.6974616 -0.68105638 0 19
1.5211338 5.6885796 -0.62516946 0 20
1.5205133 5.6862593 -0.5702185 0 21
1.5199152 5.6840224 -0.5154171 0 22
1.5250043 5.703054 -0.46247119 0 23
1.5241014 5.6996775 -0.40763682 0 24
1.5219048 5.691463 -0.35263655 0 25
1.5217658 5.6909432 -0.29825643 0 26
1.5192224 5.6814313 -0.24355137 0 27
1.523911 5.6989655 -0.18997057 0 28
1.5204639 5.6860747 -0.13536343 0 29
1.518484 5.6786699 -0.081103139 0 30
1.5192108 5.6813884 -0.027045796 0 31
1.5199187 5.6840353 0.027058396 0 32
1.521548 5.6901288 0.081266791 0 33
1.5193846 5.6820383 0.13526733 0 34
1.5179672 5.6767378 0.18922962 0 35
1.5218936 5.691421 0.2439796 0 36
1.5216436 5.6904864 0.2982325 0 37
1.5250807 5.7033396 0.35337242 0 38
1.5169032 5.6727581 0.40571156 0 39
1.521994 5.6917963 0.46155831 0 40
1.5195909 5.6828094 0.51530707 0 41
1.5229971 5.6955481 0.57114995 0 42
1.524465 5.7010369 0.62653852 0 43
1.5272168 5.711328 0.68271393 0 44
1.5200591 5.6845608 0.73441726 0 45
1.5237728 5.6984487 0.79137516 0 46
1.5212578 5.689043 0.84527767 0 47
1.523429 5.6971631 0.90191782 0 48
1.5232937 5.6966572 0.95742261 0 49
1.5198585 5.6838102 1.0108889 0 50
1.5200285 5.6844459 1.0668098 0 51
1.51914 5.6811233 1.1221477 0 52
1.5201955 5.6850705 1.1791247 0 53
1.5203158 5.6855206 1.2356273 0 54
1.5176359 5.6754985 1.289977 0 55
1.5232983 5.6966739 1.3517582 0 56
1.5213902 5.6895385 1.4072024 0 57
1.5217836 5.6910095 1.4649702 0 58
1.5240681 5.699553 1.5249231 0 59
1.525045 5.7032065 1.5839667 0 60
1.5190356 5.6807327 1.6358486 0 61
1.5213381 5.6893435 1.6968385 0 62
1.5203462 5.6856341 1.7545149 0 63
0.6059981 2.383297 -0.73310053 0 0
0.62763822 2.4684041 -0.7338407 0 1
0.65000075 2.5563526 -0.73378134 0 2
0.6696465 2.6336164 -0.72909921 0 3
0.70164269 2.7594523 -0.73593122 0 4
0.72565866 2.8539035 -0.73229474 0 5
0.75746292 2.9789848 -0.73443776 0 6
0.79184252 3.1141944 -0.73659801 0 7
0.82846922 3.2582414 -0.73819041 0 8
0.86453539 3.4000843 -0.73657012 0 9
0.90595448 3.5629792 -0.73662138 0 10
0.94863635 3.7308404 -0.73456407 0 11
0.99504542 3.9133601 -0.73207545 0 12
1.0517102 4.1362138 -0.7332871 0 13
1.115204 4.3859253 -0.73477101 0 14
1.1911868 4.6847539 -0.7392686 0 15
1.256562 4.9418645 -0.73191082 0 16
1.3486468 5.3040199 -0.73424011 0 17
1.4519147 5.7101564 -0.73536193 0 18
1.4544157 5.7199926 -0.68156034 0 19
1.4508778 5.7060785 -0.62508458 0 20
1.4553692 5.7237425 -0.57213944 0 21
1.452657 5.7130756 -0.51639283 0 22
1.4530855 5.7147613 -0.46193671 0 23
1.4547302 5.7212296 -0.407868 0 24
1.4543999 5.7199306 -0.35326561 0 25
1.4519204 5.7101789 -0.29830635 0 26
1.4499933 5.7026 -0.24367607 0 27
1.4562243 5.7271056 -0.19029732 0 28
1.4531226 5.7149072 -0.13561419 0 29
1.4543488 5.7197294 -0.081427984 0 30
1.4510459 5.7067394 -0.027079491 0 31
1.4531579 5.7150455 0.027118905 0 32
1.4519775 5.7104034 0.081295215 0 33
1.454203 5.7191558 0.13571501 0 34
1.4537475 5.7173643 0.18997365 0 35
1.4540093 5.7183943 0.24435098 0 36
1.4495533 5.7008691 0.29781997 0 37
1.4565572 5.7284145 0.35378957 0 38
1.4524488 5.7122569 0.40722838 0 39
1.4534252 5.7160969 0.46204469 0 40
1.4552519 5.7232814 0.51731527 0 41
1.4522938 5.711647 0.57093042 0 42
1.4552813 5.7233968 0.62698179 0 43
1.4515393 5.7086797 0.68021238 0 44
1.4489733 5.6985884 0.73387218 0 45
1.4543862 5.7198768 0.79180753 0 46
1.4559773 5.7261338 0.84806442 0 47
1.4527218 5.7133307 0.90158123 0 48
1.4514967 5.7085123 0.95634311 0 49
1.4521352 5.7110238 1.0124767 0 50
1.4514072 5.7081609 1.0678302 0 51
1.4546233 5.720809 1.1263683 0 52
1.4498659 5.7020988 1.1788696 0 53
1.4536523 5.71699 1.2384882 0 54
1.4543028 5.7195487 1.2958266 0 55
1.4556345 5.7247853 1.3540791 0 56
1.4578285 5.7334146 1.4135138 0 57
1.4514037 5.708147 1.4646767 0 58
1.4485881 5.6970735 1.5193791 0 59
1.4533376 5.7157521 1.5823681 0 60
1.4531829 5.7151442 1.6404883 0 61
1.455526 5.7243595 1.7018152 0 62
1.4520962 5.7108707 1.7566599 0 63
0.57963997 2.4029701 -0.73690379 0 0
0.59766847 2.4777093 -0.73436666 0 1
0.61744803 2.5597081 -0.73250979 0 2
0.64097649 2.6572483 -0.7334041 0 3
0.66463846 2.755342 -0.73259997 0 4
0.69185889 2.8681874 -0.73372149 0 5
0.72100043 2.9889975 -0.73466498 0 6
0.74927264 3.1062036 -0.73247331 0 7
0.78496063 3.2541525 -0.73502159 0 8
0.82068789 3.4022644 -0.7348007 0 9
0.86234212 3.5749471 -0.73684776 0 10
0.89724737 3.7196512 -0.73013347 0 11
0.9507699 3.9415357 -0.73510361 0 12
1.0040995 4.1626201 -0.73572397 0 13
1.0655079 4.4171963 -0.73775905 0 14
1.124905 4.6634345 -0.73366612 0 15
1.1985701 4.968822 -0.73366517 0 16
1.2874879 5.3374419 -0.73661953 0 17
1.3782839 5.7138481 -0.73359936 0 18
1.3813182 5.7264276 -0.68025178 0 19
1.3839086 5.7371664 -0.62657869 0 20
1.3830789 5.733727 -0.57139426 0 21
1.3882139 5.7550144 -0.51860142 0 22
1.3846878 5.7403965 -0.46259755 0 23
1.3811601 5.7257719 -0.40695032 0 24
1.3860686 5.7461205 -0.35380372 0 25
1.3810986 5.7255173 -0.2981979 0 26
1.3849334 5.7414145 -0.24458846 0 27
1.383628 5.7360029 -0.19001327 0 28
1.381628 5.7277122 -0.13550465 0 29
1.3869817 5.7499061 -0.081608616 0 30
1.3818423 5.7286 -0.027100546 0 31
1.3827062 5.7321815 0.027117487 0 32
1.383467 5.7353354 0.081401818 0 33
1.385464 5.7436142 0.13588086 0 34
1.3839298 5.7372541 0.19005471 0 35
1.3818173 5.7284966 0.24403816 0 36
1.3822269 5.730195 0.2984415 0 37
1.3817139 5.7280679 0.35269216 0 38
1.384685 5.7403851 0.40798897 0 39
1.3893571 5.7597537 0.46415749 0 40
1.3838897 5.7370877 0.51698601 0 41
1.3820038 5.7292695 0.57095009 0 42
1.3862729 5.7469673 0.62764907 0 43
1.3849765 5.7415934 0.68205339 0 44
1.3859298 5.7455454 0.73766893 0 45
1.3845416 5.7397904 0.79214758 0 46
1.3839189 5.7372088 0.84712029 0 47
1.3834575 5.7352962 0.9022947 0 48
1.3844024 5.7392135 0.95856208 0 49
1.3820318 5.7293854 1.0126425 0 50
1.3883169 5.7554412 1.0734003 0 51
1.3835424 5.7356486 1.1258553 0 52
1.3826022 5.7317505 1.1813956 0 53
1.3874288 5.7517595 1.2422307 0 54
1.3857533 5.7448134 1.2975919 0 55
1.3845881 5.7399831 1.3535445 0 56
1.3816431 5.7277741 1.4078282 0 57
1.3852966 5.7429199 1.4691174 0 58
1.3849792 5.7416048 1.5265981 0 59
1.3850658 5.7419634 1.5847896 0 60
1.3809401 5.7248597 1.638279 0 61
1.3836591 5.7361321 1.7001284 0 62
1.3827657 5.7324276 1.7579278 0 63
0.54835397 2.4024832 -0.73463118 0 0
0.5675565 2.4866145 -0.734882 0 1
0.58794993 2.5759633 -0.73503709 0 2
0.61013007 2.6731405 -0.73566413 0 3
0.63478231 2.7811484 -0.73733038 0 4
0.65780473 2.8820157 -0.73513418 0 5
0.6833936 2.9941273 -0.73380488 0 6
0.71221811 3.120415 -0.73370391 0 7
0.7451582 3.2647343 -0.73528647 0 8
0.77931851 3.4143996 -0.73529637 0 9
0.81365609 3.5648415 -0.73264724 0 10
0.85590315 3.7499371 -0.73395699 0 11
0.90412676 3.9612174 -0.73664516 0 12
0.94912773 4.1583786 -0.73285609 0 13
1.0062836 4.4087934 -0.7342335 0 14
1.0697998 4.6870747 -0.73526007 0 15
1.1350524 4.9729638 -0.73216051 0 16
1.2223597 5.3554792 -0.73697871 0 17
1.3102057 5.740356 -0.7348786 0 18
1.3163157 5.7671251 -0.68311191 0 19
1.3160102 5.7657871 -0.62788969 0 20
1.3121086 5.7486935 -0.57123476 0 21
1.3117037 5.7469192 -0.51637948 0 22
1.3134935 5.7547607 -0.46241859 0 23
1.312943 5.7523489 -0.40766096 0 24
1.3192166 5.7798352 -0.35485399 0 25
1.3183726 5.7761374 -0.29996729 0 26
1.3179551 5.7743082 -0.24528083 0 27
1.315389 5.7630658 -0.19035958 0 28
1.3139935 5.7569513 -0.13580388 0 29
1.3157415 5.7646103 -0.081581518 0 30
1.3155929 5.7639589 -0.027189234 0 31
1.3145819 5.7595296 0.027168339 0 32
1.3169606 5.7699513 0.081657104 0 33
1.316148 5.7663913 0.13602655 0 34
1.314464 5.7590127 0.19022569 0 35
1.3162242 5.7667251 0.2449587 0 36
1.3153554 5.7629185 0.29928079 0 37
1.3161274 5.7663007 0.35402304 0 38
1.3187001 5.7775722 0.40944853 0 39
1.3159838 5.7656713 0.46329531 0 40
1.3149625 5.7611966 0.51766235 0 41
1.3156841 5.764358 0.57279128 0 42
1.3167301 5.7689414 0.62823313 0 43
1.3129261 5.7522745 0.68135285 0 44
1.3151574 5.7620511 0.737656 0 45
1.3134592 5.7546101 0.79190397 0 46
1.3135484 5.755002 0.84729856 0 47
1.3128626 5.751997 0.90231419 0 48
1.3177757 5.7735224 0.96151322 0 49
1.3180093 5.7745457 1.017683 0 50
1.3176619 5.7730236 1.0735765 0 51
1.3164003 5.7674966 1.128844 0 52
1.3161951 5.7665973 1.1851526 0 53
1.3167441 5.7690024 1.2423638 0 54
1.3156611 5.7642574 1.2982315 0 55
1.3180143 5.7745676 1.3577754 0 56
1.3164759 5.767827 1.4135872 0 57
1.317157 5.7708116 1.4719979 0 58
1.3119881 5.7481656 1.5239378 0 59
1.3158531 5.765099 1.5865893 0 60
1.315794 5.7648401 1.6449656 0 61
1.317211 5.7710485 1.7055478 0 62
1.3140801 5.7573309 1.7604764 0 63
0.51761627 2.4036739 -0.7329936 0 0
0.53550512 2.4867449 -0.7329191 0 1
0.55662972 2.584842 -0.73556185 0 2
0.57805943 2.6843557 -0.73673874 0 3
0.59717798 2.7731373 -0.73320431 0 4
0.62233204 2.8899462 -0.7351495 0 5
0.64490104 2.9947505 -0.73195881 0 6
0.67470211 3.1331389 -0.73468941 0 7
0.70535028 3.275461 -0.73569334 0 8
0.73721081 3.423413 -0.73522967 0 9
0.7707324 3.5790784 -0.73356998 0 10
0.80829048 3.7534883 -0.73265135 0 11
0.85198659 3.9564013 -0.73374581 0 12
0.90133029 4.1855407 -0.73563421 0 13
0.95674765 4.4428844 -0.73789585 0 14
1.0113181 4.6962953 -0.7347002 0 15
1.0830183 5.0292521 -0.73843122 0 16
1.1526729 5.3527093 -0.73459154 0 17
1.2334504 5.727819 -0.73127669 0 18
1.2478011 5.7944598 -0.68448055 0 19
1.245479 5.7836766 -0.62812251 0 20
1.2483112 5.7968283 -0.57444906 0 21
1.2424672 5.7696905 -0.51701367 0 22
1.243343 5.7737575 -0.46268159 0 23
1.2441006 5.7772756 -0.40831247 0 24
1.2445657 5.7794356 -0.35386312 0 25
1.2449327 5.7811399 -0.29940945 0 26
1.2452294 5.7825174 -0.24496061 0 27
1.242799 5.7712317 -0.19011013 0 28
1.2481617 5.7961345 -0.13635582 0 29
1.2471114 5.7912569 -0.081735425 0 30
1.2440617 5.7770953 -0.027176986 0 31
1.2495248 5.802464 0.027296327 0 32
1.2486378 5.7983456 0.081835471 0 33
1.2465599 5.7886958 0.13618083 0 34
1.2454932 5.7837424 0.19052225 0 35
1.2445955 5.7795739 0.2448359 0 36
1.2469405 5.7904634 0.29989234 0 37
1.245784 5.7850933 0.35420954 0 38
1.2454767 5.7836661 0.40876412 0 39
1.2484204 5.7973356 0.46457103 0 40
1.2444597 5.7789435 0.51784283 0 41
1.2431684 5.7729464 0.57208246 0 42
1.2432429 5.7732925 0.62699479 0 43
1.2421734 5.7683263 0.68139344 0 44
1.2472028 5.7916813 0.73943007 0 45
1.2439348 5.7765055 0.79275215 0 46
1.2441502 5.7775059 0.84829527 0 47
1.2457335 5.7848587 0.90499777 0 48
1.2446909 5.7800169 0.95997334 0 49
1.2452773 5.7827401 1.0163517 0 50
1.2455848 5.7841678 1.0727196 0 51
1.2460059 5.7861233 1.1294056 0 52
1.2451661 5.7822232 1.1851279 0 53
1.2453381 5.7830224 1.2419914 0 54
1.2460676 5.7864099 1.2996715 0 55
1.244229 5.7778721 1.3548526 0 56
1.2464855 5.7883506 1.4147537 0 57
1.2460258 5.7862158 1.4719076 0 58
1.2484317 5.7973886 1.5328019 0 59
1.2432064 5.7731233 1.5844709 0 60
1.2456007 5.7842417 1.6460068 0 61
1.2432802 5.7734661 1.7016155 0 62
0 0 0 0 63
0.48702866 2.404948 -0.73150057 0 0
0.50475556 2.4924834 -0.73272574 0 1
0.52634424 2.5990884 -0.7377184 0 2
0.54157329 2.6742895 -0.73209292 0 3
0.56567985 2.7933276 -0.73664773 0 4
0.58769631 2.902045 -0.73633325 0 5
0.61215103 3.0228024 -0.73691958 0 6
0.63508552 3.1360531 -0.73348606 0 7
0.66755056 3.2963653 -0.73848909 0 8
0.69185174 3.4163644 -0.73183346 0 9
0.72827631 3.5962291 -0.73519415 0 10
0.76419193 3.7735806 -0.73468345 0 11
0.80404276 3.9703639 -0.73444617 0 12
0.84697026 4.1823397 -0.73318571 0 13
0.89827359 4.4356756 -0.73480856 0 14
0.95188314 4.7003999 -0.73345578 0 15
1.0176126 5.024972 -0.73590988 0 16
1.0857797 5.3615808 -0.73392129 0 17
1.1744817 5.799592 -0.73854035 0 18
1.1766764 5.8104291 -0.68460602 0 19
1.1772125 5.813076 -0.62969571 0 20
1.1763315 5.8087263 -0.57415128 0 21
1.1774708 5.8143516 -0.51967895 0 22
1.1819168 5.8363066 -0.46649405 0 23
1.1794165 5.8239598 -0.4105559 0 24
1.1781156 5.8175359 -0.35528207 0 25
1.1773981 5.813993 -0.30033842 0 26
1.1774303 5.8141518 -0.2456688 0 27
1.1736015 5.7952452 -0.1904114 0 28
1.1770864 5.8124533 -0.13638891 0 29
1.173503 5.7947593 -0.081575029 0 30
1.177295 5.8134837 -0.027278002 0 31
1.1776992 5.8154798 0.027287368 0 32
1.1770942 5.8124924 0.08182466 0 33
1.1770334 5.8121924 0.13638279 0 34
1.1779906 5.8169184 0.1911235 0 35
1.1728861 5.7917128 0.24472067 0 36
1.1773262 5.8136382 0.30032009 0 37
1.1754858 5.8045506 0.35448906 0 38
1.1763185 5.8086619 0.4094775 0 39
1.1765374 5.8097429 0.46437085 0 40
1.1782714 5.818305 0.52003235 0 41
1.1736009 5.7952423 0.57281852 0 42
1.1774054 5.8140287 0.62979889 0 43
1.1773771 5.8138895 0.68501371 0 44
1.1800461 5.8270688 0.74203938 0 45
1.1771647 5.81284 0.79569197 0 46
1.1789271 5.8215427 0.85256809 0 47
1.1769761 5.8119092 0.90689695 0 48
1.1777433 5.8156972 0.96342123 0 49
1.1742566 5.79848 1.0165035 0 50
1.1770289 5.8121696 1.0751473 0 51
1.1759008 5.8065991 1.1304946 0 52
1.1764836 5.8094773 1.1876589 0 53
1.1790447 5.822124 1.2471812 0 54
1.1784642 5.8192573 1.3036959 0 55
1.1751474 5.8028789 1.3572254 0 56
