# .PCD v0.7 - Point Cloud Data file format
VERSION 0.7
FIELDS x y z intensity ring
SIZE 4 4 4 4 2
TYPE F F F F U
COUNT 1 1 1 1 1
WIDTH 1339
HEIGHT 1
VIEWPOINT 0 0 0 1 0 0 0
POINTS 1339
DATA ascii
3.048486 5.1815624 0.359842 0 38
3.0572572 5.1964712 0.41656169 0 39
3.0471201 5.1792412 0.47075078 0 40
3.0393429 5.1660218 0.52505761 0 41
3.0496449 5.1835322 0.58262372 0 42
3.0520804 5.1876721 0.63901949 0 43
3.0492678 5.1828914 0.69441879 0 44
3.0452092 5.175993 0.7495271 0 45
3.0423546 5.1711411 0.80493325 0 46
3.0448892 5.1754494 0.86189812 0 47
3.0423505 5.171134 0.91757554 0 48
3.0470991 5.1792054 0.97565091 0 49
3.0440922 5.1740942 1.0314445 0 50
3.0434349 5.172977 1.0881459 0 51
3.0415285 5.1697369 1.1445426 0 52
3.0457337 5.1768847 1.2034832 0 53
3.0489936 5.1824255 1.262403 0 54
3.051121 5.1860414 1.3211789 0 55
3.0444729 5.1747417 1.3763028 0 56
3.0418165 5.1702266 1.4332989 0 57
3.0462477 5.1777582 1.4939255 0 58
3.046639 5.1784234 1.5529318 0 59
3.0469186 5.1788983 1.6121745 0 60
3.0439463 5.1738462 1.6699365 0 61
3.0461862 5.1776538 1.7308484 0 62
0 0 0 0 63
1.2281314 2.1474602 -0.73748517 0 0
1.2584246 2.2004297 -0.73035806 0 1
1.3072823 2.2858603 -0.73255193 0 2
1.3620033 2.3815432 -0.73609757 0 3
1.4137483 2.4720223 -0.73605365 0 4
1.4646652 2.5610535 -0.73368239 0 5
1.5233413 2.6636522 -0.73317391 0 6
1.5956898 2.7901578 -0.73681146 0 7
1.667345 2.9154513 -0.73745185 0 8
1.73265 3.0296409 -0.73275429 0 9
1.821435 3.1848867 -0.73513621 0 10
1.9113781 3.3421576 -0.73467064 0 11
2.0149312 3.523226 -0.73585004 0 12
2.1233881 3.7128692 -0.73489195 0 13
2.2383091 3.9138155 -0.7320385 0 14
2.3837504 4.1681285 -0.73434371 0 15
2.5400195 4.4413738 -0.73439121 0 16
2.7180281 4.7526326 -0.73453081 0 17
2.911695 5.0912704 -0.73201859 0 18
2.9721961 5.1970601 -0.69136816 0 19
2.9725215 5.1976295 -0.63569558 0 20
2.9695365 5.19241 -0.5794735 0 21
2.9692531 5.1919141 -0.52393872 0 22
2.9675229 5.1888885 -0.46827561 0 23
2.9697382 5.1927624 -0.41330582 0 24
2.9757397 5.2032566 -0.35878032 0 25
2.9732506 5.198904 -0.30322665 0 26
2.9749095 5.2018046 -0.24816288 0 27
2.9729679 5.1984096 -0.19284606 0 28
2.9761665 5.2040029 -0.13787206 0 29
2.9776793 5.2066479 -0.082755938 0 30
2.9763539 5.2043304 -0.027571481 0 31
2.9831021 5.2161303 0.027633995 0 32
2.9733829 5.1991353 0.082636543 0 33
2.9708688 5.1947393 0.13762663 0 34
2.9801092 5.210897 0.19330931 0 35
2.9672797 5.1884637 0.24752642 0 36
2.9697013 5.192698 0.30286467 0 37
2.9724817 5.1975598 0.35838753 0 38
2.9743731 5.2008667 0.41395086 0 39
2.9753323 5.2025437 0.46950793 0 40
2.9786284 5.2083077 0.52559304 0 41
2.9728961 5.1982841 0.58012909 0 42
2.9734647 5.1992784 0.63589722 0 43
2.9755614 5.2029448 0.69215095 0 44
2.9715352 5.1959047 0.7470628 0 45
2.9719303 5.1965957 0.8031463 0 46
2.9756246 5.2030554 0.86033696 0 47
2.9776125 5.206531 0.91729021 0 48
2.9781077 5.207397 0.97398949 0 49
2.9800599 5.2108102 1.0313809 0 50
2.9689455 5.1913762 1.0842547 0 51
2.9692919 5.1919823 1.1412978 0 52
2.9758182 5.2033935 1.2010484 0 53
2.9747982 5.2016106 1.2580707 0 54
2.9790099 5.2089744 1.3175895 0 55
2.9766979 5.2049317 1.3744934 0 56
2.9751372 5.2022033 1.4319136 0 57
2.9780126 5.207231 1.4917507 0 58
2.974772 5.2015643 1.5487849 0 59
2.9780867 5.2073603 1.6095133 0 60
2.972924 5.1983328 1.6659148 0 61
2.9704466 5.1940012 1.7239726 0 62
0 0 0 0 63
1.1947203 2.1499562 -0.73324174 0 0
1.2360036 2.2242475 -0.73316348 0 1
1.2800037 2.3034277 -0.73308229 0 2
1.3384041 2.4085221 -0.73929363 0 3
1.382933 2.4886539 -0.73588681 0 4
1.4368733 2.585722 -0.73563212 0 5
1.4889939 2.6795156 -0.7324453 0 6
1.5526271 2.7940266 -0.73273605 0 7
1.6277378 2.9291918 -0.73580903 0 8
1.710815 3.0786932 -0.73947424 0 9
1.7809533 3.2049105 -0.73464775 0 10
1.8760183 3.3759844 -0.7369799 0 11
1.9776024 3.55879 -0.73814309 0 12
2.0760479 3.7359471 -0.73435146 0 13
2.1970322 3.9536643 -0.73438323 0 14
2.3362331 4.2041631 -0.7355755 0 15
2.4840119 4.470098 -0.73403466 0 16
2.6704733 4.805644 -0.737593 0 17
2.8502731 5.1292028 -0.73237789 0 18
2.9048564 5.227428 -0.69060403 0 19
2.9099703 5.2366304 -0.63604116 0 20
2.9061308 5.2297211 -0.57960558 0 21
2.9051054 5.2278757 -0.52392328 0 22
2.9068272 5.2309742 -0.4688125 0 23
2.9038489 5.2256145 -0.41304737 0 24
2.8976665 5.214489 -0.35707095 0 25
2.9031448 5.2243476 -0.30260563 0 26
2.9016242 5.221611 -0.24738692 0 27
2.9023557 5.2229276 -0.1924171 0 28
2.9080641 5.2332001 -0.1376878 0 29
2.9116092 5.2395797 -0.082704067 0 30
2.902549 5.2232752 -0.027480686 0 31
2.9051356 5.2279301 0.027505176 0 32
2.9020507 5.2223787 0.082432561 0 33
2.9032061 5.2244577 0.13745779 0 34
2.9121761 5.2406001 0.19306818 0 35
2.9040196 5.2259221 0.24759115 0 36
2.9026639 5.2234826 0.30255553 0 37
2.9061353 5.2297292 0.35811457 0 38
2.9075198 5.2322206 0.41356954 0 39
2.9062426 5.2299223 0.4687182 0 40
2.9046283 5.2270169 0.52383721 0 41
2.9104373 5.2374711 0.58046448 0 42
2.9028113 5.2237473 0.63447636 0 43
2.9011636 5.2207823 0.68972605 0 44
2.9009848 5.2204604 0.74540818 0 45
2.9018104 5.2219462 0.801489 0 46
2.9051423 5.227942 0.85848027 0 47
2.906872 5.2310548 0.91524416 0 48
2.9031453 5.2243485 0.97040969 0 49
2.9031262 5.2243142 1.0269104 0 50
2.9043641 5.226542 1.0840583 0 51
2.9128985 5.2419 1.1443106 0 52
2.9079754 5.2330408 1.1995473 0 53
2.9036129 5.2251897 1.2550433 0 54
2.9023435 5.2229056 1.3119869 0 55
2.906476 5.2303419 1.371662 0 56
2.904599 5.2269645 1.4287902 0 57
2.8991184 5.2171021 1.4842538 0 58
2.9045351 5.2268496 1.5455623 0 59
2.9031174 5.2242985 1.6035937 0 60
2.9080167 5.2331147 1.6654761 0 61
2.9022319 5.2227049 1.7215245 0 62
0 0 0 0 63
1.1759789 2.1789057 -0.73812741 0 0
1.2109286 2.2436619 -0.73459923 0 1
1.2613301 2.3370481 -0.73879021 0 2
1.2940905 2.3977478 -0.73104686 0 3
1.3484639 2.4984934 -0.73383784 0 4
1.4073484 2.6075971 -0.73687649 0 5
1.4624525 2.7096965 -0.73572397 0 6
1.5280118 2.8311677 -0.7374931 0 7
1.5888304 2.9438548 -0.7345292 0 8
1.6605165 3.0766783 -0.73403043 0 9
1.7413659 3.2264795 -0.73462808 0 10
1.8295872 3.38994 -0.73505956 0 11
1.9291735 3.5744576 -0.73641688 0 12
2.0263805 3.7545674 -0.73305827 0 13
2.1526947 3.9886076 -0.73590147 0 14
2.2848885 4.233542 -0.7357443 0 15
2.4269433 4.4967475 -0.73345488 0 16
2.6041181 4.8250251 -0.73559719 0 17
2.7888815 5.1673627 -0.73287457 0 18
2.8318534 5.2469826 -0.68853503 0 19
2.8353899 5.2535353 -0.63381177 0 20
2.8384423 5.259191 -0.57895964 0 21
2.8336849 5.2503762 -0.52264667 0 22
2.8349733 5.2527633 -0.46760568 0 23
2.8345537 5.251986 -0.41234562 0 24
2.8309104 5.2452359 -0.35676575 0 25
2.8396449 5.2614193 -0.30270752 0 26
2.8390324 5.2602844 -0.24754648 0 27
2.8356202 5.253962 -0.19226134 0 28
2.8388324 5.2599139 -0.13746183 0 29
2.8266799 5.2373972 -0.082114771 0 30
2.8388507 5.2599478 -0.027487893 0 31
2.8357809 5.2542601 0.027458169 0 32
2.8329854 5.2490802 0.082297936 0 33
2.8418684 5.2655392 0.13760884 0 34
2.8370798 5.2566667 0.19236031 0 35
2.8349109 5.2526479 0.24718712 0 36
2.8321869 5.247601 0.30191249 0 37
2.8380449 5.2584543 0.35766485 0 38
2.8287098 5.2411585 0.41149554 0 39
2.8299227 5.2434058 0.46677265 0 40
2.8355184 5.2537737 0.52298486 0 41
2.8352821 5.253336 0.57831508 0 42
2.833952 5.2508712 0.63349032 0 43
2.8302596 5.2440295 0.68814749 0 44
2.830363 5.2442217 0.74377525 0 45
2.8364441 5.2554889 0.8012234 0 46
2.8369777 5.2564774 0.85737282 0 47
2.8331738 5.2494292 0.91229463 0 48
2.8418169 5.2654438 0.9714787 0 49
2.8381696 5.2586861 1.026729 0 50
2.825407 5.2350388 1.0785332 0 51
2.8398044 5.2617149 1.140927 0 52
2.8372538 5.256989 1.196949 0 53
2.8412011 5.2643023 1.2559513 0 54
2.8294439 5.2425189 1.3080751 0 55
2.834065 5.2510805 1.3678582 0 56
2.8402011 5.2624502 1.4288355 0 57
2.8359735 5.2546167 1.4848933 0 58
2.8392878 5.2607574 1.5451483 0 59
2.837364 5.2571931 1.6028601 0 60
2.8321183 5.2474732 1.658837 0 61
2.8363686 5.2553487 1.7206582 0 62
0 0 0 0 63
1.1415248 2.1787434 -0.73326194 0 0
1.1884583 2.268322 -0.73783273 0 1
1.2243876 2.3368976 -0.73392773 0 2
1.2726269 2.4289682 -0.73573881 0 3
1.3152304 2.5102825 -0.73249489 0 4
1.3728106 2.6201816 -0.73560673 0 5
1.4325707 2.7342412 -0.73754954 0 6
1.4916056 2.8469167 -0.73676211 0 7
1.5480621 2.9546709 -0.73242289 0 8
1.6254851 3.1024423 -0.73535293 0 9
1.7039521 3.2522066 -0.73565954 0 10
1.7843013 3.4055631 -0.73363429 0 11
1.8839462 3.5957479 -0.73597479 0 12
1.9865003 3.7914853 -0.73544151 0 13
2.1037526 4.015276 -0.73599333 0 14
2.2287366 4.2538242 -0.73445076 0 15
2.3650129 4.5139241 -0.73145783 0 16
2.5465159 4.8603454 -0.73615253 0 17
2.7324312 5.2151885 -0.7348367 0 18
2.7678928 5.2828712 -0.68872613 0 19
2.7669263 5.2810264 -0.63297582 0 20
2.7684669 5.283967 -0.57789588 0 21
2.7707078 5.2882438 -0.52298516 0 22
2.7634165 5.2743278 -0.46646515 0 23
2.7647836 5.2769365 -0.41160426 0 24
2.7619696 5.2715659 -0.35621971 0 25
2.7672863 5.2817135 -0.30189458 0 26
2.7615783 5.2708192 -0.24642558 0 27
2.7611387 5.2699804 -0.19159059 0 28
2.7621121 5.2718382 -0.1368755 0 29
2.7601182 5.2680321 -0.082056753 0 30
2.7591028 5.2660942 -0.027340645 0 31
2.7668021 5.2807894 0.027416939 0 32
2.7719164 5.2905507 0.082407504 0 33
2.7619193 5.2714701 0.13686593 0 34
2.7656224 5.2785378 0.19190168 0 35
2.7634902 5.2744679 0.24659619 0 36
2.7679768 5.2830315 0.30196989 0 37
2.7623093 5.2722144 0.35626352 0 38
2.7629626 5.2734613 0.41133317 0 39
2.7713022 5.2893786 0.46779624 0 40
2.7570899 5.2622523 0.52041471 0 41
2.7666185 5.2804389 0.57751 0 42
2.7651558 5.277647 0.63257074 0 43
2.7656937 5.2786736 0.6881789 0 44
2.769356 5.2856641 0.74476695 0 45
2.7621412 5.2718935 0.79848593 0 46
2.7602961 5.2683716 0.85371214 0 47
2.760802 5.2693377 0.90978593 0 48
2.7608721 5.2694712 0.96588522 0 49
2.7652922 5.2779078 1.0237656 0 50
2.7708659 5.2885456 1.0824553 0 51
2.7682273 5.2835097 1.1381859 0 52
2.7598069 5.2674379 1.1915113 0 53
2.7665758 5.2803578 1.2515709 0 54
2.7674763 5.2820764 1.3093551 0 55
2.7657561 5.2787933 1.3661147 0 56
2.770895 5.2886009 1.426577 0 57
2.7659805 5.2792215 1.4821229 0 58
2.7649455 5.277246 1.5398887 0 59
2.7690241 5.2850304 1.6008452 0 60
2.7673368 5.2818098 1.6588089 0 61
2.7677708 5.2826385 1.7183201 0 62
0 0 0 0 63
1.1190407 2.201252 -0.7361505 0 0
1.1550775 2.2721395 -0.7343989 0 1
1.1992747 2.3590794 -0.73620707 0 2
1.2419914 2.4431069 -0.73533988 0 3
1.2909278 2.5393691 -0.73629469 0 4
1.3322198 2.6205943 -0.73106825 0 5
1.396805 2.7476392 -0.73647481 0 6
1.4497936 2.8518722 -0.73337549 0 7
1.5143298 2.9788206 -0.73373795 0 8
1.5841585 3.1161797 -0.73393643 0 9
1.6594536 3.264292 -0.73372203 0 10
1.7411182 3.4249334 -0.73313951 0 11
1.8363724 3.6123068 -0.73468667 0 12
1.9401805 3.8165066 -0.73561162 0 13
2.0518296 4.03613 -0.73513561 0 14
2.1715932 4.2717161 -0.7328741 0 15
2.3179092 4.5595326 -0.73417431 0 16
2.4859273 4.8900385 -0.73596436 0 17
2.6748827 5.2617307 -0.73670441 0 18
2.6930585 5.2974839 -0.68626213 0 19
2.6963816 5.3040209 -0.63171011 0 20
2.689173 5.2898407 -0.57487833 0 21
2.695729 5.3027372 -0.52110094 0 22
2.694622 5.3005595 -0.46581945 0 23
2.6936874 5.2987213 -0.41068882 0 24
2.6974432 5.3061094 -0.35628563 0 25
2.6967199 5.3046865 -0.3012895 0 26
2.6941855 5.2997007 -0.2462084 0 27
2.6953468 5.3019857 -0.19153474 0 28
2.6963184 5.3038964 -0.13683668 0 29
2.7002475 5.3116255 -0.082212374 0 30
2.6960342 5.3033376 -0.027359821 0 31
2.7005048 5.3121314 0.027405189 0 32
2.7001195 5.3113737 0.08220847 0 33
2.6975577 5.3063345 0.13689958 0 34
2.6930127 5.2973943 0.19136888 0 35
2.6932974 5.2979541 0.24612725 0 36
2.6954992 5.3022852 0.30115312 0 37
2.6978641 5.3069372 0.35634121 0 38
2.6879137 5.287364 0.40980855 0 39
2.6930227 5.2974138 0.465543 0 40
2.6955919 5.3024678 0.52107441 0 41
2.6922007 5.2957969 0.57552558 0 42
2.6986189 5.3084221 0.63223428 0 43
2.6954494 5.302187 0.68687135 0 44
2.6984646 5.3081183 0.74319929 0 45
2.6979761 5.3071575 0.79874188 0 46
2.6978536 5.3069162 0.85451782 0 47
2.6953723 5.3020358 0.90964019 0 48
2.6987793 5.3087378 0.96692675 0 49
2.6949279 5.3011618 1.0217711 0 50
2.6998312 5.3108068 1.080135 0 51
2.694129 5.2995896 1.1344275 0 52
2.6926882 5.2967558 1.1905633 0 53
2.6923897 5.2961688 1.2473772 0 54
2.6971867 5.3056049 1.3068675 0 55
2.698554 5.3082948 1.3650588 0 56
2.7038782 5.3187675 1.425638 0 57
2.6988506 5.3088779 1.48102 0 58
2.6952803 5.3018546 1.5372825 0 59
2.694566 5.3004494 1.5953587 0 60
2.6971331 5.3054996 1.6557078 0 61
2.6925592 5.2965021 1.7119306 0 62
0 0 0 0 63
1.0918057 2.2146728 -0.7360934 0 0
1.1299658 2.2920787 -0.73629695 0 1
1.1737903 2.3809745 -0.73847985 0 2
1.2138606 2.462255 -0.73655492 0 3
1.2552346 2.54618 -0.73373866 0 4
1.3083029 2.6538262 -0.7357955 0 5
1.3615155 2.7617655 -0.73571819 0 6
1.4147118 2.8696716 -0.73342383 0 7
1.4792125 3.0005081 -0.7345441 0 8
1.5463011 3.1365938 -0.73421067 0 9
1.6208653 3.2878437 -0.73448032 0 10
1.7049634 3.4584322 -0.73576689 0 11
1.7934661 3.6379554 -0.73536235 0 12
1.8865215 3.8267136 -0.73305231 0 13
1.9936973 4.0441141 -0.73206925 0 14
2.1239829 4.308392 -0.73463011 0 15
2.2594829 4.5832467 -0.73346364 0 16
2.4120846 4.8927917 -0.73185945 0 17
2.6010108 5.2760191 -0.73417145 0 18
2.6231992 5.3210268 -0.6850816 0 19
2.6310809 5.3370147 -0.63173866 0 20
2.6261201 5.326952 -0.57535857 0 21
2.6269186 5.3285713 -0.52042603 0 22
2.6254144 5.3255205 -0.46514082 0 23
2.6247489 5.3241706 -0.41012877 0 24
2.6335158 5.3419538 -0.35649112 0 25
2.6292503 5.3333015 -0.3010557 0 26
2.630106 5.3350372 -0.24632894 0 27
2.6257174 5.3261352 -0.19122632 0 28
2.6266382 5.3280029 -0.13661501 0 29
2.6225061 5.3196211 -0.081830822 0 30
2.6231875 5.3210034 -0.027282488 0 31
2.6248558 5.3243871 0.027299838 0 32
2.6275439 5.3298402 0.081988014 0 33
2.6254632 5.3256197 0.13655388 0 34
2.6248853 5.3244472 0.19116572 0 35
2.6306503 5.3361411 0.24637991 0 36
2.6269655 5.3286672 0.30079409 0 37
2.6223366 5.3192773 0.35497782 0 38
2.6254272 5.3255467 0.41023478 0 39
2.6292255 5.333251 0.46581599 0 40
2.6223888 5.3193831 0.51952863 0 41
2.6184225 5.3113379 0.57367212 0 42
2.6323001 5.3394876 0.63203138 0 43
2.6292429 5.3332868 0.68665999 0 44
2.632839 5.3405809 0.74315536 0 45
2.6253486 5.3253875 0.79656667 0 46
2.6293364 5.3334761 0.85352385 0 47
2.6226699 5.3199539 0.9071129 0 48
2.6303997 5.3356328 0.96586114 0 49
2.6264627 5.3276472 1.020574 0 50
2.6263292 5.3273759 1.0768553 0 51
2.6275578 5.3298683 1.1339071 0 52
2.629014 5.3328223 1.1913137 0 53
2.6245666 5.3238006 1.2461898 0 54
2.624428 5.3235197 1.3032327 0 55
2.6318402 5.3385549 1.3644152 0 56
2.6203923 5.3153338 1.4159738 0 57
2.6250503 5.3247819 1.4763402 0 58
2.6227891 5.3201952 1.5331333 0 59
2.6209836 5.3165326 1.5903789 0 60
2.6244977 5.3236613 1.6511796 0 61
2.6314447 5.3377528 1.7146755 0 62
0 0 0 0 63
1.0608861 2.2203817 -0.73359954 0 0
1.0978571 2.29776 -0.73372996 0 1
1.1333451 2.3720345 -0.73132938 0 2
1.1846547 2.479423 -0.73727727 0 3
1.2259308 2.5658119 -0.73499638 0 4
1.2706828 2.6594756 -0.73297429 0 5
1.3246588 2.7724445 -0.73416829 0 6
1.3815707 2.8915582 -0.73462015 0 7
1.4467359 3.0279458 -0.73685032 0 8
1.5078362 3.1558259 -0.73431689 0 9
1.5839643 3.3151581 -0.73617548 0 10
1.6630126 3.4806023 -0.73607737 0 11
1.7477158 3.6578817 -0.73499054 0 12
1.838508 3.8479054 -0.7327258 0 13
1.9458325 4.0725303 -0.73282647 0 14
2.0671048 4.3263469 -0.73330206 0 15
2.2094083 4.6241813 -0.73561108 0 16
2.3676345 4.9553409 -0.73680496 0 17
2.5425057 5.3213372 -0.73607147 0 18
2.5599818 5.357914 -0.68572605 0 19
2.5613372 5.3607507 -0.63077247 0 20
2.554827 5.3471251 -0.57410085 0 21
2.560951 5.3599424 -0.52037495 0 22
2.5541437 5.345695 -0.46412462 0 23
2.558542 5.3549004 -0.41004142 0 24
2.5587981 5.3554363 -0.35526425 0 25
2.5621281 5.3624058 -0.30089742 0 26
2.5607607 5.3595438 -0.24598798 0 27
2.5548723 5.3472195 -0.19084096 0 28
2.5564716 5.3505673 -0.13637722 0 29
2.5566881 5.3510203 -0.081824027 0 30
2.556349 5.3503108 -0.027269522 0 31
2.5563753 5.3503656 0.027269801 0 32
2.5613375 5.3607512 0.081972823 0 33
2.5558178 5.3491988 0.13634235 0 34
2.5565202 5.3506689 0.19096406 0 35
2.562299 5.3627634 0.24613576 0 36
2.5593579 5.3566079 0.3005721 0 37
2.5624988 5.3631816 0.35577807 0 38
2.5607781 5.3595805 0.41039979 0 39
2.5583866 5.3545752 0.46489564 0 40
2.552254 5.3417401 0.5186078 0 41
2.5570142 5.3517027 0.57459235 0 42
2.5571754 5.3520403 0.62974757 0 43
2.5580781 5.353929 0.68521607 0 44
2.5615582 5.3612132 0.74158734 0 45
2.5588815 5.3556108 0.7963208 0 46
2.561491 5.3610725 0.85283512 0 47
2.5593929 5.3566813 0.90794051 0 48
2.5575283 5.3527784 0.9631992 0 49
2.5574341 5.3525815 1.0192492 0 50
2.5599034 5.3577499 1.0765507 0 51
2.5557928 5.3491464 1.1312369 0 52
2.562007 5.3621526 1.1907382 0 53
2.5607343 5.359489 1.2470788 0 54
2.5571892 5.3520689 1.3024255 0 55
2.560406 5.3588018 1.3614403 0 56
2.5512905 5.3397231 1.4140068 0 57
2.5565689 5.350771 1.4747182 0 58
2.5599906 5.3579321 1.5348206 0 59
2.5521286 5.3414774 1.5883331 0 60
2.5567446 5.3511381 1.649826 0 61
2.5554423 5.348413 1.7078767 0 62
0 0 0 0 63
1.0353529 2.2372506 -0.73491108 0 0
1.0686318 2.3091614 -0.73311925 0 1
1.1076678 2.3935127 -0.73369658 0 2
1.1512883 2.4877706 -0.73549426 0 3
1.1962315 2.5848866 -0.73619115 0 4
1.2398168 2.6790681 -0.73411685 0 5
1.2917365 2.7912593 -0.73488891 0 6
1.3465436 2.9096897 -0.73496437 0 7
1.4075966 3.0416164 -0.7359094 0 8
1.4638323 3.1631336 -0.73177367 0 9
1.5413071 3.3305459 -0.73532826 0 10
1.6192642 3.4990003 -0.73570168 0 11
1.7070554 3.6887045 -0.7369104 0 12
1.8038186 3.8977959 -0.73794657 0 13
1.8972924 4.0997796 -0.73347628 0 14
2.0192583 4.3633304 -0.7353065 0 15
2.1568062 4.660552 -0.73712224 0 16
2.3001702 4.9703417 -0.73477435 0 17
2.4812114 5.3615456 -0.73735726 0 18
2.4912431 5.3832226 -0.68499279 0 19
2.4898388 5.3801885 -0.62940961 0 20
2.4892409 5.3788958 -0.57418227 0 21
2.4921808 5.3852487 -0.51981735 0 22
2.4872773 5.3746533 -0.46394837 0 23
2.4866323 5.3732595 -0.40907496 0 24
2.4922109 5.385314 -0.35518649 0 25
2.4922819 5.3854675 -0.30044913 0 26
2.4904628 5.3815365 -0.24557327 0 27
2.49719 5.3960733 -0.19147414 0 28
2.4863379 5.3726234 -0.13614984 0 29
2.4894061 5.3792534 -0.081781484 0 30
2.4896433 5.379766 -0.027261555 0 31
2.4868679 5.3737683 0.027231164 0 32
2.4925735 5.3860974 0.081885539 0 33
2.4880078 5.3762317 0.13624129 0 34
2.4846315 5.3689361 0.1905112 0 35
2.4926901 5.3863497 0.2457929 0 36
2.4876888 5.3755422 0.29989544 0 37
2.4878733 5.3759413 0.3545683 0 38
2.4920397 5.384944 0.40996453 0 39
2.4866691 5.3733392 0.46383491 0 40
2.4967358 5.3950915 0.52076745 0 41
2.4914336 5.3836346 0.57468808 0 42
2.4858446 5.3715572 0.62839985 0 43
2.4879897 5.3761926 0.68409818 0 44
2.4890985 5.3785887 0.73970115 0 45
2.4929535 5.3869185 0.79635769 0 46
2.4931805 5.3874092 0.85208344 0 47
2.4945517 5.3903718 0.90838307 0 48
2.4905794 5.3817883 0.96283573 0 49
2.4941192 5.3894372 1.0203502 0 50
2.4949462 5.3912249 1.0770311 0 51
2.4890544 5.3784933 1.130885 0 52
2.4909756 5.3826447 1.188397 0 53
2.4910033 5.3827047 1.2452593 0 54
2.4907703 5.3822012 1.3022064 0 55
2.4951985 5.3917699 1.3619181 0 56
2.477833 5.3542457 1.4096775 0 57
2.4912348 5.3832045 1.475103 0 58
2.4880102 5.3762369 1.5311844 0 59
2.4903688 5.3813338 1.5909585 0 60
2.4915118 5.3838034 1.6503266 0 61
2.4876044 5.3753595 1.7065847 0 62
0 0 0 0 63
1.0044008 2.2422984 -0.7324568 0 0
1.0438393 2.3303435 -0.73571348 0 1
1.0819643 2.4154565 -0.73628914 0 2
1.1180174 2.4959443 -0.73379081 0 3
1.162344 2.594902 -0.73491746 0 4
1.2098297 2.7009127 -0.73597056 0 5
1.2609049 2.8149366 -0.73698491 0 6
1.3111991 2.9272172 -0.73526353 0 7
1.365011 3.0473506 -0.73318034 0 8
1.4317051 3.1962435 -0.73530507 0 9
1.4966133 3.3411493 -0.73355079 0 10
1.5743634 3.5147243 -0.73488182 0 11
1.6568238 3.6988149 -0.73480463 0 12
1.7543977 3.9166462 -0.73737544 0 13
1.8441093 4.1169248 -0.73243147 0 14
1.969376 4.3965793 -0.73677295 0 15
2.0879934 4.6613898 -0.7331385 0 16
2.2399015 5.0005207 -0.73510849 0 17
2.4084206 5.3767347 -0.73531771 0 18
2.428256 5.4210172 -0.6859507 0 19
2.4179451 5.3979983 -0.62796742 0 20
2.415827 5.3932695 -0.57250226 0 21
2.4178925 5.3978806 -0.51812762 0 22
2.4195204 5.401515 -0.46366388 0 23
2.4183805 5.3989701 -0.40873748 0 24
2.4243166 5.4122224 -0.35496822 0 25
2.4296403 5.4241076 -0.30091533 0 26
2.414407 5.3900995 -0.24459076 0 27
2.421629 5.4062223 -0.19076322 0 28
2.4218202 5.4066491 -0.13624713 0 29
2.4180365 5.3982024 -0.081611358 0 30
2.4199138 5.4023933 -0.027223371 0 31
2.4144571 5.3902111 0.027161984 0 32
2.4206748 5.4040923 0.081700407 0 33
2.4247241 5.4131322 0.13641052 0 34
2.4223526 5.4078379 0.19082022 0 35
2.4234543 5.4102969 0.24550728 0 36
2.4242747 5.4121289 0.30025077 0 37
2.4257174 5.41535 0.35517335 0 38
2.4242206 5.4120078 0.40972453 0 39
2.4253564 5.4145436 0.46478221 0 40
2.4203482 5.4033632 0.51865387 0 41
2.4275453 5.4194307 0.5752793 0 42
2.4234614 5.4103131 0.62940001 0 43
2.4225063 5.4081812 0.68432647 0 44
2.4266007 5.4173217 0.74086833 0 45
2.4171317 5.3961821 0.79327333 0 46
2.4165177 5.3948116 0.8484903 0 47
2.4213023 5.4054928 0.90584534 0 48
2.4171097 5.3961329 0.96001208 0 49
2.4265144 5.417129 1.0198668 0 50
2.4154639 5.3924594 1.0712631 0 51
2.4190857 5.4005446 1.1291816 0 52
2.4256957 5.4153013 1.1889317 0 53
2.4239058 5.4113054 1.2448865 0 54
2.420954 5.4047155 1.3003528 0 55
2.4218156 5.4066391 1.358049 0 56
2.42787 5.420155 1.4190631 0 57
2.4218879 5.4068003 1.4732968 0 58
2.4161453 5.3939805 1.5276608 0 59
2.4213588 5.4056196 1.5892158 0 60
2.4186859 5.399652 1.6459436 0 61
2.4238102 5.4110918 1.7083374 0 62
0 0 0 0 63
0.97873968 2.2590601 -0.73394531 0 0
1.0127459 2.3375509 -0.73400182 0 1
1.0519487 2.428036 -0.73612505 0 2
1.090668 2.5174053 -0.73610169 0 3
1.1317129 2.6121423 -0.73580331 0 4
1.1740276 2.7098103 -0.73440576 0 5
1.2278159 2.8339608 -0.73795706 0 6
1.2791125 2.9523602 -0.73757249 0 7
1.3298897 3.0695603 -0.73453391 0 8
1.3882538 3.2042725 -0.73316962 0 9
1.4586359 3.3667238 -0.73517221 0 10
1.5287213 3.5284901 -0.73377424 0 11
1.6145396 3.7265701 -0.73631877 0 12
1.7122335 3.9520605 -0.74002296 0 13
1.8005637 4.1559381 -0.73537767 0 14
1.9070367 4.4016914 -0.73364449 0 15
2.038044 4.7040739 -0.73585469 0 16
2.1766355 5.0239611 -0.7345643 0 17
2.3362041 5.3922668 -0.73345774 0 18
2.3488524 5.4214602 -0.68230051 0 19
2.350805 5.4259677 -0.6278109 0 20
2.3563473 5.4387598 -0.57421201 0 21
2.3544967 5.4344883 -0.51882327 0 22
2.3601983 5.4476485 -0.46509752 0 23
2.353343 5.4318252 -0.40900314 0 24
2.3500907 5.4243188 -0.35383955 0 25
2.3578851 5.4423094 -0.30029392 0 26
2.3472157 5.4176826 -0.24451421 0 27
2.353195 5.4314837 -0.19061916 0 28
2.3551731 5.4360495 -0.13624793 0 29
2.3497317 5.42349 -0.08155068 0 30
2.3466938 5.4164782 -0.027146887 0 31
2.3530345 5.4311132 0.027220236 0 32
2.3527164 5.4303789 0.081654273 0 33
2.3486807 5.4210644 0.13587233 0 34
2.3505731 5.4254322 0.19040677 0 35
2.3525784 5.4300609 0.24507287 0 36
2.3522177 5.4292283 0.29957214 0 37
2.3521566 5.4290876 0.35415059 0 38
2.3561838 5.4383826 0.40949687 0 39
2.3562951 5.4386392 0.46432835 0 40
2.3500609 5.4242501 0.51784581 0 41
2.3459635 5.4147925 0.57168156 0 42
2.357861 5.4422536 0.62969524 0 43
2.3547809 5.4351439 0.68402267 0 44
2.3536444 5.4325213 0.73893315 0 45
2.3565011 5.4391146 0.79526478 0 46
2.3534939 5.4321737 0.84975076 0 47
2.3521047 5.4289675 0.90486395 0 48
2.3444059 5.4111977 0.9574911 0 49
2.3519533 5.4286175 1.0165081 0 50
2.3531876 5.4314666 1.0731828 0 51
2.3600206 5.4472384 1.1327914 0 52
2.3603959 5.4481044 1.1896714 0 53
2.3485627 5.4207916 1.2403314 0 54
2.3525693 5.4300394 1.2993875 0 55
2.350714 5.4257574 1.3554882 0 56
2.3485909 5.420857 1.411579 0 57
2.3517261 5.4280934 1.4711078 0 58
2.3501399 5.4244318 1.5279852 0 59
2.3490145 5.4218349 1.5853713 0 60
2.3528371 5.4306579 1.6464515 0 61
2.3556578 5.4371686 1.7072963 0 62
0 0 0 0 63
0.95610052 2.2833688 -0.73796761 0 0
0.98627347 2.3554282 -0.73575163 0 1
1.0190823 2.4337826 -0.73401266 0 2
1.0535659 2.5161364 -0.73188722 0 3
1.1010238 2.6294758 -0.73681659 0 4
1.143189 2.7301753 -0.73605967 0 5
1.1903677 2.8428481 -0.73640412 0 6
1.2383865 2.9575272 -0.73500353 0 7
1.2944884 3.0915103 -0.7359218 0 8
1.3485764 3.2206838 -0.7330749 0 9
1.4149021 3.3790832 -0.73401642 0 10
1.4836189 3.5431933 -0.73298264 0 11
1.5627363 3.7321424 -0.73356748 0 12
1.6502515 3.9411471 -0.73412418 0 13
1.7558568 4.1933546 -0.73812211 0 14
1.861208 4.4449553 -0.73698515 0 15
1.9825578 4.7347646 -0.73678637 0 16
2.1109028 5.0412793 -0.73324579 0 17
2.2722702 5.4266586 -0.73427969 0 18
2.2821574 5.4502716 -0.68234313 0 19
2.2892244 5.4671483 -0.62927109 0 20
2.2843235 5.4554439 -0.57296455 0 21
2.2796724 5.4443364 -0.51704818 0 22
2.2835481 5.4535928 -0.46317267 0 23
2.2838352 5.454278 -0.4085483 0 24
2.2778974 5.4400973 -0.35301498 0 25
2.2863743 5.4603424 -0.29971498 0 26
2.2854822 5.4582114 -0.24505648 0 27
2.2863181 5.4602075 -0.19062614 0 28
2.2817628 5.4493289 -0.13586727 0 29
2.2899683 5.4689255 -0.081804283 0 30
2.2834177 5.4532809 -0.027188558 0 31
2.2826276 5.4513941 0.02717915 0 32
2.2814665 5.4486208 0.081500567 0 33
2.2821758 5.450315 0.13589184 0 34
2.285501 5.4582562 0.19055803 0 35
2.2806993 5.4467883 0.24454363 0 36
2.2817292 5.4492483 0.29910606 0 37
2.2827544 5.4516969 0.35376766 0 38
2.2794726 5.4438591 0.40776789 0 39
2.2815373 5.4487906 0.46276483 0 40
2.284699 5.4563408 0.51818824 0 41
2.286906 5.4616117 0.57361233 0 42
2.2839727 5.454607 0.62782758 0 43
2.2846997 5.4563427 0.6831032 0 44
2.2861326 5.4597645 0.73875922 0 45
2.2892549 5.4672213 0.79519838 0 46
2.2881918 5.4646826 0.85037041 0 47
2.2882094 5.4647245 0.90606558 0 48
2.2876458 5.4633784 0.96167409 0 49
2.2818799 5.4496083 1.0151079 0 50
2.2849088 5.4568419 1.072564 0 51
2.2819021 5.4496613 1.1273748 0 52
2.2807758 5.4469714 1.1832105 0 53
2.2839227 5.4544868 1.2415214 0 54
2.2766163 5.4370379 1.2942654 0 55
2.2902718 5.4696503 1.3593154 0 56
2.2836664 5.4538751 1.4127579 0 57
2.2833292 5.4530702 1.4701564 0 58
2.2894351 5.4676518 1.5321138 0 59
2.2843323 5.4554648 1.5868715 0 60
2.2907033 5.4706802 1.6499208 0 61
2.2817338 5.4492593 1.702154 0 62
2.2854254 5.458076 1.7640089 0 63
0.92245114 2.2813451 -0.73359215 0 0
0.96396226 2.3840077 -0.74092031 0 1
0.9928323 2.4554071 -0.73679686 0 2
1.0239235 2.5323 -0.73287112 0 3
1.0696645 2.6454237 -0.73754388 0 4
1.1062279 2.7358496 -0.73386669 0 5
1.1520373 2.8491423 -0.73430955 0 6
1.2050823 2.98033 -0.7369321 0 7
1.2511511 3.0942643 -0.73285967 0 8
1.3123811 3.2456944 -0.735039 0 9
1.3791503 3.4108231 -0.73717153 0 10
1.4392608 3.5594847 -0.73263627 0 11
1.52461 3.770565 -0.73737895 0 12
1.6050876 3.9695966 -0.73569149 0 13
1.6941774 4.1899276 -0.73379642 0 14
1.805944 4.4663415 -0.7367934 0 15
1.9185488 4.7448282 -0.73462576 0 16
2.0514669 5.0735526 -0.73421532 0 17
2.2027097 5.4475961 -0.73339236 0 18
2.2101848 5.466083 -0.68086874 0 19
2.2158782 5.4801636 -0.62758553 0 20
2.2147515 5.4773774 -0.57236463 0 21
2.2133167 5.4738283 -0.51722527 0 22
2.2134662 5.4741983 -0.46257612 0 23
2.2090657 5.4633155 -0.40715978 0 24
2.217782 5.4848723 -0.35412404 0 25
2.214884 5.477705 -0.29915047 0 26
2.2150874 5.4782081 -0.24471287 0 27
2.2180803 5.4856095 -0.19054636 0 28
2.2160571 5.4806061 -0.13595739 0 29
2.217483 5.4841323 -0.081617713 0 30
2.2180481 5.4855299 -0.027211305 0 31
2.2190936 5.4881158 0.027224131 0 32
2.2141845 5.4759746 0.081496313 0 33
2.2181206 5.4857092 0.13608399 0 34
2.2098062 5.465147 0.18983559 0 35
2.2210557 5.4929681 0.24537221 0 36
2.2111733 5.4685273 0.29864928 0 37
2.2168481 5.4825621 0.35397491 0 38
2.2110329 5.4681802 0.40752235 0 39
2.2201564 5.4907441 0.46397427 0 40
2.2142782 5.4762063 0.51744992 0 41
2.218781 5.4873428 0.57340598 0 42
2.2109437 5.4679594 0.62618792 0 43
2.2172861 5.4836454 0.68305635 0 44
2.2157075 5.4797416 0.73771995 0 45
2.217526 5.4842386 0.79364747 0 46
2.2131641 5.4734511 0.84743601 0 47
2.2160625 5.480619 0.90411448 0 48
2.2120268 5.4706388 0.9580918 0 49
2.2135196 5.4743304 1.0145662 0 50
2.2120211 5.4706244 1.0698459 0 51
2.2145529 5.4768853 1.1272882 0 52
2.2162187 5.4810052 1.1845942 0 53
2.220423 5.4914036 1.2436155 0 54
2.2158778 5.4801626 1.2979467 0 55
2.2223577 5.4961886 1.3590165 0 56
2.2139502 5.4753952 1.4111738 0 57
2.2146976 5.4772439 1.4692208 0 58
2.2157531 5.4798541 1.5277829 0 59
2.213429 5.4741063 1.5842571 0 60
2.2157931 5.4799533 1.6443758 0 61
2.2121465 5.4709349 1.7002993 0 62
2.2155175 5.4792714 1.7619213 0 63
0.89380789 2.2911737 -0.733163 0 0
0.92664522 2.3753483 -0.73463231 0 1
0.96203035 2.4660542 -0.7363863 0 2
0.99762452 2.5572958 -0.73649919 0 3
1.0370061 2.658246 -0.73750788 0 4
1.0748228 2.7551847 -0.73545235 0 5
1.1144342 2.856724 -0.73267633 0 6
1.1630634 2.9813793 -0.73359984 0 7
1.2156539 3.116189 -0.73445648 0 8
1.2704169 3.2565675 -0.73390812 0 9
1.3316472 3.4135242 -0.73416084 0 10
1.4024582 3.5950403 -0.7363494 0 11
1.4801829 3.7942784 -0.73840117 0 12
1.554471 3.9847076 -0.73489398 0 13
1.6370145 4.1962986 -0.73133159 0 14
1.7483662 4.4817357 -0.73573077 0 15
1.8644115 4.7792044 -0.73634297 0 16
1.9911696 5.1041341 -0.7350421 0 17
2.1461811 5.5014882 -0.73703909 0 18
2.1452117 5.4990034 -0.6816321 0 19
2.1504555 5.512445 -0.62820661 0 20
2.1466184 5.5026093 -0.5721997 0 21
2.1457598 5.5004086 -0.51720458 0 22
2.1524534 5.5175672 -0.46396923 0 23
2.1506078 5.512836 -0.40884858 0 24
2.1472521 5.5042338 -0.35364264 0 25
2.1485548 5.5075727 -0.29931617 0 26
2.1461401 5.5013833 -0.24455078 0 27
2.1498306 5.5108433 -0.19049023 0 28
2.1512465 5.5144734 -0.13613103 0 29
2.1446588 5.4975863 -0.081419311 0 30
2.1442361 5.4965029 -0.027132891 0 31
2.1509147 5.5136223 0.027217399 0 32
2.1449456 5.4983215 0.081430204 0 33
2.1485188 5.5074811 0.13595842 0 34
2.1459861 5.500989 0.19014961 0 35
2.1463947 5.5020361 0.24457981 0 36
2.1431849 5.4938078 0.2985681 0 37
2.1476297 5.5052018 0.35370484 0 38
2.1433811 5.4943113 0.40747476 0 39
2.1471612 5.5040007 0.46282846 0 40
2.1488264 5.5082693 0.51794368 0 41
2.1455004 5.4997435 0.57190174 0 42
2.1499913 5.5112553 0.62807101 0 43
2.1492071 5.5092449 0.68290156 0 44
2.1477304 5.5054603 0.73757118 0 45
2.1504612 5.5124602 0.79384476 0 46
2.1479266 5.5059628 0.84831625 0 47
2.1428485 5.4929457 0.90173298 0 48
2.1432719 5.494031 0.95750058 0 49
2.1521854 5.51688 1.0174704 0 50
2.1499505 5.5111508 1.0725203 0 51
2.1467466 5.5029383 1.1271321 0 52
2.1455395 5.4998441 1.1828742 0 53
2.1506886 5.5130434 1.2424331 0 54
2.148164 5.5065713 1.2978472 0 55
2.146709 5.5028415 1.3540322 0 56
2.147166 5.5040135 1.411638 0 57
2.143858 5.4955335 1.4669445 0 58
2.1515696 5.5153017 1.5301738 0 59
2.1490061 5.5087299 1.5865099 0 60
2.1448019 5.4979534 1.641739 0 61
2.1490867 5.5089364 1.703768 0 62
2.1443067 5.4966836 1.7589086 0 63
0.8651796 2.3009543 -0.73283309 0 0
0.90603387 2.4096069 -0.74172586 0 1
0.93213111 2.4790127 -0.73677748 0 2
0.9634046 2.5621848 -0.73443997 0 3
1.0018822 2.6645164 -0.73577398 0 4
1.040338 2.7667904 -0.73507994 0 5
1.0784245 2.8680813 -0.73213279 0 6
1.1281033 3.0002029 -0.73476273 0 7
1.1715095 3.1156423 -0.73087716 0 8
1.2268271 3.2627602 -0.73184866 0 9
1.2819262 3.4092965 -0.72980613 0 10
1.3517576 3.5950141 -0.73288405 0 11
1.4274515 3.7963226 -0.73532754 0 12
1.5124028 4.0222516 -0.73833245 0 13
1.5914526 4.2324853 -0.73417222 0 14
1.6990985 4.5187707 -0.73832482 0 15
1.7946384 4.7728601 -0.73191011 0 16
1.9281145 5.1278415 -0.73498631 0 17
2.0772676 5.5245161 -0.73664641 0 18
2.0867085 5.549624 -0.68467444 0 19
2.0773721 5.5247936 -0.62665546 0 20
2.0798106 5.5312791 -0.57247835 0 21
2.0770037 5.5238142 -0.51696479 0 22
2.0777743 5.5258632 -0.46248347 0 23
2.0825524 5.5385709 -0.4088271 0 24
2.0769103 5.5235658 -0.35321715 0 25
2.0816498 5.53617 -0.29945657 0 26
2.0780694 5.526648 -0.24451949 0 27
2.0794864 5.530417 -0.19026856 0 28
2.0789154 5.5288978 -0.1358458 0 29
2.0842581 5.543107 -0.081707731 0 30
2.0795271 5.5305252 -0.027172556 0 31
2.0787475 5.5284514 0.027162369 0 32
2.071496 5.5091662 0.081207424 0 33
2.0825679 5.5386119 0.13608447 0 34
2.0770545 5.5239491 0.19004606 0 35
2.0772691 5.5245199 0.24442533 0 36
2.0828211 5.5392852 0.29962507 0 37
2.0777774 5.5258713 0.35336459 0 38
2.0763404 5.5220499 0.40760761 0 39
2.0766892 5.5229774 0.46224195 0 40
2.0814569 5.5356574 0.51807314 0 41
2.0762565 5.5218263 0.5715 0 42
2.0759273 5.5209508 0.62621957 0 43
2.0828187 5.5392795 0.68339813 0 44
2.0777669 5.5258436 0.73682338 0 45
2.0804901 5.5330858 0.79307097 0 46
2.0782602 5.5271554 0.84758008 0 47
2.0773969 5.5248594 0.90271032 0 48
2.0839517 5.5422921 0.96137285 0 49
2.0779872 5.5264292 1.0144423 0 50
2.0767083 5.5230284 1.0697812 0 51
2.0850563 5.5452294 1.1304574 0 52
2.0784914 5.527771 1.1832943 0 53
2.0820789 5.5373116 1.2420386 0 54
2.079232 5.5297403 1.2971839 0 55
2.0763485 5.5220714 1.3523793 0 56
2.0815976 5.5360312 1.4131782 0 57
2.0798624 5.5314169 1.4695849 0 58
2.0811803 5.5349216 1.5284016 0 59
2.0799606 5.5316777 1.585633 0 60
2.0822568 5.5377846 1.6458629 0 61
2.0795989 5.5307155 1.7024664 0 62
2.0784748 5.5277262 1.7605305 0 63
0.83876503 2.3167834 -0.73453408 0 0
0.86768937 2.3966763 -0.73440576 0 1
0.90385604 2.4965734 -0.73863763 0 2
0.92751253 2.5619161 -0.73103839 0 3
0.96323478 2.6605859 -0.73136258 0 4
1.0069388 2.7813025 -0.73559028 0 5
1.045302 2.8872666 -0.7336936 0 6
1.0914714 3.0147929 -0.7349934 0 7
1.1395625 3.1476269 -0.73503751 0 8
1.1927202 3.2944558 -0.73561275 0 9
1.2532471 3.4616396 -0.7376563 0 10
1.3159655 3.6348765 -0.73765582 0 11
1.3845822 3.8244047 -0.73741341 0 12
1.4515046 4.0092535 -0.73261482 0 13
1.5460533 4.2704101 -0.73739725 0 14
1.644613 4.5426455 -0.73886567 0 15
1.7423816 4.8126955 -0.73467773 0 16
1.8704985 5.1665721 -0.73718518 0 17
1.9971453 5.5163875 -0.73223263 0 18
2.0136101 5.5618653 -0.68307829 0 19
2.010582 5.5535016 -0.62706006 0 20
2.0119588 5.5573044 -0.57256812 0 21
2.0099459 5.551744 -0.51722658 0 22
2.0114439 5.555882 -0.4628908 0 23
2.0062537 5.5415463 -0.40719497 0 24
2.0142715 5.5636926 -0.35417253 0 25
2.0091333 5.5495 -0.29881871 0 26
2.0150738 5.5659084 -0.2451417 0 27
2.0071836 5.5441151 -0.18987635 0 28
2.0112486 5.5553427 -0.13587762 0 29
2.0152185 5.5663085 -0.081678286 0 30
2.0156264 5.5674353 -0.027230071 0 31
2.0111165 5.5549779 0.027169142 0 32
2.0177069 5.5731816 0.081779137 0 33
2.0092933 5.549942 0.13574553 0 34
2.0112629 5.5553827 0.19026224 0 35
2.0150435 5.5658245 0.24513802 0 36
2.0088885 5.5488238 0.29878226 0 37
2.0081964 5.5469117 0.35310429 0 38
2.0085135 5.5477881 0.4076536 0 39
2.0114594 5.5559254 0.46289441 0 40
2.0106242 5.553618 0.51740116 0 41
2.0145807 5.5645466 0.57331425 0 42
2.0094199 5.5502915 0.6266976 0 43
2.0074081 5.544735 0.68097442 0 44
2.0097837 5.5512967 0.73686635 0 45
2.0137994 5.5623884 0.79366171 0 46
2.0085742 5.547956 0.84691828 0 47
2.0088325 5.5486693 0.9024964 0 48
2.0145814 5.564549 0.96086389 0 49
2.0101085 5.5521941 1.0145578 0 50
2.007338 5.5445414 1.0690863 0 51
2.0102062 5.5524635 1.1268078 0 52
2.0117586 5.5567513 1.184113 0 53
2.0072565 5.5443163 1.2379798 0 54
2.0148251 5.5652218 1.2995971 0 55
2.0147681 5.5650644 1.3567386 0 56
2.0095196 5.5505672 1.4104744 0 57
2.0098546 5.5514922 1.4682417 0 58
2.015871 5.5681109 1.5306058 0 59
2.0141184 5.5632696 1.5874696 0 60
2.0118148 5.5569067 1.6440696 0 61
2.0115979 5.5563078 1.7026013 0 62
2.007874 5.5460215 1.7583611 0 63
0.81072778 2.3283925 -0.73499846 0 0
0.83973271 2.411694 -0.73578787 0 1
0.86571097 2.4863029 -0.7323941 0 2
0.89555222 2.5720065 -0.7307201 0 3
0.93739754 2.6921852 -0.73682463 0 4
0.9675985 2.7789218 -0.73175859 0 5
1.0091329 2.8982074 -0.73326516 0 6
1.0547971 3.0293541 -0.73532569 0 7
1.095686 3.1467862 -0.73163962 0 8
1.1496183 3.3016787 -0.73401362 0 9
1.2062635 3.4643626 -0.73502022 0 10
1.2640252 3.6302526 -0.73350775 0 11
1.3374032 3.8409929 -0.73738515 0 12
1.4167222 4.0687952 -0.74025565 0 13
1.4835758 4.2607975 -0.73253191 0 14
1.5872747 4.5586181 -0.73823321 0 15
1.6857649 4.8414803 -0.73585182 0 16
1.8056746 5.1858582 -0.73671323 0 17
1.9366922 5.5621381 -0.73508877 0 18
1.9441175 5.5834632 -0.68274319 0 19
1.9441235 5.5834804 -0.62769824 0 20
1.9410514 5.5746574 -0.57185358 0 21
1.9439708 5.5830417 -0.51787621 0 22
1.9420996 5.5776677 -0.46268126 0 23
1.940532 5.5731654 -0.40773416 0 24
1.9416242 5.5763025 -0.35342866 0 25
1.9448205 5.5854821 -0.29944587 0 26
1.9441998 5.5836992 -0.24485382 0 27
1.9490701 5.5976868 -0.19087584 0 28
1.9425945 5.5790892 -0.13586392 0 29
1.940514 5.5731139 -0.08142186 0 30
1.939873 5.5712729 -0.027130123 0 31
1.945716 5.5880542 0.027211841 0 32
1.9434443 5.5815296 0.081544802 0 33
1.9465287 5.5903878 0.13613907 0 34
1.9425026 5.578825 0.19023268 0 35
1.9375753 5.5646744 0.24401955 0 36
1.9484599 5.5959344 0.30000621 0 37
1.9416404 5.5763488 0.35343164 0 38
1.9424399 5.5786452 0.40813506 0 39
1.9433519 5.581264 0.46297958 0 40
1.9426324 5.5791979 0.51751965 0 41
1.9442331 5.5837951 0.57279098 0 42
1.9436576 5.5821424 0.62754786 0 43
1.9411278 5.5748768 0.68169326 0 44
1.947134 5.5921264 0.73905206 0 45
1.9419928 5.5773606 0.79233092 0 46
1.9439158 5.5828838 0.84853709 0 47
1.9424517 5.5786791 0.90342426 0 48
1.9446856 5.5850949 0.96020997 0 49
1.945038 5.5861068 1.0163075 0 50
1.9424491 5.5786715 1.0709808 0 51
1.9425635 5.579 1.1272603 0 52
1.9424399 5.5786448 1.1835991 0 53
1.9444581 5.5844412 1.2415066 0 54
1.9405973 5.5733533 1.2958256 0 55
1.94045 5.5729299 1.3527367 0 56
1.9402859 5.5724587 1.409868 0 57
1.9445953 5.5848355 1.4706248 0 58
1.9472197 5.5923729 1.5305774 0 59
1.9434857 5.5816488 1.5857749 0 60
1.9443359 5.5840902 1.6449142 0 61
1.9456743 5.587934 1.7048323 0 62
1.9448752 5.5856395 1.7632062 0 63
0.77996755 2.3319955 -0.73305291 0 0
0.80928475 2.4196498 -0.73512346 0 1
0.83937246 2.509608 -0.73616308 0 2
0.87024051 2.6018991 -0.73611701 0 3
0.89905685 2.688056 -0.73261344 0 4
0.93862283 2.8063531 -0.73588705 0 5
0.97896916 2.9269829 -0.73744416 0 6
1.0166132 3.0395334 -0.73470664 0 7
1.0632803 3.1790619 -0.73604828 0 8
1.115374 3.3348145 -0.73827529 0 9
1.1606462 3.4701724 -0.73316938 0 10
1.2297933 3.6769125 -0.73982418 0 11
1.284089 3.8392491 -0.73396361 0 12
1.3555746 4.0529814 -0.73429042 0 13
1.4322791 4.2823172 -0.73314834 0 14
1.5318253 4.5799465 -0.738581 0 15
1.6224831 4.8510008 -0.73421109 0 16
1.7358428 5.1899309 -0.73420405 0 17
1.8748655 5.6055899 -0.73772871 0 18
1.8714163 5.5952768 -0.6813224 0 19
1.873889 5.6026697 -0.62721771 0 20
1.8726568 5.5989861 -0.57194388 0 21
1.8755862 5.6077442 -0.5179891 0 22
1.8735576 5.6016788 -0.46272701 0 23
1.8804686 5.6223421 -0.40960926 0 24
1.8750665 5.6061907 -0.35383493 0 25
1.8736762 5.6020336 -0.29907539 0 26
1.8734173 5.6012597 -0.2445952 0 27
1.8774148 5.6132116 -0.19060361 0 28
1.8755491 5.6076331 -0.13598712 0 29
1.8725914 5.5987902 -0.081454419 0 30
1.8757514 5.6082382 -0.027195757 0 31
1.8794595 5.6193247 0.027249519 0 32
1.8772088 5.6125956 0.081655264 0 33
1.8736472 5.6019468 0.13584922 0 34
1.878086 5.6152186 0.19067176 0 35
1.8775941 5.6137476 0.24514054 0 36
1.8780079 5.614985 0.29976684 0 37
1.8802414 5.6216631 0.35481146 0 38
1.8773813 5.6131115 0.4089368 0 39
1.8739159 5.6027503 0.46281549 0 40
1.8737186 5.6021605 0.51747334 0 41
1.8743292 5.6039863 0.57245469 0 42
1.8734362 5.6013165 0.6270662 0 43
1.8744411 5.604321 0.68242365 0 44
1.8727931 5.5993934 0.73691326 0 45
1.8777927 5.6143413 0.79424417 0 46
1.8704368 5.5923486 0.84641588 0 47
1.8768883 5.6116376 0.90495574 0 48
1.8741872 5.6035614 0.95935017 0 49
1.8761717 5.6094952 1.0162886 0 50
1.8767736 5.6112947 1.0727322 0 51
1.8754927 5.6074648 1.1282667 0 52
1.8751405 5.6064119 1.1845088 0 53
1.8752449 5.6067238 1.2412401 0 54
1.8741257 5.6033778 1.2973503 0 55
1.8755512 5.6076398 1.3554614 0 56
1.8746338 5.6048965 1.4121361 0 57
1.8773702 5.6130786 1.4718719 0 58
1.8770888 5.612237 1.5295813 0 59
1.87319 5.6005802 1.5844896 0 60
1.8768904 5.6116438 1.6461077 0 61
1.8740717 5.6032162 1.7023354 0 62
1.8773044 5.6128817 1.7643855 0 63
0.75458288 2.3518424 -0.7363193 0 0
0.78229368 2.43821 -0.73778397 0 1
0.80402714 2.5059476 -0.73213387 0 2
0.83631486 2.6065803 -0.73447639 0 3
0.86929673 2.7093763 -0.73545527 0 4
0.90666431 2.8258414 -0.73801816 0 5
0.94156605 2.9346213 -0.73639596 0 6
0.97782797 3.0476406 -0.73370445 0 7
1.0235456 3.1901307 -0.73564142 0 8
1.0672536 3.3263574 -0.73344225 0 9
1.1224854 3.4985008 -0.73618275 0 10
1.1753629 3.6633067 -0.73412305 0 11
1.2379457 3.8583612 -0.73465174 0 12
1.3103019 4.0838771 -0.73691314 0 13
1.3793043 4.2989402 -0.73303509 0 14
1.4676435 4.5742707 -0.73469985 0 15
1.5691612 4.8906755 -0.73723984 0 16
1.6784285 5.2312341 -0.73707163 0 17
1.7982895 5.6048102 -0.73466045 0 18
1.8106455 5.6433206 -0.68440968 0 19
1.8053184 5.6267171 -0.62737721 0 20
1.8031607 5.6199923 -0.57178152 0 21
1.8074474 5.6333528 -0.51826245 0 22
1.8081715 5.6356096 -0.46365812 0 23
1.8083143 5.6360545 -0.40895739 0 24
1.8075054 5.6335335 -0.3541311 0 25
1.8086454 5.6370869 -0.2997368 0 26
1.8094771 5.639679 -0.24528272 0 27
1.8057945 5.628201 -0.19034421 0 28
1.8022034 5.6170087 -0.13566682 0 29
1.806756 5.6311979 -0.081596509 0 30
1.804471 5.6240764 -0.027162906 0 31
1.8071957 5.6325684 0.027203921 0 32
1.808535 5.6367426 0.081676848 0 33
1.8051566 5.6262131 0.13588913 0 34
1.8021691 5.6169014 0.18996207 0 35
1.8063389 5.6298981 0.24485734 0 36
1.8049887 5.62569 0.2991308 0 37
1.8012563 5.6140566 0.35290676 0 38
1.8046359 5.6245899 0.40812552 0 39
1.8098021 5.6406918 0.46407625 0 40
1.8080609 5.6352649 0.5184384 0 41
1.8059812 5.6287827 0.57267588 0 42
1.8046852 5.6247439 0.62715721 0 43
1.8068601 5.6315227 0.68297887 0 44
1.8099382 5.6411161 0.73941928 0 45
1.8082106 5.6357317 0.79406464 0 46
1.8087115 5.6372929 0.84978789 0 47
1.8085631 5.6368299 0.90536356 0 48
1.8019904 5.6163449 0.95767277 0 49
1.8064775 5.6303301 1.0159621 0 50
1.8058577 5.6283979 1.0716758 0 51
1.8092043 5.6388288 1.1300157 0 52
1.8052479 5.6264977 1.183973 0 53
1.8074501 5.6333613 1.2421231 0 54
1.8100702 5.6415272 1.3009315 0 55
1.8105474 5.6430144 1.358528 0 56
1.8075067 5.6335373 1.4136454 0 57
1.8095827 5.640008 1.4729871 0 58
1.8049163 5.625464 1.5270219 0 59
1.8105112 5.6429019 1.5900444 0 60
1.8045323 5.6242671 1.6431774 0 61
1.808648 5.637095 1.7057424 0 62
1.8046623 5.6246724 1.7609831 0 63
0.72281462 2.3518515 -0.73348397 0 0
0.74819064 2.4344187 -0.73379737 0 1
0.7738266 2.5178316 -0.73277044 0 2
0.80340803 2.6140816 -0.73375094 0 3
0.83479798 2.7162166 -0.73447001 0 4
0.86637843 2.8189712 -0.73338604 0 5
0.90509176 2.9449341 -0.73613536 0 6
0.94519949 3.0754344 -0.73754185 0 7
0.98365569 3.200561 -0.7352019 0 8
1.0299437 3.3511703 -0.73606521 0 9
1.0726376 3.4900851 -0.73158103 0 10
1.130531 3.6784551 -0.73431742 0 11
1.192492 3.8800604 -0.73593569 0 12
1.2578375 4.0926776 -0.73565459 0 13
1.3287718 4.3234797 -0.73437786 0 14
1.408064 4.5814757 -0.73302072 0 15
1.4986769 4.8763065 -0.7322405 0 16
1.6133693 5.2494864 -0.73679239 0 17
1.7399514 5.6613512 -0.73921132 0 18
1.7391387 5.6587071 -0.68363053 0 19
1.7410827 5.6650324 -0.62921464 0 20
1.7396271 5.660296 -0.57366234 0 21
1.7382445 5.6557975 -0.51832175 0 22
1.7360623 5.6486974 -0.46294358 0 23
1.741536 5.6665072 -0.40958223 0 24
1.7356545 5.6473703 -0.35363254 0 25
1.7367643 5.6509814 -0.29931745 0 26
1.739856 5.6610408 -0.24526279 0 27
1.7351078 5.6455917 -0.19019641 0 28
1.7414615 5.666265 -0.13632898 0 29
1.7401718 5.6620684 -0.081727594 0 30
1.7364709 5.6500268 -0.02718306 0 31
1.7381848 5.6556034 0.027209889 0 32
1.734573 5.6438513 0.081464641 0 33
1.7376322 5.6538053 0.13602921 0 34
1.7417417 5.6671762 0.19092359 0 35
1.7377594 5.6542192 0.24496724 0 36
1.7360584 5.6486845 0.29919577 0 37
1.7359663 5.6483846 0.35369608 0 38
1.7411002 5.6650891 0.40947974 0 39
1.7388872 5.6578889 0.46369687 0 40
1.7415773 5.6666417 0.51931554 0 41
1.7411852 5.6653657 0.57417613 0 42
1.7377312 5.6541276 0.62800348 0 43
1.7352077 5.6459165 0.68208528 0 44
1.7396528 5.6603794 0.73908448 0 45
1.7358253 5.6479263 0.79271549 0 46
1.7404146 5.6628585 0.85035139 0 47
1.7421157 5.6683936 0.90692395 0 48
1.739812 5.6608982 0.96154916 0 49
1.7355759 5.6471143 1.015063 0 50
1.7372642 5.6526079 1.0721369 0 51
1.7386496 5.6571155 1.1293106 0 52
1.7345816 5.6438794 1.1830529 0 53
1.7360258 5.6485786 1.2406777 0 54
1.7415714 5.6666226 1.3016816 0 55
1.7363018 5.6494761 1.3548412 0 56
1.7374467 5.6532016 1.4131119 0 57
1.7375518 5.6535435 1.4708309 0 58
1.7409263 5.6645231 1.5316978 0 59
1.7385762 5.6568766 1.5878381 0 60
1.7335805 5.6406221 1.6416036 0 61
1.7379948 5.654985 1.7045603 0 62
0 0 0 0 63
0.69715244 2.3718214 -0.73698288 0 0
0.72046423 2.4511318 -0.73610914 0 1
0.7440576 2.5314002 -0.73400116 0 2
0.77064437 2.6218526 -0.73321688 0 3
0.79936451 2.719563 -0.73266166 0 4
0.83245462 2.8321407 -0.73409367 0 5
0.8697089 2.9588854 -0.73689377 0 6
0.90373045 3.0746322 -0.73462892 0 7
0.94387829 3.2112212 -0.73492897 0 8
0.98424017 3.3485389 -0.73277354 0 9
1.0325106 3.5127625 -0.73361778 0 10
1.0848602 3.6908638 -0.73407602 0 11
1.1451347 3.8959272 -0.73621875 0 12
1.2050148 4.0996485 -0.73418874 0 13
1.2758443 4.3406215 -0.73456925 0 14
1.3567885 4.6160064 -0.73582059 0 15
1.4467131 4.9219441 -0.73636657 0 16
1.5467739 5.2623663 -0.73587507 0 17
1.6621648 5.6549444 -0.73565048 0 18
1.6661839 5.6686177 -0.6823011 0 19
1.671472 5.6866088 -0.62928075 0 20
1.6701614 5.6821499 -0.5737524 0 21
1.6654966 5.6662798 -0.51736641 0 22
1.6726407 5.6905851 -0.46465576 0 23
1.6657693 5.6672077 -0.40812147 0 24
1.6725454 5.6902609 -0.35500363 0 25
1.6672095 5.6721072 -0.29932791 0 26
1.6704175 5.6830215 -0.24530666 0 27
1.6716093 5.6870761 -0.19088708 0 28
1.6708949 5.6846452 -0.13626657 0 29
1.6709236 5.6847429 -0.081752129 0 30
1.6693752 5.6794753 -0.02722392 0 31
1.6662731 5.6689215 0.027173333 0 32
1.6720244 5.688488 0.081805989 0 33
1.6679045 5.6744719 0.1360227 0 34
1.6670233 5.671474 0.19036339 0 35
1.6683395 5.6759515 0.24500148 0 36
1.6695665 5.6801262 0.2997511 0 37
1.6692879 5.6791782 0.35431221 0 38
1.6717825 5.6876655 0.40959471 0 39
1.6734155 5.6932211 0.46487099 0 40
1.6650261 5.6646791 0.51722026 0 41
1.6719934 5.6883826 0.57438177 0 42
1.6683464 5.6759748 0.62810403 0 43
1.6699729 5.6815085 0.68385267 0 44
1.6709958 5.684989 0.73955899 0 45
1.6697562 5.6807714 0.79438365 0 46
1.6671013 5.6717391 0.84854251 0 47
1.6688941 5.6778383 0.90508324 0 48
1.6730856 5.6920986 0.96328145 0 49
1.6680845 5.6750836 1.0163268 0 50
1.6706735 5.6838918 1.074093 0 51
1.6712531 5.6858644 1.1308618 0 52
1.6717246 5.6874681 1.1877911 0 53
1.6703297 5.6827226 1.243572 0 54
1.6696167 5.6802969 1.3000084 0 55
1.6736157 5.693902 1.3604571 0 56
1.6710124 5.6850452 1.4158286 0 57
1.6719335 5.688179 1.4743817 0 58
1.6698856 5.6812119 1.5305424 0 59
1.6702005 5.6822829 1.5890846 0 60
1.6677569 5.6739693 1.645216 0 61
1.6699851 5.68155 1.7062489 0 62
1.6688261 5.6776071 1.7641711 0 63
0.6686244 2.382664 -0.73774141 0 0
0.68864346 2.4540026 -0.73437274 0 1
0.71576959 2.5506673 -0.73698008 0 2
0.74117696 2.6412075 -0.73602515 0 3
0.76897508 2.7402668 -0.73563635 0 4
0.80153209 2.8562846 -0.73774135 0 5
0.82915866 2.9547327 -0.73326492 0 6
0.86496621 3.0823343 -0.73387241 0 7
0.90565318 3.2273235 -0.73600984 0 8
0.94154561 3.3552272 -0.73164833 0 9
0.98865169 3.5230913 -0.73318058 0 10
1.044745 3.7229815 -0.73785299 0 11
1.0984151 3.9142365 -0.73707062 0 12
1.1624155 4.1423039 -0.73921204 0 13
1.2319025 4.3899231 -0.74029309 0 14
1.2996533 4.6313553 -0.73566413 0 15
1.3874629 4.9442673 -0.7370981 0 16
1.47781 5.266222 -0.73381764 0 17
1.5871869 5.6559901 -0.73319215 0 18
1.6021059 5.7091546 -0.68475729 0 19
1.6005528 5.70362 -0.62893778 0 20
1.6007285 5.7042465 -0.57395267 0 21
1.6054088 5.7209244 -0.52051401 0 22
1.6002032 5.702374 -0.46397662 0 23
1.6045831 5.7179818 -0.41032603 0 24
1.6049508 5.7192922 -0.35555673 0 25
1.6022923 5.7098188 -0.3002556 0 26
1.6016908 5.7076755 -0.24550213 0 27
1.6025834 5.710856 -0.19100939 0 28
1.6004987 5.7034273 -0.13623473 0 29
1.6038384 5.7153287 -0.081902169 0 30
1.600252 5.702548 -0.027238138 0 31
1.6019496 5.7085972 0.027267033 0 32
