# .PCD v0.7 - Point Cloud Data file format
VERSION 0.7
FIELDS x y z intensity ring
SIZE 4 4 4 4 2
TYPE F F F F U
COUNT 1 1 1 1 1
WIDTH 1324
HEIGHT 1
VIEWPOINT 0 0 0 1 0 0 0
POINTS 1324
DATA ascii
2.8822589 1.7076721 0.38687459 0 44
2.8798928 1.7062703 0.41778982 0 45
2.8788393 1.705646 0.44893011 0 46
2.8815494 1.7072518 0.48075274 0 47
2.8782589 1.7053022 0.51165086 0 48
2.8680341 1.6992444 0.54125696 0 49
2.8857176 1.7097213 0.5763061 0 50
2.8787475 1.7055917 0.60664964 0 51
2.8754478 1.7036366 0.63775933 0 52
2.880461 1.7066069 0.67084378 0 53
2.86744 1.6988922 0.6997568 0 54
2.8747051 1.7031966 0.73368013 0 55
2.8756011 1.7037275 0.76619941 0 56
2.8816302 1.7072996 0.8003009 0 57
2.8867853 1.7103539 0.8344292 0 58
2.8875158 1.7107867 0.86749518 0 59
2.8748038 1.7032552 0.89654219 0 60
2.8841934 1.7088183 0.932607 0 61
2.8848338 1.7091978 0.96612805 0 62
2.8810799 1.7069736 0.99831825 0 63
2.1109073 1.2859898 -0.73687077 0 0
2.184196 1.3306381 -0.73690903 0 1
2.2529051 1.3724964 -0.73388088 0 2
2.3345749 1.4222507 -0.73346394 0 3
2.4254422 1.4776081 -0.73407769 0 4
2.5262954 1.539049 -0.73564374 0 5
2.6331069 1.6041199 -0.73670226 0 6
2.7283719 1.6621565 -0.73236096 0 7
2.8501678 1.7363559 -0.73281157 0 8
2.8770192 1.752714 -0.70730048 0 9
2.8909147 1.7611793 -0.67827076 0 10
2.8830686 1.7563994 -0.64419109 0 11
2.8719106 1.7496018 -0.60969651 0 12
2.890717 1.7610589 -0.58158529 0 13
2.8836565 1.7567576 -0.54824048 0 14
2.8760619 1.752131 -0.51505131 0 15
2.8852973 1.7577573 -0.4849475 0 16
2.8734243 1.750524 -0.45140827 0 17
2.8782632 1.7534721 -0.42064959 0 18
2.8886011 1.7597699 -0.39060086 0 19
2.8859491 1.7581543 -0.3587786 0 20
2.8706226 1.7488173 -0.32563773 0 21
2.8831642 1.7564577 -0.2957443 0 22
2.8905828 1.7609773 -0.26515913 0 23
2.8877432 1.7592473 -0.23362841 0 24
2.8686461 1.7476132 -0.20105939 0 25
2.8768003 1.7525806 -0.17055295 0 26
2.8793304 1.754122 -0.13962664 0 27
2.8838663 1.7568854 -0.10874502 0 28
2.8806133 1.7549037 -0.077574268 0 29
2.8854196 1.7578317 -0.04661696 0 30
2.873322 1.7504618 -0.015472965 0 31
2.8803041 1.7547153 0.015510564 0 32
2.8806462 1.7549237 0.046539839 0 33
2.887167 1.7588962 0.077750757 0 34
2.8883603 1.7596232 0.10891448 0 35
2.8752327 1.7516258 0.13942793 0 36
2.8875568 1.7591337 0.17119066 0 37
2.876107 1.7521584 0.20158231 0 38
2.8810701 1.7551819 0.23308852 0 39
2.8812296 1.7552792 0.26430115 0 40
2.8725753 1.7500069 0.29465812 0 41
2.8808975 1.7550768 0.32680327 0 42
2.8851931 1.7576938 0.3586846 0 43
2.8886559 1.7598033 0.39060828 0 44
2.8767631 1.7525581 0.42043033 0 45
2.8834593 1.7566376 0.45298475 0 46
2.8795033 1.7542274 0.48397362 0 47
2.882561 1.7560902 0.51621515 0 48
2.8802853 1.7547038 0.54759949 0 49
2.8793838 1.7541546 0.57930511 0 50
2.8934898 1.7627481 0.61427772 0 51
2.8780372 1.7533343 0.64306694 0 52
2.8687046 1.7476488 0.67305982 0 53
2.8889742 1.7599972 0.71023959 0 54
2.8808928 1.7550739 0.74071133 0 55
2.890219 1.7607557 0.77580464 0 56
2.8888562 1.7599254 0.80825692 0 57
2.8882816 1.7595752 0.84105223 0 58
2.8834517 1.7566328 0.87269759 0 59
2.8806074 1.7549001 0.90501338 0 60
2.8770378 1.7527255 0.93719137 0 61
2.8837171 1.7567945 0.97291511 0 62
2.8747711 1.7513446 1.0035186 0 63
2.0934298 1.3109043 -0.736341 0 0
2.1549203 1.3494095 -0.73257476 0 1
2.232986 1.3982942 -0.73293787 0 2
2.3203895 1.4530262 -0.73456508 0 3
2.4126425 1.5107949 -0.73577076 0 4
2.5088174 1.5710195 -0.73612392 0 5
2.5982251 1.6270066 -0.73248494 0 6
2.7231805 1.7052536 -0.73654026 0 7
2.8326333 1.7737929 -0.73385572 0 8
2.8750415 1.8003489 -0.71220297 0 9
2.8791227 1.8029045 -0.68065405 0 10
2.8858142 1.8070947 -0.64972049 0 11
2.8807292 1.8039105 -0.6162312 0 12
2.8800197 1.8034661 -0.58385056 0 13
2.8768227 1.8014643 -0.55111104 0 14
2.8744433 1.7999742 -0.51868594 0 15
2.8765893 1.801318 -0.48716989 0 16
2.8853784 1.8068218 -0.45674202 0 17
2.8690968 1.7966262 -0.42250666 0 18
2.8770359 1.8015977 -0.39200297 0 19
2.8769543 1.8015467 -0.36038712 0 20
2.8864462 1.8074906 -0.32992902 0 21
2.8869681 1.8078172 -0.29839218 0 22
2.8843825 1.8061981 -0.26660755 0 23
2.8734884 1.7993764 -0.23424751 0 24
2.8813484 1.8042983 -0.2034893 0 25
2.8814566 1.8043659 -0.17213137 0 26
2.885062 1.8066236 -0.14097118 0 27
2.8875716 1.8081951 -0.10971487 0 28
2.8888369 1.8089874 -0.078388833 0 29
2.8773334 1.801784 -0.046840724 0 30
2.8736017 1.7994473 -0.015592447 0 31
2.8784356 1.8024743 0.015618675 0 32
2.8834193 1.8055949 0.046939798 0 33
2.8860703 1.807255 0.07831376 0 34
2.8888464 1.8089935 0.1097633 0 35
2.8744519 1.7999797 0.14045276 0 36
2.8955851 1.8132132 0.17297539 0 37
2.8765385 1.8012862 0.20314962 0 38
2.885354 1.8068066 0.23521478 0 39
2.8856401 1.8069856 0.26672381 0 40
2.8752778 1.8004967 0.29718387 0 41
2.8836215 1.8057216 0.32960615 0 42
2.8792706 1.802997 0.36067727 0 43
2.8918502 1.8108745 0.39402145 0 44
2.890281 1.8098917 0.42562628 0 45
2.8840988 1.8060205 0.45653948 0 46
2.8755677 1.8006784 0.48699689 0 47
2.8972023 1.8142259 0.5227927 0 48
2.8852148 1.8067194 0.5527187 0 49
2.8808303 1.8039737 0.58401489 0 50
2.8826706 1.8051262 0.61664653 0 51
2.8866358 1.8076092 0.6499055 0 52
2.8901207 1.8097914 0.68325412 0 53
2.8734086 1.7993263 0.71179849 0 54
2.8821895 1.8048249 0.74669439 0 55
2.8759916 1.8009437 0.77787113 0 56
2.8790174 1.8028386 0.81164521 0 57
2.8823206 1.8049071 0.84571528 0 58
2.8871977 1.807961 0.88049334 0 59
2.8917544 1.8108144 0.91544187 0 60
2.8762348 1.8010961 0.94407278 0 61
2.8794086 1.8030834 0.97886777 0 62
2.8923752 1.8112031 1.0173613 0 63
2.0745695 1.3348824 -0.73542506 0 0
2.1370802 1.375105 -0.73220289 0 1
2.2179019 1.4271097 -0.73369128 0 2
2.2997165 1.4797533 -0.73372531 0 3
2.3910942 1.5385504 -0.73491329 0 4
2.4816356 1.5968091 -0.73385412 0 5
2.5841808 1.662792 -0.73423433 0 6
2.705653 1.7409532 -0.73753393 0 7
2.8180275 1.8132607 -0.73579264 0 8
2.8798449 1.8530371 -0.71898299 0 9
2.8879521 1.8582537 -0.6880914 0 10
2.884573 1.8560793 -0.65453005 0 11
2.8763533 1.8507904 -0.62011653 0 12
2.8894289 1.8592039 -0.59034806 0 13
2.8838303 1.8556015 -0.55678248 0 14
2.8725216 1.8483249 -0.52240086 0 15
2.8886225 1.858685 -0.49304122 0 16
2.8832936 1.8552562 -0.45998845 0 17
2.8896573 1.8593508 -0.42886892 0 18
2.8766832 1.8510027 -0.39502627 0 19
2.8856866 1.8567959 -0.36431354 0 20
2.8807745 1.8536352 -0.33186096 0 21
2.8776956 1.8516541 -0.29976445 0 22
2.8889618 1.8589033 -0.26912329 0 23
2.8893001 1.8591211 -0.23738213 0 24
2.8853056 1.8565508 -0.20536551 0 25
2.8687217 1.8458799 -0.17271349 0 26
2.8839355 1.8556691 -0.14202036 0 27
2.881361 1.8540126 -0.11033676 0 28
2.8889441 1.8588921 -0.079006016 0 29
2.8732994 1.8488253 -0.047141582 0 30
2.892602 1.8612456 -0.015818533 0 31
2.8781424 1.8519416 0.01573946 0 32
2.8846893 1.8561542 0.047328454 0 33
2.881671 1.8542122 0.078807116 0 34
2.879925 1.8530886 0.11028177 0 35
2.8789372 1.852453 0.14177422 0 36
2.8827367 1.8548977 0.17355727 0 37
2.8831758 1.8551805 0.20521392 0 38
2.8788257 1.8523812 0.23652156 0 39
2.8801212 1.8532149 0.26829973 0 40
2.8831601 1.8551704 0.30033371 0 41
2.8915927 1.8605962 0.3331072 0 42
2.8898959 1.8595043 0.36484495 0 43
2.8918381 1.8607541 0.39710733 0 44
2.8821528 1.8545222 0.42775515 0 45
2.8805723 1.8535051 0.45955428 0 46
2.8848057 1.8562291 0.49238974 0 47
2.8830938 1.8551277 0.52432352 0 48
2.876307 1.8507607 0.55532998 0 49
2.8819206 1.8543727 0.58881402 0 50
2.8843133 1.8559123 0.62183267 0 51
2.8864586 1.8572928 0.65495795 0 52
2.8899212 1.8595207 0.68856049 0 53
2.8956361 1.8631979 0.72292542 0 54
2.8762383 1.8507165 0.75099158 0 55
2.8806026 1.8535247 0.78522348 0 56
2.8872931 1.8578296 0.82035655 0 57
2.8738093 1.8491535 0.84982538 0 58
2.8826094 1.854816 0.88598263 0 59
2.8900142 1.8595805 0.92206001 0 60
2.8845026 1.8560342 0.95420557 0 61
2.8795838 1.852869 0.98659819 0 62
2.8866642 1.857425 1.0233088 0 63
2.0606694 1.3620541 -0.73637915 0 0
2.1299527 1.4078488 -0.73563653 0 1
2.2019727 1.4554524 -0.73428673 0 2
2.2904456 1.5139308 -0.73665124 0 3
2.3667641 1.5643755 -0.73329222 0 4
2.4759514 1.6365459 -0.73806834 0 5
2.5626638 1.6938607 -0.73398322 0 6
2.6858287 1.7752699 -0.73802477 0 7
2.7862465 1.8416437 -0.73335195 0 8
2.8984673 1.9158189 -0.72945857 0 9
2.8929908 1.912199 -0.69484174 0 10
2.890306 1.9104245 -0.66111135 0 11
2.8825362 1.9052887 -0.6264531 0 12
2.8929653 1.9121821 -0.59582955 0 13
2.8886321 1.9093181 -0.56219995 0 14
2.8905213 1.9105667 -0.52990675 0 15
2.8889749 1.9095447 -0.49707156 0 16
2.8906126 1.9106272 -0.46486908 0 17
2.8902211 1.9103684 -0.43240631 0 18
2.8809509 1.904241 -0.39879754 0 19
2.8793309 1.9031701 -0.36643794 0 20
2.8961122 1.9142622 -0.33631402 0 21
2.8701077 1.8970739 -0.30138123 0 22
2.8970633 1.9148909 -0.27205089 0 23
2.8849373 1.906876 -0.23893207 0 24
2.8877449 1.9087317 -0.20719402 0 25
2.8846331 1.9066747 -0.17506975 0 26
2.8928218 1.9120874 -0.14360498 0 27
2.8865824 1.9079632 -0.11142669 0 28
2.889765 1.9100668 -0.079664759 0 29
2.8805714 1.9039901 -0.047641411 0 30
2.870337 1.8972254 -0.015823158 0 31
2.8921545 1.9116462 0.015943429 0 32
2.8834376 1.9058847 0.047688819 0 33
2.8902025 1.910356 0.079676822 0 34
2.8863704 1.9078231 0.11141851 0 35
2.8906164 1.9106297 0.1434955 0 36
2.8856816 1.9073678 0.17513339 0 37
2.8927677 1.9120516 0.2075544 0 38
2.8908875 1.9108089 0.23942488 0 39
2.8893321 1.9097807 0.2713249 0 40
2.8800099 1.9036189 0.302421 0 41
2.8828137 1.9054722 0.33476973 0 42
2.8883054 1.9091021 0.36758009 0 43
2.8947403 1.9133555 0.40070638 0 44
2.9001737 1.9169468 0.43389532 0 45
2.8926601 1.9119804 0.46519834 0 46
2.8889 1.9094952 0.49705869 0 47
2.8725607 1.8986953 0.52661413 0 48
2.8847148 1.9067289 0.56143755 0 49
2.8873756 1.9084874 0.59467834 0 50
2.8757067 1.9007747 0.62496889 0 51
2.8964164 1.9144634 0.66250902 0 52
2.8719211 1.8982724 0.68978119 0 53
2.8863907 1.9078366 0.72641927 0 54
2.8816624 1.9047114 0.75846583 0 55
2.891886 1.9114687 0.79464614 0 56
2.8977239 1.9153274 0.82994914 0 57
2.8880813 1.9089539 0.8609221 0 58
2.8878081 1.9087734 0.89472681 0 59
2.8900714 1.9102694 0.92950237 0 60
2.8763292 1.9011862 0.95916277 0 61
2.8938832 1.9127889 0.99948049 0 62
2.8895612 1.9099323 1.0325832 0 63
2.0482423 1.3903265 -0.73799187 0 0
2.1172421 1.4371628 -0.73729432 0 1
2.1737545 1.4755228 -0.73087186 0 2
2.2547607 1.530509 -0.73117185 0 3
2.3411748 1.589166 -0.73136306 0 4
2.4398804 1.6561664 -0.73333097 0 5
2.5307226 1.7178292 -0.7308296 0 6
2.6504841 1.7991221 -0.73433608 0 7
2.7688179 1.879446 -0.73479193 0 8
2.8918114 1.9629327 -0.73380262 0 9
2.894278 1.9646069 -0.70090014 0 10
2.8798239 1.9547957 -0.66416162 0 11
2.8886302 1.9607733 -0.63296956 0 12
2.893461 1.9640524 -0.60086036 0 13
2.8823607 1.9565176 -0.56561893 0 14
2.87413 1.9509306 -0.53125954 0 15
2.881783 1.9561255 -0.49993494 0 16
2.8894262 1.9613136 -0.46852139 0 17
2.8898101 1.9615741 -0.43592051 0 18
2.8849671 1.9582868 -0.40265635 0 19
2.8996918 1.9682817 -0.37208122 0 20
2.8865173 1.9593391 -0.33797207 0 21
2.8850603 1.9583502 -0.30545694 0 22
2.8934026 1.9640127 -0.2739543 0 23
2.9012268 1.9693236 -0.24226841 0 24
2.8922312 1.9632177 -0.20923217 0 25
2.8870196 1.9596801 -0.17666371 0 26
2.8906865 1.9621691 -0.14468578 0 27
2.8938544 1.9643193 -0.11263128 0 28
2.8960741 1.9658262 -0.080498993 0 29
2.8862638 1.959167 -0.048130356 0 30
2.8906484 1.9621432 -0.016066916 0 31
2.8981655 1.9672457 0.016108699 0 32
2.8954051 1.9653721 0.048282795 0 33
2.8863783 1.9592447 0.080229491 0 34
2.8908203 1.96226 0.11251319 0 35
2.8934777 1.9640638 0.14482549 0 36
2.8764915 1.9525337 0.17601947 0 37
2.8902009 1.9618394 0.20908529 0 38
2.8896232 1.9614472 0.24129945 0 39
2.9003401 1.9687219 0.27461115 0 40
2.8925195 1.9634134 0.30624667 0 41
2.8883941 1.960613 0.33819184 0 42
2.8887334 1.9608433 0.37067509 0 43
2.8856299 1.9587367 0.40274885 0 44
2.899303 1.9680179 0.43735251 0 45
2.8923407 1.963292 0.46899399 0 46
2.8857801 1.9588387 0.50062835 0 47
2.8882596 1.9605217 0.53387129 0 48
2.8893061 1.9612319 0.56698185 0 49
2.8921442 1.9631585 0.60058689 0 50
2.8871775 1.9597871 0.63265121 0 51
2.8974569 1.9667647 0.66822821 0 52
2.8854895 1.9586414 0.69877183 0 53
2.8953247 1.9653175 0.73469412 0 54
2.8863559 1.9592296 0.7659843 0 55
2.8935134 1.9640881 0.80166918 0 56
2.8876302 1.9600946 0.83389843 0 57
2.8928874 1.963663 0.86948681 0 58
2.8866076 1.9594004 0.90175164 0 59
2.8971372 1.9665476 0.93948108 0 60
2.88853 1.9607053 0.97119772 0 61
2.8911872 1.962509 1.0068078 0 62
2.878361 1.9538027 1.0370877 0 63
2.0221739 1.4092597 -0.73478734 0 0
2.0856657 1.4535073 -0.73246694 0 1
2.1744318 1.5153688 -0.73730904 0 2
2.2629488 1.5770565 -0.74005955 0 3
2.3353875 1.6275393 -0.73575139 0 4
2.4237287 1.6891047 -0.73466355 0 5
2.5368657 1.7679503 -0.7388258 0 6
2.6489933 1.8460922 -0.74015641 0 7
2.7641907 1.9263736 -0.73979419 0 8
2.8764861 2.0046327 -0.73611313 0 9
2.8949542 2.0175033 -0.7070182 0 10
2.900063 2.0210636 -0.67450976 0 11
2.8833578 2.0094216 -0.63718033 0 12
2.8951652 2.0176504 -0.6063205 0 13
2.8982346 2.0197895 -0.57356435 0 14
2.8954394 2.0178413 -0.53974396 0 15
2.8893347 2.013587 -0.50550216 0 16
2.8893917 2.0136266 -0.47249499 0 17
2.8947062 2.0173304 -0.44036773 0 18
2.892004 2.0154471 -0.40706667 0 19
2.8963163 2.0184524 -0.37480459 0 20
2.8916385 2.0151925 -0.34144726 0 21
2.8889704 2.0133331 -0.30846873 0 22
2.8886871 2.0131357 -0.27583078 0 23
2.8953202 2.0177584 -0.24382864 0 24
2.8853395 2.0108027 -0.21050642 0 25
2.8939466 2.0168011 -0.17859164 0 26
2.892812 2.0160103 -0.1460219 0 27
2.8886538 2.0131125 -0.11338375 0 28
2.8871505 2.0120647 -0.080932543 0 29
2.8995237 2.0206878 -0.048762135 0 30
2.8905959 2.0144658 -0.016203083 0 31
2.8960705 2.018281 0.01623377 0 32
2.8951168 2.0176165 0.048688021 0 33
2.8915141 2.0151057 0.081054859 0 34
2.9044933 2.0241511 0.11400547 0 35
2.8957615 2.0180657 0.14617079 0 36
2.9023204 2.0226367 0.17910838 0 37
2.891644 2.0151963 0.21096638 0 38
2.9008827 2.0216348 0.24429709 0 39
2.8863609 2.0115144 0.27560866 0 40
2.8849485 2.0105302 0.30803928 0 41
2.8997364 2.0208359 0.34240347 0 42
2.8929806 2.0161278 0.37437293 0 43
2.8975525 2.0193141 0.40784767 0 44
2.8960416 2.018261 0.44057086 0 45
2.8956106 2.0179605 0.47351193 0 46
2.9028125 2.0229797 0.50786018 0 47
2.9006593 2.0214791 0.54071701 0 48
2.8905945 2.0144651 0.57205236 0 49
2.8997221 2.0208259 0.60727477 0 50
2.8875303 2.0123296 0.63810247 0 51
2.8945661 2.0172327 0.67323124 0 52
2.8898361 2.0139365 0.70576823 0 53
2.895299 2.0177436 0.74092746 0 54
2.9017007 2.0222049 0.77659672 0 55
2.8995855 2.0207307 0.81017447 0 56
2.896472 2.0185609 0.84355593 0 57
2.8932352 2.0163054 0.87697709 0 58
2.9020417 2.0224426 0.91427284 0 59
2.8926172 2.0158746 0.9459821 0 60
2.8924191 2.0157366 0.98076504 0 61
2.8951907 2.017668 1.0167649 0 62
2.8893254 2.0135806 1.0498799 0 63
1.9929235 1.4255975 -0.73047328 0 0
2.0794616 1.4875008 -0.73665607 0 1
2.1553371 1.5417768 -0.73720706 0 2
2.2327392 1.5971448 -0.73654705 0 3
2.3081453 1.651085 -0.73350966 0 4
2.3928618 1.7116854 -0.73163193 0 5
2.5027423 1.7902862 -0.73524356 0 6
2.5951345 1.856377 -0.73143047 0 7
2.7187574 1.9448082 -0.73397952 0 8
2.8308918 2.0250211 -0.73076218 0 9
2.8825116 2.0619464 -0.71011794 0 10
2.8892472 2.0667646 -0.67785382 0 11
2.8872888 2.0653636 -0.64361274 0 12
2.8940794 2.0702214 -0.61137807 0 13
2.8978765 2.0729375 -0.57849425 0 14
2.8993444 2.0739875 -0.54518473 0 15
2.8885365 2.066256 -0.50976914 0 16
2.8908985 2.067946 -0.47686362 0 17
2.9008625 2.0750732 -0.44515234 0 18
2.8905358 2.0676866 -0.41040778 0 19
2.8921328 2.0688286 -0.3775267 0 20
2.8975029 2.07267 -0.34512311 0 21
2.8949704 2.0708587 -0.31180474 0 22
2.9000394 2.0744846 -0.27932939 0 23
2.9063852 2.0790238 -0.24689473 0 24
2.8909161 2.0679584 -0.21275239 0 25
2.8987806 2.0735841 -0.18044983 0 26
2.8956943 2.0713763 -0.14744195 0 27
2.8955472 2.0712712 -0.11464536 0 28
2.8800035 2.0601523 -0.081436165 0 29
2.8905301 2.0676823 -0.049034759 0 30
2.8882689 2.0660648 -0.016331213 0 31
2.9045625 2.0777202 0.016423343 0 32
2.8708913 2.0536339 0.04870161 0 33
2.8996933 2.0742371 0.081992924 0 34
2.8915455 2.0684085 0.11448692 0 35
2.8929465 2.0694108 0.14730203 0 36
2.8926785 2.0692191 0.18006997 0 37
2.8952878 2.0710857 0.21307412 0 38
2.9019492 2.0758507 0.2465179 0 39
2.8858838 2.0643587 0.27796593 0 40
2.889389 2.0668662 0.3112036 0 41
2.8913877 2.0682957 0.34439474 0 42
2.8865683 2.0648482 0.37680033 0 43
2.8882504 2.0660515 0.41008326 0 44
2.8813508 2.061116 0.44215816 0 45
2.8851316 2.0638206 0.47591233 0 46
2.8927994 2.0693054 0.51052147 0 47
2.9005382 2.0748415 0.5454092 0 48
2.8917279 2.0685391 0.57726675 0 49
2.8956699 2.0713589 0.61171407 0 50
2.9026022 2.0763178 0.64702624 0 51
2.892561 2.069135 0.67863125 0 52
2.8821974 2.0617216 0.71004051 0 53
2.8914709 2.0683553 0.7464 0 54
2.8985364 2.0734093 0.78251421 0 55
2.9096994 2.0813947 0.82008958 0 56
2.8962102 2.0717454 0.85083461 0 57
2.9020686 2.0759361 0.88732493 0 58
2.9031265 2.0766928 0.92258978 0 59
2.8899596 2.0672741 0.95335412 0 60
2.9001992 2.0745988 0.99197817 0 61
2.8896799 2.0670741 1.0236785 0 62
2.8874636 2.0654888 1.0583522 0 63
1.9842906 1.4566345 -0.73381871 0 0
2.0498564 1.5047654 -0.73266786 0 1
2.1324019 1.5653605 -0.73589039 0 2
2.1949239 1.611257 -0.73055309 0 3
2.284251 1.6768304 -0.73241341 0 4
2.3827088 1.7491068 -0.73504812 0 5
2.4818013 1.8218489 -0.73561722 0 6
2.5841451 1.8969778 -0.73485202 0 7
2.6995206 1.9816729 -0.73530906 0 8
2.8177686 2.0684769 -0.73388487 0 9
2.9045937 2.1322138 -0.72196245 0 10
2.901036 2.129602 -0.68671143 0 11
2.9021549 2.1304235 -0.65271682 0 12
2.9007273 2.1293755 -0.61826706 0 13
2.9026971 2.1308212 -0.58464289 0 14
2.9037659 2.1316061 -0.55090314 0 15
2.8877897 2.1198783 -0.51419884 0 16
2.8883331 2.1202769 -0.48070472 0 17
2.8911834 2.1223693 -0.44763801 0 18
2.8952272 2.1253378 -0.41475314 0 19
2.9002347 2.1290138 -0.38197276 0 20
2.8865972 2.1190028 -0.34690148 0 21
2.8991721 2.1282337 -0.31505209 0 22
2.8939123 2.1243727 -0.28123406 0 23
2.9021935 2.1304519 -0.24874528 0 24
2.90466 2.1322625 -0.21567711 0 25
2.8958476 2.1257932 -0.1818807 0 26
2.9141538 2.1392314 -0.14970993 0 27
2.9001811 2.1289744 -0.1158566 0 28
2.8944151 2.1247418 -0.082576208 0 29
2.8945742 2.1248586 -0.049542859 0 30
2.8957248 2.1257031 -0.016519917 0 31
2.8942819 2.1246438 0.016511686 0 32
2.8906219 2.1219573 0.049475212 0 33
2.8862832 2.1187723 0.082344204 0 34
2.9102471 2.1363637 0.11625872 0 35
2.8936794 2.1242015 0.1486581 0 36
2.8886015 2.1204741 0.18142559 0 37
2.8936896 2.1242092 0.21486254 0 38
2.8979046 2.1273034 0.24837767 0 39
2.8956151 2.1256225 0.28139955 0 40
2.9004855 2.1291978 0.31519482 0 41
2.8902652 2.1216953 0.34734228 0 42
2.8870997 2.1193717 0.38024282 0 43
2.9078901 2.1346333 0.41656712 0 44
2.9057698 2.1330771 0.44989643 0 45
2.8880939 2.1201015 0.48066494 0 46
2.8983343 2.1276188 0.51607639 0 47
2.9073777 2.1342573 0.55158842 0 48
2.8943236 2.1246746 0.58295631 0 49
2.8956339 2.1256363 0.61718148 0 50
2.8900504 2.1215377 0.64999443 0 51
2.8891604 2.1208844 0.6839003 0 52
2.8960791 2.1259632 0.71984607 0 53
2.9015226 2.1299593 0.7556985 0 54
2.9019806 2.1302955 0.79045618 0 55
2.9037588 2.1316009 0.8257404 0 56
2.9108922 2.1368372 0.86280167 0 57
2.9026134 2.13076 0.89543486 0 58
2.890923 2.1221783 0.92693448 0 59
2.895025 2.1251895 0.96357304 0 60
2.8913064 2.1224597 0.99778783 0 61
2.9053602 2.1327765 1.0384455 0 62
2.8924561 2.1233037 1.0696712 0 63
1.9540445 1.4717442 -0.72927082 0 0
2.0398617 1.5363798 -0.73579234 0 1
2.1206794 1.59725 -0.73856711 0 2
2.1854129 1.6460059 -0.73406863 0 3
2.2798419 1.7171277 -0.73771405 0 4
2.3678169 1.7833885 -0.73716336 0 5
2.4666243 1.8578081 -0.7378341 0 6
2.5543976 1.9239171 -0.73306471 0 7
2.6681743 2.0096114 -0.7334463 0 8
2.8017085 2.1101863 -0.73640442 0 9
2.9094007 2.1912978 -0.72979957 0 10
2.9001994 2.1843677 -0.69281912 0 11
2.8976431 2.1824422 -0.65768802 0 12
2.9036136 2.1869392 -0.62456679 0 13
2.8955641 2.1808763 -0.58856302 0 14
2.8981743 2.1828423 -0.55489272 0 15
2.8867037 2.1742029 -0.51872665 0 16
2.9033251 2.1867218 -0.48763812 0 17
2.8932998 2.1791711 -0.45208034 0 18
2.9060698 2.1887891 -0.42013019 0 19
2.9079247 2.190186 -0.38650334 0 20
2.8985405 2.1831181 -0.3515363 0 21
2.9022369 2.1859021 -0.31828201 0 22
2.9090238 2.1910138 -0.28529927 0 23
2.9071107 2.189573 -0.25145534 0 24
2.8964019 2.1815073 -0.21703932 0 25
2.9028404 2.1863568 -0.18399453 0 26
2.9042401 2.1874108 -0.15057106 0 27
2.894321 2.1799402 -0.11668451 0 28
2.9029162 2.1864138 -0.083579436 0 29
2.8866298 2.1741474 -0.049860694 0 30
2.9058905 2.1886539 -0.016730184 0 31
2.911844 2.1931381 0.01676446 0 32
2.8912477 2.1776254 0.049940456 0 33
2.899817 2.1840796 0.083490208 0 34
2.9015524 2.1853867 0.11697605 0 35
2.9038966 2.1871524 0.15055326 0 36
2.8995721 2.1838951 0.18378738 0 37
2.9012041 2.1851244 0.21739918 0 38
2.9048789 2.187892 0.25126231 0 39
2.8938367 2.1795754 0.28380984 0 40
2.9086719 2.1907489 0.31898773 0 41
2.9063861 2.1890273 0.35248783 0 42
2.90341 2.1867857 0.38590327 0 43
2.9046028 2.1876841 0.41991812 0 44
2.8903227 2.1769285 0.45161512 0 45
2.9088039 2.1908484 0.48855835 0 46
2.8955052 2.1808319 0.52030826 0 47
2.9115801 2.1929393 0.55745941 0 48
2.9019012 2.1856494 0.58985114 0 49
2.8947151 2.1802371 0.62265271 0 50
2.901824 2.1855912 0.65863699 0 51
2.9105489 2.1921625 0.69529146 0 52
2.8997209 2.1840072 0.72737145 0 53
2.8950787 2.1805108 0.76094598 0 54
2.8988187 2.1833277 0.79684746 0 55
2.9210031 2.2000365 0.8382737 0 56
2.8966675 2.1817074 0.86647165 0 57
2.9035878 2.1869197 0.90396291 0 58
2.8972673 2.1821592 0.93750137 0 59
2.9163291 2.196516 0.97957951 0 60
2.8886461 2.1756659 1.0060261 0 61
2.9006925 2.1847389 1.0462999 0 62
2.904259 2.1874251 1.0839013 0 63
1.9493122 1.5060982 -0.73436087 0 0
2.0207937 1.561327 -0.73578387 0 1
2.0948956 1.6185803 -0.73646325 0 2
2.1651003 1.6728227 -0.73409957 0 3
2.2492325 1.7378258 -0.73466855 0 4
2.3374429 1.8059798 -0.73456538 0 5
2.4222929 1.8715376 -0.73140204 0 6
2.5346365 1.9583375 -0.73424882 0 7
2.6485178 2.0463257 -0.73490429 0 8
2.7589092 2.1316175 -0.73198915 0 9
2.896579 2.2379854 -0.73343086 0 10
2.9049251 2.2444339 -0.70048797 0 11
2.9136386 2.2511663 -0.66755104 0 12
2.9086881 2.2473412 -0.63155466 0 13
2.8992085 2.2400172 -0.59485763 0 14
2.8920395 2.234478 -0.55893648 0 15
2.9139247 2.2513874 -0.52855289 0 16
2.8967478 2.238116 -0.49111867 0 17
2.9058726 2.2451658 -0.4583239 0 18
2.8995252 2.2402618 -0.42313457 0 19
2.9115291 2.2495363 -0.39062944 0 20
2.9069111 2.2459683 -0.35587406 0 21
2.9053493 2.2447615 -0.32162613 0 22
2.9025667 2.2426116 -0.28734878 0 23
2.9048622 2.2443852 -0.25362882 0 24
2.9146626 2.2519574 -0.22046602 0 25
2.9142294 2.2516227 -0.18645725 0 26
2.9030261 2.2429667 -0.15192656 0 27
2.8910325 2.2337 -0.11765035 0 28
2.9121375 2.2500064 -0.084635116 0 29
2.8999145 2.2405627 -0.050562225 0 30
2.9100904 2.2484248 -0.016912263 0 31
2.9107807 2.2489581 0.016916275 0 32
2.9004474 2.2409742 0.050571516 0 33
2.8963411 2.2378016 0.084176026 0 34
2.8856294 2.2295256 0.11743048 0 35
2.9054446 2.2448351 0.15205313 0 36
2.9099171 2.248291 0.18618134 0 37
2.9115126 2.2495236 0.22022775 0 38
2.9072645 2.2462413 0.25383857 0 39
2.9141653 2.2515733 0.28849703 0 40
2.902873 2.2428484 0.32135201 0 41
2.9163446 2.253257 0.35702896 0 42
2.9055698 2.2449322 0.38982993 0 43
2.9060712 2.2453194 0.42408982 0 44
2.9014814 2.2417731 0.45763129 0 45
2.8933451 2.2354867 0.49054173 0 46
2.9022639 2.2423778 0.52643776 0 47
2.9090161 2.2475948 0.56221759 0 48
2.8948455 2.2366459 0.59396237 0 49
2.9081953 2.2469606 0.63144773 0 50
2.8999445 2.2405858 0.66441357 0 51
2.9013638 2.2416823 0.69962925 0 52
2.9111979 2.2492805 0.73713249 0 53
2.9057186 2.2450469 0.7709403 0 54
2.9055123 2.2448876 0.80621451 0 55
2.9092093 2.2477441 0.8427574 0 56
2.9130366 2.2507012 0.8795802 0 57
2.900744 2.2412033 0.91158843 0 58
2.9111941 2.2492776 0.95088559 0 59
2.8957081 2.2373126 0.98181957 0 60
2.904047 2.2437556 1.0209215 0 61
2.9024832 2.2425473 1.0568126 0 62
2.8965795 2.2379858 1.0912232 0 63
1.925712 1.5260417 -0.73248386 0 0
1.9998714 1.5848098 -0.73520589 0 1
2.0651205 1.6365168 -0.73301476 0 2
2.1438711 1.6989231 -0.73392922 0 3
2.2282505 1.7657901 -0.73485178 0 4
2.3133659 1.8332404 -0.73402762 0 5
2.4035296 1.9046911 -0.73275298 0 6
2.5148215 1.9928851 -0.73555201 0 7
2.6277604 2.0823841 -0.73619401 0 8
2.7581277 2.1856945 -0.73885673 0 9
2.8708999 2.2750616 -0.73395681 0 10
2.9075506 2.3041055 -0.70789963 0 11
2.9052215 2.3022597 -0.67205787 0 12
2.9093854 2.3055596 -0.63781351 0 13
2.8963292 2.295213 -0.60001224 0 14
2.9051139 2.3021746 -0.56689167 0 15
2.9051316 2.3021886 -0.53205258 0 16
2.8840716 2.2854996 -0.49369693 0 17
2.8890941 2.2894797 -0.46008307 0 18
2.9202464 2.3141663 -0.4302786 0 19
2.8991785 2.297471 -0.39273304 0 20
2.902514 2.3001142 -0.35877118 0 21
2.903924 2.3012316 -0.32457635 0 22
2.9120619 2.3076804 -0.291076 0 23
2.9085968 2.3049345 -0.25641015 0 24
2.9076321 2.3041701 -0.22206058 0 25
2.9167237 2.3113749 -0.18842107 0 26
2.9132335 2.308609 -0.15393475 0 27
2.9154232 2.3103442 -0.11978998 0 28
2.8955386 2.2945864 -0.084966294 0 29
2.8987277 2.2971137 -0.05103017 0 30
2.8975148 2.2961526 -0.017001981 0 31
2.9174907 2.3119826 0.017119195 0 32
2.9083033 2.304702 0.051198743 0 33
2.9123683 2.3079233 0.085460149 0 34
2.9158125 2.3106527 0.11980598 0 35
2.9128904 2.308337 0.15391663 0 36
2.9007211 2.2986934 0.18738729 0 37
2.9074874 2.3040555 0.22204952 0 38
2.9135363 2.3088489 0.25684559 0 39
2.8897076 2.2899656 0.28884155 0 40
2.90433 2.3015532 0.32462171 0 41
2.9040692 2.3013465 0.3589634 0 42
2.9086146 2.3049488 0.39401129 0 43
2.8981462 2.2966528 0.42702225 0 44
2.9108679 2.3067343 0.46355051 0 45
2.9065871 2.3033419 0.49755111 0 46
2.9176548 2.3121126 0.5343461 0 47
2.9137995 2.3090575 0.56858653 0 48
2.9179091 2.3123143 0.60448283 0 49
2.90223 2.2998891 0.63624483 0 50
2.9011171 2.2990072 0.67110842 0 51
2.9057119 2.3026483 0.70745194 0 52
2.9061739 2.3030145 0.74297476 0 53
2.9056635 2.3026099 0.77837908 0 54
2.9117255 2.3074141 0.81574976 0 55
2.9124608 2.3079967 0.85185629 0 56
2.9023335 2.2999711 0.884821 0 57
2.9028835 2.3004072 0.92108065 0 58
2.8992605 2.2975359 0.95614326 0 59
2.8981161 2.2966292 0.9921363 0 60
2.9148645 2.3099015 1.0346315 0 61
2.9031928 2.300652 1.0672909 0 62
2.9095514 2.305691 1.1067073 0 63
1.9119899 1.5538194 -0.73447651 0 0
1.9726714 1.6031334 -0.73239809 0 1
2.0467935 1.6633703 -0.73371404 0 2
2.1342931 1.7344787 -0.73789591 0 3
2.1908827 1.7804675 -0.72969329 0 4
2.3042896 1.87263 -0.73839819 0 5
2.381386 1.935284 -0.73320162 0 6
2.4669414 2.0048127 -0.72870308 0 7
2.5993707 2.1124339 -0.73546201 0 8
2.7097452 2.2021322 -0.73309427 0 9
2.8382456 2.306561 -0.73280424 0 10
2.9122839 2.3667297 -0.71608347 0 11
2.916126 2.3698521 -0.68126994 0 12
2.9200761 2.3730621 -0.64650536 0 13
2.9076757 2.3629847 -0.60833621 0 14
2.9103241 2.3651369 -0.57354009 0 15
2.9036314 2.3596981 -0.53705132 0 16
2.9100869 2.3649442 -0.5030902 0 17
2.9073241 2.362699 -0.46757743 0 18
2.9182484 2.3715768 -0.43424821 0 19
2.9084976 2.3636527 -0.39790255 0 20
2.9126775 2.3670495 -0.36359772 0 21
2.9231639 2.3755715 -0.32996684 0 22
2.9128189 2.3671644 -0.29403892 0 23
2.8997111 2.3565121 -0.25816178 0 24
2.9152117 2.3691089 -0.22484727 0 25
2.9038291 2.3598588 -0.18944831 0 26
2.9045398 2.3604362 -0.15499733 0 27
2.9030161 2.3591979 -0.12046305 0 28
2.9153442 2.3692167 -0.086395815 0 29
2.9078591 2.3631337 -0.051698565 0 30
2.9039335 2.3599436 -0.017208621 0 31
2.9031155 2.3592787 0.017203772 0 32
2.9160724 2.3698082 0.051844586 0 33
2.9072258 2.3626192 0.086155228 0 34
2.9064622 2.3619986 0.12060606 0 35
2.9061408 2.3617373 0.15508278 0 36
2.906709 2.3621991 0.1896362 0 37
2.9130228 2.3673301 0.22467844 0 38
2.9082408 2.3634441 0.25892118 0 39
2.9143853 2.3684373 0.29419702 0 40
2.9131224 2.3674109 0.32883337 0 41
2.9177051 2.3711352 0.36422533 0 42
2.9165442 2.3701918 0.39900339 0 43
2.9055469 2.3612547 0.43235818 0 44
2.9097836 2.3646977 0.46797299 0 45
2.902878 2.3590858 0.50184393 0 46
2.903914 2.3599277 0.53710353 0 47
2.9106672 2.3654158 0.57360768 0 48
2.903002 2.3591866 0.60735846 0 49
2.9097548 2.3646741 0.64422023 0 50
2.9113162 2.3659432 0.68014628 0 51
2.9088087 2.3639054 0.71522897 0 52
2.9038336 2.3598623 0.74973834 0 53
2.912267 2.3667159 0.78788447 0 54
2.9020634 2.3584237 0.82110548 0 55
2.9213345 2.3740847 0.86292493 0 56
2.9032402 2.35938 0.89387465 0 57
2.9118936 2.3664124 0.93310189 0 58
2.9042366 2.3601897 0.9672823 0 59
2.9033155 2.3594413 1.0037726 0 60
2.9099488 2.3648319 1.0431294 0 61
2.9062715 2.3618433 1.0790178 0 62
2.8996546 2.3564661 1.1138804 0 63
1.8947755 1.5789068 -0.73526621 0 0
1.955753 1.629719 -0.73350149 0 1
2.0316067 1.6929275 -0.73567677 0 2
2.1101925 1.7584127 -0.73698342 0 3
2.1771791 1.8142323 -0.73250395 0 4
2.2656376 1.8879443 -0.73339611 0 5
2.3558547 1.9631218 -0.73271775 0 6
2.4697201 2.0580053 -0.7369433 0 7
2.56727 2.1392932 -0.73376697 0 8
2.6815214 2.234498 -0.73283666 0 9
2.8183522 2.3485186 -0.7350685 0 10
2.9184957 2.4319675 -0.72490907 0 11
2.9108315 2.425581 -0.68694913 0 12
2.9166393 2.4304209 -0.65231186 0 13
2.9150269 2.4290769 -0.61607677 0 14
2.9055367 2.4211688 -0.57842004 0 15
2.9091675 2.4241946 -0.54354757 0 16
2.9023738 2.4185331 -0.50685972 0 17
2.9175193 2.431154 -0.47398913 0 18
2.9200721 2.4332812 -0.43893874 0 19
2.9128256 2.4272428 -0.40254742 0 20
2.9115615 2.4261894 -0.36715484 0 21
2.9039834 2.4198744 -0.33113557 0 22
2.9274006 2.439388 -0.2985163 0 23
2.9056015 2.4212229 -0.2613171 0 24
2.9099808 2.4248722 -0.22672644 0 25
2.9233906 2.4360466 -0.19266424 0 26
2.9158535 2.4297659 -0.15718359 0 27
2.917064 2.4307745 -0.12227704 0 28
2.9171283 2.4308281 -0.08732789 0 29
2.8967581 2.4138536 -0.052024979 0 30
2.9086099 2.4237297 -0.017411629 0 31
2.9168503 2.4305966 0.017460959 0 32
2.9269674 2.4390271 0.05256753 0 33
2.9028723 2.4189487 0.086901121 0 34
2.9136794 2.4279542 0.12213517 0 35
2.9040167 2.4199023 0.1565455 0 36
2.9004781 2.4169536 0.1911542 0 37
2.913348 2.4276781 0.22698881 0 38
2.9164231 2.4302404 0.26229036 0 39
2.9124417 2.4269228 0.29699087 0 40
2.9094412 2.4244225 0.3317579 0 41
2.9073551 2.4226842 0.36662441 0 42
2.9125435 2.4270077 0.40250844 0 43
2.9160309 2.4299135 0.43833128 0 44
2.9105325 2.4253318 0.47285405 0 45
2.9114957 2.4261346 0.50845277 0 46
2.9250767 2.4374516 0.54652005 0 47
2.9151542 2.429183 0.58033466 0 48
2.9264247 2.4385748 0.61848563 0 49
2.9186037 2.4320576 0.65275115 0 50
2.9129355 2.4273343 0.68744564 0 51
2.9205954 2.4337173 0.72543061 0 52
2.9065521 2.422015 0.75807232 0 53
2.9162483 2.430095 0.79698551 0 54
2.9113967 2.4260521 0.83212388 0 55
2.9052861 2.4209599 0.86691236 0 56
2.9052024 2.4208903 0.90357578 0 57
2.915966 2.4298596 0.94391 0 58
2.9164491 2.4302623 0.98122865 0 59
2.9135249 2.4278255 1.0175468 0 60
2.9132714 2.4276142 1.0549414 0 61
2.9144781 2.4286196 1.0930696 0 62
2.9050226 2.4207404 1.1272918 0 63
1.8726653 1.5999031 -0.73426497 0 0
1.9344804 1.6527146 -0.7330898 0 1
2.0033808 1.7115793 -0.73302156 0 2
2.0807705 1.7776968 -0.73428667 0 3
2.1559012 1.8418845 -0.73290974 0 4
2.2433314 1.9165801 -0.73374873 0 5
2.3312099 1.9916587 -0.73261428 0 6
2.4331403 2.0787425 -0.73359996 0 7
2.5408962 2.1708031 -0.73380274 0 8
2.6637781 2.2757866 -0.73557973 0 9
2.789525 2.3832183 -0.73513758 0 10
2.9173651 2.4924378 -0.73218542 0 11
2.9060333 2.4827564 -0.69296914 0 12
2.9181592 2.4931161 -0.65945828 0 13
2.9172969 2.4923794 -0.62298661 0 14
2.9125261 2.4883037 -0.58585835 0 15
2.9198375 2.49455 -0.55123067 0 16
2.9189136 2.4937606 -0.51506436 0 17
2.9170415 2.4921615 -0.47885397 0 18
2.9212344 2.4957435 -0.44369298 0 19
2.9190164 2.4938486 -0.40761009 0 20
2.9171779 2.4922779 -0.37169957 0 21
2.9232042 2.4974263 -0.33680356 0 22
2.9125021 2.4882829 -0.30009443 0 23
2.9133582 2.4890146 -0.26474726 0 24
2.9069433 2.4835341 -0.22885188 0 25
2.9229004 2.4971669 -0.19464089 0 26
2.9132788 2.4889467 -0.15868261 0 27
2.9120605 2.4879057 -0.12334035 0 28
2.9218483 2.496268 -0.08838141 0 29
2.918834 2.4936926 -0.052968159 0 30
2.9207611 2.4953392 -0.017666714 0 31
2.9187424 2.4936144 0.017654505 0 32
2.929276 2.5026138 0.053157654 0 33
2.9203224 2.4949644 0.088335253 0 34
2.91187 2.4877431 0.12333228 0 35
2.9217374 2.4961731 0.15914334 0 36
2.9219875 2.496387 0.19458011 0 37
2.917295 2.4923778 0.22966681 0 38
2.9191754 2.4939842 0.2652759 0 39
2.9144244 2.4899254 0.30029249 0 40
2.9117236 2.487618 0.33548081 0 41
2.9188793 2.4937313 0.37191632 0 42
2.9323044 2.5052011 0.40946561 0 43
2.9117949 2.487679 0.44225928 0 44
2.917748 2.4927649 0.47896993 0 45
2.9178085 2.4928167 0.51486939 0 46
2.9172502 2.4923396 0.55074221 0 47
2.9235957 2.4977608 0.588085 0 48
2.9245811 2.4986026 0.62454212 0 49
2.9149776 2.4903979 0.65873927 0 50
2.9077764 2.4842455 0.69338483 0 51
2.9196608 2.4943991 0.73276162 0 52
2.9137108 2.4893157 0.76786488 0 53
2.9192591 2.4940557 0.80612868 0 54
2.9254203 2.4993196 0.84485215 0 55
2.9139266 2.4895 0.87855864 0 56
2.9096584 2.4858537 0.91439962 0 57
2.9150317 2.4904442 0.95344847 0 58
2.9097006 2.4858897 0.98916775 0 59
2.9163775 2.4915941 1.0291655 0 60
2.921097 2.4956262 1.0688069 0 61
2.914856 2.4902942 1.1046125 0 62
2.9298072 2.5030675 1.1487663 0 63
1.8491024 1.6195235 -0.73277903 0 0
1.9202702 1.6818554 -0.73548633 0 1
1.985235 1.7387544 -0.73414963 0 2
2.0582044 1.8026642 -0.73409015 0 3
2.1374466 1.8720678 -0.73440617 0 4
2.2325127 1.9553308 -0.73801863 0 5
2.3115151 2.0245245 -0.73419285 0 6
2.4107959 2.1114788 -0.73463565 0 7
2.5165715 2.2041218 -0.73454964 0 8
2.6315124 2.3047919 -0.73444045 0 9
2.7583961 2.4159222 -0.73470742 0 10
2.8892221 2.5305052 -0.73287624 0 11
2.9153521 2.553391 -0.70262527 0 12
2.9107747 2.549382 -0.66482353 0 13
2.9181499 2.5558414 -0.62983257 0 14
2.9147398 2.5528548 -0.59257323 0 15
2.9177268 2.5554707 -0.5567224 0 16
2.9140279 2.5522313 -0.51970083 0 17
2.9108903 2.5494831 -0.48295394 0 18
2.9167752 2.5546374 -0.44775304 0 19
2.9057162 2.5449514 -0.41009173 0 20
2.9253397 2.5621386 -0.37672535 0 21
2.9193151 2.5568621 -0.33995226 0 22
2.9156704 2.5536697 -0.30363339 0 23
2.9106033 2.5492318 -0.26732528 0 24
2.9197273 2.5572231 -0.23231627 0 25
2.9132531 2.5515525 -0.19607295 0 26
2.9243381 2.5612612 -0.1609883 0 27
2.9140399 2.5522418 -0.12474401 0 28
2.9201508 2.5575938 -0.089274608 0 29
2.9136472 2.5518975 -0.053439438 0 30
2.9150167 2.5530972 -0.017820515 0 31
2.9195738 2.5570884 0.017848372 0 32
2.9181623 2.5558524 0.053522252 0 33
2.920471 2.5578744 0.089284398 0 34
2.9216971 2.5589483 0.12507181 0 35
2.9277923 2.5642867 0.16117845 0 36
2.9151609 2.5532236 0.19620137 0 37
2.9172807 2.5550802 0.2321216 0 38
2.9109263 2.5495148 0.26735494 0 39
2.9178257 2.5555575 0.30385786 0 40
2.9234898 2.5605183 0.3404384 0 41
2.910574 2.549206 0.37482381 0 42
2.9173937 2.5551791 0.4117398 0 43
2.9213331 2.5586295 0.44845271 0 44
2.9166019 2.5544856 0.48390156 0 45
2.9110844 2.5496531 0.51917589 0 46
2.9166458 2.5545242 0.55651617 0 47
2.9188099 2.5564196 0.59340066 0 48
2.9135685 2.5518289 0.62884372 0 49
2.9179258 2.5556452 0.66645682 0 50
2.9256546 2.5624144 0.70510828 0 51
2.9282188 2.5646603 0.74276811 0 52
2.9114318 2.5499573 0.77546889 0 53
2.921499 2.5587747 0.81537414 0 54
2.9281332 2.5645852 0.85467833 0 55
2.9117746 2.5502577 0.88729757 0 56
2.9201593 2.5576012 0.92751294 0 57
2.9176857 2.5554349 0.96452147 0 58
2.9211748 2.5584908 1.0036877 0 59
2.9130728 2.5513947 1.038992 0 60
2.9280186 2.5644848 1.0827956 0 61
2.9282038 2.564647 1.1215369 0 62
2.9198339 2.5573163 1.1570983 0 63
1.8355751 1.6479954 -0.73539335 0 0
1.887159 1.6943079 -0.73072875 0 1
1.9554123 1.7555863 -0.73104888 0 2
2.0304337 1.8229412 -0.73212487 0 3
2.1221228 1.9052604 -0.73713499 0 4
2.2000263 1.9752029 -0.73525286 0 5
2.29024 2.0561974 -0.73541063 0 6
2.387598 2.1436064 -0.73554325 0 7
2.5002618 2.2447569 -0.73779005 0 8
2.5887725 2.3242226 -0.73043323 0 9
2.7298386 2.4508731 -0.73507255 0 10
2.8650539 2.5722704 -0.73471344 0 11
2.9190917 2.6207862 -0.71123964 0 12
2.9121988 2.6145976 -0.67244112 0 13
2.9190979 2.6207917 -0.63694453 0 14
2.9174051 2.619272 -0.59961766 0 15
2.916327 2.618304 -0.56255597 0 16
2.9119234 2.6143503 -0.52501911 0 17
2.9187982 2.6205225 -0.48957521 0 18
2.9131269 2.6154308 -0.45209578 0 19
2.9296851 2.6302969 -0.41800761 0 20
2.9326947 2.6329989 -0.38181311 0 21
2.9313955 2.6318326 -0.34510151 0 22
2.9238219 2.6250329 -0.30782047 0 23
2.9226618 2.6239913 -0.27137575 0 24
2.9134319 2.6157045 -0.23435684 0 25
2.9218516 2.6232641 -0.19880766 0 26
2.9244938 2.6256361 -0.16276196 0 27
2.9159443 2.6179605 -0.12619406 0 28
2.9219613 2.6233623 -0.090309322 0 29
2.9218419 2.6232553 -0.054177266 0 30
2.920753 2.6222775 -0.018051341 0 31
2.934531 2.6346476 0.018136494 0 32
2.9241185 2.6252992 0.054219481 0 33
2.9288011 2.6295033 0.090520725 0 34
2.9260635 2.6270454 0.12663199 0 35
2.909425 2.6121073 0.1619233 0 36
2.9208171 2.6223352 0.19873726 0 37
2.9267294 2.6276433 0.2354265 0 38
2.908639 2.6114016 0.27007368 0 39
2.9100144 2.6126363 0.3063668 0 40
2.9368927 2.6367679 0.34574863 0 41
2.9121592 2.614562 0.37913957 0 42
2.9122458 2.6146398 0.41551939 0 43
2.9190822 2.6207776 0.45301998 0 44
2.9234784 2.6247246 0.49036023 0 45
2.923537 2.6247773 0.52711302 0 46
2.9152789 2.617363 0.56235385 0 47
2.9188929 2.6206076 0.59992343 0 48
2.9177177 2.6195524 0.63664335 0 49
2.922724 2.6240473 0.67487144 0 50
2.912061 2.6144738 0.7095266 0 51
2.9316003 2.6320164 0.7517786 0 52
2.923002 2.6242967 0.78708625 0 53
2.9254811 2.6265225 0.82543695 0 54
2.928072 2.6288488 0.86403048 0 55
2.9158349 2.617862 0.89827627 0 56
2.9187498 2.6204791 0.9372291 0 57
2.9240017 2.6251943 0.97720677 0 58
2.9292135 2.6298735 1.0174838 0 59
2.9265709 2.627501 1.05525 0 60
2.9288414 2.6295393 1.0949744 0 61
2.9247725 2.6258864 1.1325041 0 62
2.9168086 2.6187363 1.1685719 0 63
1.8192328 1.674176 -0.73703802 0 0
1.8811492 1.7311554 -0.7365886 0 1
1.9436181 1.7886434 -0.73480666 0 2
2.0200682 1.8589976 -0.73657399 0 3
2.0945942 1.9275815 -0.73575038 0 4
2.1745827 2.0011919 -0.73491788 0 5
2.2667308 2.0859926 -0.7360425 0 6
2.3570719 2.1691303 -0.73430061 0 7
2.4632878 2.2668772 -0.73504943 0 8
2.5703177 2.3653731 -0.73337734 0 9
2.7050059 2.4893217 -0.73657244 0 10
2.8408873 2.6143689 -0.73670435 0 11
2.9453702 2.7105205 -0.72570837 0 12
2.9261203 2.6928055 -0.68324971 0 13
2.9300992 2.6964674 -0.64653099 0 14
2.9325602 2.6987321 -0.60950696 0 15
2.9275887 2.6941569 -0.57107568 0 16
2.9283214 2.6948311 -0.53390986 0 17
2.9266992 2.6933384 -0.49641794 0 18
2.9274113 2.6939938 -0.45941889 0 19
2.9258111 2.6925211 -0.42214689 0 20
2.9168379 2.6842635 -0.3840169 0 21
2.9282882 2.6948009 -0.34861037 0 22
2.9138739 2.6815357 -0.31022114 0 23
2.9354804 2.7014194 -0.27562949 0 24
2.9401886 2.7057524 -0.23916742 0 25
2.9263923 2.6930559 -0.20135459 0 26
2.9359179 2.7018218 -0.16523427 0 27
2.9230893 2.6900163 -0.12792511 0 28
2.9248309 2.6916189 -0.091414049 0 29
2.9331095 2.6992376 -0.05499747 0 30
2.9239876 2.6908431 -0.018274447 0 31
2.9243941 2.6912169 0.018276986 0 32
2.9173191 2.6847062 0.054701392 0 33
2.9290314 2.6954846 0.091545328 0 34
2.9240124 2.6908658 0.12796551 0 35
2.9305358 2.6968689 0.16493136 0 36
2.9221539 2.6891556 0.20106296 0 37
2.9317887 2.6980219 0.23848413 0 38
2.9367568 2.702594 0.27574936 0 39
2.9277303 2.6942873 0.31169635 0 40
2.9273727 2.6939583 0.34850138 0 41
2.928211 2.6947296 0.38551423 0 42
2.9264698 2.6931274 0.42224196 0 43
2.9294906 2.6959071 0.45974517 0 44
2.9357269 2.7016461 0.49794918 0 45
2.9340096 2.7000659 0.53494698 0 46
2.9214768 2.6885324 0.56988347 0 47
2.9249945 2.6917694 0.60793447 0 48
2.9286456 2.6951296 0.64621025 0 49
2.932019 2.6982341 0.68462706 0 50
2.9170959 2.6845007 0.71874189 0 51
2.92838 2.6948853 0.75939316 0 52
2.917064 2.6844714 0.79431587 0 53
2.9206235 2.6877472 0.83332855 0 54
2.9226687 2.6896293 0.87212944 0 55
2.9231124 2.6900375 0.91063964 0 56
2.9232323 2.6901479 0.94921869 0 57
2.9317901 2.6980233 0.99082226 0 58
2.922195 2.6891932 1.0264547 0 59
2.9241953 2.6910341 1.0662444 0 60
2.920063 2.6872313 1.1039627 0 61
2.9282632 2.6947777 1.1465998 0 62
2.9195247 2.6867361 1.1828066 0 63
1.7947935 1.6929119 -0.73551476 0 0
1.8608506 1.7552193 -0.73703581 0 1
1.9132602 1.804654 -0.73166376 0 2
1.9978328 1.8844258 -0.73685974 0 3
2.0697563 1.9522665 -0.73540246 0 4
2.155925 2.0335438 -0.73700738 0 5
2.2433331 2.1159902 -0.73683798 0 6
2.3384326 2.2056913 -0.73688763 0 7
2.4434457 2.3047435 -0.73752946 0 8
2.5333762 2.389569 -0.73116547 0 9
2.6685028 2.5170252 -0.73500496 0 10
2.8028829 2.6437771 -0.73522371 0 11
2.9271641 2.7610035 -0.72953248 0 12
2.9280784 2.7618661 -0.69158465 0 13
2.9326115 2.7661419 -0.65454108 0 14
2.9272375 2.7610729 -0.61541069 0 15
2.9222882 2.7564044 -0.57660973 0 16
2.9299004 2.7635844 -0.54035276 0 17
2.9282105 2.7619905 -0.502397 0 18
2.9268603 2.7607172 -0.46462485 0 19
2.9344261 2.7678533 -0.42826819 0 20
2.9275842 2.7613997 -0.38987264 0 21
2.9352052 2.7685883 -0.35345998 0 22
2.9324584 2.7659972 -0.31579685 0 23
2.921706 2.7558553 -0.27749705 0 24
2.9255302 2.7594624 -0.24071699 0 25
2.9294708 2.7631793 -0.20388885 0 26
2.933934 2.7673891 -0.16702515 0 27
2.9300878 2.7637613 -0.12970887 0 28
2.9234023 2.7574553 -0.092422158 0 29
2.9418905 2.774894 -0.055797696 0 30
2.9388363 2.7720132 -0.018578876 0 31
2.935694 2.7690492 0.018559009 0 32
2.9236305 2.7576706 0.055451367 0 33
2.9201651 2.7544019 0.092319816 0 34
2.920696 2.7549026 0.12929311 0 35
2.9332595 2.766753 0.16698676 0 36
2.9256759 2.7595999 0.20362474 0 37
2.9372113 2.7704804 0.24167812 0 38
2.9246674 2.7586484 0.2777783 0 39
2.9220052 2.7561376 0.31467116 0 40
2.9315102 2.7651031 0.35301504 0 41
2.9312012 2.7648115 0.39035437 0 42
2.9275768 2.7613928 0.42726856 0 43
2.9343121 2.7677457 0.46580777 0 44
2.9277422 2.7615488 0.50231665 0 45
2.9301293 2.7638004 0.54039502 0 46
2.924118 2.7581303 0.57697082 0 47
2.9338779 2.7673361 0.61680669 0 48
2.9278319 2.7616334 0.65347427 0 49
2.9335155 2.7669945 0.69286883 0 50
2.9291868 2.7629113 0.73003662 0 51
2.9260621 2.759964 0.76753485 0 52
2.9256804 2.759604 0.80584121 0 53
2.9262567 2.7601476 0.84455591 0 54
2.9177761 2.7521484 0.8807013 0 55
2.9273627 2.7611907 0.9224714 0 56
2.9228575 2.7569416 0.96003252 0 57
2.9315753 2.7651644 1.0021651 0 58
2.9290447 2.7627773 1.0407152 0 59
2.9298997 2.7635839 1.0806336 0 60
2.9337645 2.7672291 1.1219221 0 61
2.9320459 2.7656081 1.1613091 0 62
2.9356606 2.7690177 1.2030474 0 63
1.783729 1.7244096 -0.73961413 0 0
1.8270446 1.7662847 -0.73219311 0 1
1.8986388 1.8354981 -0.73464799 0 2
1.9571582 1.8920712 -0.73038369 0 3
2.0384531 1.9706627 -0.73283476 0 4
2.1236744 2.0530498 -0.73455709 0 5
2.2136805 2.1400628 -0.7356863 0 6
2.2914133 2.2152104 -0.73059928 0 7
2.3999927 2.320179 -0.7329697 0 8
2.5118227 2.4282901 -0.73350722 0 9
2.6349065 2.5472806 -0.7343232 0 10
2.7725794 2.6803749 -0.7358647 0 11
2.9172571 2.8202415 -0.73565084 0 12
2.9323809 2.8348622 -0.70078117 0 13
2.9433713 2.8454871 -0.6647017 0 14
2.9367442 2.8390803 -0.62470156 0 15
2.9343724 2.8367875 -0.58583266 0 16
2.9354675 2.8378463 -0.54777378 0 17
2.9269578 2.8296196 -0.50811338 0 18
2.9337304 2.8361666 -0.47121599 0 19
2.9354513 2.8378303 -0.43347788 0 20
2.9258976 2.8285944 -0.39425018 0 21
2.9300041 2.8325644 -0.35700101 0 22
2.9308317 2.8333645 -0.31934953 0 23
2.9378393 2.8401389 -0.28232497 0 24
2.934531 2.8369408 -0.24430947 0 25
2.9310749 2.8335996 -0.20640996 0 26
2.9221511 2.8249726 -0.1683192 0 27
2.9391384 2.8413949 -0.13164626 0 28
2.9382892 2.840574 -0.093989961 0 29
2.9346375 2.8370438 -0.056317538 0 30
2.9350791 2.8374708 -0.018774278 0 31
2.9309447 2.8334737 0.018747833 0 32
2.9257469 2.828449 0.056146923 0 33
2.9349763 2.8373713 0.093883991 0 34
2.9351673 2.8375559 0.13146839 0 35
2.9288881 2.8314855 0.16870725 0 36
2.9329486 2.8354111 0.20654191 0 37
2.9255495 2.8282578 0.24356171 0 38
2.932086 2.8345771 0.28177211 0 39
2.9283266 2.8309429 0.31907657 0 40
2.9345565 2.8369653 0.35755566 0 41
2.9383495 2.8406322 0.39592803 0 42
2.9365971 2.8389382 0.4336471 0 43
2.9312041 2.8337245 0.47081023 0 44
2.9410422 2.8432355 0.51055837 0 45
2.9326127 2.8350863 0.54724103 0 46
2.9325898 2.8350642 0.58547676 0 47
2.9323459 2.8348284 0.62376595 0 48
2.9302239 2.832777 0.66173267 0 49
2.9282618 2.8308799 0.69979674 0 50
2.939712 2.8419495 0.74131328 0 51
2.9356658 2.8380377 0.77914912 0 52
2.9291372 2.8317263 0.81632245 0 53
2.936352 2.8387012 0.8574791 0 54
2.9372544 2.8395736 0.89705211 0 55
2.9373004 2.8396182 0.93653536 0 56
2.9406383 2.842845 0.97728062 0 57
2.9366941 2.8390319 1.0157722 0 58
2.9375534 2.8398626 1.056066 0 59
2.9347515 2.8371539 1.0952076 0 60
2.9362226 2.8385761 1.1361244 0 61
2.9464388 2.8484526 1.1807934 0 62
2.937309 2.8396263 1.2179402 0 63
1.7585253 1.7423804 -0.73799157 0 0
1.8166763 1.7999974 -0.73685241 0 1
1.8762875 1.8590614 -0.73478919 0 2
1.9392552 1.9214511 -0.73246449 0 3
2.0265195 2.0079141 -0.73736507 0 4
2.1046932 2.0853701 -0.73680556 0 5
2.1798224 2.1598096 -0.73320478 0 6
2.2871799 2.2661815 -0.73807859 0 7
2.3702159 2.3484552 -0.73263973 0 8
2.4819643 2.4591777 -0.73356301 0 9
2.592937 2.5691314 -0.73137558 0 10
2.7286961 2.703644 -0.73298585 0 11
2.8742666 2.8478782 -0.73358512 0 12
2.9313543 2.9044418 -0.70901728 0 13
2.9329233 2.9059963 -0.67036134 0 14
2.9430368 2.9160168 -0.63361961 0 15
2.93769 2.9107194 -0.59359574 0 16
2.9419482 2.9149382 -0.55562967 0 17
2.9370317 2.9100671 -0.51603508 0 18
2.9341481 2.9072099 -0.47698894 0 19
2.9250293 2.8981748 -0.43716836 0 20
2.9376247 2.9106545 -0.40062273 0 21
2.9346962 2.907753 -0.36190185 0 22
2.9318137 2.904897 -0.3233242 0 23
2.9345767 2.9076345 -0.28542578 0 24
2.9452083 2.9181685 -0.24816701 0 25
2.9462445 2.9191952 -0.20999017 0 26
2.9321349 2.9052153 -0.17093909 0 27
2.9357383 2.9087853 -0.13308597 0 28
2.9244397 2.8975906 -0.094679527 0 29
2.9311018 2.9041915 -0.056930706 0 30
2.9436824 2.9166567 -0.019057278 0 31
2.92835 2.9014649 0.018958015 0 32
2.9391389 2.9121549 0.057086807 0 33
2.9357107 2.9087579 0.095044419 0 34
2.9409144 2.913914 0.13332061 0 35
2.9384048 2.9114273 0.17130461 0 36
2.9380417 2.9110675 0.20940553 0 37
2.9331002 2.9061716 0.24714676 0 38
2.9309001 2.9039917 0.28506818 0 39
2.9347844 2.9078403 0.32365179 0 40
2.9389515 2.9119689 0.36242661 0 41
2.9319265 2.9050086 0.3998456 0 42
2.9350667 2.9081199 0.43866855 0 43
2.9374084 2.9104402 0.47751898 0 44
2.934922 2.9079766 0.5156644 0 45
2.9426956 2.915679 0.55577081 0 46
2.9275379 2.9006603 0.59154439 0 47
2.9396346 2.9126458 0.63288713 0 48
2.9290912 2.9021995 0.66948545 0 49
2.9440229 2.9169941 0.71208143 0 50
2.9357209 2.9087684 0.74926984 0 51
2.9461613 2.9191127 0.79140162 0 52
2.9442704 2.9172392 0.83047426 0 53
2.9327362 2.9058111 0.86679196 0 54
2.9307034 2.9037967 0.90588778 0 55
2.9374197 2.9104514 0.94791251 0 56
2.9319735 2.905055 0.98619813 0 57
2.933399 2.9064677 1.0269167 0 58
2.9361928 2.9092357 1.0683569 0 59
2.9275787 2.9007008 1.1057582 0 60
2.9324689 2.9055459 1.1484095 0 61
2.9405386 2.9135418 1.1926962 0 62
2.9364827 2.909523 1.2323391 0 63
1.7303249 1.7571237 -0.73516876 0 0
1.7852675 1.8129174 -0.73309934 0 1
1.8587888 1.8875774 -0.73697037 0 2
1.9175622 1.9472611 -0.73325944 0 3
1.9912271 2.0220668 -0.73351526 0 4
2.069684 2.1017387 -0.73354149 0 5
2.1645923 2.198117 -0.73711765 0 6
2.2596037 2.2946002 -0.7382291 0 7
2.3521459 2.3885756 -0.73607731 0 8
2.4477873 2.485698 -0.73244011 0 9
2.5820942 2.6220851 -0.73735589 0 10
2.6986964 2.7404933 -0.73392391 0 11
2.8334363 2.8773201 -0.73213893 0 12
2.946346 2.9919784 -0.72148752 0 13
2.9328487 2.9782722 -0.67866349 0 14
2.9417183 2.9872792 -0.64119571 0 15
2.9443972 2.9899995 -0.60233456 0 16
2.9438879 2.9894824 -0.56289613 0 17
2.9398592 2.9853911 -0.52294225 0 18
2.9361038 2.9815776 -0.48323044 0 19
2.9420109 2.9875762 -0.44516334 0 20
2.9508939 2.9965968 -0.40742666 0 21
2.9376957 2.9831941 -0.36676767 0 22
2.941061 2.9866116 -0.32836923 0 23
