# .PCD v0.7 - Point Cloud Data file format
VERSION 0.7
FIELDS x y z intensity ring
SIZE 4 4 4 4 2
TYPE F F F F U
COUNT 1 1 1 1 1
WIDTH 1287
HEIGHT 1
VIEWPOINT 0 0 0 1 0 0 0
POINTS 1287
DATA ascii
2.4922659 -1.7827921 0.67283392 0 55
2.4865365 -1.7786937 0.70082253 0 56
2.4795377 -1.7736871 0.72842658 0 57
2.4887571 -1.7802821 0.76095247 0 58
2.4831405 -1.7762643 0.78912169 0 59
2.4807446 -1.7745504 0.81836027 0 60
2.4875965 -1.7794518 0.85085237 0 61
2.4804616 -1.774348 0.87871164 0 62
2.4967985 -1.7860343 0.91516036 0 63
2.019006 -1.407052 -0.73363632 0 0
2.087688 -1.4549167 -0.73317719 0 1
2.1776412 -1.5176053 -0.73839724 0 2
2.2493484 -1.5675783 -0.7356118 0 3
2.3387673 -1.6298947 -0.73681623 0 4
2.437695 -1.6988379 -0.73889691 0 5
2.4929197 -1.7373241 -0.72602713 0 6
2.4762111 -1.7256798 -0.69187927 0 7
2.4835682 -1.7308071 -0.66468984 0 8
2.486989 -1.7331909 -0.63643801 0 9
2.4879081 -1.7338315 -0.60760766 0 10
2.4910769 -1.7360398 -0.57938594 0 11
2.5068481 -1.7470309 -0.55397719 0 12
2.5024137 -1.7439406 -0.52406842 0 13
2.4880843 -1.7339542 -0.49239507 0 14
2.4859886 -1.7324938 -0.4634175 0 15
2.4967904 -1.7400216 -0.4368248 0 16
2.480257 -1.7284993 -0.40559021 0 17
2.4803784 -1.7285839 -0.37733656 0 18
2.4920857 -1.7367427 -0.35077581 0 19
2.4915452 -1.7363662 -0.32242423 0 20
2.4881132 -1.7339743 -0.29379863 0 21
2.5059569 -1.7464098 -0.26757261 0 22
2.4884505 -1.7342095 -0.23761357 0 23
2.4917488 -1.7365081 -0.20984198 0 24
2.5019999 -1.7436521 -0.18253902 0 25
2.4976399 -1.7406136 -0.15413471 0 26
2.4733694 -1.7236993 -0.12484949 0 27
2.5058193 -1.7463138 -0.098356947 0 28
2.4866753 -1.7329723 -0.069706433 0 29
2.4963844 -1.7397387 -0.041982424 0 30
2.5036373 -1.7447932 -0.014034008 0 31
2.4944482 -1.7383894 0.013982499 0 32
2.4972074 -1.7403121 0.041996263 0 33
2.4847484 -1.7316294 0.069652416 0 34
2.4884746 -1.7342263 0.097676151 0 35
2.4937105 -1.7378751 0.12587626 0 36
2.4918284 -1.7365636 0.15377606 0 37
2.4912202 -1.7361398 0.18175258 0 38
2.4867961 -1.7330565 0.2094249 0 39
2.4833992 -1.730689 0.23713122 0 40
2.4988437 -1.7414525 0.2668131 0 41
2.4841387 -1.7312045 0.29332933 0 42
2.4867029 -1.7329916 0.32179761 0 43
2.4931569 -1.7374895 0.35092661 0 44
2.4984875 -1.7412043 0.38009152 0 45
2.5050671 -1.7457896 0.40964738 0 46
2.4933863 -1.7376492 0.43622923 0 47
2.4864058 -1.7327845 0.46349531 0 48
2.4917965 -1.7365412 0.4931297 0 49
2.490437 -1.7355939 0.52156019 0 50
2.481163 -1.7291307 0.5483011 0 51
2.4964721 -1.7397997 0.58064079 0 52
2.4818943 -1.7296404 0.60613889 0 53
2.4925816 -1.7370884 0.63786924 0 54
2.4864433 -1.7328105 0.66545928 0 55
2.4919508 -1.7366488 0.69627714 0 56
2.4985201 -1.741227 0.72765815 0 57
2.4956477 -1.7392251 0.75646311 0 58
2.4924982 -1.7370303 0.78524834 0 59
2.4849191 -1.7317483 0.81265128 0 60
2.4964204 -1.7397637 0.84648931 0 61
2.4904387 -1.735595 0.87461954 0 62
2.502744 -1.7441705 0.9094097 0 63
2.050087 -1.3915784 -0.7386564 0 0
2.112998 -1.4342819 -0.73581642 0 1
2.188592 -1.4855944 -0.73586065 0 2
2.2649238 -1.5374075 -0.73446751 0 3
2.3497963 -1.5950183 -0.73405635 0 4
2.4440196 -1.6589761 -0.73457509 0 5
2.4875987 -1.688557 -0.7183761 0 6
2.4990628 -1.6963388 -0.69238371 0 7
2.490114 -1.6902645 -0.66082913 0 8
2.4834809 -1.685762 -0.63018799 0 9
2.4936965 -1.6926962 -0.60389227 0 10
2.4942389 -1.6930643 -0.57523572 0 11
2.4850986 -1.6868601 -0.54454595 0 12
2.492326 -1.691766 -0.51756006 0 13
2.5018065 -1.6982012 -0.49094105 0 14
2.4848464 -1.6866889 -0.45930365 0 15
2.4936209 -1.6926448 -0.43259612 0 16
2.480758 -1.6839136 -0.40225568 0 17
2.4899776 -1.6901718 -0.37560678 0 18
2.490603 -1.6905965 -0.34761477 0 19
2.4865701 -1.6878589 -0.31907049 0 20
2.4890473 -1.6895404 -0.29143372 0 21
2.4930582 -1.692263 -0.26395354 0 22
2.4842231 -1.6862658 -0.23521219 0 23
2.4854341 -1.6870878 -0.20754744 0 24
2.4942653 -1.6930825 -0.1804422 0 25
2.4833205 -1.6856532 -0.15196039 0 26
2.4939382 -1.6928604 -0.12482758 0 27
2.5081284 -1.7024925 -0.097618498 0 28
2.4854178 -1.6870768 -0.069084436 0 29
2.4924359 -1.6918405 -0.041563015 0 30
2.4965279 -1.6946182 -0.013876301 0 31
2.504452 -1.6999969 0.013920345 0 32
2.4930007 -1.692224 0.041572437 0 33
2.4973028 -1.6951442 0.069414787 0 34
2.4975119 -1.6952862 0.097205296 0 35
2.4998035 -1.6968417 0.12512115 0 36
2.4861195 -1.687553 0.15213166 0 37
2.4962392 -1.6944222 0.180585 0 38
2.492079 -1.6915983 0.20810233 0 39
2.4959123 -1.6942003 0.23631896 0 40
2.49979 -1.6968324 0.26466626 0 41
2.4888721 -1.6894214 0.29141322 0 42
2.4901776 -1.6903076 0.31953338 0 43
2.499747 -1.6968032 0.34889099 0 44
2.4940062 -1.6929065 0.3762145 0 45
2.4863844 -1.6877328 0.40316802 0 46
2.5024297 -1.6986243 0.43412429 0 47
2.4804196 -1.683684 0.45848536 0 48
2.4924996 -1.6918838 0.4891147 0 49
2.4881909 -1.6889591 0.51670134 0 50
2.494662 -1.6933516 0.54664147 0 51
2.4858842 -1.6873934 0.573309 0 52
2.497545 -1.6953086 0.60482424 0 53
2.4832854 -1.6856292 0.63013834 0 54
2.4941528 -1.693006 0.661901 0 55
2.4921908 -1.6916742 0.69047976 0 56
2.486907 -1.6880876 0.71817636 0 57
2.4773803 -1.681621 0.74460196 0 58
2.4918575 -1.6914479 0.77843505 0 59
2.4826574 -1.6852031 0.80507404 0 60
2.4860656 -1.6875166 0.83587891 0 61
2.4884813 -1.6891562 0.86657214 0 62
2.4992311 -1.6964532 0.90048534 0 63
2.0430439 -1.3504041 -0.73008066 0 0
2.1256735 -1.4050204 -0.73415858 0 1
2.202961 -1.4561056 -0.73461622 0 2
2.2893345 -1.5131965 -0.73629391 0 3
2.375916 -1.5704247 -0.73612773 0 4
2.4625232 -1.6276702 -0.73406547 0 5
2.4889295 -1.6451241 -0.7128647 0 6
2.5029356 -1.6543819 -0.68776858 0 7
2.496419 -1.6500744 -0.65706807 0 8
2.4859879 -1.6431798 -0.62564975 0 9
2.492172 -1.6472673 -0.59857261 0 10
2.4882081 -1.6446471 -0.56913781 0 11
2.4954329 -1.6494226 -0.54232514 0 12
2.4920733 -1.647202 -0.51326263 0 13
2.4882448 -1.6446714 -0.48427457 0 14
2.4935584 -1.6481836 -0.45713326 0 15
2.4913752 -1.6467406 -0.42866132 0 16
2.4901853 -1.645954 -0.40047225 0 17
2.5045052 -1.6554191 -0.37469929 0 18
2.4961469 -1.6498945 -0.34553081 0 19
2.5023224 -1.6539766 -0.31845799 0 20
2.5015812 -1.6534865 -0.2904987 0 21
2.4886127 -1.6449146 -0.2613216 0 22
2.497154 -1.6505601 -0.2344971 0 23
2.493176 -1.6479309 -0.2064862 0 24
2.4878733 -1.644426 -0.17850347 0 25
2.496161 -1.6499039 -0.15149321 0 26
2.4897108 -1.6456404 -0.1235938 0 27
2.4993887 -1.6520374 -0.096480399 0 28
2.4961371 -1.6498882 -0.068813264 0 29
2.4871342 -1.6439375 -0.041134406 0 30
2.4898326 -1.645721 -0.01372557 0 31
2.4939606 -1.6484495 0.013748326 0 32
2.5048666 -1.6556581 0.041427679 0 33
2.5027695 -1.6542718 0.068996102 0 34
2.4869759 -1.6438328 0.096001245 0 35
2.4832809 -1.6413904 0.12327461 0 36
2.4963799 -1.6500485 0.15150648 0 37
2.4815979 -1.6402781 0.17805322 0 38
2.4907691 -1.6463399 0.20628685 0 39
2.4895811 -1.6455548 0.23378599 0 40
2.4929676 -1.6477932 0.26177892 0 41
2.4883456 -1.6447381 0.28896171 0 42
2.5002673 -1.6526181 0.31819645 0 43
2.4865203 -1.6435316 0.34419826 0 44
2.5017788 -1.6536171 0.37429142 0 45
2.4950428 -1.6491648 0.40125343 0 46
2.4971724 -1.6505724 0.42965877 0 47
2.5061646 -1.6565161 0.45944431 0 48
2.4900041 -1.6458342 0.48461697 0 49
2.5251162 -1.6690426 0.52006811 0 50
2.5027242 -1.6542419 0.54390967 0 51
2.493499 -1.6481445 0.57034808 0 52
2.4943593 -1.6487129 0.59909797 0 53
2.5000079 -1.6524466 0.62917811 0 54
2.5024602 -1.6540675 0.65865815 0 55
2.4841053 -1.6419355 0.6825943 0 56
2.4981198 -1.6511986 0.71549696 0 57
2.4935122 -1.6481529 0.74330306 0 58
2.4887676 -1.645017 0.77109247 0 59
2.4977539 -1.6509566 0.80332553 0 60
2.4958625 -1.6497066 0.8322894 0 61
2.4891832 -1.6452916 0.8597064 0 62
2.5005052 -1.6527753 0.89355421 0 63
2.0766382 -1.3362136 -0.73615843 0 0
2.1349785 -1.3737527 -0.7314828 0 1
2.214457 -1.424893 -0.73255163 0 2
2.2908857 -1.4740711 -0.73090786 0 3
2.3763447 -1.5290596 -0.73037994 0 4
2.4756546 -1.5929608 -0.73208547 0 5
2.4941037 -1.6048318 -0.70864099 0 6
2.4864552 -1.5999103 -0.67778277 0 7
2.486521 -1.5999527 -0.64923561 0 8
2.4934573 -1.6044159 -0.62251735 0 9
2.5048618 -1.6117541 -0.59681523 0 10
2.4921782 -1.6035928 -0.56549287 0 11
2.4929132 -1.6040659 -0.53745025 0 12
2.4921672 -1.6035858 -0.50918233 0 13
2.4964781 -1.6063596 -0.48199621 0 14
2.4973617 -1.6069282 -0.45417374 0 15
2.4945176 -1.6050981 -0.42577386 0 16
2.489547 -1.6018999 -0.3971718 0 17
2.5103815 -1.6153058 -0.37257865 0 18
2.4965308 -1.6063935 -0.34282371 0 19
2.4897075 -1.602003 -0.31432179 0 20
2.4946194 -1.6051636 -0.28737646 0 21
2.5099189 -1.6150081 -0.26145381 0 22
2.4855297 -1.5993149 -0.23154128 0 23
2.4886603 -1.6013293 -0.20446596 0 24
2.499023 -1.6079972 -0.17787133 0 25
2.4898925 -1.6021222 -0.1499058 0 26
2.4869628 -1.600237 -0.12247131 0 27
2.50895 -1.6143847 -0.096075922 0 28
2.5096669 -1.614846 -0.068633653 0 29
2.4929006 -1.6040577 -0.040900465 0 30
2.4841712 -1.5984406 -0.013584981 0 31
2.4965072 -1.6063783 0.013652442 0 32
2.4889998 -1.6015477 0.040836465 0 33
2.4985662 -1.6077031 0.068330072 0 34
2.4966922 -1.6064974 0.095606536 0 35
2.4983511 -1.6075648 0.12303213 0 36
2.4953918 -1.6056607 0.15023689 0 37
2.5033422 -1.6107762 0.17817873 0 38
2.4897394 -1.6020236 0.2045546 0 39
2.499121 -1.6080602 0.2328074 0 40
2.4948506 -1.6053123 0.25988418 0 41
2.5035999 -1.6109421 0.28841099 0 42
2.4922421 -1.603634 0.3146418 0 43
2.5131178 -1.6170665 0.34510145 0 44
2.503269 -1.6107292 0.37152305 0 45
2.4878912 -1.6008344 0.3969076 0 46
2.4916728 -1.6032676 0.42528829 0 47
2.4863465 -1.5998404 0.45217049 0 48
2.4967411 -1.6065288 0.48204696 0 49
2.4912193 -1.6029758 0.50898862 0 50
2.4963305 -1.6062646 0.53818697 0 51
2.4950078 -1.6054134 0.56613493 0 52
2.4988639 -1.6078948 0.59538615 0 53
2.504823 -1.6117291 0.62535495 0 54
2.500638 -1.6090363 0.65292162 0 55
2.4987876 -1.6078458 0.68114454 0 56
2.4973571 -1.6069252 0.70956546 0 57
2.5031915 -1.6106794 0.74022853 0 58
2.5024247 -1.610186 0.76913124 0 59
2.5108385 -1.6155999 0.80108392 0 60
2.4937377 -1.6045964 0.82493889 0 61
2.4937232 -1.6045871 0.85439533 0 62
2.5059872 -1.6124783 0.88836062 0 63
2.0909238 -1.3093349 -0.73545951 0 0
2.1606147 -1.3529754 -0.7345106 0 1
2.237339 -1.4010201 -0.73436666 0 2
2.3186119 -1.451913 -0.73400229 0 3
2.4110274 -1.5097836 -0.73527825 0 4
2.505904 -1.5691952 -0.73526907 0 5
2.5038924 -1.5679356 -0.70589095 0 6
2.4874804 -1.5576583 -0.67279029 0 7
2.4884121 -1.5582418 -0.6446777 0 8
2.4994621 -1.5651612 -0.61916471 0 9
2.4944046 -1.5619943 -0.58970279 0 10
2.5060539 -1.5692891 -0.56422019 0 11
2.503696 -1.5678126 -0.53557813 0 12
2.507488 -1.5701871 -0.50832933 0 13
2.490495 -1.5595461 -0.47710249 0 14
2.4982409 -1.5643966 -0.45080116 0 15
2.5037713 -1.5678598 -0.42403063 0 16
2.4948401 -1.5622669 -0.3949216 0 17
2.4890411 -1.5586356 -0.36653921 0 18
2.500139 -1.5655851 -0.34064987 0 19
2.4889238 -1.5585622 -0.31177974 0 20
2.5012426 -1.5662763 -0.28589916 0 21
2.5044553 -1.568288 -0.2588563 0 22
2.4959393 -1.5629554 -0.2307032 0 23
2.4961255 -1.5630718 -0.20348477 0 24
2.49564 -1.562768 -0.17624946 0 25
2.5019236 -1.5667026 -0.14945897 0 26
2.4986379 -1.5646452 -0.12208956 0 27
2.4971261 -1.5636985 -0.094879679 0 28
2.4972563 -1.5637801 -0.067763261 0 29
2.4978569 -1.5641561 -0.040663145 0 30
2.5170014 -1.5761443 -0.013657497 0 31
2.5053144 -1.568826 0.013594083 0 32
2.4901512 -1.5593308 0.040537704 0 33
2.4917314 -1.5603204 0.067613341 0 34
2.4948168 -1.5622524 0.094791934 0 35
2.498085 -1.564299 0.12206255 0 36
2.4963117 -1.5631886 0.14912374 0 37
2.5019846 -1.566741 0.17669752 0 38
2.5209994 -1.578648 0.20551251 0 39
2.5050554 -1.5686638 0.23154582 0 40
2.4969153 -1.5635666 0.258077 0 41
2.5158532 -1.5754253 0.28756917 0 42
2.4963734 -1.5632271 0.31271294 0 43
2.5024977 -1.5670621 0.34097123 0 44
2.5158808 -1.5754427 0.37049168 0 45
2.5120561 -1.5730478 0.39764684 0 46
2.4976001 -1.5639952 0.42298549 0 47
2.4968684 -1.5635371 0.45055351 0 48
2.4966397 -1.563394 0.47827962 0 49
2.5025892 -1.5671195 0.5073362 0 50
2.4778459 -1.5516253 0.53004843 0 51
2.4938519 -1.5616481 0.56147301 0 52
2.4995413 -1.5652108 0.59091711 0 53
2.5010631 -1.5661639 0.61956137 0 54
2.4963102 -1.5631875 0.64672387 0 55
2.4941072 -1.5618081 0.67458272 0 56
2.5011752 -1.5662341 0.70512491 0 57
2.5004845 -1.5658014 0.73367888 0 58
2.5082731 -1.5706788 0.76493478 0 59
2.5084364 -1.5707811 0.79409504 0 60
2.5049188 -1.5685782 0.82219487 0 61
2.5105276 -1.5720905 0.85346508 0 62
2.5053303 -1.568836 0.88122255 0 63
2.1075029 -1.2839158 -0.73568231 0 0
2.1897032 -1.3339931 -0.73876715 0 1
2.2442458 -1.3672211 -0.73106021 0 2
2.3372538 -1.4238826 -0.7343055 0 3
2.4133492 -1.4702408 -0.73041767 0 4
2.5069921 -1.5272892 -0.73002273 0 5
2.4924378 -1.5184225 -0.6973452 0 6
2.5027053 -1.5246776 -0.67178655 0 7
2.5031393 -1.524942 -0.64358652 0 8
2.4880514 -1.5157504 -0.61167479 0 9
2.5086398 -1.528293 -0.58858085 0 10
2.5015981 -1.5240031 -0.55895561 0 11
2.4917114 -1.5179801 -0.52898157 0 12
2.4920015 -1.5181568 -0.50136745 0 13
2.5065241 -1.5270041 -0.47654009 0 14
2.50776 -1.5277572 -0.44909504 0 15
2.5127125 -1.5307742 -0.42232516 0 16
2.4866815 -1.5149157 -0.39065185 0 17
2.5005057 -1.5233377 -0.36544144 0 18
2.4918957 -1.5180924 -0.33695778 0 19
2.5094304 -1.5287746 -0.31197011 0 20
2.5012372 -1.5237832 -0.28373536 0 21
2.4953692 -1.5202085 -0.25596571 0 22
2.5003848 -1.5232639 -0.22936545 0 23
2.5075665 -1.5276392 -0.20287079 0 24
2.5020618 -1.5242857 -0.175366 0 25
2.5064657 -1.5269685 -0.14859742 0 26
2.4825029 -1.5123701 -0.12038338 0 27
2.4961679 -1.520695 -0.094125666 0 28
2.4994335 -1.5226845 -0.067309186 0 29
2.4908872 -1.5174779 -0.040242877 0 30
2.4901917 -1.5170542 -0.013409791 0 31
2.495785 -1.5204617 0.01343991 0 32
2.5067503 -1.5271419 0.040499166 0 33
2.4867575 -1.5149622 0.066967823 0 34
2.4912295 -1.5176865 0.093939446 0 35
2.4932041 -1.5188893 0.12090231 0 36
2.4986794 -1.522225 0.14813581 0 37
2.5075033 -1.5276006 0.17574739 0 38
2.5140464 -1.5315868 0.20339504 0 39
2.496598 -1.5209571 0.22901811 0 40
2.4980166 -1.5218213 0.25623727 0 41
2.4992328 -1.5225621 0.283508 0 42
2.4973907 -1.5214399 0.31047335 0 43
2.4967084 -1.5210243 0.33760858 0 44
2.4990895 -1.5224749 0.36523443 0 45
2.5003629 -1.5232507 0.3928012 0 46
2.4996843 -1.5228373 0.42013544 0 47
2.5068915 -1.5272279 0.44893947 0 48
2.4981706 -1.5219151 0.47495192 0 49
2.4987636 -1.5222763 0.50272787 0 50
2.5120633 -1.5303786 0.53330219 0 51
2.4989252 -1.5223747 0.55835837 0 52
2.4950068 -1.5199876 0.58538228 0 53
2.4948423 -1.5198874 0.61334431 0 54
2.4936006 -1.5191309 0.64113396 0 55
2.5091441 -1.5286003 0.6735149 0 56
2.5011592 -1.5237356 0.69978529 0 57
2.4990823 -1.5224705 0.72771943 0 58
2.5036688 -1.5252646 0.75775355 0 59
2.5044646 -1.5257496 0.78683895 0 60
2.4928718 -1.518687 0.81204981 0 61
2.4955337 -1.5203086 0.84194893 0 62
2.4953849 -1.520218 0.87108332 0 63
2.1159768 -1.2536676 -0.73320365 0 0
2.2019944 -1.3046311 -0.73744577 0 1
2.2655482 -1.3422852 -0.73256737 0 2
2.3596649 -1.3980472 -0.73588991 0 3
2.4370964 -1.4439236 -0.73217589 0 4
2.5063391 -1.4849484 -0.72446072 0 5
2.498466 -1.4802836 -0.69388664 0 6
2.4995995 -1.4809552 -0.66601437 0 7
2.501544 -1.4821073 -0.63844222 0 8
2.4964435 -1.4790854 -0.60922056 0 9
2.494514 -1.4779422 -0.58095884 0 10
2.5052009 -1.4842739 -0.55564052 0 11
2.5053666 -1.4843721 -0.52796566 0 12
2.4988098 -1.4804873 -0.49903685 0 13
2.4919794 -1.4764404 -0.47028765 0 14
2.501883 -1.4823081 -0.44474477 0 15
2.4955885 -1.4785789 -0.41635972 0 16
2.4996493 -1.4809847 -0.3897987 0 17
2.5046041 -1.4839203 -0.36334619 0 18
2.4964659 -1.4790987 -0.33509108 0 19
2.4994309 -1.4808553 -0.30843991 0 20
2.5000408 -1.4812168 -0.28151226 0 21
2.495657 -1.4786193 -0.25411099 0 22
2.5099089 -1.4870634 -0.22854447 0 23
2.4946048 -1.477996 -0.20033665 0 24
2.5018735 -1.4823024 -0.17406213 0 25
2.5050707 -1.4841968 -0.1474216 0 26
2.5005414 -1.4815133 -0.1203656 0 27
2.5201175 -1.4931116 -0.094329305 0 28
2.5082939 -1.4861064 -0.067050606 0 29
2.4965672 -1.4791586 -0.040037766 0 30
2.5067139 -1.4851704 -0.013399407 0 31
2.5040548 -1.4835949 0.013385193 0 32
2.5068362 -1.4852428 0.04020245 0 33
2.5165854 -1.491019 0.067272253 0 34
2.4992702 -1.4807601 0.093548976 0 35
2.5002134 -1.4813191 0.12034982 0 36
2.5131924 -1.4890087 0.14789955 0 37
2.5013804 -1.4820104 0.17402783 0 38
2.5025594 -1.4827089 0.20097548 0 39
2.5051091 -1.4842196 0.22810742 0 40
2.5041931 -1.4836769 0.25498018 0 41
2.4904132 -1.4755125 0.28042814 0 42
2.5057919 -1.484624 0.30922487 0 43
2.5095234 -1.486835 0.33684373 0 44
2.5127494 -1.4887463 0.36452785 0 45
2.5079696 -1.4859143 0.3910962 0 46
2.4982533 -1.4801576 0.41680428 0 47
2.5004776 -1.4814755 0.44449493 0 48
2.5112519 -1.487859 0.47392479 0 49
2.5052769 -1.484319 0.50032842 0 50
2.5084457 -1.4861964 0.52861452 0 51
2.5141871 -1.489598 0.55763364 0 52
2.5060697 -1.4847887 0.58365011 0 53
2.5123954 -1.4885365 0.61311334 0 54
2.5082219 -1.4860638 0.64014661 0 55
2.503181 -1.4830773 0.6669687 0 56
2.5030553 -1.4830028 0.69516122 0 57
2.4981856 -1.4801176 0.72210395 0 58
2.507586 -1.485687 0.753353 0 59
2.5024219 -1.4826274 0.78041035 0 60
2.507719 -1.4857659 0.81087363 0 61
2.5077384 -1.4857774 0.83983916 0 62
2.4938197 -1.477531 0.86412942 0 63
2.1298826 -1.2267789 -0.73273963 0 0
2.1952777 -1.2644454 -0.7299341 0 1
2.2937241 -1.321149 -0.73636943 0 2
2.3645759 -1.3619585 -0.73214322 0 3
2.4670556 -1.4209852 -0.73587143 0 4
2.5124741 -1.4471456 -0.7210359 0 5
2.5058444 -1.4433271 -0.69095457 0 6
2.4931149 -1.4359951 -0.65953189 0 7
2.4955399 -1.4373918 -0.6323511 0 8
2.5049825 -1.4428306 -0.60692888 0 9
2.5084219 -1.4448116 -0.58001643 0 10
2.50647 -1.4436873 -0.55194294 0 11
2.5081499 -1.4446548 -0.52476901 0 12
2.5008543 -1.4404527 -0.49587029 0 13
2.5057762 -1.4432877 -0.46950665 0 14
2.5061109 -1.4434805 -0.44230765 0 15
2.5058882 -1.4433522 -0.41508564 0 16
2.5087163 -1.4449811 -0.38841248 0 17
2.5190382 -1.4509264 -0.3628245 0 18
2.5093639 -1.4453542 -0.33441147 0 19
2.5120051 -1.4468755 -0.30777282 0 20
2.502727 -1.4415314 -0.27979758 0 21
2.5073149 -1.4441739 -0.25347069 0 22
2.5174341 -1.4500026 -0.22758897 0 23
2.504266 -1.4424179 -0.19967303 0 24
2.5074205 -1.4442348 -0.17319943 0 25
2.5016384 -1.4409044 -0.14616586 0 26
2.5020888 -1.4411638 -0.11957803 0 27
2.5087693 -1.4450116 -0.093232401 0 28
2.4935579 -1.4362502 -0.066179596 0 29
2.5135639 -1.4477732 -0.040021818 0 30
2.5095122 -1.4454397 -0.013318351 0 31
2.4967153 -1.4380689 0.013250436 0 32
2.4949901 -1.437075 0.039726079 0 33
2.5075643 -1.4443177 0.066551328 0 34
2.5009899 -1.4405308 0.092943296 0 35
2.505805 -1.4433042 0.11975563 0 36
2.5083511 -1.4447708 0.14655808 0 37
2.4928424 -1.4358381 0.17219245 0 38
2.5007167 -1.4403735 0.19939004 0 39
2.4933419 -1.4361258 0.22541089 0 40
2.5085509 -1.444886 0.25359565 0 41
2.5208631 -1.4519775 0.28182516 0 42
2.5027761 -1.4415597 0.30664206 0 43
2.5174141 -1.449991 0.3354843 0 44
2.4937375 -1.4363536 0.35918033 0 45
2.5200462 -1.451507 0.39016664 0 46
2.4991193 -1.4394535 0.41396442 0 47
2.5012171 -1.4406617 0.44144392 0 48
2.5057235 -1.4432572 0.46949673 0 49
2.5121498 -1.4469588 0.49811 0 50
2.4971881 -1.4383411 0.52247554 0 51
2.5127499 -1.4473045 0.55332583 0 52
2.4954667 -1.4373497 0.57702082 0 53
2.5142002 -1.4481398 0.60916221 0 54
2.4872665 -1.4326264 0.63025475 0 55
2.5084891 -1.4448503 0.66359901 0 56
2.4979172 -1.438761 0.68876868 0 57
2.501739 -1.4409623 0.71795517 0 58
2.5166135 -1.4495298 0.75065351 0 59
2.4956956 -1.4374815 0.77274185 0 60
2.4968035 -1.4381196 0.80156541 0 61
2.5130215 -1.4474609 0.83558452 0 62
2.5063422 -1.4436136 0.86225235 0 63
2.1450272 -1.2006222 -0.73281538 0 0
2.2284005 -1.2472881 -0.73579216 0 1
2.314337 -1.2953888 -0.73781747 0 2
2.3863552 -1.3356991 -0.73374581 0 3
2.4819171 -1.3891875 -0.7351535 0 4
2.4992869 -1.3989097 -0.71226102 0 5
2.5074155 -1.4034594 -0.68657732 0 6
2.504956 -1.4020828 -0.65805376 0 7
2.4854424 -1.3911606 -0.62541062 0 8
2.509588 -1.4046755 -0.60381413 0 9
2.5084276 -1.404026 -0.57598215 0 10
2.5052426 -1.4022431 -0.54783428 0 11
2.4967813 -1.3975073 -0.51875579 0 12
2.5064607 -1.402925 -0.4935241 0 13
2.4973619 -1.3978323 -0.46467432 0 14
2.5103393 -1.4050959 -0.43997127 0 15
2.503715 -1.4013882 -0.41184011 0 16
2.5039079 -1.4014963 -0.38497078 0 17
2.5152051 -1.4078195 -0.35975182 0 18
2.4986613 -1.3985595 -0.33066836 0 19
2.5030379 -1.4010092 -0.3045404 0 20
2.5055847 -1.4024347 -0.27816811 0 21
2.5015736 -1.4001895 -0.25113076 0 22
2.5121381 -1.4061028 -0.22553 0 23
2.5046329 -1.401902 -0.19831282 0 24
2.5114365 -1.4057101 -0.17226982 0 25
2.5002131 -1.3994281 -0.14506619 0 26
2.5171001 -1.4088801 -0.11945846 0 27
2.5234334 -1.412425 -0.093124889 0 28
2.5003121 -1.3994834 -0.065897144 0 29
2.5009675 -1.3998504 -0.039544187 0 30
2.5009117 -1.3998191 -0.013180359 0 31
2.5118666 -1.4059508 0.013238093 0 32
2.5156031 -1.4080422 0.039775599 0 33
2.5070548 -1.4032575 0.066074848 0 34
2.5081854 -1.4038904 0.092562169 0 35
2.5109634 -1.4054453 0.11916722 0 36
2.5064609 -1.4029251 0.1454287 0 37
2.5006638 -1.3996803 0.17153087 0 38
2.5116613 -1.4058359 0.1988693 0 39
2.5035899 -1.4013181 0.22476257 0 40
2.5100782 -1.4049498 0.25198454 0 41
2.5157332 -1.408115 0.27929479 0 42
2.5034177 -1.4012219 0.30458662 0 43
2.5024447 -1.4006773 0.33116907 0 44
2.5023797 -1.4006407 0.35791737 0 45
2.5035541 -1.4012982 0.38491637 0 46
2.4866552 -1.3918394 0.40903392 0 47
2.4983006 -1.3983576 0.43786135 0 48
2.5068803 -1.4031599 0.46644539 0 49
2.517534 -1.4091231 0.49570444 0 50
2.4938972 -1.395893 0.51815659 0 51
2.4922667 -1.3949803 0.5449968 0 52
2.5081215 -1.4038546 0.57591188 0 53
2.5178514 -1.4093006 0.6058023 0 54
2.500926 -1.3998271 0.62930673 0 55
2.5000615 -1.3993434 0.65676796 0 56
2.5158675 -1.4081903 0.68889165 0 57
2.5109253 -1.405424 0.71557778 0 58
2.5061316 -1.4027408 0.74232596 0 59
2.510447 -1.4051563 0.77190101 0 60
2.5005691 -1.3996273 0.79718882 0 61
2.5007207 -1.3997122 0.82570922 0 62
2.5086386 -1.404144 0.8570376 0 63
2.1554348 -1.1718779 -0.7313928 0 0
2.2419026 -1.218889 -0.735246 0 1
2.3289869 -1.2662355 -0.73746836 0 2
2.4013457 -1.3055757 -0.73336339 0 3
2.4969039 -1.3575293 -0.73459256 0 4
2.5058455 -1.3623908 -0.70930225 0 5
2.5063915 -1.3626876 -0.6816572 0 6
2.5037873 -1.3612717 -0.65329999 0 7
2.5040734 -1.3614273 -0.62583894 0 8
2.5185103 -1.3692765 -0.60186428 0 9
2.501503 -1.3600299 -0.57050896 0 10
2.5072029 -1.3631288 -0.54455638 0 11
2.5143192 -1.3669978 -0.51886791 0 12
2.5109375 -1.3651592 -0.49106315 0 13
2.5152683 -1.3675139 -0.46484214 0 14
2.5063508 -1.3626655 -0.43630254 0 15
2.5136845 -1.3666527 -0.41068467 0 16
2.5052013 -1.3620406 -0.38256571 0 17
2.5080788 -1.363605 -0.35630733 0 18
2.4959893 -1.3570321 -0.32808167 0 19
2.5119038 -1.3656845 -0.30355296 0 20
2.5159204 -1.3678684 -0.27742726 0 21
2.5018821 -1.3602359 -0.24946377 0 22
2.5134709 -1.3665366 -0.22412415 0 23
2.5063009 -1.3626385 -0.19710331 0 24
2.5078638 -1.3634882 -0.1708618 0 25
2.5102262 -1.3647726 -0.14466253 0 26
2.5149231 -1.3673263 -0.11854824 0 27
2.4965804 -1.3573536 -0.091511033 0 28
2.5089724 -1.3640909 -0.065678351 0 29
2.516943 -1.3684244 -0.03952774 0 30
2.5126073 -1.3660671 -0.013152475 0 31
2.5090795 -1.3641491 0.013134008 0 32
2.5127158 -1.3661262 0.039461356 0 33
2.5083163 -1.3637341 0.065661177 0 34
2.5001304 -1.3592836 0.091641158 0 35
2.5031884 -1.3609462 0.11799508 0 36
2.5058129 -1.3623731 0.14440818 0 37
2.5105488 -1.3649479 0.17104471 0 38
2.5048935 -1.3618733 0.19699262 0 39
2.5027363 -1.3607004 0.22316696 0 40
2.5104051 -1.3648698 0.25031358 0 41
2.5021629 -1.3603886 0.27591023 0 42
2.510462 -1.3649007 0.30337873 0 43
2.5106578 -1.3650072 0.33000976 0 44
2.5033457 -1.3610317 0.3556349 0 45
2.5122671 -1.3658822 0.3836447 0 46
2.5078521 -1.3634818 0.40973181 0 47
2.5173006 -1.3686187 0.43820867 0 48
2.5132549 -1.3664192 0.46447006 0 49
2.5122132 -1.3658528 0.49131265 0 50
2.5013623 -1.3599533 0.51619405 0 51
2.5137351 -1.3666803 0.54597521 0 52
2.4954185 -1.3567219 0.5691213 0 53
2.5011172 -1.3598201 0.59770775 0 54
2.5111818 -1.3652921 0.62761551 0 55
2.5138688 -1.366753 0.65593052 0 56
2.5101788 -1.3647468 0.68268722 0 57
2.5026233 -1.360639 0.70839018 0 58
2.5032868 -1.3609997 0.73647046 0 59
2.5097418 -1.3645091 0.76646721 0 60
2.5078528 -1.3634822 0.79410583 0 61
2.496753 -1.3574473 0.81882572 0 62
2.4948807 -1.3564295 0.8465752 0 63
2.1785002 -1.1499423 -0.7343657 0 0
2.244204 -1.1846248 -0.73116821 0 1
2.3427739 -1.2366558 -0.73696315 0 2
2.4278693 -1.2815742 -0.73659527 0 3
2.5210717 -1.3307719 -0.73683286 0 4
2.5101867 -1.3250263 -0.70586574 0 5
2.5157826 -1.3279802 -0.67971879 0 6
2.5244706 -1.3325661 -0.65437186 0 7
2.5128033 -1.3264074 -0.62389725 0 8
2.5132036 -1.3266187 -0.59665263 0 9
2.505739 -1.3226784 -0.5677228 0 10
2.5131369 -1.3265835 -0.54226124 0 11
2.504703 -1.3221316 -0.51348966 0 12
2.5128694 -1.3264424 -0.48821422 0 13
2.5131567 -1.326594 -0.46140233 0 14
2.5000465 -1.3196737 -0.43234757 0 15
2.5083039 -1.3240324 -0.40711489 0 16
2.5076973 -1.3237122 -0.38043243 0 17
2.5147614 -1.3274411 -0.35491097 0 18
2.5179858 -1.3291432 -0.32879984 0 19
2.514993 -1.3275633 -0.30193073 0 20
2.5242813 -1.3324662 -0.27652156 0 21
2.5138736 -1.3269724 -0.24901362 0 22
2.5099273 -1.3248893 -0.22233866 0 23
2.5099857 -1.3249202 -0.19609702 0 24
2.5044675 -1.3220073 -0.16951005 0 25
2.5085578 -1.3241664 -0.14361715 0 26
2.4960468 -1.3175623 -0.11688591 0 27
2.5119405 -1.3259521 -0.091469496 0 28
2.5193205 -1.3298477 -0.065516219 0 29
2.5006502 -1.3199923 -0.039014008 0 30
2.5194099 -1.3298948 -0.013101491 0 31
2.5005524 -1.3199407 0.013003428 0 32
2.5174215 -1.3288453 0.039275669 0 33
2.5109465 -1.3254274 0.065298453 0 34
2.5162163 -1.328209 0.091625191 0 35
2.5130215 -1.3265227 0.11768082 0 36
2.5121429 -1.3260589 0.14382242 0 37
2.5215647 -1.3310323 0.17066725 0 38
2.5176284 -1.3289545 0.19669412 0 39
2.5024583 -1.3209468 0.22167704 0 40
2.5029111 -1.3211857 0.24792773 0 41
2.4951961 -1.3171134 0.27333546 0 42
2.5133724 -1.3267078 0.30173618 0 43
2.5119064 -1.3259341 0.32800597 0 44
2.5141199 -1.3271024 0.35482043 0 45
2.5065591 -1.3231115 0.38025978 0 46
2.512542 -1.3262695 0.40780273 0 47
2.5107057 -1.3253002 0.43419096 0 48
2.5109055 -1.3254057 0.46098906 0 49
2.5000067 -1.3196527 0.48571518 0 50
2.5164678 -1.3283417 0.51590157 0 51
2.5073493 -1.3235285 0.54101247 0 52
2.4978719 -1.3185258 0.56594038 0 53
2.5033977 -1.3214426 0.59432465 0 54
2.5178344 -1.3290632 0.62514639 0 55
2.5301344 -1.3355559 0.65583998 0 56
2.5182362 -1.3292753 0.68038172 0 57
2.5036132 -1.3215564 0.70401734 0 58
2.506861 -1.3232708 0.73267949 0 59
2.5165451 -1.3283826 0.76349872 0 60
2.5065899 -1.3231276 0.78849447 0 61
2.5057759 -1.322698 0.81638914 0 62
2.5026889 -1.3210685 0.84364879 0 63
2.191309 -1.1224724 -0.73397529 0 0
2.2695322 -1.1625414 -0.73470724 0 1
2.3524413 -1.2050107 -0.73528749 0 2
2.4365926 -1.2481161 -0.73453003 0 3
2.5155165 -1.2885441 -0.73052317 0 4
2.516082 -1.2888336 -0.7030139 0 5
2.5075135 -1.2844445 -0.67316645 0 6
2.503942 -1.2826151 -0.64491367 0 7
2.5054729 -1.2833992 -0.61811221 0 8
2.5177724 -1.2896996 -0.59392744 0 9
2.4964492 -1.278777 -0.56201291 0 10
2.5126693 -1.2870857 -0.53870475 0 11
2.5027299 -1.2819942 -0.50981486 0 12
2.5164509 -1.2890227 -0.48579383 0 13
2.514075 -1.2878056 -0.45862898 0 14
2.4980021 -1.2795724 -0.42924055 0 15
2.5123153 -1.2869042 -0.40516692 0 16
2.522691 -1.292219 -0.38026777 0 17
2.5286248 -1.2952585 -0.35459289 0 18
2.50017 -1.2806829 -0.32439256 0 19
2.5175219 -1.2895712 -0.30030793 0 20
2.5187984 -1.2902251 -0.27416229 0 21
2.5090644 -1.285239 -0.2469531 0 22
2.5067909 -1.2840744 -0.22064546 0 23
2.5151308 -1.2883464 -0.19524653 0 24
2.50421 -1.2827524 -0.1684123 0 25
2.5088391 -1.2851236 -0.14271776 0 26
2.5128839 -1.2871954 -0.11692433 0 27
2.5084734 -1.2849363 -0.090761043 0 28
2.5191882 -1.2904248 -0.065095216 0 29
2.5088966 -1.285153 -0.038893178 0 30
2.5088913 -1.2851503 -0.012963635 0 31
2.510536 -1.2859927 0.012972132 0 32
2.5229115 -1.2923321 0.039110441 0 33
2.5043862 -1.2828426 0.064712726 0 34
2.5084238 -1.2849108 0.090759248 0 35
2.5200844 -1.2908839 0.11725937 0 36
2.5179126 -1.2897714 0.14323393 0 37
2.5111976 -1.2863317 0.16888222 0 38
2.5191329 -1.2903965 0.19555722 0 39
2.5190029 -1.2903298 0.22172034 0 40
2.5160725 -1.2888287 0.24764287 0 41
2.5108778 -1.286168 0.27330017 0 42
2.518744 -1.2901973 0.30045372 0 43
2.5213852 -1.2915502 0.32714519 0 44
2.5105157 -1.2859824 0.35205343 0 45
2.5079281 -1.2846569 0.3780424 0 46
2.5127003 -1.2871014 0.405229 0 47
2.5250678 -1.2934365 0.43389139 0 48
2.5121422 -1.2868155 0.45827636 0 49
2.5168107 -1.2892069 0.48586327 0 50
2.5274074 -1.2946349 0.51484174 0 51
2.5000377 -1.2806151 0.53599656 0 52
2.5143631 -1.2879531 0.5660457 0 53
2.5041189 -1.2827057 0.59070665 0 54
2.5108294 -1.2861431 0.61943364 0 55
2.5026977 -1.2819778 0.64459318 0 56
2.5158527 -1.2887162 0.6754052 0 57
2.5197811 -1.2907284 0.70404744 0 58
2.5171924 -1.2894025 0.73100984 0 59
2.5195045 -1.2905868 0.75952446 0 60
2.5145335 -1.2880405 0.78595161 0 61
2.5050611 -1.2831885 0.81095421 0 62
2.5119319 -1.2867078 0.84136742 0 63
2.2015331 -1.0937494 -0.7328397 0 0
2.291635 -1.1385131 -0.73727477 0 1
2.3575532 -1.1712621 -0.7323283 0 2
2.4577363 -1.2210343 -0.73632205 0 3
2.5047278 -1.2443802 -0.72289169 0 4
2.5157018 -1.2498323 -0.69856077 0 5
2.5157106 -1.2498367 -0.6711905 0 6
2.5102198 -1.2471088 -0.64253229 0 7
2.5041173 -1.2440768 -0.61395729 0 8
2.5088603 -1.2464334 -0.58816516 0 9
2.5113995 -1.247695 -0.5618822 0 10
2.5179753 -1.2509618 -0.53650385 0 11
2.5147359 -1.2493525 -0.50909263 0 12
2.4969764 -1.2405293 -0.47905332 0 13
2.5201886 -1.2520614 -0.4569011 0 14
2.5254371 -1.254669 -0.4312712 0 15
2.5127411 -1.2483615 -0.40272954 0 16
2.5118666 -1.2479268 -0.37629452 0 17
2.5174313 -1.2506915 -0.35084006 0 18
2.5094993 -1.2467508 -0.32358944 0 19
2.5091383 -1.2465715 -0.29745692 0 20
2.505383 -1.2447058 -0.27101561 0 21
2.5043364 -1.2441858 -0.24496344 0 22
2.5127237 -1.2483528 -0.21979992 0 23
2.5084636 -1.2462363 -0.19352475 0 24
2.5126398 -1.248311 -0.16793422 0 25
2.5137575 -1.2488663 -0.14211322 0 26
2.5282803 -1.2560815 -0.11691321 0 27
2.5188344 -1.2513885 -0.090572312 0 28
2.5203865 -1.2521596 -0.064723417 0 29
2.5030086 -1.2435262 -0.038561944 0 30
2.5199277 -1.2519318 -0.012940139 0 31
2.5198627 -1.2518995 0.012939804 0 32
2.5076096 -1.2458121 0.038632829 0 33
2.5149035 -1.2494357 0.064582624 0 34
2.5124733 -1.2482284 0.090343595 0 35
2.5006826 -1.2423706 0.11563704 0 36
2.5130529 -1.2485163 0.14207341 0 37
2.5161898 -1.2500747 0.1681715 0 38
2.507679 -1.2458465 0.1934642 0 39
2.5118191 -1.2479033 0.21972078 0 40
2.5100634 -1.2470311 0.24552363 0 41
2.5218239 -1.2528739 0.2727941 0 42
2.5218694 -1.2528964 0.29896617 0 43
2.526778 -1.2553351 0.32581744 0 44
2.5097537 -1.2468772 0.34977007 0 45
2.5105362 -1.2472659 0.37609524 0 46
2.5249104 -1.2544073 0.40467998 0 47
2.5053449 -1.2446868 0.42783999 0 48
2.5063574 -1.2451899 0.4543936 0 49
2.5028601 -1.2434523 0.48018214 0 50
2.5104322 -1.2472143 0.50822133 0 51
2.5277169 -1.2558016 0.53857946 0 52
2.516118 -1.2500391 0.56293786 0 53
2.5091953 -1.2465998 0.58824372 0 54
2.5229139 -1.2534155 0.61856586 0 55
2.5117502 -1.247869 0.64292401 0 56
2.5166523 -1.2503045 0.67144167 0 57
2.5244999 -1.2542033 0.70100379 0 58
2.502665 -1.2433555 0.72229636 0 59
2.512794 -1.2483877 0.75281703 0 60
2.5086927 -1.24635 0.77927685 0 61
2.5173769 -1.2506646 0.80990142 0 62
2.5204198 -1.2521763 0.83898968 0 63
2.2261667 -1.0720643 -0.73659575 0 0
2.2932582 -1.1043739 -0.73337257 0 1
2.3657744 -1.1392958 -0.73047507 0 2
2.4544668 -1.1820078 -0.73093283 0 3
2.5263598 -1.2166296 -0.7247625 0 4
2.5250969 -1.2160214 -0.6969648 0 5
2.5141428 -1.2107462 -0.66674966 0 6
2.5184641 -1.2128272 -0.64077681 0 7
2.4994631 -1.2036768 -0.60914129 0 8
2.5111027 -1.2092822 -0.58516061 0 9
2.508373 -1.2079675 -0.55783957 0 10
2.511487 -1.2094673 -0.53191239 0 11
2.5099115 -1.2087085 -0.5050689 0 12
2.5137522 -1.2105581 -0.47937974 0 13
2.5122209 -1.2098206 -0.45272532 0 14
2.510323 -1.2089068 -0.42611939 0 15
2.5267591 -1.2168219 -0.40254772 0 16
2.5126524 -1.2100284 -0.37415498 0 17
2.5083456 -1.2079544 -0.3474775 0 18
2.5170767 -1.2121592 -0.32262015 0 19
2.5056746 -1.2066681 -0.29526496 0 20
2.5127683 -1.2100842 -0.27018449 0 21
2.5044923 -1.2060988 -0.24350961 0 22
2.5172572 -1.2122459 -0.218876 0 23
2.5160198 -1.2116501 -0.19294365 0 24
2.5085196 -1.2080382 -0.16665344 0 25
2.5145016 -1.2109189 -0.14130282 0 26
2.5200737 -1.2136023 -0.11583489 0 27
2.5139394 -1.2106482 -0.089854218 0 28
2.5259264 -1.2164208 -0.064476699 0 29
2.5208154 -1.2139596 -0.038603388 0 30
2.5154631 -1.211382 -0.01283975 0 31
2.5198841 -1.213511 0.012862315 0 32
2.5145514 -1.2109429 0.038507462 0 33
2.5221963 -1.2146245 0.064381488 0 34
2.5172384 -1.2122369 0.089972124 0 35
2.5177748 -1.2124952 0.11572922 0 36
2.5175796 -1.2124013 0.1414758 0 37
2.523982 -1.2154845 0.16768068 0 38
2.5149164 -1.2111187 0.19285904 0 39
2.51279 -1.2100947 0.21848756 0 40
2.5183091 -1.2127526 0.24485299 0 41
2.5115745 -1.2095094 0.27005613 0 42
2.500031 -1.2039504 0.29459995 0 43
2.507431 -1.2075139 0.3213838 0 44
2.5133228 -1.2103512 0.34816697 0 45
2.5119941 -1.2097114 0.37405697 0 46
2.5232601 -1.2151369 0.40199026 0 47
2.5043492 -1.2060298 0.4251053 0 48
2.5131693 -1.2102774 0.45289624 0 49
2.5093827 -1.2084539 0.47854647 0 50
2.5159671 -1.2116246 0.5062874 0 51
2.5251727 -1.2160579 0.5348109 0 52
2.504596 -1.2061486 0.55699956 0 53
2.5164032 -1.2118348 0.5863958 0 54
2.5319035 -1.2192993 0.61704725 0 55
2.519172 -1.2131681 0.64095688 0 56
2.5104218 -1.2089542 0.6657629 0 57
2.5201981 -1.2136623 0.69561267 0 58
2.5152206 -1.2112652 0.72156686 0 59
2.5094309 -1.208477 0.74730098 0 60
2.5124247 -1.2099189 0.775756 0 61
2.5104401 -1.208963 0.80282617 0 62
2.521529 -1.2143031 0.83432543 0 63
2.2509592 -1.0501065 -0.74047059 0 0
2.3103075 -1.0777934 -0.73453099 0 1
2.4030666 -1.1210669 -0.73767757 0 2
2.4821627 -1.1579665 -0.73488474 0 3
2.5337493 -1.1820325 -0.72265804 0 4
2.5250056 -1.1779534 -0.69288927 0 5
2.5000243 -1.1662992 -0.65915233 0 6
2.5170827 -1.1742572 -0.63670337 0 7
2.5265625 -1.1786796 -0.61216706 0 8
2.5178328 -1.174607 -0.58331907 0 9
2.5140803 -1.1728566 -0.55585951 0 10
2.5189085 -1.1751089 -0.53038377 0 11
2.5020611 -1.1672494 -0.50056303 0 12
2.5198836 -1.1755638 -0.47775623 0 13
2.5188808 -1.175096 -0.45128742 0 14
2.5194545 -1.1753635 -0.42518392 0 15
2.506995 -1.1695511 -0.39707786 0 16
2.5195746 -1.1754197 -0.37300533 0 17
2.5234327 -1.1772196 -0.34753597 0 18
2.5157065 -1.1736151 -0.32057059 0 19
2.5181439 -1.1747522 -0.29500982 0 20
2.5224652 -1.1767682 -0.26965088 0 21
2.5181053 -1.1747342 -0.2434103 0 22
2.5246947 -1.1778083 -0.21824689 0 23
2.513252 -1.1724702 -0.19161133 0 24
2.5215795 -1.176355 -0.16654749 0 25
2.5135815 -1.1726238 -0.14043021 0 26
2.5169759 -1.1742073 -0.11502013 0 27
2.5142274 -1.1729251 -0.089342251 0 28
2.5304921 -1.1805128 -0.064217851 0 29
2.5216801 -1.176402 -0.038392205 0 30
2.5320306 -1.1812305 -0.012849204 0 31
2.5282333 -1.1794591 0.012829935 0 32
2.5219588 -1.176532 0.038396448 0 33
2.5150702 -1.1733184 0.063826479 0 34
2.5227907 -1.1769201 0.089646541 0 35
2.5116773 -1.1717354 0.114778 0 36
2.5148106 -1.1731972 0.14049888 0 37
2.5047507 -1.1685041 0.16543597 0 38
2.5260711 -1.1784503 0.19258864 0 39
2.5173926 -1.1744018 0.21761568 0 40
2.5285234 -1.1795944 0.24441734 0 41
2.5252988 -1.1780901 0.26995379 0 42
2.5115716 -1.1716862 0.29423985 0 43
2.5076067 -1.1698365 0.31953844 0 44
2.5290208 -1.1798264 0.34830552 0 45
2.5131238 -1.1724102 0.37205032 0 46
2.5149727 -1.1732727 0.39834142 0 47
2.5140302 -1.1728332 0.42426854 0 48
2.5160105 -1.173757 0.45077318 0 49
2.5176315 -1.1745132 0.47732925 0 50
2.5286233 -1.1796411 0.50587708 0 51
2.5221291 -1.1766114 0.53106189 0 52
2.5265965 -1.1786956 0.55862683 0 53
2.5179372 -1.1746558 0.58334327 0 54
2.5153189 -1.1734344 0.60944289 0 55
2.535639 -1.182914 0.6413973 0 56
2.5112143 -1.1715194 0.66210258 0 57
2.532573 -1.1814836 0.69496578 0 58
2.5147049 -1.1731479 0.71722627 0 59
2.5231442 -1.1770849 0.74701798 0 60
2.51702 -1.174228 0.77265823 0 61
2.5150182 -1.1732941 0.79961604 0 62
2.5190001 -1.1751516 0.82864469 0 63
2.2519681 -1.0170517 -0.73663282 0 0
2.3282382 -1.0514973 -0.73606539 0 1
2.4135273 -1.0900162 -0.73671854 0 2
2.5079398 -1.1326556 -0.73833716 0 3
2.5109596 -1.1340194 -0.71212709 0 4
2.5243928 -1.1400863 -0.68882203 0 5
2.5205836 -1.1383659 -0.66083235 0 6
2.5225456 -1.1392519 -0.63449371 0 7
2.5233393 -1.1396104 -0.60794491 0 8
2.5250094 -1.1403646 -0.58168906 0 9
2.5127339 -1.1348208 -0.5524348 0 10
2.5115671 -1.1342938 -0.52586132 0 11
2.5220323 -1.1390202 -0.50171852 0 12
2.5198479 -1.1380336 -0.4750604 0 13
2.514143 -1.1354572 -0.44790325 0 14
2.5361812 -1.1454102 -0.42559764 0 15
2.5258515 -1.140745 -0.39781269 0 16
2.5253232 -1.1405065 -0.37175208 0 17
2.5113256 -1.1341847 -0.34392175 0 18
2.518502 -1.1374258 -0.31912041 0 19
2.5164509 -1.1364995 -0.29315209 0 20
2.5268173 -1.1411812 -0.26859576 0 21
2.5309055 -1.1430275 -0.24327058 0 22
2.5298653 -1.1425577 -0.21746294 0 23
2.5333107 -1.1441138 -0.19205348 0 24
2.5159047 -1.1362528 -0.16523737 0 25
2.5150282 -1.135857 -0.13972017 0 26
2.5163722 -1.1364639 -0.1143453 0 27
2.5258553 -1.1407467 -0.089250244 0 28
2.5181553 -1.1372693 -0.063545078 0 29
2.5216689 -1.1388561 -0.038175941 0 30
2.5105481 -1.1338335 -0.012668478 0 31
2.5192683 -1.1377718 0.012712481 0 32
2.5198207 -1.1380212 0.038147956 0 33
2.53544 -1.1450754 0.06398125 0 34
2.5225022 -1.1392324 0.089131765 0 35
2.5132132 -1.1350372 0.11420175 0 36
2.5226221 -1.1392865 0.14014202 0 37
2.5175741 -1.1370068 0.16534699 0 38
2.5226231 -1.139287 0.19124325 0 39
2.5289066 -1.1421248 0.21738054 0 40
2.5330455 -1.1439941 0.24347629 0 41
2.5311863 -1.1431544 0.26906016 0 42
2.5135157 -1.1351738 0.29281017 0 43
2.5114675 -1.1342487 0.31822908 0 44
2.5239959 -1.1399069 0.3456569 0 45
2.5178201 -1.1371179 0.37064755 0 46
2.5275304 -1.1415033 0.39807713 0 47
2.5212269 -1.1386564 0.42308816 0 48
2.5293069 -1.1423055 0.45060474 0 49
2.5191848 -1.1377342 0.47493538 0 50
2.506803 -1.1321423 0.49868891 0 51
2.5235171 -1.1396908 0.52836341 0 52
2.5073359 -1.1323829 0.55124801 0 53
2.5293109 -1.1423074 0.58268005 0 54
2.5224442 -1.1392062 0.60772926 0 55
2.5181501 -1.1372668 0.6333881 0 56
2.5197694 -1.1379982 0.6606189 0 57
2.5120411 -1.1345078 0.68545163 0 58
2.5189917 -1.1376469 0.71440506 0 59
2.5191381 -1.1377131 0.74163395 0 60
2.5254815 -1.1405779 0.77089208 0 61
2.5203323 -1.1382524 0.79679537 0 62
2.535352 -1.1450357 0.82932943 0 63
2.2503798 -0.98320246 -0.73210323 0 0
2.3532653 -1.0281537 -0.73992479 0 1
2.431397 -1.0622898 -0.73813015 0 2
2.5024254 -1.0933225 -0.73270041 0 3
2.5458314 -1.1122868 -0.7180838 0 4
2.5463934 -1.1125323 -0.69104016 0 5
2.5498261 -1.114032 -0.66485727 0 6
2.5481799 -1.1133128 -0.63744986 0 7
2.5520582 -1.1150073 -0.61151463 0 8
2.5523436 -1.115132 -0.58478296 0 9
2.5538177 -1.1157761 -0.55840856 0 10
2.5467622 -1.1126934 -0.53032553 0 11
2.5669429 -1.1215105 -0.50787097 0 12
2.5531769 -1.115496 -0.47872168 0 13
2.5512431 -1.1146511 -0.45203677 0 14
2.5525148 -1.1152067 -0.42600521 0 15
2.5474632 -1.1129997 -0.3990308 0 16
2.55883 -1.1179659 -0.37463257 0 17
2.5551953 -1.1163779 -0.34802336 0 18
2.5521367 -1.1150416 -0.32162064 0 19
2.5459366 -1.1123327 -0.29497135 0 20
2.5655351 -1.1208954 -0.27122575 0 21
2.5567989 -1.1170785 -0.24442066 0 22
2.5665503 -1.121339 -0.21941449 0 23
2.5585179 -1.1178296 -0.19290784 0 24
2.5584621 -1.1178051 -0.16711703 0 25
2.5564089 -1.1169081 -0.14124537 0 26
2.5573542 -1.1173211 -0.1155745 0 27
2.5637019 -1.1200944 -0.09009406 0 28
2.5621734 -1.1194266 -0.064303644 0 29
2.5626781 -1.1196471 -0.038585436 0 30
2.5541954 -1.115941 -0.012818514 0 31
2.5449269 -1.1118915 0.012771999 0 32
2.5549688 -1.1162789 0.038469359 0 33
2.5628695 -1.1197308 0.064321116 0 34
2.546982 -1.1127894 0.089506485 0 35
2.5519364 -1.1149541 0.11532965 0 36
2.5598633 -1.1184174 0.14143622 0 37
2.5598154 -1.1183965 0.16720544 0 38
2.5457981 -1.1122723 0.1919488 0 39
2.5468838 -1.1127466 0.2177332 0 40
2.5693374 -1.1225567 0.24561931 0 41
2.5474801 -1.1130072 0.269317 0 42
2.5703619 -1.1230042 0.29780123 0 43
2.5579922 -1.1176 0.32235858 0 44
2.5593698 -1.1182017 0.34859192 0 45
2.5630772 -1.1198215 0.37525442 0 46
2.560632 -1.1187532 0.40109354 0 47
2.5529664 -1.115404 0.42608055 0 48
2.5595975 -1.1183013 0.45351702 0 49
2.5707643 -1.12318 0.48201931 0 50
2.5466199 -1.1126312 0.50385004 0 51
2.5537035 -1.1157261 0.53177094 0 52
2.5629759 -1.1197773 0.5604111 0 53
2.560389 -1.1186471 0.58662629 0 54
2.5486689 -1.1135265 0.61070246 0 55
2.55213 -1.1150386 0.63843805 0 56
2.5623848 -1.119519 0.66813189 0 57
2.5455177 -1.1121496 0.69080245 0 58
2.5564001 -1.1169043 0.72106481 0 59
2.558661 -1.1178921 0.74916601 0 60
2.5605311 -1.1187091 0.77733302 0 61
2.5565035 -1.1169494 0.80382788 0 62
2.5538201 -1.1157771 0.83081973 0 63
2.2577808 -0.9535504 -0.73064119 0 0
2.3485894 -0.99190247 -0.73456401 0 1
2.4193294 -1.0217787 -0.73059708 0 2
2.5272176 -1.0673443 -0.73606098 0 3
2.610528 -1.1025295 -0.73245287 0 4
2.655616 -1.121572 -0.71688408 0 5
2.6600425 -1.1234415 -0.68994153 0 6
2.65116 -1.1196901 -0.65971714 0 7
2.6521878 -1.1201241 -0.63215911 0 8
2.6539357 -1.1208622 -0.60485578 0 9
2.6533971 -1.1206348 -0.57712555 0 10
2.6496685 -1.11906 -0.54884732 0 11
2.6694763 -1.1274258 -0.52537465 0 12
2.6697414 -1.1275377 -0.4979403 0 13
2.6581254 -1.1226318 -0.46849316 0 14
2.6700075 -1.12765 -0.44326657 0 15
2.6600358 -1.1234386 -0.4144688 0 16
2.6485498 -1.1185877 -0.38572532 0 17
2.6697011 -1.1275207 -0.36170357 0 18
2.6548235 -1.1212373 -0.33279863 0 19
2.6722612 -1.128602 -0.3079761 0 20
2.6520159 -1.1200515 -0.2788913 0 21
2.661061 -1.1238717 -0.25304753 0 22
2.6628368 -1.1246216 -0.22644667 0 23
2.6567366 -1.1220453 -0.19925801 0 24
2.6679685 -1.1267889 -0.17335178 0 25
2.6656449 -1.1258076 -0.14650488 0 26
2.6693544 -1.1273743 -0.12000056 0 27
2.6763 -1.1303077 -0.093555495 0 28
2.6645553 -1.1253474 -0.06652084 0 29
2.6559601 -1.1217173 -0.039779264 0 30
2.6612792 -1.1239637 -0.013285561 0 31
2.6799331 -1.131842 0.013378684 0 32
2.6614213 -1.1240238 0.039861057 0 33
2.6600132 -1.1234292 0.066407442 0 34
2.6650262 -1.1255462 0.093161389 0 35
2.6641908 -1.1251935 0.11976843 0 36
2.6680655 -1.1268299 0.14663792 0 37
2.6427574 -1.1161412 0.17171368 0 38
2.6627412 -1.1245812 0.19970836 0 39
2.6583183 -1.1227132 0.22606243 0 40
2.6598222 -1.1233485 0.25292972 0 41
2.6611323 -1.1239017 0.27984998 0 42
2.6546288 -1.121155 0.30594397 0 43
2.6476679 -1.1182152 0.33190164 0 44
2.6528237 -1.1203927 0.35941693 0 45
2.657515 -1.1223741 0.38703096 0 46
2.6646233 -1.1253761 0.41518357 0 47
2.652972 -1.1204554 0.44043839 0 48
2.6465204 -1.1177306 0.4664478 0 49
2.6622753 -1.1243845 0.49654779 0 50
2.6681745 -1.1268759 0.52511841 0 51
2.6671212 -1.126431 0.5524624 0 52
2.6595631 -1.123239 0.57846671 0 53
2.6667016 -1.1262538 0.60776526 0 54
2.6525123 -1.1202612 0.63223648 0 55
2.6594076 -1.1231734 0.66176951 0 56
2.6726093 -1.1287489 0.69320107 0 57
2.6644714 -1.125312 0.71927458 0 58
2.6592577 -1.1231101 0.74612528 0 59
2.6717286 -1.128377 0.77815032 0 60
2.6680968 -1.1268431 0.80572069 0 61
2.6703696 -1.127803 0.83520657 0 62
2.6781559 -1.1310915 0.86667889 0 63
2.2930179 -0.93537867 -0.73826629 0 0
2.3643246 -0.96446645 -0.73572052 0 1
2.444258 -0.99707329 -0.73436713 0 2
2.5284646 -1.0314232 -0.7326749 0 3
2.6413224 -1.0774608 -0.73732001 0 4
2.7227783 -1.1106887 -0.73127246 0 5
2.7470984 -1.1206094 -0.70889384 0 6
2.7475419 -1.1207902 -0.68022001 0 7
2.7610338 -1.126294 -0.65475243 0 8
2.7550452 -1.1238511 -0.62470275 0 9
2.7747538 -1.1318907 -0.60044849 0 10
2.7483821 -1.1211331 -0.56639624 0 11
2.7615752 -1.1265148 -0.54073334 0 12
2.7589116 -1.1254283 -0.51195186 0 13
2.7546532 -1.1236911 -0.48303428 0 14
2.7591307 -1.1255176 -0.45573044 0 15
2.7592134 -1.1255513 -0.42773315 0 16
2.7611942 -1.1263593 -0.40008309 0 17
2.7675407 -1.1289483 -0.37305033 0 18
2.7556982 -1.1241175 -0.34368515 0 19
2.7613547 -1.1264248 -0.31662378 0 20
2.7559273 -1.124211 -0.28834331 0 21
2.7590144 -1.1254702 -0.26102641 0 22
2.7615135 -1.1264896 -0.23364249 0 23
2.7633238 -1.1272281 -0.20619701 0 24
2.7713017 -1.1304824 -0.17914912 0 25
2.7671371 -1.1287837 -0.15130863 0 26
2.7740264 -1.1315939 -0.12407116 0 27
2.7689734 -1.1295327 -0.096302271 0 28
2.7658308 -1.1282508 -0.068697639 0 29
2.7573633 -1.1247966 -0.041087762 0 30
2.7622221 -1.1267786 -0.013719279 0 31
2.7530735 -1.1230468 0.013673841 0 32
2.7648208 -1.1278389 0.041198887 0 33
2.7697346 -1.1298432 0.068794601 0 34
2.7675023 -1.1289326 0.096251115 0 35
2.7687402 -1.1294376 0.12383474 0 36
2.766242 -1.1284186 0.15125969 0 37
2.7744071 -1.1317493 0.17934987 0 38
2.7657189 -1.1282052 0.20637572 0 39
2.7746923 -1.1318656 0.2347575 0 40
2.7592802 -1.1255785 0.26105154 0 41
2.7723608 -1.1309146 0.29006267 0 42
2.7616816 -1.1265582 0.31666127 0 43
2.7629826 -1.1270889 0.34459364 0 44
2.7545393 -1.1236446 0.37129781 0 45
2.771889 -1.130722 0.4016327 0 46
2.7622919 -1.1268072 0.42821041 0 47
2.7591476 -1.1255245 0.45573324 0 48
2.7699251 -1.129921 0.48571226 0 49
2.7654972 -1.1281147 0.51317388 0 50
2.7659771 -1.1283104 0.54159528 0 51
2.7838137 -1.1355865 0.5736981 0 52
2.7606227 -1.1261263 0.59739059 0 53
2.7627859 -1.1270087 0.62645799 0 54
2.7579107 -1.12502 0.65401179 0 55
2.7713733 -1.1305118 0.68612009 0 56
2.7570214 -1.1246573 0.71145451 0 57
2.771271 -1.13047 0.74429643 0 58
2.7648182 -1.1278378 0.7717936 0 59
2.7621593 -1.1267531 0.80039275 0 60
2.7585249 -1.1252705 0.82878733 0 61
2.7575557 -1.1248752 0.85808456 0 62
2.7661479 -1.1283801 0.89059657 0 63
2.2972138 -0.90430665 -0.73598146 0 0
2.3859541 -0.93923962 -0.73880142 0 1
2.4573913 -0.96736115 -0.73468363 0 2
2.5691962 -1.0113735 -0.74081802 0 3
2.6319656 -1.0360829 -0.73109639 0 4
2.7605972 -1.0867193 -0.73778492 0 5
2.8511889 -1.122381 -0.7321378 0 6
2.893307 -1.138961 -0.7127865 0 7
2.8911664 -1.1381183 -0.6822418 0 8
2.8876953 -1.1367519 -0.65156227 0 9
2.8741865 -1.1314341 -0.61890799 0 10
2.8943372 -1.1393665 -0.59354305 0 11
2.8846173 -1.1355402 -0.56204921 0 12
2.8898468 -1.1375989 -0.53361249 0 13
2.8790109 -1.1333332 -0.50235903 0 14
2.8749266 -1.1317254 -0.47252235 0 15
2.8745878 -1.131592 -0.44342792 0 16
2.8789613 -1.1333137 -0.41509634 0 17
2.8764889 -1.1323404 -0.38582999 0 18
2.8721344 -1.1306263 -0.35644597 0 19
2.8797698 -1.1336319 -0.32857835 0 20
2.8771627 -1.1326057 -0.29954794 0 21
2.8872252 -1.1365668 -0.27181348 0 22
2.8744018 -1.1315188 -0.24199812 0 23
2.8885572 -1.1370912 -0.21448225 0 24
2.8805583 -1.1339424 -0.18529657 0 25
2.8777695 -1.1328446 -0.15658453 0 26
2.8842158 -1.1353822 -0.12836537 0 27
2.8995242 -1.1414083 -0.10034698 0 28
2.8819404 -1.1344863 -0.071229689 0 29
2.8860714 -1.1361126 -0.042794246 0 30
2.8881342 -1.1369246 -0.01427414 0 31
2.8886094 -1.1371117 0.014276488 0 32
2.886039 -1.1360998 0.042793766 0 33
2.8824623 -1.134692 0.071242593 0 34
2.8800993 -1.1337616 0.099674724 0 35
2.8757169 -1.1320366 0.12798712 0 36
2.8875084 -1.1366783 0.15711445 0 37
2.8836837 -1.1351726 0.18549761 0 38
2.8778038 -1.132858 0.21368378 0 39
2.9017839 -1.1422979 0.24430344 0 40
2.8789837 -1.1333225 0.27103758 0 41
2.8877835 -1.1367866 0.3006537 0 42
2.871927 -1.1305445 0.32768351 0 43
2.8956778 -1.1398942 0.35936782 0 44
2.8886588 -1.1371311 0.38746235 0 45
2.8733113 -1.1310896 0.4142817 0 46
2.9022169 -1.1424683 0.44768992 0 47
2.8778975 -1.1328949 0.47301063 0 48
2.8847296 -1.1355844 0.50335687 0 49
2.8966355 -1.1402712 0.53486603 0 50
2.8787606 -1.1332346 0.56090808 0 51
2.8730764 -1.1309971 0.58918309 0 52
2.8796227 -1.133574 0.62007856 0 53
2.8881354 -1.1369252 0.65166157 0 54
2.8896205 -1.1375097 0.68187696 0 55
2.8930483 -1.138859 0.71272272 0 56
2.8755722 -1.1319796 0.73839903 0 57
2.8668582 -1.1285493 0.76618379 0 58
2.8838072 -1.1352212 0.80105191 0 59
2.8773685 -1.1326866 0.8296783 0 60
2.8880861 -1.1369057 0.86344796 0 61
