# .PCD v0.7 - Point Cloud Data file format
VERSION 0.7
FIELDS x y z intensity ring
SIZE 4 4 4 4 2
TYPE F F F F U
COUNT 1 1 1 1 1
WIDTH 1214
HEIGHT 1
VIEWPOINT 0 0 0 1 0 0 0
POINTS 1214
DATA ascii
-0.48029983 -1.8414872 -0.11391126 0 25
-0.48271644 -1.8507525 -0.096838586 0 26
-0.48282006 -1.8511498 -0.079226211 0 27
-0.4822838 -1.8490938 -0.061538056 0 28
-0.48279771 -1.8510641 -0.043995142 0 29
-0.47770247 -1.8315288 -0.026115557 0 30
-0.47946361 -1.838281 -0.0087367855 0 31
-0.48296633 -1.8517107 0.0088006128 0 32
-0.4777692 -1.8317846 0.026119204 0 33
-0.4808102 -1.8434439 0.043814033 0 34
-0.48144692 -1.8458852 0.061431274 0 35
-0.4854086 -1.8610744 0.079650968 0 36
-0.48427528 -1.8567291 0.097151309 0 37
-0.4839707 -1.8555614 0.11478186 0 38
-0.48482394 -1.8588327 0.13272659 0 39
-0.48289466 -1.8514358 0.14989266 0 40
-0.48349601 -1.8537414 0.16782115 0 41
-0.47824824 -1.8336213 0.18357722 0 42
-0.48535293 -1.8608609 0.20417489 0 43
-0.48466352 -1.8582177 0.22176489 0 44
-0.47733131 -1.8301058 0.23605689 0 45
-0.4796007 -1.8388066 0.25495079 0 46
-0.48296055 -1.8516884 0.27467719 0 47
-0.48281002 -1.8511113 0.29257375 0 48
-0.47902307 -1.836592 0.30817032 0 49
-0.4790695 -1.8367701 0.32614684 0 50
-0.48114005 -1.8447086 0.34563771 0 51
-0.48325983 -1.8528359 0.36538211 0 52
-0.48197868 -1.847924 0.38265067 0 53
-0.47860235 -1.8349789 0.39814645 0 54
-0.48298916 -1.8517982 0.42020974 0 55
-0.47924986 -1.8374616 0.43530178 0 56
-0.47716886 -1.8294829 0.45175442 0 57
-0.48172349 -1.8469455 0.47466594 0 58
-0.48238203 -1.8494704 0.49402514 0 59
-0.47904435 -1.8366736 0.50927633 0 60
-0.48315981 -1.8524524 0.53257442 0 61
-0.47644725 -1.8267162 0.54393113 0 62
-0.48117274 -1.8448339 0.56836843 0 63
-0.45963272 -1.8553723 -0.56983083 0 0
-0.45385352 -1.8320436 -0.5438146 0 1
-0.45853537 -1.8509426 -0.53047925 0 2
-0.45844248 -1.8505677 -0.51152712 0 3
-0.45817518 -1.8494887 -0.49248791 0 4
-0.45813125 -1.8493114 -0.47379038 0 5
-0.45629001 -1.841879 -0.45339563 0 6
-0.46089801 -1.8604798 -0.43937904 0 7
-0.45773417 -1.8477085 -0.41797289 0 8
-0.45936075 -1.8542744 -0.40107721 0 9
-0.45982301 -1.8561404 -0.38315228 0 10
-0.46044475 -1.8586501 -0.36538455 0 11
-0.45714715 -1.8453389 -0.34467652 0 12
-0.45672178 -1.8436219 -0.3263416 0 13
-0.45413738 -1.8331895 -0.30663922 0 14
-0.45539871 -1.838281 -0.28963894 0 15
-0.45677242 -1.8438263 -0.27265716 0 16
-0.45809582 -1.8491684 -0.25558713 0 17
-0.45671698 -1.8436025 -0.23705547 0 18
-0.46083394 -1.8602213 -0.22131099 0 19
-0.45706883 -1.8450228 -0.20180519 0 20
-0.45526236 -1.8377308 -0.18341431 0 21
-0.45440274 -1.8342607 -0.16553919 0 22
-0.46002263 -1.8569462 -0.1498695 0 23
-0.45874923 -1.851806 -0.13181211 0 24
-0.45711538 -1.8452108 -0.11378528 0 25
-0.46184936 -1.8643202 -0.097243994 0 26
-0.4571718 -1.8454384 -0.078735225 0 27
-0.45962286 -1.8553325 -0.061552934 0 28
-0.45852077 -1.8508837 -0.043853536 0 29
-0.45607528 -1.8410121 -0.026168836 0 30
-0.45816988 -1.8494673 -0.0087625124 0 31
-0.45843738 -1.8505472 0.008767629 0 32
-0.45966524 -1.8555036 0.026374822 0 33
-0.45649311 -1.8426988 0.043659609 0 34
-0.45523685 -1.8376278 0.06096556 0 35
-0.45526189 -1.8377289 0.078406297 0 36
-0.45896387 -1.8526723 0.096636437 0 37
-0.45507655 -1.8369806 0.11327778 0 38
-0.46012333 -1.8573527 0.13220693 0 39
-0.45897207 -1.8527054 0.14952724 0 40
-0.4580169 -1.8488499 0.16685584 0 41
-0.46013182 -1.8573871 0.18537611 0 42
-0.45849937 -1.8507974 0.20243682 0 43
-0.45817798 -1.8494999 0.22003548 0 44
-0.45628136 -1.8418441 0.23682937 0 45
-0.45812753 -1.8492965 0.2556048 0 46
-0.45697662 -1.8446506 0.27277905 0 47
-0.45881075 -1.8520542 0.29180905 0 48
-0.45599911 -1.8407047 0.30789629 0 49
-0.45739421 -1.8463362 0.32682207 0 50
-0.45783776 -1.8481266 0.34519723 0 51
-0.45765856 -1.8474034 0.36317357 0 52
-0.45733503 -1.8460972 0.38107914 0 53
-0.45821846 -1.8496634 0.40007985 0 54
-0.45628694 -1.8418665 0.41665137 0 55
-0.45767072 -1.8474524 0.43630242 0 56
-0.4548133 -1.8359181 0.45192829 0 57
-0.45718211 -1.8454801 0.47280878 0 58
-0.46082288 -1.8601764 0.49533385 0 59
-0.45905676 -1.8530474 0.51221251 0 60
-0.45995665 -1.8566799 0.53212357 0 61
-0.45967802 -1.8555552 0.55079365 0 62
-0.45483536 -1.836007 0.5638833 0 63
-0.43235013 -1.8419884 -0.56404489 0 0
-0.43275121 -1.8436972 -0.54565299 0 1
-0.43422127 -1.8499602 -0.52862746 0 2
-0.43366897 -1.8476071 -0.50919628 0 3
-0.43248576 -1.8425663 -0.48919144 0 4
-0.43254068 -1.8428003 -0.47072399 0 5
-0.43597203 -1.8574193 -0.4558669 0 6
-0.43515357 -1.8539321 -0.43653601 0 7
-0.43671805 -1.8605975 -0.41964203 0 8
-0.43266147 -1.8433149 -0.39752585 0 9
-0.43359694 -1.8473003 -0.38019812 0 10
-0.43291062 -1.8443762 -0.3615047 0 11
-0.43322253 -1.8457052 -0.34372395 0 12
-0.43632931 -1.8589413 -0.32807881 0 13
-0.43257293 -1.8429376 -0.3073568 0 14
-0.43436927 -1.8505907 -0.29071492 0 15
-0.43130752 -1.8375465 -0.27092376 0 16
-0.43190652 -1.8400984 -0.25358027 0 17
-0.43497893 -1.8531883 -0.23758231 0 18
-0.43204096 -1.8406712 -0.21833657 0 19
-0.4313924 -1.8379081 -0.20043164 0 20
-0.4354237 -1.855083 -0.18459783 0 21
-0.43201399 -1.8405564 -0.16561541 0 22
-0.43400082 -1.849021 -0.14878792 0 23
-0.43395174 -1.8488119 -0.13120924 0 24
-0.43040979 -1.8337218 -0.11274192 0 25
-0.43354249 -1.8470683 -0.096058801 0 26
-0.4328272 -1.844021 -0.078441754 0 27
-0.43808475 -1.8664203 -0.061737403 0 28
-0.43435088 -1.8505124 -0.043714888 0 29
-0.43556607 -1.8556896 -0.026299346 0 30
-0.43221092 -1.8413953 -0.0086984308 0 31
-0.43545741 -1.8552268 0.0087637678 0 32
-0.43078196 -1.8353074 0.026010484 0 33
-0.4340069 -1.8490469 0.043680269 0 34
-0.43407637 -1.8493429 0.061172519 0 35
-0.43358901 -1.8472666 0.078579813 0 36
-0.43377113 -1.8480424 0.096109457 0 37
-0.43715546 -1.8624611 0.1145089 0 38
-0.43828657 -1.86728 0.13251992 0 39
-0.43640599 -1.8592681 0.14961249 0 40
-0.43428925 -1.8502499 0.16648765 0 41
-0.4360356 -1.85769 0.18485725 0 42
-0.43288073 -1.8442489 0.20112313 0 43
-0.43338898 -1.8464143 0.2190178 0 44
-0.43155113 -1.8385843 0.23571007 0 45
-0.43619186 -1.8583556 0.25609627 0 46
-0.43619889 -1.8583857 0.27399626 0 47
-0.43458179 -1.8514962 0.29085714 0 48
-0.43498248 -1.8532033 0.30906886 0 49
-0.43429464 -1.8502728 0.3265489 0 50
-0.4362672 -1.8586768 0.34613961 0 51
-0.43314621 -1.8453801 0.36170143 0 52
-0.43308163 -1.8451048 0.37974626 0 53
-0.43194821 -1.8402761 0.39687052 0 54
-0.43305683 -1.8449992 0.41612396 0 55
-0.43533862 -1.8547206 0.43672165 0 56
-0.43500629 -1.8533047 0.45485711 0 57
-0.43354133 -1.8470634 0.47181296 0 58
-0.43586966 -1.8569831 0.49301904 0 59
-0.43510428 -1.8537222 0.51088154 0 60
-0.4336592 -1.8475657 0.52794319 0 61
-0.43333733 -1.8461943 0.54639202 0 62
-0.43531913 -1.8546376 0.56791824 0 63
-0.41047782 -1.850811 -0.56515819 0 0
-0.41179737 -1.8567609 -0.54797924 0 1
-0.41370684 -1.8653705 -0.53153712 0 2
-0.40696642 -1.8349785 -0.50429857 0 3
-0.40735951 -1.8367509 -0.48628086 0 4
-0.40718263 -1.8359534 -0.4676607 0 5
-0.41013944 -1.8492855 -0.45259866 0 6
-0.40759087 -1.8377941 -0.43152332 0 7
-0.41201892 -1.8577598 -0.41782776 0 8
-0.40847051 -1.8417604 -0.39607748 0 9
-0.41171116 -1.8563721 -0.38099447 0 10
-0.40823001 -1.840676 -0.35976833 0 11
-0.41291302 -1.8617913 -0.34574795 0 12
-0.41150412 -1.8554386 -0.32654288 0 13
-0.40977597 -1.8476466 -0.30727857 0 14
-0.41147384 -1.8553021 -0.29063824 0 15
-0.40863299 -1.8424929 -0.27089176 0 16
-0.40971449 -1.8473693 -0.25386876 0 17
-0.41267952 -1.8607384 -0.23788172 0 18
-0.40654898 -1.8330963 -0.21682867 0 19
-0.41156575 -1.8557166 -0.20180658 0 20
-0.40714714 -1.8357934 -0.18216638 0 21
-0.40981236 -1.8478106 -0.1658022 0 22
-0.41000724 -1.8486893 -0.14834432 0 23
-0.4089613 -1.8439733 -0.13049909 0 24
-0.41126531 -1.8543619 -0.11369142 0 25
-0.41118479 -1.8539988 -0.096149005 0 26
-0.40892708 -1.843819 -0.078213349 0 27
-0.40626839 -1.8318312 -0.060423452 0 28
-0.40869507 -1.8427728 -0.043410055 0 29
-0.41003466 -1.8488129 -0.026128458 0 30
-0.40892315 -1.8438013 -0.0086853867 0 31
-0.4103702 -1.8503258 0.0087161213 0 32
-0.4103477 -1.8502244 0.026148405 0 33
-0.41293791 -1.8619035 0.043860715 0 34
-0.41075963 -1.8520818 0.061091423 0 35
-0.41429591 -1.8680266 0.079240218 0 36
-0.41277623 -1.8611746 0.096521139 0 37
-0.41148198 -1.8553388 0.11375131 0 38
-0.41152385 -1.8555275 0.1313168 0 39
-0.41226882 -1.8588866 0.14916258 0 40
-0.41103074 -1.8533043 0.16629513 0 41
-0.40828466 -1.8409224 0.18267532 0 42
-0.40986854 -1.8480639 0.20097436 0 43
-0.41394663 -1.8664517 0.22077414 0 44
-0.41173753 -1.8564911 0.23733874 0 45
-0.4128834 -1.8616577 0.25583231 0 46
-0.4118717 -1.8570961 0.27303877 0 47
-0.41119337 -1.8540374 0.29044011 0 48
-0.40865523 -1.8425932 0.30643815 0 49
-0.40932491 -1.8456128 0.32481363 0 50
-0.41092503 -1.8528275 0.34408331 0 51
-0.40928227 -1.8454205 0.36069566 0 52
-0.40926984 -1.8453645 0.3787353 0 53
-0.40971881 -1.8473889 0.39728791 0 54
-0.40880555 -1.843271 0.41456908 0 55
-0.40835044 -1.8412189 0.43232748 0 56
-0.4093841 -1.8458796 0.45176509 0 57
-0.41365376 -1.8651311 0.47509298 0 58
-0.41053617 -1.8510742 0.49007297 0 59
-0.41004875 -1.8488765 0.50811803 0 60
-0.41127658 -1.8544127 0.52841473 0 61
-0.40934744 -1.8457143 0.5447191 0 62
-0.41266492 -1.8606726 0.56816953 0 63
-0.38740313 -1.8543447 -0.56473994 0 0
-0.38693267 -1.852093 -0.54515618 0 1
-0.38997599 -1.8666601 -0.53049809 0 2
-0.38655612 -1.8502905 -0.50716203 0 3
-0.38791251 -1.8567829 -0.49028444 0 4
-0.38424191 -1.8392133 -0.46725222 0 5
-0.3856526 -1.8459657 -0.4505915 0 6
-0.38700035 -1.8524169 -0.43380666 0 7
-0.38411066 -1.8385851 -0.4124217 0 8
-0.38789493 -1.8566989 -0.39823422 0 9
-0.38459665 -1.8409113 -0.37682226 0 10
-0.38762334 -1.8553989 -0.36168703 0 11
-0.38419211 -1.838975 -0.34060773 0 12
-0.38902265 -1.8620968 -0.32684809 0 13
-0.38697931 -1.8523163 -0.30724058 0 14
-0.38274896 -1.8320671 -0.28623948 0 15
-0.38621849 -1.8486744 -0.27108186 0 16
-0.38567135 -1.8460555 -0.2530174 0 17
-0.38675281 -1.8512321 -0.23604058 0 18
-0.38343862 -1.8353683 -0.21652335 0 19
-0.38715041 -1.8531351 -0.20099294 0 20
-0.38892284 -1.8616191 -0.18424058 0 21
-0.38766381 -1.8555926 -0.16606018 0 22
-0.38804755 -1.8574293 -0.14865151 0 23
-0.38575864 -1.8464733 -0.13033047 0 24
-0.38746202 -1.8546267 -0.11340697 0 25
-0.38620737 -1.8486211 -0.095616609 0 26
-0.38710308 -1.8529086 -0.078391083 0 27
-0.38639075 -1.8494989 -0.060844906 0 28
-0.38844857 -1.8593489 -0.043684714 0 29
-0.3887127 -1.8606133 -0.026225694 0 30
-0.38655838 -1.8503013 -0.0086929575 0 31
-0.38633987 -1.8492553 0.0086880438 0 32
-0.385032 -1.8429952 0.025977362 0 33
-0.38622844 -1.8487221 0.043435041 0 34
-0.38594052 -1.8473439 0.06077401 0 35
-0.38754141 -1.8550067 0.078479841 0 36
-0.38430247 -1.8395032 0.095144995 0 37
-0.38903549 -1.8621583 0.11386751 0 38
-0.38658383 -1.8504232 0.13060927 0 39
-0.38534352 -1.8444862 0.14761567 0 40
-0.38807246 -1.8575486 0.16623522 0 41
-0.38340178 -1.835192 0.18162514 0 42
-0.38941318 -1.8639662 0.20216769 0 43
-0.38615543 -1.8483726 0.21805748 0 44
-0.38782147 -1.8563472 0.23669279 0 45
-0.38727006 -1.8537079 0.25406623 0 46
-0.38586101 -1.8469633 0.27083093 0 47
-0.38737595 -1.8542147 0.28969976 0 48
-0.386933 -1.8520944 0.3072038 0 49
-0.38822719 -1.8582892 0.32617977 0 50
-0.38409489 -1.8385096 0.34052151 0 51
-0.3874388 -1.8545156 0.36151484 0 52
-0.38675827 -1.851258 0.37894019 0 53
-0.38374653 -1.8368422 0.39397526 0 54
-0.38517374 -1.8436736 0.4135631 0 55
-0.38611764 -1.8481916 0.43281716 0 56
-0.38628992 -1.8490164 0.45133615 0 57
-0.38762581 -1.8554107 0.47136721 0 58
-0.38917279 -1.8628155 0.49187735 0 59
-0.38812417 -1.8577962 0.50921929 0 60
-0.38687724 -1.8518275 0.52628273 0 61
-0.38763511 -1.8554553 0.54614586 0 62
-0.38687006 -1.8517932 0.56396282 0 63
-0.36363834 -1.8541987 -0.56329107 0 0
-0.36064878 -1.8389549 -0.53994292 0 1
-0.36527684 -1.8625535 -0.5280146 0 2
-0.35909075 -1.8310103 -0.50062925 0 3
-0.36565495 -1.8644813 -0.49109286 0 4
-0.36278063 -1.8498251 -0.46877944 0 5
-0.36451358 -1.8586615 -0.45256218 0 6
-0.36342165 -1.8530937 -0.43288592 0 7
-0.36301935 -1.8510424 -0.41418344 0 8
-0.36694011 -1.8710344 -0.40031093 0 9
-0.36093161 -1.8403969 -0.37578011 0 10
-0.36227986 -1.8472718 -0.35920718 0 11
-0.36454949 -1.8588446 -0.34343168 0 12
-0.36694941 -1.8710818 -0.32760844 0 13
-0.36355075 -1.8537521 -0.30671406 0 14
-0.36555058 -1.8639493 -0.29049644 0 15
-0.36335242 -1.8527408 -0.27100247 0 16
-0.36172399 -1.8444375 -0.25216693 0 17
-0.36130771 -1.8423148 -0.23431939 0 18
-0.36337158 -1.8528384 -0.21804073 0 19
-0.36488405 -1.8605505 -0.20129538 0 20
-0.36597723 -1.8661246 -0.18422718 0 21
-0.36734697 -1.8731091 -0.16721088 0 22
-0.36406267 -1.8563623 -0.14819664 0 23
-0.36517352 -1.8620266 -0.13110141 0 24
-0.36271831 -1.8495075 -0.11281268 0 25
-0.36571863 -1.8648062 -0.09621387 0 26
-0.36410978 -1.8566027 -0.078352019 0 27
-0.36396617 -1.8558702 -0.06090267 0 28
-0.36443427 -1.8582572 -0.043550488 0 29
-0.36377409 -1.8548909 -0.026080014 0 30
-0.36313489 -1.8516316 -0.0086775729 0 31
-0.36143845 -1.8429813 0.0086370343 0 32
-0.36291894 -1.8505304 0.026018705 0 33
-0.36378145 -1.8549284 0.043472473 0 34
-0.36148095 -1.8431982 0.06048682 0 35
-0.36236748 -1.8477186 0.077977099 0 36
-0.36391824 -1.8556259 0.095740221 0 37
-0.36266169 -1.8492187 0.11279507 0 38
-0.36447567 -1.8584682 0.13085088 0 39
-0.36082569 -1.839857 0.14687899 0 40
-0.3610965 -1.8412378 0.16436575 0 41
-0.36523178 -1.8623236 0.18385194 0 42
-0.36122659 -1.8419012 0.19927767 0 43
-0.36405808 -1.856339 0.21845268 0 44
-0.36378324 -1.8549376 0.23592484 0 45
-0.36073279 -1.8393832 0.25147593 0 46
-0.36058989 -1.8386546 0.26894209 0 47
-0.36435479 -1.8578519 0.28954616 0 48
-0.36304542 -1.8511753 0.30628771 0 49
-0.36241198 -1.8479453 0.32355747 0 50
-0.36065468 -1.838985 0.33976251 0 51
-0.36107391 -1.8411227 0.35801148 0 52
-0.36148697 -1.8432288 0.37635833 0 53
-0.36362827 -1.8541473 0.39669791 0 54
-0.36395606 -1.8558187 0.41525218 0 55
-0.3637487 -1.8547615 0.43327549 0 56
-0.36462384 -1.8592237 0.45269907 0 57
-0.36428165 -1.857479 0.47071907 0 58
-0.36246321 -1.8482066 0.48680618 0 59
-0.36542231 -1.8632951 0.5094564 0 60
-0.36277241 -1.8497832 0.52439433 0 61
-0.36181667 -1.84491 0.54169142 0 62
-0.36248207 -1.848303 0.56149995 0 63
-0.34042472 -1.856415 -0.56265014 0 0
-0.33982795 -1.8531609 -0.54284602 0 1
-0.33961695 -1.8520101 -0.52380216 0 2
-0.33999839 -1.8540903 -0.50575835 0 3
-0.34025997 -1.8555167 -0.4875927 0 4
-0.34080425 -1.8584847 -0.46987644 0 5
-0.33916262 -1.8495327 -0.44928998 0 6
-0.33957541 -1.8517836 -0.43157184 0 7
-0.34141237 -1.861801 -0.41561997 0 8
-0.34094962 -1.8592775 -0.39686853 0 9
-0.33957633 -1.8517888 -0.37722501 0 10
-0.34161559 -1.8629092 -0.36140379 0 11
-0.34173959 -1.8635855 -0.34350523 0 12
-0.34216654 -1.8659136 -0.32594222 0 13
-0.34173521 -1.8635616 -0.30761856 0 14
-0.34181702 -1.8640077 -0.28982857 0 15
-0.33915168 -1.849473 -0.26989409 0 16
-0.34240967 -1.8672396 -0.25468948 0 17
-0.34089565 -1.8589832 -0.23588842 0 18
-0.34025466 -1.8554878 -0.21784368 0 19
-0.34185514 -1.8642155 -0.20122188 0 20
-0.33929598 -1.8502599 -0.18223532 0 21
-0.34096307 -1.8593509 -0.1655959 0 22
-0.33682632 -1.8367922 -0.14629263 0 23
-0.34074917 -1.8581843 -0.13052602 0 24
-0.33819664 -1.8442649 -0.11223076 0 25
-0.34264237 -1.8685086 -0.096180238 0 26
-0.33926082 -1.8500682 -0.077894308 0 27
-0.34020436 -1.8552134 -0.060739242 0 28
-0.33894369 -1.8483387 -0.043217089 0 29
-0.34059674 -1.8573531 -0.026053777 0 30
-0.33895439 -1.848397 -0.0086422283 0 31
-0.33898699 -1.848575 0.00864306 0 32
-0.33884481 -1.8477995 0.025919767 0 33
-0.34143025 -1.8618985 0.043534141 0 34
-0.34091154 -1.8590698 0.060865503 0 35
-0.34283918 -1.8695818 0.078715906 0 36
-0.33759716 -1.8409959 0.094764046 0 37
-0.34007013 -1.8544815 0.11285248 0 38
-0.33703336 -1.8379211 0.12910266 0 39
-0.33693573 -1.8373889 0.14634015 0 40
-0.33994886 -1.8538202 0.16510333 0 41
-0.33845416 -1.8456693 0.18178318 0 42
-0.33963752 -1.8521223 0.19991656 0 43
-0.33889121 -1.8480526 0.21697074 0 44
-0.34050068 -1.8568294 0.23561513 0 45
-0.33979458 -1.8529788 0.25274435 0 46
-0.33900812 -1.8486902 0.26977983 0 47
-0.3393386 -1.8504922 0.28772712 0 48
-0.33976221 -1.8528024 0.30584255 0 49
-0.34008443 -1.8545594 0.32395881 0 50
-0.33858472 -1.8463813 0.34033406 0 51
-0.33757868 -1.8408951 0.35713303 0 52
-0.34258327 -1.8681862 0.38056535 0 53
-0.33972797 -1.8526156 0.39544654 0 54
-0.340832 -1.8586361 0.41491345 0 55
-0.33929509 -1.850255 0.43121558 0 56
-0.33828923 -1.8447698 0.44813299 0 57
-0.34067267 -1.8577673 0.46969503 0 58
-0.34050626 -1.8568597 0.48794565 0 59
-0.33981609 -1.8530961 0.50548714 0 60
-0.33789998 -1.8426471 0.52115405 0 61
-0.34398362 -1.8758227 0.54948431 0 62
-0.34315124 -1.8712835 0.56715655 0 63
-0.31822225 -1.864262 -0.56379986 0 0
-0.31851253 -1.8659625 -0.54540747 0 1
-0.31640393 -1.8536097 -0.52311462 0 2
-0.31552774 -1.8484765 -0.50313061 0 3
-0.3179923 -1.8629148 -0.48847234 0 4
-0.31828317 -1.8646188 -0.47040221 0 5
-0.31920874 -1.8700413 -0.45328417 0 6
-0.31771442 -1.8612869 -0.43284342 0 7
-0.31805187 -1.8632638 -0.41504207 0 8
-0.31669134 -1.8552933 -0.39515698 0 9
-0.31698364 -1.8570058 -0.37746525 0 10
-0.31591079 -1.8507205 -0.35825849 0 11
-0.31637886 -1.8534627 -0.34089649 0 12
-0.31844592 -1.8655723 -0.325174 0 13
-0.31681594 -1.8560232 -0.30570802 0 14
-0.31681859 -1.8560388 -0.28796202 0 15
-0.31750119 -1.8600378 -0.27084559 0 16
-0.31452638 -1.8426101 -0.25078356 0 17
-0.31714964 -1.8579783 -0.23524828 0 18
-0.31704235 -1.8573496 -0.21758811 0 19
-0.31580195 -1.850083 -0.19926222 0 20
-0.3186667 -1.8668656 -0.18347104 0 21
-0.31797832 -1.862833 -0.16554527 0 22
-0.31661081 -1.8548217 -0.14740737 0 23
-0.31729782 -1.8588463 -0.1302886 0 24
-0.31663603 -1.8549694 -0.11263672 0 25
-0.31518966 -1.8464959 -0.094840482 0 26
-0.31760454 -1.8606433 -0.078169219 0 27
-0.31387436 -1.8387905 -0.06007066 0 28
-0.31704971 -1.8573929 -0.043334361 0 29
-0.31721202 -1.8583436 -0.02601099 0 30
-0.31684488 -1.8561929 -0.008659807 0 31
-0.31701395 -1.8571832 0.0086644273 0 32
-0.31820047 -1.8641344 0.026092043 0 33
-0.3139936 -1.839489 0.042916648 0 34
-0.31831479 -1.864804 0.060920484 0 35
-0.31699508 -1.8570728 0.078019217 0 36
-0.31674299 -1.8555958 0.095307879 0 37
-0.31354669 -1.8368708 0.11153775 0 38
-0.3168239 -1.8560699 0.13009401 0 39
-0.31780231 -1.8618017 0.14796211 0 40
-0.3183476 -1.8649963 0.16573752 0 41
-0.31781468 -1.8618742 0.18298049 0 42
-0.31477514 -1.8440675 0.19861431 0 43
-0.31683722 -1.856148 0.21744734 0 44
-0.3170324 -1.8572913 0.23516129 0 45
-0.31837299 -1.8651451 0.25385064 0 46
-0.31826106 -1.8644893 0.27149379 0 47
-0.31733745 -1.8590784 0.28843361 0 48
-0.31369925 -1.8377645 0.30270061 0 49
-0.31772664 -1.8613584 0.3244395 0 50
-0.31767261 -1.861042 0.34229052 0 51
-0.31847429 -1.8657385 0.36116561 0 52
-0.31527388 -1.8469893 0.37542924 0 53
-0.31566983 -1.849309 0.39388239 0 54
-0.3158507 -1.8503686 0.41216967 0 55
-0.31591132 -1.8507237 0.43038693 0 56
-0.31603834 -1.8514677 0.44878212 0 57
-0.31526253 -1.8469229 0.46593794 0 58
-0.31941223 -1.8712333 0.49065354 0 59
-0.3167311 -1.8555263 0.50504947 0 60
-0.31779683 -1.8617697 0.52541751 0 61
-0.31514072 -1.8462094 0.53963375 0 62
-0.31688994 -1.8564569 0.56143939 0 63
-0.29543313 -1.8690273 -0.56409967 0 0
-0.29160792 -1.8448275 -0.53814107 0 1
-0.2923975 -1.8498228 -0.5209918 0 2
-0.29247457 -1.8503103 -0.50261289 0 3
-0.29420224 -1.8612401 -0.48704785 0 4
-0.2932938 -1.8554931 -0.46715486 0 5
-0.29431126 -1.86193 -0.45040679 0 6
-0.29412389 -1.8607445 -0.43184358 0 7
-0.29419991 -1.8612254 -0.41375092 0 8
-0.29279047 -1.8523088 -0.39372471 0 9
-0.29240602 -1.8498766 -0.37525693 0 10
-0.29406768 -1.8603889 -0.35940292 0 11
-0.29288065 -1.8528794 -0.34010112 0 12
-0.29275864 -1.8521073 -0.32217517 0 13
-0.294054 -1.8603023 -0.30579418 0 14
-0.29515707 -1.8672808 -0.28912124 0 15
-0.29330784 -1.8555819 -0.2696512 0 16
-0.29392207 -1.8594677 -0.25256693 0 17
-0.29145503 -1.8438601 -0.23298933 0 18
-0.29380798 -1.8587459 -0.21731202 0 19
-0.29273084 -1.8519316 -0.19905858 0 20
-0.29586929 -1.8717866 -0.18358324 0 21
-0.2936393 -1.8576788 -0.1647539 0 22
-0.29296595 -1.8534188 -0.14699848 0 23
-0.29272935 -1.851922 -0.12954119 0 24
-0.29353973 -1.8570489 -0.11253531 0 25
-0.29394901 -1.8596382 -0.095322646 0 26
-0.29477462 -1.8648612 -0.078188233 0 27
-0.29240254 -1.8498545 -0.060310084 0 28
-0.29127809 -1.842741 -0.042905711 0 29
-0.2932623 -1.8552939 -0.02591587 0 30
-0.29260164 -1.8511143 -0.0086186761 0 31
-0.29267395 -1.8515717 0.008620806 0 32
-0.29343739 -1.8564014 0.025931342 0 33
-0.29315558 -1.8546185 0.043182265 0 34
-0.29355463 -1.8571432 0.060547713 0 35
-0.29336348 -1.8559338 0.077813931 0 36
-0.29390481 -1.8593585 0.095308311 0 37
-0.29475012 -1.8647064 0.11299934 0 38
-0.29347825 -1.85666 0.12987261 0 39
-0.29242474 -1.849995 0.14672694 0 40
-0.29188463 -1.846578 0.16376939 0 41
-0.2943204 -1.8619877 0.18262218 0 42
-0.29330871 -1.8555874 0.19945152 0 43
-0.29173288 -1.845618 0.21577719 0 44
-0.29330263 -1.855549 0.23446631 0 45
-0.29272053 -1.8518664 0.25153446 0 46
-0.29090795 -1.8403991 0.26744485 0 47
-0.29325563 -1.8552516 0.28725868 0 48
-0.29210997 -1.8480037 0.30377254 0 49
-0.29350397 -1.8568227 0.32299542 0 50
-0.29409808 -1.8605812 0.3415148 0 51
-0.29458466 -1.8636595 0.36003476 0 52
-0.29437569 -1.8623376 0.37778467 0 53
-0.29461172 -1.8638308 0.39617383 0 54
-0.29230323 -1.8492264 0.41108352 0 55
-0.29321703 -1.8550074 0.4305121 0 56
-0.29505321 -1.8666239 0.45154226 0 57
-0.29230136 -1.8492144 0.46557409 0 58
-0.29488245 -1.8655434 0.4881739 0 59
-0.29413289 -1.8608013 0.50546265 0 60
-0.29450512 -1.8631563 0.52474719 0 61
-0.29338446 -1.8560667 0.54141957 0 62
-0.2922821 -1.8490926 0.55808312 0 63
-0.26998436 -1.855708 -0.55903554 0 0
-0.26849473 -1.8454692 -0.53732461 0 1
-0.27124757 -1.8643905 -0.52411574 0 2
-0.27172634 -1.8676813 -0.50638556 0 3
-0.2712459 -1.864379 -0.48695961 0 4
-0.2682057 -1.8434826 -0.46326566 0 5
-0.26947543 -1.8522099 -0.44722009 0 6
-0.27208424 -1.8701414 -0.43321517 0 7
-0.27128673 -1.8646597 -0.4137415 0 8
-0.27023146 -1.8574064 -0.39407218 0 9
-0.26965189 -1.8534229 -0.37527528 0 10
-0.27082381 -1.8614779 -0.35894281 0 11
-0.27065104 -1.8602905 -0.34082481 0 12
-0.26995707 -1.8555204 -0.3221671 0 13
-0.27032447 -1.8580457 -0.30485377 0 14
-0.26989627 -1.8551027 -0.2867001 0 15
-0.27049807 -1.8592389 -0.26967889 0 16
-0.26958603 -1.8529702 -0.25121513 0 17
-0.27035856 -1.8582801 -0.23437361 0 18
-0.26895365 -1.8486235 -0.21572562 0 19
-0.26894695 -1.8485776 -0.1983276 0 20
-0.27023655 -1.8574413 -0.18183661 0 21
-0.27073076 -1.8608383 -0.16472642 0 22
-0.27142721 -1.8656253 -0.14769073 0 23
-0.26820722 -1.8434931 -0.12871116 0 24
-0.27084377 -1.8616151 -0.11260168 0 25
-0.27040288 -1.8585848 -0.095091023 0 26
-0.26930407 -1.8510321 -0.077463724 0 27
-0.26880863 -1.8476268 -0.060125146 0 28
-0.27003348 -1.8560456 -0.04313492 0 29
-0.27051952 -1.8593863 -0.02592461 0 30
-0.26948488 -1.852275 -0.0086080013 0 31
-0.26989084 -1.8550653 0.008620969 0 32
-0.27107391 -1.8631968 0.025977738 0 33
-0.26955488 -1.852756 0.04305847 0 34
-0.27067059 -1.8604249 0.060541619 0 35
-0.26813856 -1.843021 0.077128462 0 36
-0.27072036 -1.8607669 0.09520267 0 37
-0.26886907 -1.8480422 0.11178072 0 38
-0.2673918 -1.8378882 0.12831983 0 39
-0.26865727 -1.8465865 0.14618352 0 40
-0.2716836 -1.8673875 0.16530618 0 41
-0.27096701 -1.8624622 0.18232813 0 42
-0.27071846 -1.8607538 0.19963394 0 43
-0.26891488 -1.848357 0.21569452 0 44
-0.27099609 -1.8626621 0.23492628 0 45
-0.27065316 -1.8603048 0.25220951 0 46
-0.27039674 -1.8585424 0.26957786 0 47
-0.27056104 -1.8596717 0.28740624 0 48
-0.26882032 -1.847707 0.30315748 0 49
-0.27148736 -1.8660388 0.32399336 0 50
-0.2693519 -1.8513608 0.33918878 0 51
-0.26960173 -1.8530781 0.35732311 0 52
-0.27115259 -1.8637378 0.37736383 0 53
-0.26855451 -1.84588 0.39162672 0 54
-0.27025884 -1.8575946 0.41217387 0 55
-0.271786 -1.8680915 0.43274033 0 56
-0.27187666 -1.8687145 0.45120516 0 57
-0.2722708 -1.8714236 0.47028717 0 58
-0.26939711 -1.8516716 0.48364052 0 59
-0.27025291 -1.8575538 0.5036397 0 60
-0.27025717 -1.8575832 0.52220207 0 61
-0.26996598 -1.8555816 0.54026896 0 62
-0.27025488 -1.8575674 0.55959564 0 63
-0.24609067 -1.8509421 -0.55664611 0 0
-0.24732313 -1.860212 -0.54069072 0 1
-0.24834014 -1.8678614 -0.52419341 0 2
-0.24800028 -1.8653051 -0.50487632 0 3
-0.24784267 -1.8641195 -0.4860591 0 4
-0.24735878 -1.8604801 -0.46673745 0 5
-0.24844454 -1.8686465 -0.45041707 0 6
-0.24641912 -1.8534125 -0.42860565 0 7
-0.2457758 -1.8485739 -0.4094708 0 8
-0.2470073 -1.8578365 -0.39348927 0 9
-0.2487254 -1.870759 -0.37813759 0 10
-0.24721207 -1.8593767 -0.35792443 0 11
-0.24737784 -1.8606235 -0.34030277 0 12
-0.24673341 -1.8557765 -0.32166046 0 13
-0.24572314 -1.8481778 -0.30271611 0 14
-0.24730873 -1.8601036 -0.28698131 0 15
-0.24688163 -1.8568913 -0.26887771 0 16
-0.24624611 -1.8521112 -0.25066921 0 17
-0.24762833 -1.8625076 -0.23450503 0 18
-0.24729069 -1.8599679 -0.21667823 0 19
-0.24772961 -1.8632693 -0.19956192 0 20
-0.24900202 -1.8728396 -0.18303046 0 21
-0.24775136 -1.8634329 -0.16467397 0 22
-0.24769643 -1.8630197 -0.1472322 0 23
-0.24611165 -1.8511 -0.12902121 0 24
-0.24661392 -1.8548777 -0.11200228 0 25
-0.24755318 -1.8619423 -0.095099874 0 26
-0.24647373 -1.8538233 -0.077447839 0 27
-0.2473883 -1.8607022 -0.060447078 0 28
-0.24547298 -1.8462963 -0.042834956 0 29
-0.24600764 -1.8503176 -0.025754046 0 30
-0.24569795 -1.8479884 -0.0085733915 0 31
-0.24577829 -1.8485926 0.0085761948 0 32
-0.24694622 -1.8573771 0.025852304 0 33
-0.24656901 -1.8545399 0.043026213 0 34
-0.24735996 -1.860489 0.060440157 0 35
-0.24895997 -1.8725233 0.078229077 0 36
-0.24868178 -1.8704308 0.095533438 0 37
-0.2472368 -1.8595626 0.11228517 0 38
-0.24706843 -1.8582963 0.1295228 0 39
-0.24727701 -1.8598651 0.14698289 0 40
-0.2448725 -1.8417798 0.16276047 0 41
-0.24579649 -1.8487295 0.18067421 0 42
-0.24658951 -1.8546942 0.19864351 0 43
-0.24754868 -1.8619084 0.21690428 0 44
-0.24798129 -1.8651623 0.23483928 0 45
-0.24832974 -1.8677831 0.2527903 0 46
-0.24659626 -1.8547449 0.26856691 0 47
-0.24797665 -1.8651273 0.28775638 0 48
-0.25009769 -1.8810805 0.30810529 0 49
-0.24841796 -1.8684466 0.32385656 0 50
-0.24595083 -1.8498905 0.33833975 0 51
-0.24668284 -1.855396 0.35715818 0 52
-0.24775916 -1.8634915 0.37666863 0 53
-0.24672651 -1.8557246 0.39304197 0 54
-0.24535146 -1.8453823 0.40876383 0 55
-0.24711713 -1.8586626 0.42981973 0 56
-0.24706744 -1.8582889 0.44792047 0 57
-0.24702413 -1.8579631 0.46610603 0 58
-0.24670938 -1.8555957 0.48383653 0 59
-0.24612382 -1.8511915 0.50105625 0 60
-0.24717027 -1.8590622 0.52172399 0 61
-0.24673948 -1.8558221 0.53941476 0 62
-0.24811022 -1.8661319 0.56121421 0 63
-0.22456625 -1.8642257 -0.5597682 0 0
-0.22383399 -1.858147 -0.53924978 0 1
-0.22630647 -1.8786721 -0.52640659 0 2
-0.22429115 -1.8619421 -0.50318152 0 3
-0.22325858 -1.8533703 -0.48250398 0 4
-0.22453359 -1.8639547 -0.46688116 0 5
-0.22551782 -1.8721253 -0.45055309 0 6
-0.22431453 -1.8621361 -0.42995265 0 7
-0.22276093 -1.849239 -0.40898043 0 8
-0.22491507 -1.8671216 -0.39484024 0 9
-0.22452243 -1.8638619 -0.37615702 0 10
-0.22450526 -1.8637195 -0.35820192 0 11
-0.22425857 -1.8616717 -0.33996442 0 12
-0.22499801 -1.86781 -0.32324225 0 13
-0.22321932 -1.8530443 -0.30304068 0 14
-0.22370388 -1.8570669 -0.28606677 0 15
-0.22329792 -1.8536969 -0.26799732 0 16
-0.22400488 -1.8595656 -0.25128633 0 17
-0.22311106 -1.8521457 -0.23283735 0 18
-0.22482058 -1.8663372 -0.21708176 0 19
-0.22243403 -1.8465253 -0.19746071 0 20
-0.22176206 -1.840947 -0.17963356 0 21
-0.22357303 -1.8559806 -0.16376008 0 22
-0.22428094 -1.8618573 -0.14691128 0 23
-0.22418451 -1.8610568 -0.12951328 0 24
-0.22365187 -1.8566352 -0.11193387 0 25
-0.22336012 -1.8542132 -0.09455768 0 26
-0.22528949 -1.8702298 -0.078011625 0 27
-0.22566696 -1.8733631 -0.06076365 0 28
-0.22210702 -1.8438106 -0.042710692 0 29
-0.22424901 -1.8615922 -0.025870638 0 30
-0.22411749 -1.8605005 -0.0086180028 0 31
-0.22283944 -1.8498908 0.0085688578 0 32
-0.22418299 -1.8610442 0.025863022 0 33
-0.22294296 -1.8507502 0.042871445 0 34
-0.22349152 -1.8553039 0.060177885 0 35
-0.22471842 -1.865489 0.077813879 0 36
-0.22380337 -1.8578928 0.094745323 0 37
-0.22345126 -1.8549697 0.11183347 0 38
-0.22393554 -1.85899 0.12936944 0 39
-0.22387527 -1.8584896 0.14664556 0 40
-0.2232554 -1.8533437 0.16352741 0 41
-0.22345759 -1.8550223 0.18100698 0 42
-0.22442245 -1.8630321 0.1992259 0 43
-0.22306177 -1.8517364 0.21538348 0 44
-0.22525179 -1.8699168 0.23507141 0 45
-0.22299097 -1.8511487 0.25014892 0 46
-0.22259668 -1.8478754 0.26715568 0 47
-0.22406414 -1.8600576 0.28652745 0 48
-0.22500926 -1.8679035 0.30547071 0 49
-0.2243782 -1.8626647 0.32235181 0 50
-0.22516982 -1.8692364 0.34134585 0 51
-0.22373429 -1.8573192 0.3569718 0 52
-0.22331388 -1.8538293 0.37413228 0 53
-0.22599262 -1.8760667 0.39673188 0 54
-0.2259016 -1.8753111 0.41474658 0 55
-0.22285983 -1.8500601 0.42716438 0 56
-0.2254404 -1.8714825 0.45039842 0 57
-0.22436859 -1.8625849 0.46653807 0 58
-0.22351773 -1.8555216 0.48306406 0 59
-0.22429207 -1.8619497 0.50318354 0 60
-0.22328264 -1.8535699 0.51937288 0 61
-0.22483291 -1.8664395 0.54165626 0 62
-0.22388433 -1.8585649 0.55806845 0 63
-0.20018983 -1.8535337 -0.5557766 0 0
-0.20173995 -1.8678863 -0.54131532 0 1
-0.20149298 -1.8655995 -0.52200991 0 2
-0.1993718 -1.8459598 -0.49816218 0 3
-0.20054527 -1.8568248 -0.48272482 0 4
-0.20100774 -1.8611066 -0.46551353 0 5
-0.20165487 -1.8670985 -0.44871265 0 6
-0.20162404 -1.8668129 -0.43042749 0 7
-0.20197277 -1.8700417 -0.41300073 0 8
-0.19935742 -1.8458266 -0.38978913 0 9
-0.20130031 -1.8638155 -0.37561971 0 10
-0.20118448 -1.8627431 -0.35751176 0 11
-0.19939941 -1.8462154 -0.33666873 0 12
-0.20048781 -1.8562927 -0.32079819 0 13
-0.20002192 -1.8519793 -0.30244142 0 14
-0.20008464 -1.8525598 -0.28497195 0 15
-0.20132506 -1.8640448 -0.26911512 0 16
-0.20086461 -1.8597815 -0.25096276 0 17
-0.20051204 -1.8565171 -0.23305933 0 18
-0.20058025 -1.8571488 -0.21570982 0 19
-0.19985352 -1.85042 -0.19759947 0 20
-0.20215246 -1.8717055 -0.18237853 0 21
-0.20172903 -1.8677851 -0.16457032 0 22
-0.20095323 -1.8606021 -0.14660618 0 23
-0.20211932 -1.8713988 -0.1300502 0 24
-0.2021824 -1.8719828 -0.11270075 0 25
-0.20121671 -1.8630416 -0.094874546 0 26
-0.20248364 -1.874772 -0.078091331 0 27
-0.2009432 -1.8605093 -0.060262024 0 28
-0.20126723 -1.8635093 -0.043106414 0 29
-0.20213908 -1.8715817 -0.025972955 0 30
-0.20150465 -1.8657075 -0.0086299917 0 31
-0.20034213 -1.854944 0.008580205 0 32
-0.20102963 -1.8613094 0.025830401 0 33
-0.20247959 -1.8747344 0.043366071 0 34
-0.20008764 -1.8525876 0.060005438 0 35
-0.20130597 -1.8638681 0.077637143 0 36
-0.20151378 -1.8657922 0.095014609 0 37
-0.20096196 -1.860683 0.11202046 0 38
-0.20131886 -1.8639873 0.12953515 0 39
-0.20098309 -1.8608785 0.14662796 0 40
-0.20132017 -1.8639995 0.16423677 0 41
-0.20054634 -1.8568347 0.18092953 0 42
-0.20050874 -1.8564867 0.1982473 0 43
-0.1996703 -1.8487235 0.21473123 0 44
-0.20035981 -1.8551077 0.2328824 0 45
-0.20000052 -1.8517811 0.24988316 0 46
-0.20167857 -1.8673179 0.26958764 0 47
-0.2022761 -1.8728503 0.28809315 0 48
-0.20081083 -1.8592836 0.30363429 0 49
-0.20092668 -1.8603562 0.32150042 0 50
-0.20085587 -1.8597006 0.33912784 0 51
-0.1993074 -1.8453635 0.35417613 0 52
-0.20258816 -1.8757396 0.37802279 0 53
-0.20131128 -1.8639171 0.39360934 0 54
-0.20208113 -1.8710451 0.41322231 0 55
-0.20007265 -1.8524488 0.42711559 0 56
-0.20075056 -1.8587255 0.44670042 0 57
-0.20080788 -1.8592563 0.4650507 0 58
-0.20077078 -1.8589128 0.48326766 0 59
-0.20006226 -1.8523526 0.49988741 0 60
-0.20074385 -1.8586634 0.52006912 0 61
-0.19983572 -1.8502551 0.53620583 0 62
-0.20083828 -1.8595378 0.55757689 0 63
-0.17735159 -1.8555108 -0.55567348 0 0
-0.17846331 -1.867142 -0.5404228 0 1
-0.17778556 -1.8600512 -0.51980644 0 2
-0.17890392 -1.8717519 -0.50449079 0 3
-0.17715795 -1.853485 -0.48125386 0 4
-0.17611755 -1.8426 -0.46030799 0 5
-0.17811187 -1.8634652 -0.4472793 0 6
-0.17877166 -1.870368 -0.43070778 0 7
-0.17749836 -1.8570464 -0.40961769 0 8
-0.17864862 -1.8690809 -0.39420611 0 9
-0.17829196 -1.8653494 -0.3754586 0 10
-0.1767448 -1.8491625 -0.35446134 0 11
-0.17841847 -1.866673 -0.33997351 0 12
-0.17953689 -1.8783742 -0.3242082 0 13
-0.17867413 -1.8693477 -0.30489597 0 14
-0.17783649 -1.8605841 -0.28584832 0 15
-0.1788657 -1.871352 -0.26983213 0 16
-0.17761122 -1.8582271 -0.25043938 0 17
-0.1776607 -1.8587449 -0.23304713 0 18
-0.1778473 -1.860697 -0.21585163 0 19
-0.17783147 -1.8605316 -0.19843073 0 20
-0.17684701 -1.8502318 -0.18006064 0 21
-0.17796242 -1.8619016 -0.16384673 0 22
-0.17693147 -1.8511155 -0.14567624 0 23
-0.17736436 -1.8556445 -0.12879407 0 24
-0.17701162 -1.8519541 -0.11135548 0 25
-0.17764887 -1.8586211 -0.094531044 0 26
-0.17797709 -1.8620549 -0.077464603 0 27
-0.17877533 -1.8704064 -0.060506817 0 28
-0.17849588 -1.8674829 -0.043144297 0 29
-0.178252 -1.8649312 -0.025848292 0 30
-0.17766541 -1.8587942 -0.0085872598 0 31
-0.17712747 -1.853166 0.0085612582 0 32
-0.17797345 -1.8620169 0.025807898 0 33
-0.17797914 -1.8620765 0.043019395 0 34
-0.17889616 -1.8716707 0.060547713 0 35
-0.17762008 -1.8583199 0.077309221 0 36
-0.17691179 -1.8509095 0.094138823 0 37
-0.1776447 -1.8585775 0.11175375 0 38
-0.17782119 -1.8604239 0.1291258 0 39
-0.17775823 -1.8597653 0.14635696 0 40
-0.17801788 -1.862482 0.1638978 0 41
-0.17835402 -1.8659986 0.18159503 0 42
-0.17788036 -1.861043 0.19848529 0 43
-0.17807929 -1.8631243 0.21613321 0 44
-0.17771679 -1.8593317 0.23312071 0 45
-0.17797144 -1.8619959 0.2509473 0 46
-0.17945382 -1.8775051 0.27071935 0 47
-0.17823078 -1.8647091 0.28648207 0 48
-0.17837572 -1.8662257 0.30438676 0 49
-0.17766008 -1.8587383 0.32081902 0 50
-0.17844126 -1.8669113 0.34001693 0 51
-0.17817941 -1.8641719 0.35733846 0 52
-0.17783408 -1.8605587 0.37449434 0 53
-0.17772861 -1.8594553 0.392176 0 54
-0.1781148 -1.8634959 0.41104028 0 55
-0.17843217 -1.8668162 0.42988986 0 56
-0.17709693 -1.8528465 0.44473058 0 57
-0.17748991 -1.8569579 0.46389484 0 58
-0.17772628 -1.859431 0.48279774 0 59
-0.17702627 -1.8521073 0.49919599 0 60
-0.17869189 -1.8695337 0.52245635 0 61
-0.17763381 -1.8584635 0.53791094 0 62
-0.1769603 -1.8514171 0.55444753 0 63
-0.1559764 -1.8750147 -0.56089753 0 0
-0.15441051 -1.856191 -0.53666306 0 1
-0.15486073 -1.861603 -0.51966864 0 2
-0.15472893 -1.8600186 -0.50077766 0 3
-0.15482955 -1.8612282 -0.48273355 0 4
-0.15483789 -1.8613286 -0.46447593 0 5
-0.15369302 -1.8475658 -0.44297594 0 6
-0.15489268 -1.8619872 -0.42830688 0 7
-0.15608414 -1.8763098 -0.41341209 0 8
-0.15619117 -1.8775965 -0.39556715 0 9
-0.15572929 -1.8720442 -0.37639225 0 10
-0.15465273 -1.8591026 -0.3559753 0 11
-0.15558806 -1.8703464 -0.34026837 0 12
-0.15529117 -1.8667774 -0.32185268 0 13
-0.15609331 -1.8764201 -0.30571336 0 14
-0.15453129 -1.8576428 -0.28508294 0 15
-0.15563536 -1.8709149 -0.26947281 0 16
-0.15462805 -1.8588061 -0.2502422 0 17
-0.15560402 -1.8705384 -0.23426817 0 18
-0.1553449 -1.8674233 -0.21639396 0 19
-0.15471056 -1.8597978 -0.1981346 0 20
-0.15602368 -1.8755829 -0.18232727 0 21
-0.15494217 -1.8625821 -0.16372657 0 22
-0.15554416 -1.8698187 -0.14698648 0 23
-0.15526885 -1.8665091 -0.12940586 0 24
-0.15593408 -1.8745059 -0.1125877 0 25
-0.15492868 -1.86242 -0.094620205 0 26
-0.1546628 -1.8592238 -0.077261865 0 27
-0.15444446 -1.8565991 -0.05999418 0 28
-0.15514445 -1.8650138 -0.043039925 0 29
-0.15503438 -1.8636905 -0.025802722 0 30
-0.15541852 -1.8683083 -0.0086217318 0 31
-0.15588121 -1.8738704 0.0086474 0 32
-0.15571882 -1.8719183 0.025916634 0 33
-0.15575692 -1.8723763 0.043209836 0 34
-0.15550151 -1.8693061 0.060404796 0 35
-0.1557429 -1.8722078 0.077801421 0 36
-0.15483919 -1.8613441 0.094565548 0 37
-0.15447757 -1.856997 0.11153607 0 38
-0.15436307 -1.8556205 0.12865095 0 39
-0.15416333 -1.8532195 0.14568162 0 40
-0.15486065 -1.8616021 0.16364042 0 41
-0.15451406 -1.8574356 0.18056315 0 42
-0.15526791 -1.8664978 0.19884838 0 43
-0.15506779 -1.8640922 0.21600796 0 44
-0.15445699 -1.8567497 0.23254126 0 45
-0.1553307 -1.8672527 0.25137934 0 46
-0.15570687 -1.8717747 0.26959661 0 47
-0.15494813 -1.8626536 0.28585193 0 48
-0.15550883 -1.8693939 0.30456862 0 49
-0.15467381 -1.8593562 0.32057315 0 50
-0.15327543 -1.8425459 0.33521068 0 51
-0.15571071 -1.8718208 0.35841054 0 52
-0.15518634 -1.8655173 0.37507993 0 53
-0.15506351 -1.8640406 0.39271125 0 54
-0.15538129 -1.8678608 0.41155052 0 55
-0.15532957 -1.867239 0.42951491 0 56
-0.15624602 -1.8782558 0.45033425 0 57
-0.15529886 -1.8668699 0.4658587 0 58
-0.15479992 -1.860872 0.48264116 0 59
-0.1531693 -1.8412702 0.49573001 0 60
-0.15486063 -1.8616018 0.51966828 0 61
-0.15442786 -1.8563994 0.53672332 0 62
-0.15564191 -1.8709937 0.55969471 0 63
-0.13297129 -1.877652 -0.56115496 0 0
-0.13302487 -1.8784088 -0.54257274 0 1
-0.13237354 -1.8692116 -0.52129883 0 2
-0.13248657 -1.8708076 -0.50320578 0 3
-0.13294852 -1.8773305 -0.48644909 0 4
-0.13129756 -1.8540179 -0.46221378 0 5
-0.1327747 -1.8748761 -0.44909853 0 6
-0.13243075 -1.8700193 -0.4297474 0 7
-0.13077207 -1.8465976 -0.40648049 0 8
-0.13112758 -1.8516176 -0.38972482 0 9
-0.13269958 -1.8738154 -0.37639183 0 10
-0.13196822 -1.8634881 -0.35647735 0 11
-0.13241819 -1.8698419 -0.33985469 0 12
-0.13237573 -1.8692423 -0.32197267 0 13
-0.13269226 -1.8737122 -0.30498326 0 14
-0.13180445 -1.8611757 -0.28535479 0 15
-0.1324954 -1.8709323 -0.26922026 0 16
-0.13289081 -1.8765156 -0.25238729 0 17
-0.13126257 -1.8535237 -0.23191758 0 18
-0.13112091 -1.8515234 -0.21434848 0 19
-0.13164425 -1.8589133 -0.19785295 0 20
-0.13229404 -1.868089 -0.18142691 0 21
-0.13195941 -1.8633635 -0.16364026 0 22
-0.13121141 -1.8528016 -0.14551093 0 23
-0.13163213 -1.8587422 -0.12874542 0 24
-0.13223517 -1.8672576 -0.11204621 0 25
-0.13239311 -1.8694879 -0.09488941 0 26
-0.13232538 -1.8685315 -0.07757517 0 27
-0.13242263 -1.8699046 -0.060366955 0 28
-0.133159 -1.8803027 -0.043351691 0 29
-0.13271843 -1.8740816 -0.025922032 0 30
-0.1310546 -1.8505869 -0.0085318713 0 31
-0.13128081 -1.8537813 0.0085465983 0 32
-0.13147373 -1.8565056 0.025678923 0 33
-0.13194969 -1.8632264 0.042957988 0 34
-0.13200906 -1.8640647 0.060178425 0 35
-0.13225956 -1.867602 0.077536583 0 36
-0.13204913 -1.8646306 0.09464287 0 37
-0.13309471 -1.8793949 0.11277452 0 38
-0.1324802 -1.8707176 0.12957489 0 39
-0.13153273 -1.8573387 0.14586726 0 40
-0.13224865 -1.8674481 0.16399896 0 41
-0.13195781 -1.8633411 0.18096581 0 42
-0.13244234 -1.870183 0.19905244 0 43
-0.13174312 -1.8603095 0.21536562 0 44
-0.13120888 -1.8527657 0.23182271 0 45
-0.13173479 -1.8601918 0.25019178 0 46
-0.13196546 -1.863449 0.26814345 0 47
-0.13165414 -1.8590531 0.28502938 0 48
-0.13194308 -1.863133 0.30326128 0 49
-0.13130631 -1.8541415 0.31937158 0 50
-0.13271287 -1.8740031 0.34061098 0 51
-0.13270652 -1.8739134 0.35847169 0 52
-0.13127634 -1.8537182 0.37235489 0 53
-0.13274868 -1.8745086 0.39454287 0 54
-0.13119327 -1.8525453 0.40778971 0 55
-0.13207689 -1.8650225 0.42859909 0 56
-0.13261607 -1.8726363 0.448562 0 57
-0.13212369 -1.8656834 0.46512207 0 58
-0.13296464 -1.8775584 0.48650813 0 59
-0.13212006 -1.8656322 0.50181371 0 60
-0.13144517 -1.8561022 0.5176428 0 61
-0.13167839 -1.8593954 0.53708076 0 62
-0.13175081 -1.8604181 0.55600441 0 63
-0.108445 -1.854697 -0.55385423 0 0
-0.10940814 -1.8711693 -0.54005224 0 1
-0.10895302 -1.8633856 -0.51926112 0 2
-0.10955585 -1.8736956 -0.50358218 0 3
-0.10893939 -1.8631525 -0.48239174 0 4
-0.10881907 -1.8610947 -0.46360946 0 5
-0.10962576 -1.8748912 -0.44874531 0 6
-0.10847356 -1.8551856 -0.42599973 0 7
-0.10882793 -1.8612462 -0.40937948 0 8
-0.10874714 -1.8598645 -0.39114958 0 9
-0.10887222 -1.8620037 -0.37372205 0 10
-0.10859028 -1.8571819 -0.35498872 0 11
-0.1092834 -1.8690358 -0.33943826 0 12
-0.1080391 -1.8477551 -0.31801865 0 13
-0.10891186 -1.8626815 -0.30294693 0 14
-0.10932195 -1.8696953 -0.28643328 0 15
-0.10917469 -1.8671768 -0.26846638 0 16
-0.10979024 -1.8777041 -0.25234649 0 17
-0.10926594 -1.8687373 -0.23363535 0 18
-0.10952087 -1.8730974 -0.21667378 0 19
-0.1086282 -1.8578303 -0.19758058 0 20
-0.10881864 -1.8610874 -0.18060333 0 21
-0.10865588 -1.8583038 -0.16306624 0 22
-0.1083804 -1.8535923 -0.14545737 0 23
-0.10948946 -1.8725601 -0.12959947 0 24
-0.10934415 -1.8700751 -0.11212612 0 25
-0.1088552 -1.8617126 -0.094419681 0 26
-0.10845385 -1.8548485 -0.076945916 0 27
-0.10878734 -1.860552 -0.060017299 0 28
-0.10894134 -1.8631859 -0.042922921 0 29
-0.10900488 -1.8642727 -0.025765868 0 30
-0.10868011 -1.8587182 -0.0085625499 0 31
-0.10873865 -1.8597193 0.0085671619 0 32
-0.10918987 -1.8674364 0.025809593 0 33
-0.10863958 -1.858025 0.042804029 0 34
-0.10947473 -1.8723081 0.060396526 0 35
-0.1100155 -1.8815567 0.078053877 0 36
-0.10878745 -1.8605539 0.094360918 0 37
-0.1094941 -1.8726395 0.11227988 0 38
-0.11011716 -1.8832954 0.13034245 0 39
-0.10911005 -1.8660712 0.14643665 0 40
-0.1087953 -1.8606882 0.16327548 0 41
-0.10924408 -1.8683634 0.1813094 0 42
-0.10893934 -1.8631518 0.19814652 0 43
-0.10925167 -1.8684934 0.21614119 0 44
-0.10918466 -1.8673472 0.23346156 0 45
-0.10884774 -1.8615851 0.25018024 0 46
-0.10931347 -1.8695502 0.26880768 0 47
-0.10875868 -1.8600619 0.28495747 0 48
-0.10902309 -1.8645841 0.30325633 0 49
-0.10901023 -1.8643639 0.32087722 0 50
-0.10962334 -1.8748499 0.34049416 0 51
-0.10937169 -1.870546 0.3575432 0 52
-0.10947024 -1.8722315 0.37577486 0 53
-0.10906979 -1.8653826 0.39231011 0 54
-0.10971298 -1.8763829 0.41270882 0 55
-0.10915556 -1.8668495 0.4286781 0 56
-0.10948756 -1.8725277 0.44817963 0 57
-0.10898907 -1.8640021 0.46433368 0 58
-0.10860892 -1.8575007 0.48092842 0 59
-0.1084452 -1.8547007 0.49847698 0 60
-0.10913199 -1.8664465 0.52011406 0 61
-0.10896917 -1.8636616 0.53788537 0 62
-0.10886775 -1.8619273 0.55601335 0 63
-0.085384272 -1.850515 -0.55225009 0 0
-0.0863159 -1.870706 -0.53957134 0 1
-0.085853338 -1.8606809 -0.51817405 0 2
-0.085398428 -1.8508217 -0.49711466 0 3
-0.086092174 -1.8658571 -0.48278141 0 4
-0.086049587 -1.8649342 -0.46426719 0 5
-0.085806809 -1.8596725 -0.44481662 0 6
-0.085962914 -1.8630557 -0.42753187 0 7
-0.085726559 -1.8579333 -0.40838808 0 8
-0.085718147 -1.8577509 -0.39045388 0 9
-0.086280145 -1.869931 -0.37507185 0 10
-0.08625333 -1.8693498 -0.35708484 0 11
-0.085792854 -1.8593701 -0.33746576 0 12
-0.086008176 -1.8640366 -0.32061461 0 13
-0.085999861 -1.8638566 -0.30294311 0 14
-0.086367548 -1.8718252 -0.2865752 0 15
-0.086642317 -1.8777803 -0.26981741 0 16
-0.085782021 -1.8591353 -0.24969038 0 17
-0.086041883 -1.8647672 -0.2329891 0 18
-0.086051553 -1.8649768 -0.21559571 0 19
-0.085605808 -1.8553162 -0.19718635 0 20
-0.085641779 -1.8560959 -0.18000314 0 21
-0.086146384 -1.8670321 -0.16372682 0 22
-0.086044267 -1.8648188 -0.14624427 0 23
-0.086038366 -1.864691 -0.12897187 0 24
-0.085930124 -1.862345 -0.11159085 0 25
-0.085888781 -1.861449 -0.094345614 0 26
-0.086065285 -1.8652743 -0.077328667 0 27
-0.085764341 -1.8587521 -0.059920691 0 28
-0.085390106 -1.8506413 -0.042606518 0 29
-0.086482204 -1.8743103 -0.025887942 0 30
-0.086014926 -1.8641831 -0.0085822046 0 31
-0.086789317 -1.8809662 0.008659469 0 32
-0.08590281 -1.8617531 0.025714502 0 33
-0.086422123 -1.873008 0.043121457 0 34
-0.086184129 -1.8678501 0.060213979 0 35
-0.085656263 -1.8564097 0.076961167 0 36
-0.086449645 -1.8736045 0.09496171 0 37
-0.085838035 -1.8603493 0.11147127 0 38
-0.086019427 -1.8642805 0.12894347 0 39
-0.086119227 -1.8664435 0.14637168 0 40
-0.086296849 -1.870293 0.16401279 0 41
-0.08605139 -1.8649732 0.18086405 0 42
-0.086174071 -1.867632 0.1984953 0 43
-0.086700521 -1.8790417 0.21722165 0 44
-0.08588554 -1.8613788 0.23256575 0 45
-0.085467659 -1.8523222 0.24877535 0 46
-0.086554162 -1.8758696 0.26954287 0 47
-0.085987031 -1.8635783 0.28531262 0 48
-0.085698843 -1.8573325 0.30188274 0 49
-0.085529514 -1.8536627 0.31883031 0 50
-0.086150289 -1.8671167 0.33887172 0 51
-0.086134836 -1.8667817 0.35659426 0 52
-0.085748337 -1.8584052 0.37276 0 53
-0.086219281 -1.8686119 0.39273661 0 54
-0.086117946 -1.8664156 0.41025257 0 55
-0.085370831 -1.8502235 0.42458716 0 56
-0.086352706 -1.8715036 0.4476465 0 57
-0.08573994 -1.8582233 0.46259654 0 58
-0.085736714 -1.8581533 0.48078811 0 59
-0.086531967 -1.8753886 0.50371313 0 60
-0.086076856 -1.865525 0.51952308 0 61
-0.086209096 -1.8683912 0.53890365 0 62
-0.085976817 -1.8633571 0.55608255 0 63
-0.063309141 -1.8716586 -0.55828547 0 0
-0.062817924 -1.8571362 -0.53539413 0 1
-0.063092209 -1.8652453 -0.51918989 0 2
-0.063122511 -1.8661411 -0.50098294 0 3
-0.063202552 -1.8685074 -0.48322955 0 4
-0.063262172 -1.8702699 -0.46536666 0 5
-0.06259042 -1.8504103 -0.44238368 0 6
-0.063443452 -1.8756292 -0.43020567 0 7
-0.063126974 -1.866273 -0.41001961 0 8
-0.063656725 -1.8819344 -0.39534226 0 9
-0.062623493 -1.8513882 -0.37117001 0 10
-0.062923722 -1.8602642 -0.35517463 0 11
-0.062849261 -1.8580626 -0.33706272 0 12
-0.063145109 -1.8668091 -0.3209337 0 13
-0.063439757 -1.87552 -0.30468902 0 14
-0.063333064 -1.8723658 -0.28651711 0 15
-0.062709823 -1.8539405 -0.26626095 0 16
-0.063217312 -1.8689438 -0.25088432 0 17
-0.063075095 -1.8647392 -0.2328711 0 18
-0.063594326 -1.8800898 -0.21723598 0 19
-0.063250765 -1.8699328 -0.19864215 0 20
-0.063300557 -1.8714048 -0.18139857 0 21
-0.06276866 -1.8556799 -0.16265132 0 22
-0.063389629 -1.874038 -0.14689504 0 23
-0.063265607 -1.8703713 -0.12930118 0 24
-0.063450694 -1.8758434 -0.11234442 0 25
-0.063192472 -1.8682092 -0.094641715 0 26
-0.063505925 -1.8774761 -0.077796265 0 27
-0.062990516 -1.8622389 -0.060003586 0 28
-0.063308872 -1.8716507 -0.043069027 0 29
-0.063415438 -1.8748012 -0.025881995 0 30
-0.063735314 -1.8842578 -0.0086703598 0 31
-0.06335488 -1.8730108 0.0086186063 0 32
-0.063089103 -1.8651533 0.025748804 0 33
-0.063225262 -1.8691788 0.043012146 0 34
-0.063014582 -1.8629503 0.060026508 0 35
-0.063138977 -1.8666278 0.07734675 0 36
-0.063437179 -1.8754437 0.095008209 0 37
-0.062685855 -1.8532318 0.11099021 0 38
-0.063804336 -1.8862983 0.13040222 0 39
-0.063026801 -1.8633116 0.14605425 0 40
-0.063219003 -1.8689936 0.16381828 0 41
-0.063007601 -1.862744 0.18055907 0 42
-0.063070953 -1.8646168 0.19807743 0 43
-0.063207999 -1.8686683 0.21591629 0 44
-0.062935807 -1.8606213 0.23235685 0 45
-0.063283898 -1.8709123 0.25114858 0 46
-0.062952623 -1.8611186 0.26729184 0 47
-0.063208587 -1.8686857 0.28595394 0 48
-0.062603384 -1.8507936 0.30067208 0 49
-0.063247241 -1.8698286 0.32145277 0 50
-0.062392119 -1.8445479 0.33461106 0 51
-0.062946416 -1.8609351 0.35530272 0 52
-0.063228011 -1.86926 0.37475297 0 53
-0.063090645 -1.865199 0.3918266 0 54
-0.063018017 -1.8630518 0.40931192 0 55
-0.063107006 -1.8656826 0.42792428 0 56
-0.063365489 -1.8733245 0.44786185 0 57
-0.063301563 -1.8714345 0.4656564 0 58
-0.063535422 -1.8783481 0.48577455 0 59
-0.06304507 -1.8638515 0.5003683 0 60
-0.063047446 -1.8639218 0.51882148 0 61
-0.06338983 -1.8740439 0.54026848 0 62
-0.062595785 -1.8505691 0.5519948 0 63
-0.040376354 -1.8762478 -0.55946398 0 0
-0.040151004 -1.8657759 -0.5377019 0 1
-0.040657304 -1.8893033 -0.52570748 0 2
-0.040165313 -1.8664409 -0.500893 0 3
-0.04015094 -1.8657731 -0.48235828 0 4
-0.04005225 -1.8611871 -0.4629491 0 5
-0.040275075 -1.8715415 -0.44728336 0 6
-0.04022656 -1.869287 -0.42860514 0 7
-0.040241491 -1.8699809 -0.41069448 0 8
-0.040199395 -1.8680247 -0.39228675 0 9
-0.040359024 -1.8754425 -0.37586454 0 10
-0.040066883 -1.861867 -0.35535973 0 11
-0.040288005 -1.8721423 -0.33950129 0 12
-0.040535767 -1.8836557 -0.32371968 0 13
-0.04023141 -1.8695124 -0.30360973 0 14
-0.040105488 -1.8636611 -0.28508803 0 15
-0.040000435 -1.8587793 -0.26686507 0 16
-0.040163461 -1.8663548 -0.25045156 0 17
-0.040262409 -1.870953 -0.2335676 0 18
-0.040620919 -1.8876125 -0.218031 0 19
-0.039864972 -1.8524845 -0.19672167 0 20
-0.040422138 -1.8783753 -0.1820123 0 21
-0.040089779 -1.8629309 -0.16323134 0 22
