# .PCD v0.7 - Point Cloud Data file format
VERSION 0.7
FIELDS x y z intensity ring
SIZE 4 4 4 4 2
TYPE F F F F U
COUNT 1 1 1 1 1
WIDTH 1420
HEIGHT 1
VIEWPOINT 0 0 0 1 0 0 0
POINTS 1420
DATA ascii
-4.0017114 6.0139885 -0.033220626 0 31
-4.0022483 6.0147958 0.033225086 0 32
-4.0007472 6.0125394 0.099643484 0 33
-3.9936697 6.0019031 0.16579738 0 34
-3.9992018 6.0102167 0.2324772 0 35
-3.9980996 6.0085607 0.29888436 0 36
-3.997103 6.0070629 0.36531514 0 37
-3.9914088 5.9985051 0.43126717 0 38
-4.0039577 6.0173645 0.49937797 0 39
-3.9949694 6.0038562 0.56494665 0 40
-4.0019145 6.0142937 0.6328308 0 41
-3.9955678 6.0047555 0.69873083 0 42
-3.9918635 5.9991884 0.76504391 0 43
-3.9965222 6.0061898 0.83310676 0 44
-3.9941642 6.0026464 0.89988846 0 45
-3.9965699 6.0062613 0.96789885 0 46
-4.0052047 6.019238 1.0377712 0 47
-3.9925153 6.0001678 1.1022285 0 48
-3.9961622 6.0056486 1.1712335 0 49
-3.9917457 5.9990115 1.2380651 0 50
-4.0022058 6.0147319 1.3098303 0 51
-4.0005202 6.0121984 1.3779995 0 52
-4.002624 6.0153599 1.4477229 0 53
-3.993921 6.0022807 1.5136781 0 54
-3.9934652 6.0015955 1.5828676 0 55
-3.9998484 6.0111885 1.6551522 0 56
-3.9994693 6.0106187 1.7250379 0 57
0 0 0 0 58
0 0 0 0 59
0 0 0 0 60
0 0 0 0 61
0 0 0 0 62
0 0 0 0 63
-1.3838974 2.0253508 -0.73127258 0 0
-1.4374036 2.1036575 -0.73409832 0 1
-1.4950181 2.1879773 -0.73719496 0 2
-1.5496382 2.2679143 -0.73697788 0 3
-1.6081233 2.3535082 -0.73675597 0 4
-1.6663783 2.438765 -0.73453122 0 5
-1.7311091 2.5334995 -0.73316407 0 6
-1.8080719 2.6461353 -0.73466694 0 7
-1.8987851 2.7788951 -0.73901105 0 8
-1.9791895 2.8965681 -0.73654926 0 9
-2.0729778 3.0338285 -0.73623371 0 10
-2.1669872 3.1714122 -0.73294151 0 11
-2.3016193 3.368448 -0.73965555 0 12
-2.4067328 3.5222828 -0.73297459 0 13
-2.5597284 3.7461939 -0.73667288 0 14
-2.6978197 3.9482923 -0.7313385 0 15
-2.8872614 4.2255425 -0.73458737 0 16
-3.0663035 4.4875727 -0.72918564 0 17
-3.3211443 4.8605351 -0.73473531 0 18
-3.6120985 5.2863503 -0.73936427 0 19
-3.900696 5.7087164 -0.73406273 0 20
-4.1091223 6.013751 -0.70560378 0 21
-4.1067796 6.0103221 -0.63767827 0 22
-4.1071644 6.0108852 -0.57031721 0 23
-4.1106787 6.0160284 -0.50342387 0 24
-4.1073456 6.0111504 -0.43577453 0 25
-4.106617 6.0100842 -0.36854196 0 26
-4.1054397 6.0083613 -0.30136284 0 27
-4.1019983 6.003325 -0.23414397 0 28
-4.1083193 6.0125751 -0.16747506 0 29
-4.1123152 6.0184236 -0.10057142 0 30
-4.1035643 6.0056167 -0.033450585 0 31
-4.1067147 6.0102272 0.033476263 0 32
-4.1107407 6.016119 0.10053292 0 33
-4.1119804 6.0179338 0.16762431 0 34
-4.1045613 6.0070753 0.23429026 0 35
-4.1127906 6.0191188 0.30190241 0 36
-4.1158118 6.023541 0.36936715 0 37
-4.1079593 6.0120487 0.43583962 0 38
-4.1044545 6.0069194 0.50266165 0 39
-4.1089954 6.0135651 0.57057148 0 40
-4.1118379 6.0177245 0.63846368 0 41
-4.1041503 6.006474 0.70474994 0 42
-4.1161313 6.0240083 0.77460498 0 43
-4.1085367 6.0128937 0.84098065 0 44
-4.1088061 6.0132875 0.90898931 0 45
-4.1095829 6.0144248 0.97728384 0 46
-4.1041245 6.0064368 1.0441861 0 47
-4.1037006 6.005816 1.1124517 0 48
-4.1128998 6.0192795 1.1836653 0 49
-4.1109362 6.0164051 1.2519926 0 50
-4.1124339 6.0185976 1.3215846 0 51
-4.1045136 6.0070062 1.3882724 0 52
-4.1185017 6.0274777 1.4627169 0 53
-4.1090474 6.0136414 1.5291693 0 54
-4.1053591 6.0082431 1.5978141 0 55
-4.1085863 6.0129662 1.6694262 0 56
-4.1017814 6.0030074 1.7371976 0 57
0 0 0 0 58
0 0 0 0 59
0 0 0 0 60
0 0 0 0 61
0 0 0 0 62
0 0 0 0 63
-1.4167889 2.0197196 -0.73547387 0 0
-1.4596367 2.0808015 -0.73233032 0 1
-1.5314587 2.1831882 -0.74187022 0 2
-1.575557 2.246053 -0.73611391 0 3
-1.6327232 2.3275471 -0.73485839 0 4
-1.6984866 2.4212968 -0.73550481 0 5
-1.7666811 2.5185122 -0.73505801 0 6
-1.8395954 2.6224561 -0.73431754 0 7
-1.9228208 2.7410989 -0.73519182 0 8
-2.0057273 2.8592873 -0.73328543 0 9
-2.1029334 2.9978607 -0.73372501 0 10
-2.2213368 3.1666517 -0.7380982 0 11
-2.3201945 3.3075793 -0.73249918 0 12
-2.4487698 3.4908717 -0.73264867 0 13
-2.6042452 3.7125113 -0.73629087 0 14
-2.7493229 3.9193282 -0.73218018 0 15
-2.9466877 4.2006841 -0.73650926 0 16
-3.1299331 4.4619117 -0.73121446 0 17
-3.3788714 4.8167882 -0.7343474 0 18
-3.6331794 5.1793199 -0.73058784 0 19
-3.9763808 5.6685748 -0.73513281 0 20
-4.2243295 6.0220404 -0.71261728 0 21
-4.2218699 6.0185347 -0.64400882 0 22
-4.2234254 6.0207515 -0.57613724 0 23
-4.2237015 6.0211458 -0.50815976 0 24
-4.2298713 6.0299411 -0.44087401 0 25
-4.2332358 6.0347376 -0.37321749 0 26
-4.2227879 6.0198431 -0.30452013 0 27
-4.2321181 6.033144 -0.23731872 0 28
-4.2241683 6.0218105 -0.16916631 0 29
-4.2204394 6.0164948 -0.10139875 0 30
-4.2194805 6.0151286 -0.03379 0 31
-4.2272139 6.0261521 0.033851929 0 32
-4.2257223 6.0240259 0.10152568 0 33
-4.21876 6.0141015 0.16894974 0 34
-4.2243457 6.0220637 0.23688288 0 35
-4.2302341 6.0304585 0.30505711 0 36
-4.229661 6.0296407 0.3729023 0 37
-4.2290988 6.0288396 0.44079348 0 38
-4.2254133 6.0235853 0.50836563 0 39
-4.2221527 6.0189371 0.57596362 0 40
-4.2217126 6.0183101 0.64398485 0 41
-4.2296667 6.0296488 0.71351761 0 42
-4.2200928 6.0160012 0.78018904 0 43
-4.2268796 6.0256758 0.84997368 0 44
-4.2265587 6.0252185 0.91857958 0 45
-4.2220101 6.0187345 0.98634535 0 46
-4.2232099 6.0204444 1.0555693 0 47
-4.2280035 6.0272784 1.1259719 0 48
-4.2267103 6.025435 1.1950059 0 49
-4.22229 6.0191331 1.2632691 0 50
-4.2245431 6.0223451 1.3337134 0 51
-4.2243729 6.0221028 1.4036602 0 52
-4.2270551 6.0259256 1.4748425 0 53
-4.2274237 6.0264511 1.5455282 0 54
-4.2150002 6.0087414 1.6116083 0 55
-4.2258677 6.0242338 1.6868539 0 56
-4.2262378 6.0247612 1.7583988 0 57
0 0 0 0 58
0 0 0 0 59
0 0 0 0 60
0 0 0 0 61
0 0 0 0 62
0 0 0 0 63
-1.4413345 2.0018954 -0.7353816 0 0
-1.4827535 2.059423 -0.73116791 0 1
-1.548717 2.1510408 -0.73736173 0 2
-1.6139159 2.2415969 -0.7411015 0 3
-1.6577693 2.3025055 -0.73333269 0 4
-1.7247419 2.395525 -0.73406309 0 5
-1.7989305 2.4985671 -0.73563731 0 6
-1.8696578 2.5968013 -0.73351598 0 7
-1.9554083 2.7159016 -0.73482716 0 8
-2.0387928 2.8317161 -0.73258859 0 9
-2.138442 2.9701207 -0.733316 0 10
-2.2562644 3.1337664 -0.73684412 0 11
-2.3621223 3.2807941 -0.73294437 0 12
-2.4915724 3.4605896 -0.73266792 0 13
-2.6585019 3.6924412 -0.73873794 0 14
-2.8060935 3.8974335 -0.73448044 0 15
-3.0003767 4.1672769 -0.7370649 0 16
-3.1833513 4.4214139 -0.73093736 0 17
-3.4465551 4.7869821 -0.7362088 0 18
-3.698143 5.1364174 -0.73089528 0 19
-4.0468006 5.6206741 -0.73531848 0 20
-4.3438182 6.0332074 -0.72020495 0 21
-4.3456435 6.0357423 -0.65151876 0 22
-4.334166 6.0198011 -0.58110225 0 23
-4.3355689 6.0217495 -0.51267129 0 24
-4.3370547 6.0238132 -0.44429162 0 25
-4.3361936 6.0226169 -0.37573704 0 26
-4.3435078 6.0327764 -0.30785289 0 27
-4.3252096 6.0073614 -0.23837861 0 28
-4.343606 6.0329127 -0.1709657 0 29
-4.3423915 6.0312252 -0.10253917 0 30
-4.335247 6.0213027 -0.034121566 0 31
-4.3418574 6.0304837 0.034173593 0 32
-4.3373175 6.024178 0.10241935 0 33
-4.3354154 6.0215364 0.17064331 0 34
-4.3335714 6.0189748 0.23883945 0 35
-4.3433294 6.0325279 0.30784023 0 36
-4.3433309 6.0325303 0.3763555 0 37
-4.3406701 6.0288343 0.44466197 0 38
-4.3318262 6.0165515 0.51222873 0 39
-4.3429265 6.0319686 0.58227676 0 40
-4.3344727 6.020227 0.64984399 0 41
-4.3329935 6.0181727 0.71841019 0 42
-4.3306594 6.0149307 0.78689671 0 43
-4.337821 6.0248775 0.85732031 0 44
-4.3323226 6.0172405 0.92541504 0 45
-4.3420792 6.0307922 0.99699581 0 46
-4.328558 6.012012 1.0633426 0 47
-4.3495069 6.0411081 1.1384609 0 48
-4.3333945 6.0187297 1.2041529 0 49
-4.3318667 6.0166073 1.2738219 0 50
-4.3424888 6.0313601 1.3474334 0 51
-4.341856 6.0304818 1.4179503 0 52
-4.3361073 6.0224977 1.4869409 0 53
-4.3440351 6.0335088 1.5609192 0 54
-4.3362498 6.0226955 1.6295288 0 55
-4.3451614 6.0350733 1.7047213 0 56
0 0 0 0 57
0 0 0 0 58
0 0 0 0 59
0 0 0 0 60
0 0 0 0 61
0 0 0 0 62
0 0 0 0 63
-1.47255 1.9931042 -0.73874789 0 0
-1.507555 2.0404837 -0.73096997 0 1
-1.5660717 2.1196864 -0.73315948 0 2
-1.6282636 2.2038634 -0.73519021 0 3
-1.6868954 2.2832217 -0.73374194 0 4
-1.7622635 2.3852329 -0.73749375 0 5
-1.8309457 2.4781947 -0.73621225 0 6
-1.9096595 2.5847342 -0.73668468 0 7
-1.9901526 2.693682 -0.73538089 0 8
-2.0764136 2.810437 -0.73363352 0 9
-2.1827614 2.9543793 -0.73600066 0 10
-2.2696657 3.0720043 -0.72882915 0 11
-2.4106979 3.2628925 -0.7355119 0 12
-2.5493584 3.4505701 -0.73712784 0 13
-2.6706202 3.6146986 -0.72969908 0 14
-2.8515151 3.8595407 -0.73389173 0 15
-3.0510843 4.1296587 -0.73699141 0 16
-3.2460694 4.3935719 -0.73287791 0 17
-3.5104363 4.7513943 -0.73731846 0 18
-3.7633636 5.0937324 -0.73135102 0 19
-4.1271214 5.586081 -0.73737633 0 20
-4.4613152 6.0384135 -0.72732008 0 21
-4.4487801 6.0214472 -0.6558311 0 22
-4.4536042 6.0279765 -0.58713347 0 23
-4.4559846 6.0311985 -0.51810145 0 24
-4.4545741 6.0292897 -0.44870165 0 25
-4.4561787 6.0314617 -0.3796787 0 26
-4.4599738 6.0365982 -0.31082299 0 27
-4.4622517 6.0396814 -0.24182011 0 28
-4.4402452 6.0098948 -0.1718477 0 29
-4.4498448 6.0228887 -0.10331989 0 30
-4.4550829 6.0299783 -0.03447856 0 31
-4.4507747 6.0241466 0.034445215 0 32
-4.4508243 6.0242143 0.10334263 0 33
-4.4563217 6.0316553 0.17246991 0 34
-4.4530072 6.0271688 0.24131912 0 35
-4.4546542 6.029398 0.31045228 0 36
-4.4611602 6.0382037 0.38010311 0 37
-4.4566898 6.0321531 0.44891471 0 38
-4.4500465 6.0231614 0.51741099 0 39
-4.4545646 6.0292764 0.58726007 0 40
-4.4600248 6.0366669 0.65748876 0 41
-4.4518714 6.0256314 0.72578043 0 42
-4.4476657 6.0199385 0.79464662 0 43
-4.4557524 6.0308843 0.865906 0 44
-4.4582376 6.0342479 0.93639094 0 45
-4.4574213 6.033143 1.0063696 0 46
-4.4549689 6.0298243 1.0761007 0 47
-4.4500513 6.0231676 1.1453055 0 48
-4.4510016 6.0244541 1.2161562 0 49
-4.4507031 6.0240498 1.2868873 0 50
-4.4536328 6.0280151 1.3588179 0 51
-4.4541674 6.028739 1.4303107 0 52
-4.4557052 6.0308204 1.5024096 0 53
-4.4496455 6.0226183 1.5721381 0 54
-4.449151 6.0219488 1.6440048 0 55
-4.4552264 6.0301723 1.7186817 0 56
0 0 0 0 57
0 0 0 0 58
0 0 0 0 59
0 0 0 0 60
0 0 0 0 61
0 0 0 0 62
0 0 0 0 63
-1.483636 1.9572898 -0.73217988 0 0
-1.5328929 2.0222721 -0.73114312 0 1
-1.6017904 2.1131654 -0.73766077 0 2
-1.6564845 2.1853206 -0.73574376 0 3
-1.7240514 2.2744582 -0.7376827 0 4
-1.7856354 2.3557031 -0.73509669 0 5
-1.860534 2.4545133 -0.73591793 0 6
-1.9228238 2.5366893 -0.72967488 0 7
-2.0208426 2.6660006 -0.73455215 0 8
-2.1151996 2.7904813 -0.73515826 0 9
-2.219475 2.9280469 -0.736184 0 10
-2.3190269 3.059381 -0.73254418 0 11
-2.4455621 3.2263129 -0.73398942 0 12
-2.586226 3.4118841 -0.73560148 0 13
-2.7271965 3.5978596 -0.73301405 0 14
-2.9059365 3.8336625 -0.73571002 0 15
-3.0790672 4.0620656 -0.73163015 0 16
-3.3079257 4.3639874 -0.73467249 0 17
-3.5664752 4.7050796 -0.73688108 0 18
-3.8267376 5.0484314 -0.73154759 0 19
-4.2021594 5.5437074 -0.73854786 0 20
-4.5497313 6.0022421 -0.72964668 0 21
-4.5810151 6.0435138 -0.66431952 0 22
-4.5772328 6.0385237 -0.59359807 0 23
-4.5784864 6.0401773 -0.52366948 0 24
-4.5702929 6.0293684 -0.45285556 0 25
-4.5827107 6.0457501 -0.38409641 0 26
-4.5886135 6.0535374 -0.31457669 0 27
-4.5729699 6.0328994 -0.24378157 0 28
-4.5771761 6.0384488 -0.17426036 0 29
-4.5748563 6.0353885 -0.10449144 0 30
-4.5765305 6.0375967 -0.034841262 0 31
-4.5819454 6.0447412 0.03488249 0 32
-4.5733271 6.033371 0.10445651 0 33
-4.5744481 6.0348501 0.17415652 0 34
-4.5792327 6.041162 0.24411546 0 35
-4.582994 6.0461245 0.31419146 0 36
-4.5821257 6.0449786 0.38404739 0 37
-4.5688663 6.0274858 0.45271417 0 38
-4.5844736 6.0480757 0.52435428 0 39
-4.571311 6.0307112 0.59283006 0 40
-4.5766625 6.0377717 0.66368836 0 41
-4.578959 6.040801 0.73433399 0 42
-4.5799575 6.0421185 0.80494761 0 43
-4.5826926 6.0457263 0.87606156 0 44
-4.584054 6.0475225 0.94712645 0 45
-4.575181 6.0358167 1.0161231 0 46
-4.5824866 6.045455 1.088864 0 47
-4.5859556 6.0500317 1.1610487 0 48
-4.5784531 6.0401335 1.2305934 0 49
-4.574544 6.0349765 1.3011397 0 50
-4.5783491 6.0399961 1.3741052 0 51
-4.5734901 6.033586 1.4446937 0 52
-4.5710888 6.0304179 1.5161974 0 53
-4.5669394 6.0249438 1.5872843 0 54
-4.5767813 6.0379276 1.6636055 0 55
-4.5725636 6.0323639 1.7352004 0 56
0 0 0 0 57
0 0 0 0 58
0 0 0 0 59
0 0 0 0 60
0 0 0 0 61
0 0 0 0 62
0 0 0 0 63
-1.5113647 1.9437547 -0.7340132 0 0
-1.5621898 2.0091205 -0.7332778 0 1
-1.6205491 2.0841758 -0.73444176 0 2
-1.6800834 2.1607425 -0.7343688 0 3
-1.7564597 2.2589695 -0.73960829 0 4
-1.8200486 2.3407507 -0.73735881 0 5
-1.8828377 2.4215031 -0.73290694 0 6
-1.9600793 2.520843 -0.73199433 0 7
-2.0459354 2.6312621 -0.73185706 0 8
-2.156105 2.7729502 -0.73746866 0 9
-2.2482166 2.8914144 -0.73386884 0 10
-2.3638165 3.0400865 -0.73482853 0 11
-2.4966164 3.2108793 -0.73740673 0 12
-2.6133742 3.3610406 -0.73151273 0 13
-2.7732415 3.5666449 -0.73354661 0 14
-2.9555049 3.8010523 -0.73637056 0 15
-3.1345038 4.0312614 -0.73296863 0 16
-3.3590331 4.3200269 -0.73416978 0 17
-3.6386478 4.6796374 -0.73984784 0 18
-3.9063601 5.0239401 -0.73490357 0 19
-4.2793722 5.5036683 -0.74016815 0 20
-4.6411133 5.9689007 -0.73247576 0 21
-4.6965137 6.0401502 -0.67024726 0 22
-4.7061591 6.0525551 -0.60062063 0 23
-4.6903338 6.0322027 -0.52793843 0 24
-4.6891885 6.0307298 -0.45725402 0 25
-4.6969719 6.0407395 -0.38741815 0 26
-4.7002888 6.0450058 -0.3171128 0 27
-4.6955752 6.0389433 -0.24634033 0 28
-4.6955523 6.0389142 -0.17592676 0 29
-4.6979833 6.0420403 -0.10559878 0 30
-4.6901469 6.0319624 -0.035138901 0 31
-4.6961455 6.0396771 0.035183839 0 32
-4.6982865 6.0424304 0.10560559 0 33
-4.7040324 6.0498204 0.17624447 0 34
-4.7010131 6.0459371 0.24662562 0 35
-4.7011509 6.0461144 0.31717098 0 36
-4.7041402 6.0499592 0.38800943 0 37
-4.7004919 6.0452671 0.45835623 0 38
-4.7005606 6.0453553 0.52908957 0 39
-4.7051568 6.0512662 0.60049266 0 40
-4.7035375 6.0491838 0.67124969 0 41
-4.7001724 6.0448561 0.74179667 0 42
-4.6951284 6.0383687 0.81207806 0 43
-4.6984425 6.0426311 0.88391805 0 44
-4.6984334 6.0426197 0.95533454 0 45
-4.6970816 6.0408807 1.0266213 0 46
-4.7017083 6.0468311 1.0994419 0 47
-4.6896682 6.0313463 1.1684412 0 48
-4.6950965 6.0383277 1.241894 0 49
-4.6973062 6.0411696 1.3148286 0 50
-4.6990499 6.0434122 1.3879229 0 51
-4.701251 6.0462432 1.4614557 0 52
-4.6986279 6.0428696 1.5337386 0 53
-4.6967454 6.0404487 1.606463 0 54
-4.7003412 6.045073 1.6813718 0 55
-4.6986923 6.0429521 1.7547331 0 56
0 0 0 0 57
0 0 0 0 58
0 0 0 0 59
0 0 0 0 60
0 0 0 0 61
0 0 0 0 62
0 0 0 0 63
-1.5343801 1.9240592 -0.73364508 0 0
-1.59421 1.9990839 -0.73671371 0 1
-1.6471711 2.0654953 -0.73494077 0 2
-1.7140185 2.1493194 -0.73759395 0 3
-1.7622726 2.2098286 -0.73055869 0 4
-1.8429325 2.3109732 -0.73506171 0 5
-1.9093946 2.3943145 -0.73172873 0 6
-2.0077338 2.5176284 -0.73817384 0 7
-2.086695 2.616643 -0.73487216 0 8
-2.1778679 2.7309704 -0.7333709 0 9
-2.2759812 2.8540013 -0.73142099 0 10
-2.4016814 3.0116251 -0.73503178 0 11
-2.5331216 3.1764464 -0.7365967 0 12
-2.6603384 3.3359718 -0.73312098 0 13
-2.8294449 3.5480256 -0.73681718 0 14
-3.0130305 3.7782357 -0.73907197 0 15
-3.1928065 4.0036683 -0.73503435 0 16
-3.4231832 4.2925525 -0.73659843 0 17
-3.6560543 4.5845647 -0.73186922 0 18
-3.9639723 4.9706836 -0.73418784 0 19
-4.35391 5.4596519 -0.74139261 0 20
-4.7235532 5.9231715 -0.73393625 0 21
-4.8327026 6.0600414 -0.67899722 0 22
-4.8315768 6.058629 -0.60707313 0 23
-4.8251348 6.0505514 -0.53469664 0 24
-4.8232694 6.0482116 -0.46304137 0 25
-4.8252673 6.0507174 -0.39183375 0 26
-4.823998 6.0491257 -0.32041645 0 27
-4.8255267 6.0510426 -0.2492355 0 28
-4.8340316 6.0617075 -0.17830895 0 29
-4.8229752 6.0478435 -0.10672864 0 30
-4.8283725 6.0546112 -0.035614014 0 31
-4.8306522 6.0574698 0.03563083 0 32
-4.8391953 6.0681825 0.10708757 0 33
-4.8250513 6.0504465 0.1779777 0 34
-4.8319044 6.0590401 0.24956493 0 35
-4.8282118 6.05441 0.32069635 0 36
-4.8273854 6.0533733 0.39200574 0 37
-4.8237572 6.0488234 0.46308821 0 38
-4.8244205 6.0496554 0.53461748 0 39
-4.8289514 6.055337 0.60674322 0 40
-4.8257875 6.0513697 0.67802566 0 41
-4.8214741 6.0459609 0.74915099 0 42
-4.8384633 6.0672646 0.82390326 0 43
-4.8162928 6.0394635 0.8920505 0 44
-4.8194418 6.0434127 0.96475625 0 45
-4.8409381 6.0703678 1.0416701 0 46
-4.824203 6.0493827 1.1106075 0 47
-4.8262973 6.0520086 1.1838516 0 48
-4.8240857 6.0492358 1.2562426 0 49
-4.8282032 6.054399 1.3305289 0 50
-4.8314877 6.0585175 1.4049298 0 51
-4.8229618 6.0478263 1.4760617 0 52
-4.8263822 6.0521154 1.5510309 0 53
-4.8208494 6.0451775 1.6233633 0 54
-4.8291068 6.0555325 1.7006685 0 55
0 0 0 0 56
0 0 0 0 57
0 0 0 0 58
0 0 0 0 59
0 0 0 0 60
0 0 0 0 61
0 0 0 0 62
0 0 0 0 63
-1.5548513 1.9012935 -0.73219931 0 0
-1.6103599 1.9691703 -0.73293185 0 1
-1.6689144 2.0407715 -0.73339021 0 2
-1.7238712 2.1079733 -0.7306242 0 3
-1.8001943 2.2013023 -0.73500252 0 4
-1.8800415 2.2989407 -0.73853177 0 5
-1.9493923 2.3837438 -0.73576832 0 6
-2.0398705 2.4943817 -0.73865652 0 7
-2.1183496 2.5903471 -0.73474705 0 8
-2.2091212 2.701344 -0.73265427 0 9
-2.3182118 2.8347411 -0.73373502 0 10
-2.4415653 2.9855797 -0.73594683 0 11
-2.5553999 3.1247783 -0.73184651 0 12
-2.7061944 3.3091717 -0.73448873 0 13
-2.8731015 3.513268 -0.73688012 0 14
-3.0264409 3.7007735 -0.73114377 0 15
-3.2373381 3.9586616 -0.73402447 0 16
-3.4786654 4.2537599 -0.73722613 0 17
-3.7209175 4.5499892 -0.73359823 0 18
-4.0368409 4.9363046 -0.73638612 0 19
-4.3645611 5.3370452 -0.73197585 0 20
-4.8050213 5.8756461 -0.735313 0 21
-4.9486523 6.0512805 -0.68478191 0 22
-4.9516158 6.054904 -0.6127544 0 23
-4.9529195 6.0564981 -0.5405634 0 24
-4.9549909 6.0590315 -0.46849892 0 25
-4.9489689 6.0516672 -0.39580619 0 26
-4.9585209 6.0633473 -0.32437491 0 27
-4.9606786 6.0659862 -0.2523444 0 28
-4.953989 6.057806 -0.17997247 0 29
-4.9522767 6.0557117 -0.10793398 0 30
-4.9533529 6.0570278 -0.035983782 0 31
-4.9553366 6.059454 0.035998195 0 32
-4.9495492 6.0523767 0.10787454 0 33
-4.9456706 6.0476341 0.17967029 0 34
-4.9524121 6.0558777 0.25192389 0 35
-4.9502516 6.0532355 0.32383394 0 36
-4.9591074 6.0640645 0.39661705 0 37
-4.9673648 6.074162 0.46966884 0 38
-4.956543 6.0609288 0.54095888 0 39
-4.9573388 6.0619025 0.61346263 0 40
-4.9553146 6.0594268 0.68570381 0 41
-4.9565387 6.0609236 0.75849968 0 42
-4.9613013 6.0667477 0.83205456 0 43
-4.9531507 6.0567808 0.90353602 0 44
-4.9479246 6.0503902 0.97550911 0 45
-4.9531279 6.0567532 1.0497059 0 46
-4.9557085 6.0599089 1.1236427 0 47
-4.9535971 6.0573263 1.1967164 0 48
-4.9539294 6.0577331 1.2705616 0 49
-4.9439254 6.0454998 1.3418317 0 50
-4.9539852 6.0578012 1.4187826 0 51
-4.9516239 6.054914 1.4925392 0 52
-4.9575362 6.0621433 1.569105 0 53
-4.9552798 6.0593843 1.6434168 0 54
-4.9513931 6.0546317 1.7173849 0 55
0 0 0 0 56
0 0 0 0 57
0 0 0 0 58
0 0 0 0 59
0 0 0 0 60
0 0 0 0 61
0 0 0 0 62
0 0 0 0 63
-1.5773343 1.8811055 -0.73183882 0 0
-1.6355275 1.9505059 -0.73341489 0 1
-1.6968653 2.0236564 -0.73468244 0 2
-1.7701777 2.1110878 -0.73919225 0 3
-1.8282151 2.1803024 -0.73544121 0 4
-1.9007767 2.2668383 -0.73567182 0 5
-1.9794526 2.360666 -0.73610234 0 6
-2.0530982 2.4484947 -0.73248869 0 7
-2.1354623 2.5467207 -0.72976559 0 8
-2.2486699 2.6817303 -0.73477858 0 9
-2.3566425 2.810497 -0.73490489 0 10
-2.459121 2.9327114 -0.73031336 0 11
-2.6053393 3.107089 -0.73515117 0 12
-2.7460701 3.2749226 -0.73432618 0 13
-2.9188054 3.4809241 -0.73756838 0 14
-3.0937731 3.6895881 -0.73639411 0 15
-3.294333 3.9287727 -0.73593795 0 16
-3.497534 4.1711073 -0.73029995 0 17
-3.7785361 4.5062265 -0.73397809 0 18
-4.1138892 4.9061637 -0.73938024 0 19
-4.4262404 5.2786689 -0.73137897 0 20
-4.8890972 5.8306651 -0.73715168 0 21
-5.0880713 6.0679584 -0.69369692 0 22
-5.097743 6.079493 -0.62153947 0 23
-5.0905685 6.0709367 -0.54739761 0 24
-5.0899854 6.070241 -0.47416934 0 25
-5.0889959 6.0690613 -0.40100631 0 26
-5.0836992 6.0627446 -0.32766208 0 27
-5.0894475 6.0695996 -0.25507885 0 28
-5.0913358 6.0718517 -0.18223596 0 29
-5.092731 6.0735159 -0.1093592 0 30
-5.089468 6.0696244 -0.036427654 0 31
-5.0879693 6.0678368 0.036416925 0 32
-5.0898089 6.0700312 0.10929645 0 33
-5.0853529 6.0647163 0.1820218 0 34
-5.0919852 6.0726266 0.25520608 0 35
-5.0906262 6.0710058 0.32810858 0 36
-5.0883808 6.0683274 0.40095785 0 37
-5.0933995 6.0743127 0.47448739 0 38
-5.0848751 6.064147 0.54678541 0 39
-5.0949011 6.0761037 0.62119293 0 40
-5.0841432 6.0632739 0.69316137 0 41
-5.0874114 6.0671721 0.76705241 0 42
-5.0892034 6.0693088 0.84092498 0 43
-5.0945234 6.0756536 0.91562742 0 44
-5.0922132 6.0728979 0.98915893 0 45
-5.0775185 6.0553737 1.0602075 0 46
-5.0896907 6.0698895 1.1370121 0 47
-5.0923591 6.0730724 1.2121068 0 48
-5.0836687 6.0627079 1.2846191 0 49
-5.0857167 6.0651507 1.3599708 0 50
-5.0885148 6.0684872 1.4358313 0 51
-5.0838704 6.0629487 1.5098153 0 52
-5.1023645 6.0850043 1.5911418 0 53
-5.0901785 6.0704713 1.6632739 0 54
-5.0892968 6.0694199 1.7391989 0 55
0 0 0 0 56
0 0 0 0 57
0 0 0 0 58
0 0 0 0 59
0 0 0 0 60
0 0 0 0 61
0 0 0 0 62
0 0 0 0 63
-1.6106516 1.873559 -0.73655242 0 0
-1.6574841 1.928036 -0.73257411 0 1
-1.7334903 2.0164487 -0.73974842 0 2
-1.7872119 2.0789394 -0.7355749 0 3
-1.8464502 2.1478472 -0.73209697 0 4
-1.9235735 2.2375593 -0.73379058 0 5
-2.0042229 2.331373 -0.73459744 0 6
-2.0865576 2.4271474 -0.73372257 0 7
-2.1850364 2.5417008 -0.73597062 0 8
-2.2891457 2.6628041 -0.73724967 0 9
-2.3865941 2.776159 -0.73354423 0 10
-2.5060382 2.9150999 -0.73354602 0 11
-2.643764 3.0753069 -0.73526758 0 12
-2.7887163 3.2439196 -0.735008 0 13
-2.9387276 3.4184175 -0.73192537 0 14
-3.1249537 3.6350412 -0.73312116 0 15
-3.3488262 3.8954566 -0.73735499 0 16
-3.5497231 4.1291461 -0.73054028 0 17
-3.845113 4.4727526 -0.73617142 0 18
-4.1733937 4.854619 -0.73929012 0 19
-4.5020108 5.236876 -0.73320311 0 20
-4.9710541 5.7824817 -0.73873216 0 21
-5.2199297 6.071981 -0.70144165 0 22
-5.2196264 6.0716286 -0.62724978 0 23
-5.2303462 6.0840979 -0.5543415 0 24
-5.2037392 6.0531478 -0.47779635 0 25
-5.2173362 6.0689645 -0.40520823 0 26
-5.2104316 6.0609326 -0.33100182 0 27
-5.2145438 6.0657163 -0.25759089 0 28
-5.2193203 6.0712724 -0.18413086 0 29
-5.2230101 6.0755644 -0.11054415 0 30
-5.2210999 6.0733418 -0.036832493 0 31
-5.2256117 6.0785909 0.036864325 0 32
-5.2101426 6.0605965 0.11027181 0 33
-5.2169681 6.0685358 0.18404788 0 34
-5.2200446 6.0721149 0.25786263 0 35
-5.2297573 6.0834126 0.33222952 0 36
-5.2258835 6.078907 0.40587208 0 37
-5.2192469 6.071187 0.47922021 0 38
-5.2287889 6.0822864 0.55417645 0 39
-5.2207522 6.072938 0.62738508 0 40
-5.2190719 6.0709829 0.70132637 0 41
-5.2178388 6.0695486 0.775406 0 42
-5.2128348 6.0637283 0.8489688 0 43
-5.2167273 6.0682559 0.92411 0 44
-5.2189884 6.0708866 0.99920869 0 45
-5.2130909 6.0640264 1.0728647 0 46
-5.2137814 6.0648289 1.1479867 0 47
-5.2258983 6.0789237 1.2260075 0 48
-5.2311869 6.0850763 1.3028899 0 49
-5.2169514 6.0685163 1.3750057 0 50
-5.2171392 6.0687351 1.450959 0 51
-5.2116523 6.0623527 1.5255102 0 52
-5.2169809 6.0685511 1.6034927 0 53
-5.2137775 6.0648246 1.679166 0 54
-5.2268233 6.0799999 1.7605146 0 55
0 0 0 0 56
0 0 0 0 57
0 0 0 0 58
0 0 0 0 59
0 0 0 0 60
0 0 0 0 61
0 0 0 0 62
0 0 0 0 63
-1.6280881 1.8473974 -0.73408234 0 0
-1.6848681 1.911826 -0.73423147 0 1
-1.74586 1.9810337 -0.73457628 0 2
-1.8143854 2.0587895 -0.73628378 0 3
-1.8745401 2.1270475 -0.73280871 0 4
-1.9630522 2.2274823 -0.73834616 0 5
-2.0328283 2.3066578 -0.73463053 0 6
-2.12286 2.4088171 -0.73601681 0 7
-2.2205088 2.5196192 -0.73742723 0 8
-2.3046103 2.6150496 -0.73181868 0 9
-2.419188 2.7450614 -0.73313206 0 10
-2.5521638 2.8959494 -0.73656839 0 11
-2.6865556 3.0484445 -0.73668772 0 12
-2.8153203 3.1945541 -0.73161131 0 13
-2.9983311 3.4022169 -0.7362951 0 14
-3.1879034 3.6173255 -0.73739839 0 15
-3.3611395 3.8138971 -0.72968501 0 16
-3.6190112 4.1065049 -0.73435223 0 17
-3.9045007 4.4304509 -0.73705548 0 18
-4.1817193 4.7450118 -0.73037392 0 19
-4.5835738 5.2009978 -0.73601532 0 20
-5.0569477 5.7381368 -0.740955 0 21
-5.3513417 6.0721869 -0.70901346 0 22
-5.3543644 6.0756164 -0.63441563 0 23
-5.3561645 6.0776591 -0.55971342 0 24
-5.3601751 6.0822101 -0.48525622 0 25
-5.3620358 6.0843215 -0.4106048 0 26
-5.3624296 6.0847683 -0.33587921 0 27
-5.3652625 6.0879827 -0.26131842 0 28
-5.3596168 6.0815768 -0.18642804 0 29
-5.3712234 6.0947466 -0.11208641 0 30
-5.3583794 6.0801725 -0.037270695 0 31
-5.3625607 6.0849166 0.037299775 0 32
-5.3510427 6.0718474 0.11166528 0 33
-5.3602991 6.0823507 0.18645178 0 34
-5.3621721 6.0844765 0.26116791 0 35
-5.3562708 6.0777798 0.33549348 0 36
-5.3680511 6.0911465 0.4110654 0 37
-5.3573513 6.0790057 0.48500058 0 38
-5.3672209 6.0902052 0.56086886 0 39
-5.3591228 6.0810156 0.63497937 0 40
-5.3649001 6.0875711 0.71080977 0 41
-5.3525257 6.0735302 0.78426367 0 42
-5.3617644 6.0840135 0.86097461 0 43
-5.3657889 6.0885797 0.93718207 0 44
-5.355093 6.0764432 1.0108849 0 45
-5.3474326 6.0677509 1.0850751 0 46
-5.3593111 6.0812297 1.1634772 0 47
-5.363894 6.0864296 1.2407298 0 48
-5.3483911 6.0688386 1.3133954 0 49
-5.3629837 6.0853968 1.3936671 0 50
-5.3524599 6.0734553 1.4677124 0 51
-5.3514838 6.0723481 1.5444674 0 52
-5.3649945 6.0876784 1.6258552 0 53
-5.3532076 6.0743036 1.6998869 0 54
0 0 0 0 55
0 0 0 0 56
0 0 0 0 57
0 0 0 0 58
0 0 0 0 59
0 0 0 0 60
0 0 0 0 61
0 0 0 0 62
0 0 0 0 63
-1.6534086 1.8302603 -0.73529595 0 0
-1.7146701 1.8980743 -0.73699182 0 1
-1.7660178 1.9549143 -0.73288804 0 2
-1.8307323 2.0265508 -0.73274964 0 3
-1.9003617 2.1036279 -0.73273546 0 4
-1.9847828 2.1970789 -0.73630244 0 5
-2.0756991 2.2977197 -0.7398569 0 6
-2.147485 2.3771839 -0.73436433 0 7
-2.2394927 2.4790328 -0.73355275 0 8
-2.3503368 2.6017332 -0.73612428 0 9
-2.4575047 2.7203641 -0.73455113 0 10
-2.5841663 2.8605735 -0.73559719 0 11
-2.7010767 2.9899888 -0.73053253 0 12
-2.8571153 3.1627178 -0.73231077 0 13
-3.0340941 3.3586266 -0.73488003 0 14
-3.2386839 3.5850997 -0.73889148 0 15
-3.4221036 3.7881384 -0.7327522 0 16
-3.6904378 4.0851736 -0.73859686 0 17
-3.9696376 4.3942375 -0.73909563 0 18
-4.2602658 4.7159519 -0.73390895 0 19
-4.6527848 5.150455 -0.73690355 0 20
-5.053606 5.5941491 -0.73033112 0 21
-5.4880433 6.0750546 -0.7171737 0 22
-5.4864912 6.0733366 -0.64117372 0 23
-5.4945974 6.0823097 -0.56632113 0 24
-5.4920745 6.0795169 -0.4903923 0 25
-5.5044618 6.0932293 -0.41574231 0 26
-5.4832458 6.0697441 -0.3387461 0 27
-5.5016613 6.0901294 -0.26429439 0 28
-5.4931583 6.0807166 -0.18845804 0 29
-5.4992537 6.0874643 -0.11318753 0 30
-5.4974723 6.0854921 -0.037714828 0 31
-5.5044641 6.0932322 0.037762795 0 32
-5.5073829 6.0964627 0.11335484 0 33
-5.4885635 6.0756302 0.1883004 0 34
-5.5055342 6.0944161 0.26448044 0 35
-5.4941516 6.0818162 0.33941984 0 36
-5.5031352 6.0917611 0.41564214 0 37
-5.4932671 6.0808368 0.49049875 0 38
-5.4970369 6.0850101 0.56657261 0 39
-5.4986339 6.0867777 0.64259273 0 40
-5.4888349 6.0759311 0.71727717 0 41
-5.4864144 6.0732512 0.79287922 0 42
-5.4931207 6.0806751 0.86999518 0 43
-5.4913173 6.0786791 0.94598013 0 44
-5.5030484 6.0916643 1.024597 0 45
-5.4984198 6.0865407 1.1004428 0 46
-5.4855218 6.0722632 1.1745782 0 47
-5.5023737 6.0909176 1.2553424 0 48
-5.4938788 6.0815144 1.3306581 0 49
-5.4936137 6.0812206 1.408075 0 50
-5.4918761 6.0792971 1.4853314 0 51
-5.4942756 6.0819535 1.5639758 0 52
-5.4987073 6.0868597 1.6435703 0 53
-5.490695 6.0779901 1.7196829 0 54
0 0 0 0 55
0 0 0 0 56
0 0 0 0 57
0 0 0 0 58
0 0 0 0 59
0 0 0 0 60
0 0 0 0 61
0 0 0 0 62
0 0 0 0 63
-1.6795578 1.813864 -0.73695016 0 0
-1.7354265 1.8742002 -0.73595214 0 1
-1.787275 1.9301947 -0.73180455 0 2
-1.8559557 2.0043676 -0.73292506 0 3
-1.9193587 2.0728407 -0.73017728 0 4
-2.0012865 2.1613197 -0.73251033 0 5
-2.0861411 2.2529597 -0.73364878 0 6
-2.1744943 2.3483782 -0.73367023 0 7
-2.270658 2.4522316 -0.73382866 0 8
-2.387763 2.578701 -0.73785913 0 9
-2.4930179 2.6923728 -0.73521489 0 10
-2.6049831 2.8132911 -0.73162025 0 11
-2.742429 2.9617281 -0.73181152 0 12
-2.9166455 3.1498756 -0.73758572 0 13
-3.0900192 3.3371134 -0.7384308 0 14
-3.2554226 3.5157433 -0.73279196 0 15
-3.4821515 3.7606025 -0.73565269 0 16
-3.7297289 4.0279775 -0.73649204 0 17
-3.985122 4.303793 -0.73206997 0 18
-4.3253832 4.6712632 -0.73517585 0 19
-4.7320576 5.1104579 -0.73945022 0 20
-5.1231189 5.5327902 -0.73048967 0 21
-5.6500859 6.1018963 -0.72848916 0 22
-5.6402841 6.0913105 -0.65034407 0 23
-5.6468225 6.098372 -0.57423842 0 24
-5.6431737 6.0944314 -0.49715504 0 25
-5.6412067 6.0923066 -0.4203805 0 26
-5.6431403 6.0943952 -0.34396848 0 27
-5.6446476 6.0960226 -0.26754209 0 28
-5.6422329 6.0934153 -0.19098742 0 29
-5.6381869 6.0890455 -0.11449736 0 30
-5.6413789 6.0924931 -0.038185243 0 31
-5.6393471 6.0902987 0.038171489 0 32
-5.6530576 6.1051054 0.11479934 0 33
-5.6388807 6.0897946 0.19087395 0 34
-5.6423435 6.0935345 0.2674329 0 35
-5.6520267 6.103992 0.34451014 0 36
-5.6407895 6.0918565 0.42034945 0 37
-5.6453252 6.0967546 0.49734455 0 38
-5.6372166 6.0879974 0.57326156 0 39
-5.6536326 6.1057262 0.65188318 0 40
-5.6399698 6.090971 0.72718483 0 41
-5.6358271 6.0864968 0.80359513 0 42
-5.6418548 6.0930071 0.88161874 0 43
-5.6467924 6.0983396 0.95977294 0 44
-5.6436877 6.0949864 1.0367498 0 45
-5.647049 6.0986161 1.1150962 0 46
-5.6451044 6.0965161 1.1926064 0 47
-5.6448941 6.0962892 1.2706593 0 48
-5.6466269 6.0981607 1.3493906 0 49
-5.6519051 6.1038604 1.429301 0 50
-5.6351776 6.0857959 1.5037355 0 51
-5.656281 6.1085868 1.5885899 0 52
-5.6449628 6.0963631 1.6647534 0 53
-5.6439815 6.0953035 1.7440858 0 54
0 0 0 0 55
0 0 0 0 56
0 0 0 0 57
0 0 0 0 58
0 0 0 0 59
0 0 0 0 60
0 0 0 0 61
0 0 0 0 62
0 0 0 0 63
-1.6963153 1.787367 -0.73460388 0 0
-1.760887 1.8554047 -0.73701835 0 1
-1.8234092 1.9212828 -0.73687083 0 2
-1.8798314 1.9807335 -0.73267996 0 3
-1.9590198 2.0641723 -0.73555374 0 4
-2.0394843 2.1489558 -0.73676378 0 5
-2.1195943 2.2333663 -0.73570001 0 6
-2.2123752 2.3311269 -0.73672408 0 7
-2.2859187 2.4086182 -0.72913373 0 8
-2.40745 2.5366728 -0.7342484 0 9
-2.5191364 2.6543541 -0.73323643 0 10
-2.6549749 2.7974839 -0.73594385 0 11
-2.79565 2.9457097 -0.73629206 0 12
-2.948684 3.1069582 -0.73597074 0 13
-3.1048236 3.2714787 -0.73229992 0 14
-3.309299 3.4869294 -0.73521233 0 15
-3.5335219 3.7231877 -0.7367776 0 16
-3.7488317 3.9500546 -0.7306177 0 17
-4.0447693 4.2618766 -0.73334473 0 18
-4.3951449 4.6310596 -0.73729849 0 19
-4.7263947 4.9800897 -0.72894096 0 20
-5.2105417 5.4902239 -0.73327351 0 21
-5.782177 6.0925422 -0.73580527 0 22
-5.7848024 6.0953088 -0.65831572 0 23
-5.7761073 6.0861468 -0.5797314 0 24
-5.7906308 6.1014495 -0.50349802 0 25
-5.7828584 6.0932598 -0.42532077 0 26
-5.7887554 6.099474 -0.34824628 0 27
-5.7782125 6.0883646 -0.27030388 0 28
-5.7777591 6.0878868 -0.19302636 0 29
-5.7874947 6.098145 -0.11599789 0 30
-5.7791615 6.089365 -0.038608115 0 31
-5.7903953 6.1012015 0.038683161 0 32
-5.7834463 6.0938797 0.11591675 0 33
-5.7898436 6.1006198 0.1934301 0 34
-5.7897153 6.1004853 0.27084199 0 35
-5.7811112 6.0914192 0.3477864 0 36
-5.7801175 6.0903721 0.42511919 0 37
-5.7700686 6.0797839 0.50171012 0 38
-5.7811184 6.0914268 0.58023435 0 39
-5.7852588 6.0957894 0.65836763 0 40
-5.7874932 6.0981441 0.73648179 0 41
-5.7836218 6.0940642 0.81392235 0 42
-5.7892017 6.0999436 0.89285517 0 43
-5.7915015 6.1023669 0.9715414 0 44
-5.7907462 6.1015716 1.0499026 0 45
-5.7866354 6.0972395 1.1277695 0 46
-5.7808156 6.0911078 1.2053627 0 47
-5.782948 6.0933542 1.2847719 0 48
-5.7833366 6.0937638 1.3640507 0 49
-5.7850819 6.0956025 1.4439156 0 50
-5.7871585 6.0977912 1.5241674 0 51
-5.7842841 6.0947623 1.6033705 0 52
-5.7749987 6.0849781 1.680909 0 53
0 0 0 0 54
0 0 0 0 55
0 0 0 0 56
0 0 0 0 57
0 0 0 0 58
0 0 0 0 59
0 0 0 0 60
0 0 0 0 61
0 0 0 0 62
0 0 0 0 63
-1.7220327 1.7703522 -0.73625803 0 0
-1.7775389 1.8274159 -0.73452729 0 1
-1.847123 1.8989526 -0.73696196 0 2
-1.9054747 1.9589416 -0.73323071 0 3
-1.9805119 2.0360844 -0.7341674 0 4
-2.0637581 2.1216664 -0.73605245 0 5
-2.1409369 2.2010107 -0.73365837 0 6
-2.2232931 2.2856779 -0.73094529 0 7
-2.3346636 2.4001734 -0.73521227 0 8
-2.4387078 2.5071371 -0.73432368 0 9
-2.5623355 2.6342337 -0.7363264 0 10
-2.6918683 2.767401 -0.73668206 0 11
-2.8155599 2.8945634 -0.73210627 0 12
-2.9706638 3.0540195 -0.73202825 0 13
-3.1624193 3.2511556 -0.73639959 0 14
-3.3575513 3.4517632 -0.73644698 0 15
-3.5528166 3.6525073 -0.73138064 0 16
-3.8123276 3.9193001 -0.73354453 0 17
-4.1121788 4.2275653 -0.73608583 0 18
-4.4612164 4.5863967 -0.73886561 0 19
-4.8075595 4.9424577 -0.73203033 0 20
-5.2996149 5.4483204 -0.73632485 0 21
-5.8936701 6.0590444 -0.74045616 0 22
-5.9449539 6.1117673 -0.66793811 0 23
-5.9372802 6.103878 -0.58833021 0 24
-5.9390941 6.1057429 -0.50984025 0 25
-5.9323483 6.0988078 -0.4307673 0 26
-5.9313421 6.0977731 -0.35228673 0 27
-5.9441381 6.1109285 -0.27452993 0 28
-5.9384928 6.105125 -0.19587342 0 29
-5.9407482 6.1074438 -0.11755542 0 30
-5.9381599 6.1047821 -0.039165858 0 31
-5.9287052 6.0950627 0.039103501 0 32
-5.9408894 6.1075883 0.11755821 0 33
-5.9390469 6.1056948 0.19589169 0 34
-5.9430966 6.109858 0.27448183 0 35
-5.9399567 6.1066294 0.35279837 0 36
-5.9296665 6.0960507 0.43057254 0 37
-5.9355912 6.1021419 0.50953954 0 38
-5.9373193 6.1039186 0.58833408 0 39
-5.940486 6.1071739 0.66743606 0 40
-5.9358978 6.102457 0.74576151 0 41
-5.946003 6.1128454 0.82613349 0 42
-5.9421458 6.1088805 0.90478981 0 43
-5.9393582 6.1060147 0.98367512 0 44
-5.9391503 6.1058006 1.0631163 0 45
-5.9398985 6.1065698 1.1429186 0 46
-5.9456129 6.1124444 1.2239602 0 47
-5.9335008 6.0999928 1.3014569 0 48
-5.9369917 6.1035814 1.3824854 0 49
-5.9305968 6.0970073 1.4614123 0 50
-5.9427032 6.1094537 1.545231 0 51
-5.9397373 6.1064043 1.6255246 0 52
-5.9348402 6.1013694 1.7054672 0 53
0 0 0 0 54
0 0 0 0 55
0 0 0 0 56
0 0 0 0 57
0 0 0 0 58
0 0 0 0 59
0 0 0 0 60
0 0 0 0 61
0 0 0 0 62
0 0 0 0 63
-1.7502242 1.7556195 -0.73902553 0 0
-1.8061622 1.8117301 -0.73709369 0 1
-1.8585876 1.8643171 -0.73233432 0 2
-1.9326133 1.9385709 -0.73444539 0 3
-2.0031126 2.0092876 -0.73333114 0 4
-2.0737832 2.0801759 -0.73044986 0 5
-2.1806865 2.1874089 -0.73800683 0 6
-2.2701626 2.2771609 -0.73709291 0 7
-2.3736608 2.3809781 -0.73821729 0 8
-2.4839327 2.49159 -0.73866022 0 9
-2.5753655 2.5833044 -0.73088717 0 10
-2.7157235 2.7240951 -0.73398799 0 11
-2.8553855 2.8641877 -0.73324853 0 12
-3.027051 3.0363824 -0.73666698 0 13
-3.212503 3.2224061 -0.73877937 0 14
-3.3773506 3.3877621 -0.73159724 0 15
-3.6073906 3.6185112 -0.73340011 0 16
-3.8748145 3.8867593 -0.73631608 0 17
-4.1693606 4.1822133 -0.73706031 0 18
-4.4682522 4.4820266 -0.73084784 0 19
-4.8903308 4.905406 -0.7353934 0 20
-5.3776393 5.394217 -0.73789388 0 21
-5.8774061 5.8955245 -0.72924984 0 22
-6.0381417 6.0567555 -0.66998971 0 23
-6.048718 6.0673642 -0.59193504 0 24
-6.0401902 6.0588102 -0.51208454 0 25
-6.0477719 6.0664153 -0.43369919 0 26
-6.045516 6.0641522 -0.35461229 0 27
-6.047874 6.0665178 -0.27585486 0 28
-6.0513296 6.069984 -0.1971184 0 29
-6.0317078 6.0503016 -0.11787424 0 30
-6.0526056 6.0712638 -0.039425321 0 31
-6.0353432 6.0539479 0.039312877 0 32
-6.0338941 6.0524945 0.11791697 0 33
-6.0514526 6.0701075 0.19712241 0 34
-6.0402489 6.0588694 0.27550706 0 35
-6.0431457 6.0617747 0.35447326 0 36
-6.0545969 6.0732613 0.4341886 0 37
-6.0353374 6.0539427 0.51167309 0 38
-6.0411983 6.0598216 0.59119916 0 39
-6.0420461 6.0606718 0.67042291 0 40
-6.049469 6.0681176 0.75059885 0 41
-6.0474091 6.0660515 0.82979643 0 42
-6.0483804 6.0670257 0.90953743 0 43
-6.0336056 6.0522056 0.98688424 0 44
-6.0425849 6.0612121 1.0682093 0 45
-6.0391917 6.0578089 1.1476045 0 46
-6.0410595 6.0596824 1.2281768 0 47
-6.0412488 6.0598722 1.3086474 0 48
-6.0460029 6.0646405 1.3903993 0 49
-6.0389686 6.0575848 1.469651 0 50
-6.0395398 6.0581579 1.5509232 0 51
-6.0433564 6.061986 1.6333588 0 52
-6.0395646 6.0581827 1.7140248 0 53
0 0 0 0 54
0 0 0 0 55
0 0 0 0 56
0 0 0 0 57
0 0 0 0 58
0 0 0 0 59
0 0 0 0 60
0 0 0 0 61
0 0 0 0 62
0 0 0 0 63
-1.7748634 1.7370843 -0.74035418 0 0
-1.8182378 1.7795354 -0.73303628 0 1
-1.8896573 1.8494347 -0.73556024 0 2
-1.9624294 1.9206579 -0.73674542 0 3
-2.0305877 1.9873655 -0.73438764 0 4
-2.1101327 2.0652173 -0.73425293 0 5
-2.2050016 2.158067 -0.73719931 0 6
-2.2776392 2.2291582 -0.73056525 0 7
-2.3854494 2.3346736 -0.73289979 0 8
-2.4954011 2.4422851 -0.73308456 0 9
-2.6172209 2.5615118 -0.7337712 0 10
-2.7535684 2.694957 -0.73520446 0 11
-2.9005463 2.8388064 -0.73582596 0 12
-3.0705576 3.005199 -0.73820597 0 13
-3.2266212 3.1579406 -0.73304063 0 14
-3.4351692 3.3620496 -0.735111 0 15
-3.6739841 3.5957811 -0.73789388 0 16
-3.9335647 3.8498363 -0.73842865 0 17
-4.1961236 4.1068063 -0.73280883 0 18
-4.544136 4.4474111 -0.73425925 0 19
-4.9560528 4.8505602 -0.73625165 0 20
-5.4723725 5.3558893 -0.74179983 0 21
-5.9671822 5.840167 -0.73142332 0 22
-6.0556293 5.9267316 -0.66379339 0 23
-6.0534401 5.9245887 -0.58522356 0 24
-6.0424786 5.9138608 -0.50607514 0 25
-6.0446243 5.9159608 -0.42822433 0 26
-6.0458035 5.9171147 -0.35033479 0 27
-6.0573235 5.9283895 -0.27294022 0 28
-6.0550971 5.9262109 -0.19485265 0 29
-6.0504074 5.9216208 -0.11680786 0 30
-6.0512152 5.9224114 -0.038938958 0 31
-6.0381699 5.9096437 0.038855013 0 32
-6.047102 5.9183855 0.11674405 0 33
-6.0473108 5.9185901 0.19460209 0 34
-6.0518508 5.9230337 0.27269363 0 35
-6.0389128 5.9103708 0.3499355 0 36
-6.0432024 5.9145694 0.42812359 0 37
-6.0451651 5.9164901 0.50630009 0 38
-6.0438786 5.9152308 0.58429921 0 39
-6.0543284 5.9254584 0.66365087 0 40
-6.0519938 5.9231734 0.74181902 0 41
-6.052732 5.9238958 0.82046968 0 42
-6.051002 5.9222026 0.89891297 0 43
-6.0505195 5.9217305 0.97766662 0 44
-6.0494423 5.9206762 1.0564715 0 45
-6.0472832 5.9185629 1.1352266 0 46
-6.0510988 5.9222975 1.2153206 0 47
-6.0441661 5.9155126 1.2934247 0 48
-6.0428081 5.9141831 1.3728366 0 49
-6.049511 5.9207435 1.454389 0 50
-6.0452404 5.9165635 1.5335885 0 51
-6.0531492 5.9243045 1.6161946 0 52
-6.0569201 5.9279952 1.6981348 0 53
0 0 0 0 54
0 0 0 0 55
0 0 0 0 56
0 0 0 0 57
0 0 0 0 58
0 0 0 0 59
0 0 0 0 60
0 0 0 0 61
0 0 0 0 62
0 0 0 0 63
-1.7733001 1.6933697 -0.73096114 0 0
-1.8514658 1.7680122 -0.73761189 0 1
-1.906778 1.8208312 -0.73345375 0 2
-1.9786184 1.8894335 -0.73404533 0 3
-2.0600288 1.9671744 -0.73623139 0 4
-2.1399522 2.0434952 -0.73582983 0 5
-2.2291698 2.1286914 -0.73647249 0 6
-2.3263597 2.2215006 -0.73737496 0 7
-2.4188757 2.3098464 -0.73438764 0 8
-2.5413728 2.4268219 -0.7377674 0 9
-2.6582613 2.5384419 -0.73647058 0 10
-2.7738929 2.6488614 -0.73187912 0 11
-2.9276659 2.7957032 -0.73392928 0 12
-3.0914824 2.9521358 -0.73445386 0 13
-3.275847 3.1281903 -0.73542958 0 14
-3.4837711 3.3267424 -0.73670191 0 15
-3.7252798 3.5573652 -0.73935485 0 16
-3.9444013 3.7666099 -0.73171294 0 17
-4.245038 4.0536957 -0.73259073 0 18
-4.6136265 4.4056702 -0.73667848 0 19
-5.0457954 4.8183594 -0.74072564 0 20
-5.4625945 5.2163715 -0.73172426 0 21
-6.0606513 5.7874713 -0.73410165 0 22
-6.0542669 5.7813749 -0.65580189 0 23
-6.0543642 5.7814674 -0.57839632 0 24
-6.0508604 5.7781215 -0.50078857 0 25
-6.0495291 5.7768507 -0.42350742 0 26
-6.0640702 5.7907362 -0.34724092 0 27
-6.0563679 5.783381 -0.26967233 0 28
-6.0499148 5.7772188 -0.1923853 0 29
-6.0556931 5.7827368 -0.1155284 0 30
-6.0588593 5.7857604 -0.038527429 0 31
-6.0576615 5.7846165 0.038519811 0 32
-6.0588384 5.7857399 0.1155884 0 33
-6.0610342 5.787837 0.19273891 0 34
-6.0537033 5.7808361 0.26955369 0 35
-6.0458875 5.7733731 0.34619975 0 36
-6.0543404 5.7814445 0.42384422 0 37
-6.0568428 5.7838345 0.50128371 0 38
-6.0554667 5.7825203 0.57850164 0 39
-6.0484018 5.775774 0.65516651 0 40
-6.0508571 5.7781181 0.73291528 0 41
-6.0493875 5.7767153 0.81032628 0 42
-6.0604739 5.787302 0.88968104 0 43
-6.0544987 5.7815957 0.96674895 0 44
-6.0605683 5.7873921 1.0459073 0 45
-6.0557523 5.782793 1.1233828 0 46
-6.0482302 5.77561 1.20039 0 47
-6.0625572 5.7892914 1.2820295 0 48
-6.0499325 5.7772355 1.3582133 0 49
-6.0533295 5.7804794 1.4381098 0 50
-6.0649629 5.7915883 1.5204104 0 51
-6.0576339 5.7845898 1.5982794 0 52
-6.0454173 5.7729239 1.6748812 0 53
-6.0533085 5.7804594 1.7572919 0 54
0 0 0 0 55
0 0 0 0 56
0 0 0 0 57
0 0 0 0 58
0 0 0 0 59
0 0 0 0 60
0 0 0 0 61
0 0 0 0 62
0 0 0 0 63
-1.8102125 1.6865551 -0.73757225 0 0
-1.8626469 1.7354078 -0.73350948 0 1
-1.9284539 1.7967196 -0.7332378 0 2
-1.9984374 1.8619223 -0.7328487 0 3
-2.0769982 1.9351165 -0.73373646 0 4
-2.1565826 2.0092645 -0.7329973 0 5
-2.2467129 2.0932379 -0.73370916 0 6
-2.3443379 2.1841941 -0.73450488 0 7
-2.4437108 2.2767787 -0.73337239 0 8
-2.558979 2.3841729 -0.7343123 0 9
-2.6927252 2.5087826 -0.73741627 0 10
-2.8245037 2.6315591 -0.73663908 0 11
-2.9621043 2.7597601 -0.73399991 0 12
-3.1378629 2.9235125 -0.73687637 0 13
-3.3342581 3.1064918 -0.73991126 0 14
-3.4860368 3.2479024 -0.72868043 0 15
-3.7296841 3.474906 -0.73169327 0 16
-4.0092335 3.735359 -0.73516351 0 17
-4.3177514 4.0228014 -0.73654693 0 18
-4.6791039 4.3594699 -0.73851818 0 19
-5.0380354 4.6938825 -0.73105818 0 20
-5.5469656 5.168047 -0.73445791 0 21
-6.0602684 5.646286 -0.72559071 0 22
-6.0567088 5.6429696 -0.6485011 0 23
-6.0602293 5.6462493 -0.57228053 0 24
-6.069344 5.6547413 -0.49652597 0 25
-6.0553026 5.6416593 -0.41902336 0 26
-6.0640922 5.6498485 -0.34323806 0 27
-6.0473709 5.6342692 -0.26616672 0 28
-6.0655594 5.6512156 -0.19065863 0 29
-6.0570574 5.6432943 -0.11422194 0 30
-6.0636868 5.6494708 -0.038113501 0 31
-6.05616 5.642458 0.03806619 0 32
-6.0580368 5.644207 0.11424042 0 33
-6.0564613 5.6427388 0.19037265 0 34
-6.0607271 5.6467133 0.26675457 0 35
-6.05302 5.6395326 0.34261134 0 36
-6.0609231 5.6468959 0.41941231 0 37
-6.0576558 5.6438518 0.4955698 0 38
-6.0588031 5.6449203 0.57214588 0 39
-6.0511832 5.6378212 0.64790952 0 40
-6.0644493 5.6501813 0.72609133 0 41
-6.0460773 5.6330643 0.8005439 0 42
-6.062304 5.6481824 0.87968749 0 43
-6.0600014 5.6460371 0.95646971 0 44
-6.0510325 5.637681 1.03222 0 45
-6.0655851 5.6512394 1.1122319 0 46
-6.055757 5.6420827 1.1880246 0 47
-6.0649714 5.6506677 1.2677509 0 48
-6.0610709 5.6470337 1.3450233 0 49
-6.0648227 5.6505289 1.4242256 0 50
-6.0627422 5.648591 1.502328 0 51
-6.0559525 5.6422648 1.5794107 0 52
-6.057538 5.6437421 1.6588871 0 53
-6.0705175 5.6558347 1.7419665 0 54
0 0 0 0 55
0 0 0 0 56
0 0 0 0 57
0 0 0 0 58
0 0 0 0 59
0 0 0 0 60
0 0 0 0 61
0 0 0 0 62
0 0 0 0 63
-1.8146076 1.6494401 -0.73104376 0 0
-1.8902997 1.7182425 -0.73602313 0 1
-1.9514341 1.7738125 -0.73362666 0 2
-2.0245745 1.8402957 -0.73407966 0 3
-2.1069307 1.9151555 -0.73593569 0 4
-2.201524 2.0011389 -0.73985285 0 5
-2.2773886 2.0700982 -0.73535848 0 6
-2.3779588 2.1615143 -0.73665541 0 7
-2.4719417 2.2469428 -0.73349744 0 8
-2.5942764 2.3581426 -0.73606467 0 9
-2.724175 2.4762175 -0.73763466 0 10
-2.8563364 2.5963495 -0.73655909 0 11
-2.9912996 2.7190282 -0.73289406 0 12
-3.1482046 2.8616517 -0.73098636 0 13
-3.3543456 3.0490294 -0.73599333 0 14
-3.551918 3.2286184 -0.73409742 0 15
-3.8005142 3.4545872 -0.73719943 0 16
-4.0687566 3.6984138 -0.7376833 0 17
-4.3906655 3.9910223 -0.74055749 0 18
-4.6932054 4.2660246 -0.732409 0 19
-5.1211419 4.6550102 -0.73475605 0 20
-5.6155548 5.1044211 -0.73517334 0 21
-6.0561404 5.5049038 -0.71693772 0 22
-6.0686607 5.5162845 -0.64246953 0 23
-6.0587125 5.5072417 -0.56569964 0 24
-6.0738912 5.521039 -0.4913069 0 25
-6.0742555 5.5213704 -0.41560531 0 26
-6.0708637 5.5182872 -0.33975491 0 27
-6.069725 5.517252 -0.26414463 0 28
-6.0688462 5.5164533 -0.18861549 0 29
-6.0662093 5.5140562 -0.11310735 0 30
-6.0708208 5.5182481 -0.037728988 0 31
-6.061079 5.5093932 0.037668444 0 32
-6.0655375 5.5134459 0.11309484 0 33
-6.0614038 5.5096879 0.18838418 0 34
-6.068665 5.5162883 0.2640985 0 35
-6.0666928 5.5144958 0.3395215 0 36
-6.0613379 5.5096283 0.41472149 0 37
-6.0655966 5.5134993 0.49063596 0 38
-6.0658154 5.5136986 0.56636286 0 39
-6.061594 5.509861 0.64172137 0 40
-6.0715022 5.5188675 0.71875626 0 41
-6.060245 5.508635 0.79339105 0 42
-6.0524015 5.5015054 0.86836851 0 43
-6.0642147 5.5122433 0.94636506 0 44
-6.0708284 5.5182548 1.0239444 0 45
-6.067893 5.5155869 1.1001354 0 46
-6.0670242 5.5147972 1.1768426 0 47
-6.0678453 5.5155435 1.2540801 0 48
-6.0669351 5.5147161 1.3311758 0 49
-6.0652537 5.5131879 1.4083004 0 50
-6.0664344 5.5142608 1.4863285 0 51
-6.0556188 5.5044293 1.5615531 0 52
-6.0652738 5.513206 1.642316 0 53
-6.0670443 5.5148153 1.7213805 0 54
0 0 0 0 55
0 0 0 0 56
0 0 0 0 57
0 0 0 0 58
0 0 0 0 59
0 0 0 0 60
0 0 0 0 61
0 0 0 0 62
0 0 0 0 63
-1.8482971 1.6390159 -0.73644102 0 0
-1.9004344 1.6852497 -0.7318452 0 1
-1.9839244 1.7592862 -0.73765254 0 2
-2.0468497 1.8150865 -0.73400819 0 3
-2.1200655 1.8800122 -0.73239338 0 4
-2.2082055 1.9581722 -0.73395085 0 5
-2.2916582 2.0321755 -0.73184204 0 6
-2.3940315 2.1229572 -0.7334922 0 7
-2.5018454 2.2185633 -0.73422033 0 8
-2.6177454 2.3213401 -0.73456907 0 9
-2.745369 2.4345129 -0.73521197 0 10
-2.8677647 2.5430501 -0.73138714 0 11
-3.0393023 2.6951644 -0.73647964 0 12
-3.2068329 2.8437257 -0.73642445 0 13
-3.3982193 3.0134416 -0.73743373 0 14
-3.6128154 3.2037392 -0.73848569 0 15
-3.8483915 3.4126413 -0.73829073 0 16
-4.0769477 3.6153181 -0.73105311 0 17
-4.4007745 3.9024785 -0.73411334 0 18
-4.7563939 4.2178311 -0.73412067 0 19
-5.1908693 4.6031113 -0.73658353 0 20
-5.7144132 5.0673747 -0.73990208 0 21
-6.075202 5.3873115 -0.71129829 0 22
-6.0752339 5.3873401 -0.63610411 0 23
-6.0740085 5.3862534 -0.56090134 0 24
-6.0713086 5.3838592 -0.4857063 0 25
-6.0807962 5.3922725 -0.41148502 0 26
-6.0739188 5.3861737 -0.33619386 0 27
-6.0751987 5.3873086 -0.26148018 0 28
-6.0716848 5.3841925 -0.18663195 0 29
-6.0696497 5.3823881 -0.11192901 0 30
-6.0684357 5.3813114 -0.037300102 0 31
-6.0773249 5.389194 0.037354741 0 32
-6.076807 5.3887348 0.11206099 0 33
-6.0761232 5.3881288 0.18676837 0 34
-6.0740128 5.3862572 0.26142913 0 35
-6.0737081 5.3859868 0.33618221 0 36
-6.0740514 5.3862915 0.41102859 0 37
-6.0671678 5.380187 0.48537502 0 38
-6.0813742 5.3927846 0.56158155 0 39
-6.0722566 5.3846993 0.63579237 0 40
-6.0792222 5.3908763 0.71176898 0 41
-6.0782852 5.3900456 0.78701627 0 42
-6.0758123 5.3878527 0.86215675 0 43
-6.0731883 5.3855262 0.93735999 0 44
-6.0709929 5.3835793 1.01273 0 45
-6.0860567 5.3969374 1.0913141 0 46
-6.0754795 5.387558 1.1655442 0 47
-6.0760698 5.3880811 1.2419927 0 48
-6.0754066 5.3874931 1.3183992 0 49
-6.0701027 5.3827901 1.3939524 0 50
-6.0781994 5.3899698 1.4728611 0 51
-6.069334 5.3821082 1.5479069 0 52
-6.0731549 5.3854966 1.6263958 0 53
-6.0722342 5.3846798 1.7039379 0 54
0 0 0 0 55
0 0 0 0 56
0 0 0 0 57
0 0 0 0 58
0 0 0 0 59
0 0 0 0 60
0 0 0 0 61
0 0 0 0 62
0 0 0 0 63
-1.8593339 1.6084014 -0.73290282 0 0
-1.9263983 1.666415 -0.73389727 0 1
-2.0025833 1.7323182 -0.73661435 0 2
-2.066807 1.7878743 -0.73322582 0 3
-2.1418612 1.8527994 -0.73199701 0 4
-2.2241678 1.923998 -0.73133755 0 5
-2.3195581 2.0065145 -0.73281717 0 6
-2.4299288 2.10199 -0.73651576 0 7
-2.5262349 2.1852987 -0.73343647 0 8
-2.6563323 2.2978384 -0.73741251 0 9
-2.7721298 2.3980081 -0.73442638 0 10
-2.9220636 2.5277069 -0.73725259 0 11
-3.0855887 2.6691632 -0.73968655 0 12
-3.2248063 2.789592 -0.73261929 0 13
-3.4178846 2.9566128 -0.7337563 0 14
-3.6284139 3.1387296 -0.73372948 0 15
-3.8701589 3.3478491 -0.73451358 0 16
-4.1413569 3.5824468 -0.73464799 0 17
-4.4580073 3.8563626 -0.73569465 0 18
-4.8250804 4.1738963 -0.73674482 0 19
-5.2660637 4.5553651 -0.73924917 0 20
-5.7059922 4.9359217 -0.73089778 0 21
-6.0808449 5.2601848 -0.70433265 0 22
-6.0764799 5.2564092 -0.62941945 0 23
-6.0855846 5.2642851 -0.5559507 0 24
-6.0784979 5.2581549 -0.48107252 0 25
-6.0821939 5.2613516 -0.40717083 0 26
-6.0866284 5.2651877 -0.33328858 0 27
-6.0786304 5.2582688 -0.25882539 0 28
-6.0835013 5.2624826 -0.1849921 0 29
-6.0769811 5.2568426 -0.1108638 0 30
-6.0919871 5.2698236 -0.037043765 0 31
-6.0907803 5.2687793 0.037036426 0 32
-6.082335 5.2614737 0.11096147 0 33
-6.0886188 5.2669096 0.18514773 0 34
-6.0771918 5.2570248 0.25876415 0 35
-6.0772676 5.2570906 0.33277604 0 36
-6.087182 5.2656665 0.4075048 0 37
-6.0861011 5.2647319 0.48167425 0 38
-6.0777555 5.2575121 0.55523545 0 39
-6.0731082 5.2534919 0.6290701 0 40
-6.0822053 5.2613616 0.70449024 0 41
-6.0783072 5.2579899 0.77858877 0 42
