# .PCD v0.7 - Point Cloud Data file format
VERSION 0.7
FIELDS x y z intensity ring
SIZE 4 4 4 4 2
TYPE F F F F U
COUNT 1 1 1 1 1
WIDTH 1285
HEIGHT 1
VIEWPOINT 0 0 0 1 0 0 0
POINTS 1285
DATA ascii
1.0682225 -1.1395038 0.35804477 0 56
1.0664359 -1.1375979 0.37257376 0 57
1.0759099 -1.147704 0.391213 0 58
1.0581838 -1.128795 0.39991361 0 59
1.0675807 -1.1388191 0.4188183 0 60
1.0616068 -1.1324464 0.43181762 0 61
1.0639157 -1.1349096 0.44821206 0 62
1.0664248 -1.1375861 0.46484309 0 63
1.0961243 -1.1408247 -0.47163841 0 0
1.0845137 -1.1287407 -0.45100832 0 1
1.096095 -1.1407943 -0.44010684 0 2
1.1119999 -1.1573477 -0.4306286 0 3
1.1032196 -1.1482093 -0.41156676 0 4
1.0877777 -1.1321377 -0.39043686 0 5
1.0991358 -1.1439589 -0.37905481 0 6
1.0925285 -1.1370822 -0.36147776 0 7
1.0964651 -1.1411794 -0.34749129 0 8
1.0986842 -1.143489 -0.33293641 0 9
1.0937278 -1.1383306 -0.31630373 0 10
1.0957232 -1.1404072 -0.3017782 0 11
1.0935333 -1.1381279 -0.28615543 0 12
1.0967647 -1.1414912 -0.27198723 0 13
1.096929 -1.1416621 -0.25705928 0 14
1.0991728 -1.1439976 -0.24263056 0 15
1.0944554 -1.1390877 -0.22674066 0 16
1.088178 -1.1325544 -0.21071571 0 17
1.0890176 -1.1334282 -0.19617879 0 18
1.0928203 -1.137386 -0.18214682 0 19
1.1006873 -1.1455737 -0.16866657 0 20
1.1034256 -1.1484238 -0.15428683 0 21
1.0947567 -1.1394013 -0.13841777 0 22
1.0935469 -1.1381422 -0.12364763 0 23
1.1040374 -1.1490606 -0.11009766 0 24
1.0980164 -1.1427939 -0.094860062 0 25
1.0917693 -1.1362921 -0.079782501 0 26
1.0979656 -1.1427411 -0.065628536 0 27
1.0952952 -1.1399617 -0.050908774 0 28
1.0897398 -1.1341798 -0.036172856 0 29
1.0940785 -1.1386956 -0.021787668 0 30
1.098278 -1.1430663 -0.0072900206 0 31
1.1078111 -1.1529881 0.0073532979 0 32
1.0888158 -1.1332182 0.021682862 0 33
1.0966009 -1.1413207 0.036400601 0 34
1.1010406 -1.1459415 0.051175822 0 35
1.0914218 -1.1359304 0.065237395 0 36
1.0979596 -1.1427349 0.080234863 0 37
1.0900519 -1.1345047 0.094171993 0 38
1.0971999 -1.1419442 0.10941581 0 39
1.0930603 -1.1376357 0.1235926 0 40
1.0901897 -1.1346481 0.13784032 0 41
1.098502 -1.1432995 0.1535984 0 42
1.0903013 -1.1347642 0.16707505 0 43
1.0980861 -1.1428665 0.18302451 0 44
1.0912476 -1.1357491 0.19658051 0 45
1.0973772 -1.1421287 0.21249704 0 46
1.0956334 -1.1403137 0.22698471 0 47
1.0981358 -1.1429183 0.24240166 0 48
1.0956326 -1.1403128 0.25675547 0 49
1.0951593 -1.1398203 0.2715891 0 50
1.0916021 -1.1361181 0.2856501 0 51
1.0975022 -1.1422589 0.30226818 0 52
1.0869327 -1.1312582 0.31433859 0 53
1.09778 -1.1425478 0.33266243 0 54
1.0992486 -1.1440765 0.34837347 0 55
1.0968097 -1.141538 0.36289427 0 56
1.0949011 -1.1395515 0.37759441 0 57
1.1005336 -1.1454139 0.39501536 0 58
1.1004655 -1.1453429 0.41053933 0 59
1.0955265 -1.1402025 0.4242492 0 60
1.0999477 -1.144804 0.44165376 0 61
1.1095812 -1.1548305 0.46143299 0 62
1.094135 -1.1387544 0.47078249 0 63
1.1261121 -1.143553 -0.47845489 0 0
1.1110598 -1.1282676 -0.45624381 0 1
1.1318769 -1.1494073 -0.44876519 0 2
1.1240642 -1.1414735 -0.42983255 0 3
1.1225218 -1.1399072 -0.41350725 0 4
1.1176584 -1.1349684 -0.39612272 0 5
1.1331158 -1.1506653 -0.38586468 0 6
1.1224238 -1.1398076 -0.36670405 0 7
1.1279526 -1.1454221 -0.3529799 0 8
1.1116105 -1.128827 -0.33262211 0 9
1.1354553 -1.1530409 -0.32424635 0 10
1.1248276 -1.1422487 -0.30590245 0 11
1.1223094 -1.1396916 -0.28999645 0 12
1.1268911 -1.1443442 -0.27594787 0 13
1.1263617 -1.1438067 -0.26064098 0 14
1.1127851 -1.1300197 -0.24254973 0 15
1.1221575 -1.1395372 -0.22955945 0 16
1.123771 -1.1411756 -0.21487445 0 17
1.1307472 -1.14826 -0.20113733 0 18
1.1234963 -1.1408968 -0.18490751 0 19
1.124128 -1.1415381 -0.17009473 0 20
1.1204913 -1.1378453 -0.154705 0 21
1.1222683 -1.1396499 -0.14011382 0 22
1.1276706 -1.1451359 -0.12590434 0 23
1.1170861 -1.1343873 -0.10999956 0 24
1.1165605 -1.1338534 -0.095250413 0 25
1.1214767 -1.1388459 -0.080923945 0 26
1.1187241 -1.1360507 -0.066029347 0 27
1.1296281 -1.1471236 -0.051845014 0 28
1.1265165 -1.1439638 -0.036923897 0 29
1.1245496 -1.1419665 -0.022113163 0 30
1.1222451 -1.1396261 -0.0073555335 0 31
1.1129971 -1.130235 0.0072949193 0 32
1.1202112 -1.1375608 0.022027852 0 33
1.1290989 -1.1465862 0.037008539 0 34
1.1215684 -1.1389391 0.051475115 0 35
1.1207831 -1.1381415 0.066150874 0 36
1.1119229 -1.1291441 0.080234557 0 37
1.1187029 -1.1360292 0.095433183 0 38
1.1273924 -1.1448532 0.11101443 0 39
1.1272769 -1.1447359 0.12586038 0 40
1.1297867 -1.1472846 0.14105247 0 41
1.1210365 -1.1383989 0.15478027 0 42
1.1212521 -1.1386179 0.16965957 0 43
1.1205389 -1.1378937 0.18442078 0 44
1.115821 -1.1331027 0.19848228 0 45
1.1330854 -1.1506344 0.21665545 0 46
1.1205653 -1.1379204 0.22923374 0 47
1.1279458 -1.1454152 0.24585426 0 48
1.1257426 -1.1431779 0.26049772 0 49
1.1174885 -1.134796 0.2736454 0 50
1.1241288 -1.1415391 0.29046655 0 51
1.1270205 -1.1444756 0.30649883 0 52
1.1230839 -1.140478 0.32071352 0 53
1.126856 -1.1443084 0.33718392 0 54
1.1241031 -1.141513 0.35177526 0 55
1.1201527 -1.1375014 0.36596206 0 56
1.1244308 -1.1418458 0.38290715 0 57
1.1157999 -1.1330812 0.39546403 0 58
1.1291399 -1.1466278 0.4159452 0 59
1.1257319 -1.143167 0.43047026 0 60
1.1282749 -1.1457493 0.44733703 0 61
1.1206859 -1.1380429 0.46019667 0 62
1.1129363 -1.1301732 0.47285685 0 63
1.1558619 -1.14525 -0.48507479 0 0
1.1495688 -1.1390146 -0.46627048 0 1
1.1428258 -1.1323336 -0.44755191 0 2
1.1547736 -1.1441717 -0.43616262 0 3
1.1581312 -1.1474985 -0.42139515 0 4
1.1662271 -1.1555201 -0.40826979 0 5
1.1475512 -1.1370156 -0.38599014 0 6
1.150638 -1.140074 -0.37131369 0 7
1.1359584 -1.1255292 -0.35112759 0 8
1.1483561 -1.1378131 -0.33940515 0 9
1.1544263 -1.1438276 -0.32562274 0 10
1.1492321 -1.1386812 -0.30870822 0 11
1.1517503 -1.1411762 -0.29395565 0 12
1.153389 -1.1427997 -0.27897435 0 13
1.1524665 -1.1418858 -0.26341259 0 14
1.1580495 -1.1474175 -0.24932168 0 15
1.1581558 -1.1475228 -0.23401935 0 16
1.1531924 -1.1426051 -0.21779715 0 17
1.1585217 -1.1478853 -0.20355171 0 18
1.1585366 -1.1479001 -0.18833716 0 19
1.1502012 -1.1396413 -0.17190652 0 20
1.1708061 -1.1600569 -0.15967032 0 21
1.1527842 -1.1422006 -0.14215943 0 22
1.1614121 -1.1507492 -0.12808202 0 23
1.1516207 -1.1410477 -0.1120101 0 24
1.1533942 -1.142805 -0.097186469 0 25
1.1489798 -1.1384311 -0.081892207 0 26
1.1503724 -1.1398109 -0.067064993 0 27
1.1440096 -1.1335065 -0.051861443 0 28
1.1454122 -1.1348963 -0.03708303 0 29
1.146906 -1.1363763 -0.022276321 0 30
1.1565521 -1.1459337 -0.0074874698 0 31
1.1575378 -1.1469105 0.0074938517 0 32
1.1538538 -1.1432604 0.022411268 0 33
1.1536471 -1.1430554 0.037349634 0 34
1.1541712 -1.1435748 0.052322101 0 35
1.1531411 -1.1425543 0.06722641 0 36
1.151336 -1.1407655 0.082060143 0 37
1.1532321 -1.1426443 0.097172804 0 38
1.151728 -1.1411542 0.11202054 0 39
1.1576022 -1.1469743 0.12766185 0 40
1.1492602 -1.1387088 0.14172485 0 41
1.147018 -1.1364872 0.15642619 0 42
1.1543903 -1.1437919 0.17253262 0 43
1.1529002 -1.1423155 0.1874209 0 44
1.1559613 -1.1453484 0.20310184 0 45
1.155149 -1.1445435 0.21816666 0 46
1.1363478 -1.1259151 0.22961278 0 47
1.1503385 -1.1397773 0.24766155 0 48
1.153354 -1.1427653 0.26361546 0 49
1.1562705 -1.1456549 0.27967134 0 50
1.1474307 -1.1368961 0.29285318 0 51
1.1541182 -1.1435223 0.31002071 0 52
1.1561495 -1.145535 0.32610878 0 53
1.1632714 -1.1525916 0.34381351 0 54
1.1527287 -1.1421455 0.35631132 0 55
1.1553992 -1.1447915 0.37285015 0 56
1.1414613 -1.1309816 0.38394171 0 57
1.1599598 -1.1493102 0.40607572 0 58
1.148463 -1.1379191 0.41787732 0 59
1.1536311 -1.1430396 0.43573105 0 60
1.1584324 -1.1477969 0.45366374 0 61
1.1479177 -1.1373788 0.46560082 0 62
1.1473874 -1.1368533 0.48151839 0 63
1.1759192 -1.1368129 -0.48758888 0 0
1.1901153 -1.150537 -0.47694197 0 1
1.1889925 -1.1494516 -0.46006164 0 2
1.1763942 -1.1372722 -0.43901363 0 3
1.187618 -1.1481228 -0.42695498 0 4
1.1828407 -1.1435044 -0.40913242 0 5
1.1846765 -1.1452792 -0.39371094 0 6
1.182176 -1.1428617 -0.37692761 0 7
1.1928514 -1.1531821 -0.36430275 0 8
1.1701064 -1.1311936 -0.34169671 0 9
1.1727564 -1.1337554 -0.32683599 0 10
1.1824516 -1.1431282 -0.31383207 0 11
1.17528 -1.1361951 -0.2963728 0 12
1.1866285 -1.1471661 -0.28358078 0 13
1.185416 -1.1459939 -0.26770258 0 14
1.1904905 -1.1508998 -0.25324005 0 15
1.1805079 -1.1412492 -0.23568244 0 16
1.1811372 -1.1418575 -0.22040644 0 17
1.1769947 -1.1378527 -0.20432365 0 18
1.1798713 -1.1406337 -0.18951102 0 19
1.1870168 -1.1475416 -0.17528668 0 20
1.1844293 -1.14504 -0.15959597 0 21
1.1832814 -1.1439304 -0.14417477 0 22
1.1861252 -1.1466796 -0.12924266 0 23
1.1835966 -1.1442351 -0.11374308 0 24
1.18743 -1.1479411 -0.0988575 0 25
1.1712737 -1.132322 -0.082482554 0 26
1.1806307 -1.1413679 -0.068005659 0 27
1.1809962 -1.1417212 -0.052897722 0 28
1.1835673 -1.1442068 -0.037859935 0 29
1.1767873 -1.1376522 -0.022583285 0 30
1.1858921 -1.1464543 -0.0075855767 0 31
1.1809328 -1.1416599 0.007553854 0 32
1.1850601 -1.14565 0.022742048 0 33
1.1765823 -1.137454 0.0376365 0 34
1.1760908 -1.136979 0.052678004 0 35
1.1757809 -1.1366794 0.067726307 0 36
1.176134 -1.1370207 0.082824826 0 37
1.1845635 -1.1451699 0.09861885 0 38
1.177585 -1.1384234 0.11316536 0 39
1.1824963 -1.1431714 0.12884726 0 40
1.1880676 -1.1485574 0.14475791 0 41
1.1838706 -1.1445 0.1595207 0 42
1.178315 -1.1391293 0.17400171 0 43
1.1754456 -1.1363552 0.18880016 0 44
1.1896298 -1.1500677 0.20651709 0 45
1.1879318 -1.1484262 0.22167437 0 46
1.1828644 -1.1435273 0.2361529 0 47
1.1803895 -1.1411346 0.25109139 0 48
1.193828 -1.1541263 0.26960224 0 49
1.1718121 -1.1328425 0.28003997 0 50
1.178238 -1.1390548 0.29711872 0 51
1.194054 -1.1543448 0.31691146 0 52
1.1713743 -1.1324193 0.32645079 0 53
1.1795971 -1.1403686 0.34446818 0 54
1.1819493 -1.1426426 0.36097318 0 55
1.1818511 -1.1425477 0.37682402 0 56
1.1809771 -1.1417028 0.39248148 0 57
1.1849176 -1.1455121 0.40985078 0 58
1.1760318 -1.1369219 0.42278969 0 59
1.1854811 -1.1460569 0.44240472 0 60
1.1809353 -1.1416622 0.45694402 0 61
1.1664178 -1.1276276 0.46744514 0 62
1.1880943 -1.1485832 0.49263725 0 63
1.202089 -1.1338524 -0.49262172 0 0
1.2172177 -1.1481223 -0.48210913 0 1
1.2058802 -1.1374284 -0.46114939 0 2
1.2159636 -1.1469394 -0.44848332 0 3
1.2176423 -1.1485227 -0.43263894 0 4
1.2192447 -1.1500342 -0.4168013 0 5
1.2087249 -1.1401116 -0.3970139 0 6
1.2060716 -1.1376089 -0.38005766 0 7
1.213637 -1.1447449 -0.3663241 0 8
1.2207996 -1.1515008 -0.3523387 0 9
1.2102765 -1.1415751 -0.33335519 0 10
1.2171171 -1.1480274 -0.31926176 0 11
1.2192835 -1.1500708 -0.3038801 0 12
1.202805 -1.1345278 -0.28409126 0 13
1.2112654 -1.1425079 -0.27034706 0 14
1.2158947 -1.1468744 -0.25562483 0 15
1.2050624 -1.136657 -0.23777623 0 16
1.2041944 -1.1358384 -0.22208598 0 17
1.2206628 -1.1513718 -0.20943074 0 18
1.2158285 -1.146812 -0.19300686 0 19
1.2178973 -1.1487633 -0.17774743 0 20
1.2118188 -1.1430299 -0.16138051 0 21
1.2154472 -1.1464523 -0.14636523 0 22
1.213986 -1.1450741 -0.13073434 0 23
1.2144136 -1.1454774 -0.11534227 0 24
1.2021136 -1.1338756 -0.098911695 0 25
1.2110845 -1.1423372 -0.084290527 0 26
1.2109628 -1.1422224 -0.068938583 0 27
1.2092206 -1.1405792 -0.053529676 0 28
1.210113 -1.141421 -0.038257223 0 29
1.2215056 -1.1521668 -0.023167824 0 30
1.2091855 -1.1405461 -0.0076442864 0 31
1.2152227 -1.1462406 0.0076824529 0 32
1.2098712 -1.1411928 0.022947157 0 33
1.2232568 -1.1538186 0.038672756 0 34
1.2161393 -1.1471051 0.053835951 0 35
1.2125599 -1.143729 0.06902951 0 36
1.2091764 -1.1405375 0.084157728 0 37
1.2200576 -1.1508011 0.10038816 0 38
1.2116885 -1.142907 0.11508345 0 39
1.2227436 -1.1533346 0.13167745 0 40
1.2153856 -1.1463941 0.14635779 0 41
1.2137774 -1.1448773 0.16164133 0 42
1.2091911 -1.1405513 0.17647679 0 43
1.2158146 -1.1467988 0.19300464 0 44
1.2153441 -1.146355 0.20851821 0 45
1.2224183 -1.1530278 0.22544697 0 46
1.2228408 -1.1534262 0.24128418 0 47
1.2167176 -1.1476506 0.25579783 0 48
1.2141145 -1.1451952 0.27098298 0 49
1.2158026 -1.1467875 0.28716114 0 50
1.2238065 -1.154337 0.30500737 0 51
1.2169271 -1.1478482 0.31921193 0 52
1.2121058 -1.1433005 0.33385903 0 53
1.213017 -1.14416 0.35009259 0 54
1.2024732 -1.1342146 0.36295441 0 55
1.2175335 -1.1484202 0.38366956 0 56
1.2091849 -1.1405454 0.397165 0 57
1.22102 -1.1517087 0.41740823 0 58
1.217724 -1.1485997 0.43266797 0 59
1.2055277 -1.1370958 0.44463423 0 60
1.2110432 -1.1422983 0.46312383 0 61
1.219689 -1.1504533 0.48308793 0 62
1.2134049 -1.1445259 0.49725902 0 63
1.24958 -1.1499445 -0.50625074 0 0
1.244469 -1.1452411 -0.48728818 0 1
1.24749 -1.1480213 -0.47162765 0 2
1.2480849 -1.1485686 -0.4550871 0 3
1.2379339 -1.1392269 -0.4348385 0 4
1.2411582 -1.1421943 -0.41945952 0 5
1.2516114 -1.1518139 -0.40641752 0 6
1.2539039 -1.1539236 -0.39062974 0 7
1.2447889 -1.1455355 -0.37144718 0 8
1.2456175 -1.1462981 -0.35540652 0 9
1.2429204 -1.143816 -0.33844694 0 10
1.2523204 -1.1524664 -0.32475412 0 11
1.2474306 -1.1479665 -0.30735382 0 12
1.2405531 -1.1416374 -0.28966942 0 13
1.247952 -1.1484463 -0.27536255 0 14
1.2455544 -1.14624 -0.25887758 0 15
1.2487398 -1.1491714 -0.24358781 0 16
1.2493701 -1.1497513 -0.22779296 0 17
1.2454029 -1.1461005 -0.2112415 0 18
1.2361643 -1.1375985 -0.1939998 0 19
1.2481165 -1.1485977 -0.18008289 0 20
1.2455575 -1.1462429 -0.16398413 0 21
1.2470675 -1.1476324 -0.14846237 0 22
1.2514116 -1.1516302 -0.13322963 0 23
1.2489357 -1.1493516 -0.11726991 0 24
1.2349625 -1.1364926 -0.10045709 0 25
1.2389797 -1.1401894 -0.085249759 0 26
1.2468587 -1.1474402 -0.070173554 0 27
1.2381084 -1.1393876 -0.054184165 0 28
1.2402047 -1.1413168 -0.038761947 0 29
1.2485014 -1.1489519 -0.023410112 0 30
1.2531743 -1.1532522 -0.0078321351 0 31
1.2346202 -1.1361777 0.0077161756 0 32
1.243811 -1.1446354 0.023322163 0 33
1.2440182 -1.1448263 0.038881134 0 34
1.2444342 -1.1452091 0.05446101 0 35
1.2409384 -1.141992 0.069840357 0 36
1.2445365 -1.1453032 0.085632108 0 37
1.244027 -1.1448343 0.10119443 0 38
1.2348359 -1.136376 0.115946 0 39
1.2419603 -1.1429324 0.13222341 0 40
1.2303489 -1.1322469 0.14647205 0 41
1.2449874 -1.1457181 0.16390908 0 42
1.2496837 -1.15004 0.18030901 0 43
1.2406269 -1.1417053 0.19470015 0 44
1.2482779 -1.1487463 0.21172915 0 45
1.241448 -1.1424609 0.22634856 0 46
1.2458751 -1.146535 0.243029 0 47
1.2452161 -1.1459286 0.25880727 0 48
1.2478316 -1.1483356 0.275336 0 49
1.2496628 -1.1500207 0.29179654 0 50
1.2430655 -1.1439495 0.30627835 0 51
1.2468218 -1.1474062 0.32332823 0 52
1.2405796 -1.1416618 0.33780953 0 53
1.2538929 -1.1539135 0.35776767 0 54
1.2349988 -1.136526 0.3685258 0 55
1.2552344 -1.155148 0.39104423 0 56
1.2472147 -1.1477678 0.40498987 0 57
1.2412753 -1.142302 0.41949907 0 58
1.2473843 -1.1479239 0.43815812 0 59
1.2416437 -1.1426409 0.4527384 0 60
1.2490536 -1.1494601 0.47221875 0 61
1.2334608 -1.1351106 0.48297772 0 62
1.2354877 -1.1369759 0.50054139 0 63
1.2747504 -1.144482 -0.51070803 0 0
1.2770927 -1.146585 -0.49450436 0 1
1.2762023 -1.1457857 -0.47712004 0 2
1.2785912 -1.1479304 -0.46102878 0 3
1.2718369 -1.1418662 -0.44178188 0 4
1.2702922 -1.1404794 -0.42453399 0 5
1.2770662 -1.1465613 -0.41007408 0 6
1.2758769 -1.1454935 -0.39305723 0 7
1.2744414 -1.1442046 -0.37606865 0 8
1.2854799 -1.1541151 -0.36270362 0 9
1.2774924 -1.1469439 -0.34399456 0 10
1.2907618 -1.1588572 -0.3310025 0 11
1.2825217 -1.1514592 -0.31248772 0 12
1.2808177 -1.1499294 -0.29574716 0 13
1.2866247 -1.1551429 -0.28074035 0 14
1.2729543 -1.1428696 -0.26163179 0 15
1.2830884 -1.1519681 -0.24750623 0 16
1.2776754 -1.1471081 -0.23036456 0 17
1.2754883 -1.1451445 -0.21393991 0 18
1.2841667 -1.1529361 -0.19929318 0 19
1.2702131 -1.1404084 -0.18123408 0 20
1.2719121 -1.1419338 -0.16559267 0 21
1.2795777 -1.1488161 -0.15063956 0 22
1.2791588 -1.14844 -0.13467006 0 23
1.2789114 -1.1482178 -0.11874981 0 24
1.2875621 -1.1559846 -0.10357167 0 25
1.2728624 -1.142787 -0.08660768 0 26
1.2792494 -1.1485213 -0.071196295 0 27
1.2830966 -1.1519753 -0.05552889 0 28
1.2745203 -1.1442755 -0.039391715 0 29
1.2772436 -1.1467205 -0.023682861 0 30
1.2730294 -1.1429369 -0.0078677954 0 31
1.2779746 -1.1473768 0.0078983586 0 32
1.2783525 -1.147716 0.023703421 0 33
1.2772492 -1.1467255 0.039476056 0 34
1.2851593 -1.1538273 0.055618167 0 35
1.2893367 -1.1575778 0.071757697 0 36
1.2845752 -1.1533029 0.087404646 0 37
1.2715303 -1.141591 0.10228206 0 38
1.2868147 -1.1553135 0.11948364 0 39
1.2784942 -1.1478434 0.13460009 0 40
1.2854053 -1.1540481 0.15132563 0 41
1.290014 -1.158186 0.16794939 0 42
1.2712333 -1.1413244 0.18137963 0 43
1.2757946 -1.1454196 0.19799389 0 44
1.2782826 -1.1476533 0.21440862 0 45
1.2760129 -1.1456155 0.23006481 0 46
1.2844256 -1.1531686 0.24776417 0 47
1.2760231 -1.1456248 0.26226252 0 48
1.2786531 -1.1479859 0.27900097 0 49
1.2687286 -1.1390756 0.2929557 0 50
1.2759143 -1.145527 0.3108778 0 51
1.2809023 -1.1500053 0.32847413 0 52
1.2735069 -1.1433656 0.34292138 0 53
1.2833476 -1.1522007 0.362102 0 54
1.2798256 -1.1490386 0.37765747 0 55
1.2791977 -1.1484749 0.39408025 0 56
1.2807713 -1.1498877 0.41126379 0 57
1.2808503 -1.1499586 0.42806253 0 58
1.2725133 -1.1424735 0.44201684 0 59
1.2704246 -1.1405983 0.45808411 0 60
1.2832806 -1.1521405 0.47976628 0 61
1.2790723 -1.1483623 0.49527088 0 62
1.2802455 -1.1494157 0.51290959 0 63
1.3165201 -1.153065 -0.5217225 0 0
1.3061944 -1.1440213 -0.50028795 0 1
1.3133057 -1.1502497 -0.48566687 0 2
1.3157673 -1.1524056 -0.46928853 0 3
1.3073179 -1.1450052 -0.44918188 0 4
1.3180255 -1.1543835 -0.43570966 0 5
1.3089076 -1.1463977 -0.41574061 0 6
1.3198535 -1.1559846 -0.4021956 0 7
1.3077416 -1.1453764 -0.38171023 0 8
1.3166114 -1.153145 -0.36745888 0 9
1.3195702 -1.1557364 -0.3514716 0 10
1.3152901 -1.1519877 -0.33363473 0 11
1.3176171 -1.1540258 -0.31755722 0 12
1.3119714 -1.1490811 -0.29965541 0 13
1.3126161 -1.1496457 -0.28330564 0 14
1.3229001 -1.1586529 -0.26894858 0 15
1.3087676 -1.146275 -0.24972188 0 16
1.3194195 -1.1556045 -0.23531121 0 17
1.311972 -1.1490817 -0.21767296 0 18
1.3055412 -1.1434492 -0.20041311 0 19
1.3153871 -1.1520727 -0.18564421 0 20
1.3210154 -1.1570021 -0.1701204 0 21
1.3104066 -1.1477104 -0.15259594 0 22
1.3135676 -1.1504792 -0.1367929 0 23
1.3051727 -1.1431265 -0.119874 0 24
1.3228101 -1.158574 -0.10525308 0 25
1.3067114 -1.1444741 -0.087946624 0 26
1.3170558 -1.1535343 -0.072505496 0 27
1.3081338 -1.1457199 -0.055998497 0 28
1.3230404 -1.1587757 -0.04044788 0 29
1.3109076 -1.1481494 -0.024043461 0 30
1.3115437 -1.1487064 -0.0080179246 0 31
1.3061162 -1.1439528 0.0079847444 0 32
1.3205526 -1.1565968 0.02422036 0 33
1.3093842 -1.1468151 0.040030386 0 34
1.3064708 -1.1442634 0.055927306 0 35
1.3139167 -1.1507849 0.07233268 0 36
1.3068615 -1.1446056 0.087956727 0 37
1.3124567 -1.1495061 0.10442929 0 38
1.3154911 -1.1521637 0.12082169 0 39
1.3169535 -1.1534446 0.1371455 0 40
1.3124949 -1.1495395 0.15283912 0 41
1.3070989 -1.1448135 0.16832824 0 42
1.3238164 -1.1594554 0.18683384 0 43
1.3010218 -1.139491 0.19971935 0 44
1.3153714 -1.152059 0.21823695 0 45
1.3151052 -1.1518258 0.23454177 0 46
1.3205721 -1.1566141 0.25197428 0 47
1.3159958 -1.1526059 0.26754493 0 48
1.3149759 -1.1517125 0.28381497 0 49
1.3153119 -1.1520069 0.30041841 0 50
1.3201947 -1.1562834 0.31817842 0 51
1.3121614 -1.1492475 0.33284113 0 52
1.3063693 -1.1441746 0.34795552 0 53
1.3118594 -1.1489829 0.36613262 0 54
1.3097273 -1.1471156 0.3822898 0 55
1.3221798 -1.158022 0.40290445 0 56
1.3136202 -1.1505252 0.41723743 0 57
1.3184669 -1.1547701 0.4358556 0 58
1.3085517 -1.1460859 0.44960582 0 59
1.309392 -1.146822 0.46701473 0 60
1.3088988 -1.14639 0.48403719 0 61
1.316654 -1.1531823 0.5042941 0 62
1.308607 -1.1461344 0.51858664 0 63
1.3507652 -1.1540202 -0.52962995 0 0
1.3536162 -1.156456 -0.5129658 0 1
1.3460245 -1.1499699 -0.49249995 0 2
1.346261 -1.150172 -0.47508433 0 3
1.3401788 -1.1449758 -0.45560071 0 4
1.3476367 -1.1513474 -0.44078499 0 5
1.3514266 -1.1545852 -0.42470413 0 6
1.3496215 -1.1530432 -0.40691543 0 7
1.3553356 -1.1579249 -0.39141664 0 8
1.3436692 -1.1479577 -0.37104288 0 9
1.3460234 -1.1499691 -0.35472435 0 10
1.3353263 -1.14083 -0.3351334 0 11
1.3403224 -1.1450983 -0.31961164 0 12
1.3450422 -1.1491308 -0.30395848 0 13
1.351386 -1.1545506 -0.28858748 0 14
1.3540201 -1.156801 -0.27236289 0 15
1.3501483 -1.1534932 -0.25489196 0 16
1.339522 -1.1444145 -0.23636879 0 17
1.3529735 -1.1559068 -0.2221006 0 18
1.3485152 -1.1520978 -0.20481983 0 19
1.3457704 -1.1497529 -0.18792273 0 20
1.3501953 -1.1535333 -0.17203854 0 21
1.3512515 -1.1544356 -0.1556875 0 22
1.3567182 -1.1591061 -0.13979168 0 23
1.3502036 -1.1535404 -0.12269782 0 24
1.3515626 -1.1547015 -0.10640305 0 25
1.343681 -1.1479678 -0.089477994 0 26
1.339757 -1.1446153 -0.072974868 0 27
1.3472995 -1.1510593 -0.057064883 0 28
1.3518746 -1.154968 -0.040892124 0 29
1.3388546 -1.1438444 -0.024296232 0 30
1.3462774 -1.1501859 -0.0081431847 0 31
1.3544742 -1.1571889 0.0081927646 0 32
1.3516499 -1.154776 0.024528429 0 33
1.3457422 -1.1497288 0.040706631 0 34
1.3449498 -1.1490519 0.056965366 0 35
1.3474802 -1.1512136 0.073395543 0 36
1.3476768 -1.1513816 0.089744084 0 37
1.3503736 -1.1536856 0.10630944 0 38
1.3456626 -1.1496608 0.12228517 0 39
1.3487859 -1.1523292 0.13897437 0 40
1.3406588 -1.1453859 0.15446703 0 41
1.3495195 -1.1529559 0.17195243 0 42
1.3482172 -1.1518433 0.18826443 0 43
1.3431233 -1.1474913 0.20400088 0 44
1.3343242 -1.1399739 0.2190392 0 45
1.3509951 -1.1542165 0.23839331 0 46
1.3549851 -1.1576254 0.2558051 0 47
1.3358229 -1.1412543 0.26870251 0 48
1.3463467 -1.1502453 0.28751135 0 49
1.3451363 -1.1492112 0.30397975 0 50
1.3476753 -1.1513804 0.32136503 0 51
1.3522204 -1.1552634 0.33937338 0 52
1.3460557 -1.1499966 0.35473284 0 53
1.3464159 -1.1503043 0.37180135 0 54
1.3483106 -1.1519231 0.38938782 0 55
1.3407637 -1.1454754 0.40424475 0 56
1.3409604 -1.1456435 0.42141497 0 57
1.3426203 -1.1470616 0.43914422 0 58
1.3443387 -1.1485296 0.45701486 0 59
1.3472873 -1.1510489 0.47544652 0 60
1.3478578 -1.1515362 0.49317077 0 61
1.3427088 -1.1471372 0.50883228 0 62
1.3492116 -1.1526928 0.52902073 0 63
1.3893813 -1.1577644 -0.53914839 0 0
1.3935344 -1.1612251 -0.52264249 0 1
1.3885783 -1.1570952 -0.50282604 0 2
1.3882041 -1.1567835 -0.48482943 0 3
1.3754898 -1.1461886 -0.46277851 0 4
1.394933 -1.1623906 -0.45154545 0 5
1.3867458 -1.1555682 -0.43130556 0 6
1.3891275 -1.1575528 -0.41450372 0 7
1.3799233 -1.1498832 -0.39440423 0 8
1.386148 -1.1550701 -0.37882227 0 9
1.3781615 -1.148415 -0.35944518 0 10
1.3861057 -1.1550348 -0.34428713 0 11
1.3954803 -1.1628466 -0.32932994 0 12
1.3856792 -1.1546794 -0.30990976 0 13
1.3863617 -1.1552482 -0.29300082 0 14
1.3811666 -1.1509191 -0.2749559 0 15
1.3887814 -1.1572645 -0.25947931 0 16
1.3904637 -1.1586663 -0.24282539 0 17
1.3825775 -1.1520948 -0.22461778 0 18
1.3853456 -1.1544014 -0.20824207 0 19
1.3869059 -1.1557016 -0.19166797 0 20
1.3827102 -1.1522053 -0.17436305 0 21
1.3921295 -1.1600544 -0.15874182 0 22
1.3907263 -1.1588852 -0.14181677 0 23
1.3883829 -1.1569325 -0.12486509 0 24
1.3897467 -1.1580689 -0.10827988 0 25
1.388804 -1.1572832 -0.091528252 0 26
1.3675429 -1.1395665 -0.073719509 0 27
1.3939747 -1.161592 -0.058432419 0 28
1.3876066 -1.1562855 -0.04153974 0 29
1.3873616 -1.1560813 -0.024916634 0 30
1.379806 -1.1497853 -0.0082598468 0 31
1.4007645 -1.1672499 0.008385309 0 32
1.391782 -1.1597649 0.024996024 0 33
1.3759952 -1.1466098 0.041192137 0 34
1.3927132 -1.1605408 0.058379542 0 35
1.386933 -1.1557242 0.074764766 0 36
1.3960028 -1.163282 0.092002697 0 37
1.376441 -1.1469814 0.10724319 0 38
1.3965435 -1.1637326 0.12559903 0 39
1.3821114 -1.1517063 0.14093827 0 40
1.3854491 -1.1544876 0.15798005 0 41
1.3841681 -1.1534203 0.17454691 0 42
1.3834491 -1.1528211 0.19119024 0 43
1.3856738 -1.1546749 0.2082914 0 44
1.3783025 -1.1485324 0.22392325 0 45
1.3930248 -1.1608005 0.24327266 0 46
1.3810203 -1.1507972 0.25802922 0 47
1.3849975 -1.1541114 0.27571854 0 48
1.3855563 -1.154577 0.29283059 0 49
1.3788085 -1.148954 0.30837309 0 50
1.3900313 -1.158306 0.328044 0 51
1.3850076 -1.1541198 0.34401441 0 52
1.3963919 -1.1636062 0.36419991 0 53
1.386306 -1.1552017 0.37886548 0 54
1.3819757 -1.1515932 0.3949908 0 55
1.3797208 -1.1497144 0.41169685 0 56
1.3885055 -1.1570345 0.43185285 0 57
1.3767192 -1.1472131 0.44564959 0 58
1.3891413 -1.1575643 0.46737149 0 59
1.3851675 -1.154253 0.48376888 0 60
1.3890896 -1.1575212 0.50301123 0 61
1.3838102 -1.1531219 0.5189954 0 62
1.3877412 -1.1563977 0.53851193 0 63
1.4286611 -1.161032 -0.54880935 0 0
1.4295821 -1.1617804 -0.5307641 0 1
1.4148444 -1.1498034 -0.50717932 0 2
1.4182535 -1.1525741 -0.49033734 0 3
1.4183892 -1.1526842 -0.47240737 0 4
1.4124033 -1.1478196 -0.45259765 0 5
1.4227546 -1.1562319 -0.43804994 0 6
1.4340671 -1.1654253 -0.42360517 0 7
1.4240029 -1.1572464 -0.40290526 0 8
1.4214737 -1.1551909 -0.38456541 0 9
1.4177122 -1.1521341 -0.36603788 0 10
1.4214966 -1.1552095 -0.34952298 0 11
1.4224607 -1.155993 -0.3323175 0 12
1.4292305 -1.1614946 -0.31643188 0 13
1.4327109 -1.1643231 -0.29974797 0 14
1.4110849 -1.1467482 -0.27808371 0 15
1.418763 -1.152988 -0.26241228 0 16
1.4162812 -1.1509711 -0.24484394 0 17
1.4243013 -1.1574888 -0.22906668 0 18
1.4232469 -1.1566319 -0.21178539 0 19
1.4336821 -1.1651123 -0.19613759 0 20
1.4168516 -1.1514347 -0.17686957 0 21
1.410921 -1.146615 -0.15926482 0 22
1.4262745 -1.1590924 -0.14397743 0 23
1.4169124 -1.1514841 -0.12614796 0 24
1.4260961 -1.1589473 -0.10999332 0 25
1.415604 -1.1504208 -0.092355222 0 26
1.425568 -1.1585182 -0.076073758 0 27
1.4138384 -1.148986 -0.058668394 0 28
1.4114368 -1.1470343 -0.041827731 0 29
1.4124684 -1.1478726 -0.02511215 0 30
1.4261991 -1.1590312 -0.0084516117 0 31
1.4103506 -1.1461515 0.0083576944 0 32
1.4229352 -1.1563786 0.025298238 0 33
1.4198061 -1.1538358 0.042075757 0 34
1.4038039 -1.1408312 0.058252003 0 35
1.4148371 -1.1497976 0.075501114 0 36
1.409891 -1.1457781 0.091982506 0 37
1.4237633 -1.1570516 0.10981339 0 38
1.4235789 -1.1569017 0.12674147 0 39
1.4272282 -1.1598675 0.14407371 0 40
1.4306135 -1.1626186 0.16148771 0 41
1.4267446 -1.1594744 0.17810453 0 42
1.4366637 -1.1675354 0.19654553 0 43
1.4187534 -1.1529802 0.21111675 0 44
1.4278018 -1.1603336 0.22962968 0 45
1.4175081 -1.1519682 0.24505608 0 46
1.4327813 -1.1643803 0.26500508 0 47
1.4190133 -1.1531913 0.27964616 0 48
1.4095953 -1.1455376 0.2949118 0 49
1.4216412 -1.1553271 0.31475163 0 50
1.421236 -1.1549978 0.3320314 0 51
1.424883 -1.1579616 0.35035565 0 52
1.4187537 -1.1529806 0.36630681 0 53
1.4114295 -1.1470283 0.38184804 0 54
1.4149381 -1.1498796 0.40034044 0 55
1.4130431 -1.1483396 0.41739494 0 56
1.4234526 -1.1567992 0.43826488 0 57
1.4166862 -1.1513003 0.45397007 0 58
1.4209648 -1.1547774 0.4732652 0 59
1.4205952 -1.154477 0.49114689 0 60
1.4113146 -1.146935 0.50591397 0 61
1.4201089 -1.1540818 0.52724701 0 62
1.4271947 -1.1598402 0.54824603 0 63
1.450085 -1.1491284 -0.55156946 0 0
1.4682862 -1.1635519 -0.53978103 0 1
1.4575596 -1.1550516 -0.51736093 0 2
1.4556665 -1.1535515 -0.49833044 0 3
1.4662013 -1.1618998 -0.48353657 0 4
1.4554555 -1.1533843 -0.4618139 0 5
1.4602081 -1.1571504 -0.44516689 0 6
1.454338 -1.1524986 -0.42537463 0 7
1.4568615 -1.1544985 -0.4081547 0 8
1.4527527 -1.1512424 -0.38916838 0 9
1.4603505 -1.1572634 -0.37334433 0 10
1.4575759 -1.1550646 -0.35487515 0 11
1.4674466 -1.1628866 -0.33946085 0 12
1.45627 -1.1540297 -0.31925255 0 13
1.4563919 -1.1541264 -0.30171052 0 14
1.4541838 -1.1523765 -0.28376329 0 15
1.4524635 -1.1510133 -0.26600757 0 16
1.466447 -1.1620946 -0.2510272 0 17
1.4595156 -1.1566017 -0.23242524 0 18
1.4523741 -1.1509423 -0.21399753 0 19
1.4631402 -1.1594741 -0.19820219 0 20
1.4657513 -1.1615431 -0.18117718 0 21
1.4659564 -1.1617057 -0.16385235 0 22
1.4606825 -1.1575264 -0.14600295 0 23
1.4569757 -1.1545889 -0.1284411 0 24
1.4556928 -1.1535722 -0.11117361 0 25
1.4543844 -1.1525356 -0.093953595 0 26
1.4710202 -1.1657186 -0.077728458 0 27
1.4576446 -1.1551189 -0.059892233 0 28
1.4664657 -1.1621094 -0.043031774 0 29
1.4601281 -1.157087 -0.025704581 0 30
1.4554361 -1.1533688 -0.0085401796 0 31
1.4511455 -1.1499687 0.0085150031 0 32
1.4638458 -1.1600332 0.025770031 0 33
1.4682826 -1.1635491 0.043085087 0 34
1.4656414 -1.1614561 0.060220812 0 35
1.4574932 -1.154999 0.077013694 0 36
1.4505522 -1.1494986 0.093706027 0 37
1.4630632 -1.1594131 0.11173651 0 38
1.4547471 -1.1528229 0.12824464 0 39
1.4530615 -1.151487 0.14524119 0 40
1.4624004 -1.1588877 0.16345489 0 41
1.4604292 -1.1573257 0.18051934 0 42
1.4482898 -1.1477057 0.19619048 0 43
1.4515263 -1.1502705 0.2138726 0 44
1.4546484 -1.1527447 0.23165016 0 45
1.4545009 -1.1526278 0.24898224 0 46
1.4575821 -1.1550695 0.266945 0 47
1.4662595 -1.1619459 0.28611967 0 48
1.4532449 -1.1516324 0.30105856 0 49
1.4668741 -1.162433 0.32157725 0 50
1.4658643 -1.1616328 0.33909485 0 51
1.4614269 -1.1581162 0.3558127 0 52
1.4606483 -1.1574993 0.37342048 0 53
1.4613531 -1.1580578 0.39147228 0 54
1.4539193 -1.1521668 0.40733039 0 55
1.4637791 -1.1599803 0.42813602 0 56
1.4529285 -1.1513817 0.4429476 0 57
1.4499891 -1.1490524 0.4600794 0 58
1.4506649 -1.1495879 0.47841284 0 59
1.4591122 -1.1562819 0.49951002 0 60
1.4615393 -1.1582053 0.5187735 0 61
1.4554522 -1.1533817 0.53506297 0 62
1.4531732 -1.1515756 0.55274415 0 63
1.5047715 -1.1626323 -0.56688982 0 0
1.5087452 -1.1657026 -0.54934376 0 1
1.4973863 -1.1569264 -0.52640808 0 2
1.5029089 -1.1611934 -0.50957674 0 3
1.4942819 -1.1545279 -0.48807845 0 4
1.4971309 -1.1567291 -0.4704887 0 5
1.5072473 -1.1645454 -0.45510754 0 6
1.5018783 -1.1603971 -0.4350732 0 7
1.5075353 -1.1647679 -0.41830724 0 8
1.4982015 -1.1575563 -0.39750028 0 9
1.506963 -1.1643257 -0.38157192 0 10
1.4998682 -1.158844 -0.36167532 0 11
1.5067676 -1.1641747 -0.34521931 0 12
1.5045561 -1.1624659 -0.32667974 0 13
1.5048959 -1.1627285 -0.30877349 0 14
1.4939193 -1.1542476 -0.28872567 0 15
1.4876444 -1.1493995 -0.26984182 0 16
1.5039821 -1.1620225 -0.25498721 0 17
1.5032135 -1.1614287 -0.23709184 0 18
1.5028152 -1.1611209 -0.21930937 0 19
1.5065883 -1.1640363 -0.20213358 0 20
1.4986471 -1.1579006 -0.18346953 0 21
1.5200531 -1.1744395 -0.16827197 0 22
1.5048851 -1.1627202 -0.14898087 0 23
1.4973974 -1.156935 -0.13074049 0 24
1.5029159 -1.1611987 -0.11368103 0 25
1.4907157 -1.1517725 -0.095378473 0 26
1.5060426 -1.1636145 -0.078817017 0 27
1.5073131 -1.1645962 -0.061339997 0 28
1.505832 -1.1634518 -0.04376382 0 29
1.506205 -1.16374 -0.026261834 0 30
1.4973407 -1.1568911 -0.0087019354 0 31
1.5005615 -1.1593797 0.0087206541 0 32
1.5080708 -1.1651816 0.026294367 0 33
1.5009983 -1.1597171 0.043623339 0 34
1.4974549 -1.1569793 0.060938813 0 35
1.5055633 -1.1632441 0.078791931 0 36
1.5014173 -1.1600409 0.096063174 0 37
1.5000672 -1.1589978 0.11346556 0 38
1.5023881 -1.1607909 0.13117625 0 39
1.4957041 -1.1556267 0.14807196 0 40
1.5030252 -1.1612831 0.16638693 0 41
1.5001725 -1.1590791 0.18365628 0 42
1.497372 -1.1569154 0.20089705 0 43
1.4931605 -1.1536614 0.21790044 0 44
1.4982734 -1.1576117 0.23631266 0 45
1.5055463 -1.163231 0.25525242 0 46
1.4853405 -1.1476195 0.26942393 0 47
1.4954499 -1.1554303 0.28902149 0 48
1.4944522 -1.1546595 0.30663067 0 49
1.5057806 -1.1634121 0.3269456 0 50
1.5106752 -1.1671938 0.34611458 0 51
1.5098457 -1.166553 0.36408126 0 52
1.5037657 -1.1618553 0.38076234 0 53
1.5021966 -1.160643 0.39856023 0 54
1.5033953 -1.1615692 0.41715851 0 55
1.5034431 -1.1616061 0.43552652 0 56
1.5028125 -1.1611189 0.45376843 0 57
1.5077447 -1.1649296 0.47382417 0 58
1.5066881 -1.1641133 0.4921307 0 59
1.5063396 -1.163844 0.51073992 0 60
1.5020139 -1.1605018 0.52803493 0 61
1.4973857 -1.1569259 0.54520768 0 62
1.4989051 -1.1580999 0.5646798 0 63
1.5508852 -1.1680932 -0.57880729 0 0
1.5323776 -1.1541538 -0.55273926 0 1
1.5307415 -1.1529214 -0.53310996 0 2
1.5377507 -1.1582006 -0.51652235 0 3
1.5354879 -1.1564963 -0.49685505 0 4
1.5450163 -1.1636729 -0.48100403 0 5
1.5413589 -1.1609184 -0.46106219 0 6
1.5327644 -1.1544451 -0.43987495 0 7
1.5397998 -1.1597439 -0.42327085 0 8
1.5361156 -1.1569692 -0.40375447 0 9
1.5364108 -1.1571914 -0.38539618 0 10
1.5482088 -1.1660775 -0.36984652 0 11
1.5434014 -1.1624566 -0.35031113 0 12
1.5310038 -1.1531191 -0.32931867 0 13
1.543452 -1.1624947 -0.31372774 0 14
1.5458415 -1.1642944 -0.29597118 0 15
1.5396845 -1.1596571 -0.27667385 0 16
1.5429949 -1.1621505 -0.25915909 0 17
1.5234084 -1.1473984 -0.23803374 0 18
1.5370669 -1.1576856 -0.22221361 0 19
1.5449438 -1.1636183 -0.20534435 0 20
1.544713 -1.1634445 -0.18734351 0 21
1.542907 -1.1620842 -0.16920726 0 22
1.5408906 -1.1605655 -0.15112114 0 23
1.5393291 -1.1593894 -0.13314681 0 24
1.5399797 -1.1598794 -0.11539702 0 25
1.5416187 -1.161114 -0.097714439 0 26
1.546815 -1.1650276 -0.080195017 0 27
1.5398312 -1.1597676 -0.062078267 0 28
1.5457563 -1.1642303 -0.04450471 0 29
1.5451657 -1.1637853 -0.026689611 0 30
1.5269648 -1.150077 -0.0087912474 0 31
1.5455933 -1.1641074 0.0088984976 0 32
1.5390025 -1.1591434 0.026583157 0 33
1.5445322 -1.1633083 0.044469468 0 34
1.5429752 -1.1621356 0.06220502 0 35
1.5432614 -1.1623511 0.080010779 0 36
1.5535929 -1.1701326 0.098473415 0 37
1.5412173 -1.1608117 0.11548976 0 38
1.5401827 -1.1600324 0.13322064 0 39
1.5564588 -1.1722913 0.15264797 0 40
1.5412806 -1.1608593 0.16902889 0 41
1.5400203 -1.1599101 0.18677437 0 42
1.5410216 -1.1606642 0.20482305 0 43
1.5381103 -1.1584713 0.22236443 0 44
1.5368412 -1.1575156 0.24013261 0 45
1.5378107 -1.1582458 0.25828835 0 46
1.5400271 -1.1599152 0.27673542 0 47
1.533909 -1.1553071 0.29368657 0 48
1.5369787 -1.1576192 0.31241196 0 49
1.5465207 -1.164806 0.33265635 0 50
1.5453848 -1.1639504 0.35076129 0 51
1.5453844 -1.1639502 0.3691718 0 52
1.5408518 -1.1605363 0.38651016 0 53
1.5394484 -1.1594794 0.40463048 0 54
1.5402513 -1.160084 0.42339498 0 55
1.5369087 -1.1575664 0.4410643 0 56
1.5338287 -1.1552466 0.45880967 0 57
1.5379493 -1.1583502 0.4788039 0 58
1.5319234 -1.1538117 0.49570167 0 59
1.5425658 -1.1618272 0.51813966 0 60
1.5408827 -1.1605595 0.53664178 0 61
1.5436234 -1.1626239 0.55679572 0 62
1.542111 -1.1614847 0.57553267 0 63
1.596069 -1.1716475 -0.59024888 0 0
1.5910597 -1.1679703 -0.56868291 0 1
1.5850389 -1.1635506 -0.54699582 0 2
1.5861399 -1.1643587 -0.52792692 0 3
1.5924051 -1.1689579 -0.51058263 0 4
1.5928785 -1.1693054 -0.4913913 0 5
1.5913329 -1.1681708 -0.47167832 0 6
1.5852915 -1.163736 -0.45080853 0 7
1.5848578 -1.1634176 -0.43169159 0 8
1.5908817 -1.1678396 -0.41434345 0 9
1.592038 -1.1686884 -0.39571512 0 10
1.5804068 -1.1601502 -0.374102 0 11
1.5824181 -1.1616266 -0.35589787 0 12
1.585695 -1.1640322 -0.33797833 0 13
1.5908973 -1.1678511 -0.32042846 0 14
1.5828732 -1.1619607 -0.30030307 0 15
1.5898008 -1.1670462 -0.28307939 0 16
1.5887278 -1.1662585 -0.26441166 0 17
1.5809915 -1.1605794 -0.24478278 0 18
1.5922235 -1.1688247 -0.22809252 0 19
1.5937141 -1.1699189 -0.20989865 0 20
1.5866345 -1.1647218 -0.19067638 0 21
1.5870371 -1.1650174 -0.17246281 0 22
1.5870953 -1.16506 -0.15423593 0 23
1.5969293 -1.1722791 -0.13687184 0 24
1.5837586 -1.1626108 -0.11759741 0 25
1.5974522 -1.172663 -0.10033184 0 26
1.5922229 -1.1688243 -0.081797883 0 27
1.5922983 -1.1688795 -0.06360922 0 28
1.5958813 -1.1715097 -0.04552969 0 29
1.5845019 -1.1631564 -0.027119964 0 30
1.588207 -1.1658762 -0.0090606157 0 31
1.5850635 -1.1635686 0.0090426821 0 32
1.5915097 -1.1683006 0.027239909 0 33
1.5873137 -1.1652204 0.045285262 0 34
1.5830939 -1.1621227 0.063241526 0 35
1.5913447 -1.1681795 0.081752762 0 36
1.5915036 -1.1682961 0.099958226 0 37
1.5895526 -1.166864 0.11802763 0 38
1.5836695 -1.1625453 0.13573536 0 39
1.5848768 -1.1634315 0.15402032 0 40
1.5944631 -1.1704687 0.17326979 0 41
1.5829943 -1.1620497 0.19023889 0 42
1.5894544 -1.1667919 0.20933764 0 43
1.5907396 -1.1677353 0.22787994 0 44
1.5860549 -1.1642964 0.24556673 0 45
1.5778301 -1.1582587 0.26259798 0 46
1.5890896 -1.1665242 0.28295276 0 47
1.5888672 -1.1663609 0.30144024 0 48
1.5826161 -1.161772 0.31876051 0 49
1.5776427 -1.1581211 0.33626205 0 50
1.5700558 -1.1525517 0.35311753 0 51
1.5774853 -1.1580056 0.37341043 0 52
1.5916088 -1.1683735 0.39560843 0 53
1.5948472 -1.1707506 0.41537625 0 54
1.5847454 -1.1633351 0.43166095 0 55
1.5898163 -1.1670576 0.45209524 0 56
1.5883393 -1.1659733 0.47079101 0 57
1.5869528 -1.1649555 0.48956326 0 58
1.5774549 -1.1579833 0.5057891 0 59
1.5954088 -1.171163 0.53101194 0 60
1.5796603 -1.1596022 0.54513967 0 61
1.5905609 -1.1676042 0.56850463 0 62
1.5849291 -1.1634699 0.58612919 0 63
1.6390159 -1.172437 -0.60075432 0 0
1.6285312 -1.1649369 -0.57691252 0 1
1.6351341 -1.1696601 -0.55927789 0 2
1.6324028 -1.1677064 -0.53850514 0 3
1.6256388 -1.1628679 -0.51661468 0 4
1.631688 -1.1671951 -0.49889842 0 5
1.6337844 -1.1686946 -0.47996527 0 6
1.6188403 -1.1580048 -0.45626506 0 7
1.6298165 -1.1658564 -0.43999952 0 8
1.6322423 -1.1675916 -0.42134458 0 9
1.6337219 -1.16865 -0.40247375 0 10
1.6346606 -1.1693214 -0.38351199 0 11
1.6302049 -1.1661341 -0.36339304 0 12
1.6227943 -1.1608331 -0.34281743 0 13
1.6357955 -1.1701332 -0.32654884 0 14
1.6268067 -1.1637033 -0.30590025 0 15
1.6219524 -1.1602309 -0.28624231 0 16
1.6311748 -1.1668279 -0.26906785 0 17
1.6368209 -1.1708667 -0.25117862 0 18
1.6338065 -1.1687104 -0.2319732 0 19
1.6375719 -1.171404 -0.21376166 0 20
1.6300788 -1.1660439 -0.19415955 0 21
1.6323473 -1.1676667 -0.17581308 0 22
1.6336515 -1.1685996 -0.15735197 0 23
1.6289356 -1.1652261 -0.13837656 0 24
1.6332005 -1.168277 -0.1201928 0 25
1.6448238 -1.1765914 -0.10239069 0 26
1.6369796 -1.1709802 -0.08335115 0 27
1.6356081 -1.1699991 -0.064759739 0 28
1.6292444 -1.1654471 -0.046069186 0 29
1.6310048 -1.1667063 -0.027668258 0 30
1.6339791 -1.1688339 -0.0092390496 0 31
1.6328776 -1.168046 0.0092328219 0 32
1.626458 -1.1634538 0.027591126 0 33
1.6291718 -1.1653951 0.046067134 0 34
1.6258374 -1.1630099 0.064372882 0 35
1.6312389 -1.1668738 0.083058856 0 36
1.6251063 -1.1624869 0.10116328 0 37
1.6268167 -1.1637105 0.119723 0 38
1.629961 -1.1659597 0.13846368 0 39
1.6376421 -1.1714542 0.15773635 0 40
1.6231118 -1.1610602 0.17481835 0 41
1.6252142 -1.1625642 0.19358014 0 42
1.6295232 -1.1656464 0.21271102 0 43
1.6333609 -1.1683917 0.23190995 0 44
1.6307964 -1.1665573 0.25025415 0 45
1.6374582 -1.1713226 0.27010435 0 46
1.6300843 -1.1660478 0.28767744 0 47
1.625959 -1.1630969 0.30574083 0 48
1.6258419 -1.1630131 0.32456183 0 49
1.6338016 -1.1687069 0.34514272 0 50
1.6337736 -1.1686869 0.36418852 0 51
1.6227567 -1.1608062 0.38071918 0 52
1.6236099 -1.1614165 0.3999826 0 53
1.6346347 -1.1693029 0.42196217 0 54
1.627701 -1.164343 0.43942839 0 55
1.6321058 -1.1674939 0.46000388 0 56
1.6465919 -1.1778562 0.48372781 0 57
1.6291519 -1.165381 0.49812302 0 58
1.6285459 -1.1649474 0.51753855 0 59
1.6290625 -1.1653169 0.53740323 0 60
1.6307931 -1.1665549 0.55779314 0 61
1.6325654 -1.1678226 0.57834166 0 62
1.629082 -1.1653309 0.59711319 0 63
2.0212033 -1.4085834 -0.73443472 0 0
2.0860496 -1.4537749 -0.73260176 0 1
2.1708345 -1.5128618 -0.73608929 0 2
2.2571836 -1.5730388 -0.7381742 0 3
2.3466952 -1.6354197 -0.73931384 0 4
2.4359708 -1.6976361 -0.73837423 0 5
2.5273893 -1.7613461 -0.73606586 0 6
2.640439 -1.8401307 -0.73776627 0 7
2.749485 -1.9161253 -0.7358585 0 8
2.8740911 -2.0029638 -0.73550022 0 9
2.9769866 -2.074672 -0.72705245 0 10
2.9936681 -2.0862973 -0.69628084 0 11
2.9995146 -2.0903716 -0.66284931 0 12
2.9885788 -2.0827506 -0.62588364 0 13
2.9908679 -2.0843458 -0.59189659 0 14
3.0066552 -2.0953479 -0.56047589 0 15
2.9993651 -2.0902674 -0.5247525 0 16
2.9833913 -2.0791352 -0.48786649 0 17
2.9943147 -2.0867479 -0.45552102 0 18
2.9924221 -2.085429 -0.42120114 0 19
2.9930801 -2.0858874 -0.38732654 0 20
2.992363 -2.0853877 -0.35334092 0 21
2.9896002 -2.0834625 -0.31921345 0 22
3.0057442 -2.0947132 -0.28700817 0 23
2.9937956 -2.0863862 -0.25212172 0 24
2.9944243 -2.0868242 -0.21846494 0 25
2.9856012 -2.0806754 -0.18424784 0 26
2.9867356 -2.081466 -0.15076295 0 27
2.9968588 -2.0885208 -0.11763094 0 28
2.9985108 -2.0896721 -0.084054194 0 29
2.9882834 -2.0825446 -0.050254829 0 30
2.9914749 -2.0847688 -0.016768554 0 31
2.9790201 -2.0760889 0.01669874 0 32
2.99037 -2.0839989 0.050289921 0 33
2.993093 -2.0858965 0.083902322 0 34
2.9946795 -2.087002 0.1175454 0 35
2.9846129 -2.0799866 0.15065579 0 36
2.9729636 -2.0718682 0.18346794 0 37
2.9954612 -2.0875471 0.21854061 0 38
2.9852753 -2.0804484 0.2514042 0 39
2.9922092 -2.0852804 0.28571573 0 40
2.9848115 -2.0801251 0.31870213 0 41
2.9982021 -2.089457 0.35403037 0 42
2.9871404 -2.0817482 0.38655791 0 43
2.9917717 -2.0849757 0.42110959 0 44
2.9944789 -2.0868623 0.45554602 0 45
2.9832268 -2.0790207 0.48783961 0 46
2.9896843 -2.0835209 0.52305877 0 47
2.9729972 -2.0718915 0.55420166 0 48
2.9885142 -2.0827055 0.59143078 0 49
2.9971027 -2.0886908 0.62766874 0 50
2.995692 -2.0877078 0.66200459 0 51
2.9841259 -2.0796473 0.69406146 0 52
2.9927731 -2.0856736 0.73090786 0 53
2.9908111 -2.0843062 0.76536965 0 54
2.9825747 -2.0785663 0.79824144 0 55
2.9866409 -2.0813999 0.8344987 0 56
2.9865482 -2.0813353 0.8697893 0 57
2.9904602 -2.0840616 0.90644717 0 58
3.0022657 -2.092289 0.94584781 0 59
2.9739437 -2.0725513 0.97257864 0 60
2.9778972 -2.0753064 1.0097491 0 61
2.988863 -2.0829487 1.0496618 0 62
2.9982255 -2.0894732 1.0894504 0 63
2.041738 -1.3859113 -0.73564821 0 0
2.1089458 -1.4315314 -0.73440534 0 1
2.1812687 -1.4806235 -0.73339838 0 2
2.25507 -1.5307189 -0.7312721 0 3
2.3670847 -1.6067535 -0.73945713 0 4
2.4375672 -1.6545962 -0.73263568 0 5
2.5514855 -1.7319229 -0.73682553 0 6
2.6391151 -1.791405 -0.73118627 0 7
2.7708077 -1.8807967 -0.73531997 0 8
2.8762646 -1.9523796 -0.72985756 0 9
3.0400319 -2.0635433 -0.73619699 0 10
3.0831466 -2.092809 -0.71105307 0 11
3.0766644 -2.0884092 -0.67417246 0 12
3.07985 -2.0905714 -0.63956612 0 13
3.077857 -2.0892186 -0.60398209 0 14
3.0784762 -2.0896387 -0.56903124 0 15
3.0748022 -2.0871451 -0.53342009 0 16
3.0633287 -2.0793569 -0.49671975 0 17
3.0653751 -2.0807459 -0.46240404 0 18
3.0790002 -2.0899947 -0.42973769 0 19
3.068717 -2.0830145 -0.39377013 0 20
3.0737031 -2.0863988 -0.359889 0 21
3.0843887 -2.0936522 -0.32656091 0 22
3.067888 -2.0824518 -0.29047498 0 23
3.0900445 -2.0974913 -0.25803575 0 24
3.0803301 -2.0908973 -0.22283977 0 25
3.0655417 -2.0808589 -0.1875879 0 26
3.079627 -2.09042 -0.15414271 0 27
3.0667446 -2.0816755 -0.11936031 0 28
3.0800469 -2.0907049 -0.085612684 0 29
3.0682173 -2.0826752 -0.051164553 0 30
3.078414 -2.0895967 -0.017110564 0 31
3.0877068 -2.0959046 0.017162215 0 32
3.0722864 -2.0854373 0.051232405 0 33
3.0706279 -2.0843115 0.085350879 0 34
3.0820348 -2.0920544 0.11995542 0 35
3.0782197 -2.0894647 0.15407225 0 36
3.0691473 -2.0833066 0.18780854 0 37
3.0656884 -2.0809586 0.22178055 0 38
3.0758908 -2.0878839 0.25685382 0 39
3.0783434 -2.0895486 0.29146492 0 40
3.0787604 -2.0898318 0.32596499 0 41
3.0754697 -2.0875981 0.36009586 0 42
3.0724416 -2.0855427 0.39424807 0 43
3.0726104 -2.0856574 0.42884585 0 44
3.0832465 -2.0928769 0.4650999 0 45
3.0619183 -2.0783994 0.49649104 0 46
3.0761552 -2.0880632 0.53365481 0 47
3.0785706 -2.0897031 0.56904876 0 48
3.0830579 -2.0927489 0.6050027 0 49
3.0827427 -2.092535 0.64016688 0 50
3.074774 -2.0871258 0.67375821 0 51
3.0709977 -2.0845625 0.70825124 0 52
3.0611367 -2.0778689 0.74130791 0 53
3.0802159 -2.0908198 0.78161061 0 54
3.073643 -2.0863581 0.8156867 0 55
3.0806375 -2.0911059 0.8535133 0 56
3.0875509 -2.0957987 0.89163208 0 57
3.0849788 -2.0940528 0.92722189 0 58
3.0838125 -2.093261 0.96335673 0 59
3.0864935 -2.0950809 1.0008854 0 60
3.0664198 -2.0814552 1.0310088 0 61
3.081773 -2.0918767 1.0731761 0 62
3.0809944 -2.0913482 1.1100975 0 63
2.049886 -1.3549266 -0.73252565 0 0
2.1238625 -1.4038233 -0.73353308 0 1
2.2115924 -1.4618107 -0.73749453 0 2
2.2860062 -1.5109966 -0.73522347 0 3
2.3725553 -1.5682033 -0.7350865 0 4
2.4635146 -1.6283253 -0.73436093 0 5
2.5802524 -1.7054863 -0.73902088 0 6
2.6833541 -1.7736342 -0.7373448 0 7
2.7952833 -1.8476167 -0.73573047 0 8
2.9130051 -1.9254282 -0.73311734 0 9
3.060667 -2.0230291 -0.7351144 0 10
3.1698313 -2.0951841 -0.72504824 0 11
3.1802769 -2.1020885 -0.6911602 0 12
3.1651402 -2.0920832 -0.65188617 0 13
3.167696 -2.0937729 -0.61651278 0 14
3.1711614 -2.0960634 -0.58135527 0 15
3.1754754 -2.0989149 -0.54636627 0 16
3.1762056 -2.0993974 -0.51079822 0 17
3.1612566 -2.0895164 -0.47295594 0 18
3.1668694 -2.0932264 -0.43837601 0 19
3.171488 -2.0962791 -0.40361932 0 20
3.1739309 -2.097894 -0.36857602 0 21
3.1584039 -2.0876307 -0.33165431 0 22
3.1685848 -2.0943604 -0.29754832 0 23
3.1694031 -2.0949011 -0.26249167 0 24
3.1591809 -2.0881445 -0.22666939 0 25
3.1736009 -2.0976758 -0.19260736 0 26
3.1756504 -2.0990305 -0.15764511 0 27
3.1690869 -2.094692 -0.12233181 0 28
3.1628447 -2.0905662 -0.08719299 0 29
3.1697011 -2.095098 -0.052423291 0 30
3.1681445 -2.0940692 -0.017464865 0 31
3.1743453 -2.0981677 0.017499048 0 32
3.1738322 -2.0978286 0.052491616 0 33
3.1694543 -2.0949349 0.087375209 0 34
3.1641071 -2.0914006 0.1221396 0 35
3.1633327 -2.0908887 0.15703362 0 36
3.1643424 -2.0915561 0.19204544 0 37
3.1669192 -2.0932593 0.22722462 0 38
3.1574786 -2.0870194 0.26150408 0 39
3.1744051 -2.0982072 0.29809487 0 40
3.1733735 -2.0975254 0.33322623 0 41
3.1576936 -2.0871613 0.36669043 0 42
3.1855364 -2.1055648 0.40540719 0 43
3.1656783 -2.0924392 0.43821114 0 44
3.1652482 -2.0921547 0.47355312 0 45
3.1721268 -2.0967014 0.51014227 0 46
3.1765506 -2.0996253 0.54655129 0 47
3.1759377 -2.0992203 0.58223087 0 48
3.1777065 -2.1003895 0.61846107 0 49
3.1752565 -2.0987701 0.65396976 0 50
3.1668406 -2.0932074 0.68824017 0 51
3.1774626 -2.1002283 0.72679383 0 52
3.178246 -2.1007462 0.7633546 0 53
3.1672246 -2.0934613 0.79709685 0 54
3.1772437 -2.1000836 0.83626407 0 55
3.1675782 -2.0936949 0.87040216 0 56
3.1611192 -2.0894256 0.90538931 0 57
3.1740322 -2.0979607 0.94616252 0 58
3.1636651 -2.0911083 0.98019528 0 59
3.1740882 -2.0979979 1.0208477 0 60
3.1660993 -2.0927174 1.0557917 0 61
3.1681643 -2.0940824 1.0942109 0 62
3.1642284 -2.0914807 1.1307354 0 63
2.0686257 -1.3310579 -0.73331803 0 0
2.1414652 -1.3779265 -0.73370522 0 1
2.2138257 -1.4244869 -0.73234284 0 2
2.3004529 -1.4802272 -0.73396033 0 3
2.3870556 -1.5359516 -0.73367196 0 4
2.4849017 -1.5989108 -0.73481995 0 5
2.5746419 -1.6566542 -0.73152411 0 6
2.6854663 -1.727964 -0.73203123 0 7
2.8255894 -1.8181264 -0.7377671 0 8
2.9260259 -1.8827522 -0.7305125 0 9
3.0905924 -1.9886426 -0.73637301 0 10
3.2436111 -2.0871027 -0.73599839 0 11
3.2602828 -2.0978301 -0.70288843 0 12
3.2707605 -2.1045718 -0.66825908 0 13
3.2710989 -2.1047895 -0.63155264 0 14
3.2596951 -2.0974517 -0.59281278 0 15
3.2587054 -2.0968151 -0.55620843 0 16
3.262727 -2.0994029 -0.52052164 0 17
3.2674975 -2.1024723 -0.48494616 0 18
3.2818208 -2.1116886 -0.45065975 0 19
3.2659214 -2.1014581 -0.4123176 0 20
3.2636549 -2.0999999 -0.37596822 0 21
3.2603152 -2.0978508 -0.33962128 0 22
3.2703588 -2.1043134 -0.3046526 0 23
3.2564163 -2.0953422 -0.26754406 0 24
3.2524219 -2.0927718 -0.23149548 0 25
3.2588024 -2.0968776 -0.1961986 0 26
3.252774 -2.0929985 -0.16018394 0 27
3.2618761 -2.0988553 -0.12490794 0 28
3.2607529 -2.0981324 -0.089174137 0 29
3.2660146 -2.1015182 -0.053584773 0 30
3.2607327 -2.0981195 -0.017831698 0 31
3.2531106 -2.093215 0.017790018 0 32
3.2680023 -2.102797 0.053617388 0 33
3.2524867 -2.0928135 0.088948078 0 34
3.2712922 -2.1049139 0.12526852 0 35
3.2538192 -2.0936708 0.1602354 0 36
3.2604573 -2.0979421 0.19629821 0 37
3.2604179 -2.0979168 0.23206463 0 38
3.2674317 -2.1024299 0.26844907 0 39
3.2635777 -2.0999501 0.30402088 0 40
3.2544112 -2.0940521 0.33900627 0 41
3.2702417 -2.104238 0.37672698 0 42
3.2468438 -2.0891826 0.4099091 0 43
3.2564707 -2.095377 0.44717869 0 44
3.2577536 -2.0962026 0.48349997 0 45
3.2581029 -2.0964274 0.51978391 0 46
3.2652924 -2.1010535 0.55733269 0 47
3.26564 -2.1012771 0.59389395 0 48
3.2497647 -2.0910621 0.6274336 0 49
3.25722 -2.0958593 0.66549259 0 50
3.264679 -2.1006587 0.7038362 0 51
3.2570775 -2.0957675 0.73905396 0 52
3.2578065 -2.0962367 0.77621394 0 53
3.2571306 -2.0958018 0.81317627 0 54
3.2594297 -2.097281 0.85104364 0 55
3.2667513 -2.1019921 0.89048374 0 56
3.2727356 -2.1058428 0.92987102 0 57
3.2611768 -2.0984054 0.96437532 0 58
3.2616696 -2.0987225 1.0024885 0 59
3.2651694 -2.1009743 1.0417534 0 60
