# .PCD v0.7 - Point Cloud Data file format
VERSION 0.7
FIELDS x y z intensity ring
SIZE 4 4 4 4 2
TYPE F F F F U
COUNT 1 1 1 1 1
WIDTH 1250
HEIGHT 1
VIEWPOINT 0 0 0 1 0 0 0
POINTS 1250
DATA ascii
0.17416944 -1.1475496 0.32289314 0 61
0.17372555 -1.1446251 0.33357245 0 62
0.17612521 -1.1604358 0.34990317 0 63
0.19078112 -1.1606221 -0.35064021 0 0
0.19215371 -1.1689724 -0.34133065 0 1
0.1905794 -1.159395 -0.32686082 0 2
0.19082804 -1.1609076 -0.31565839 0 3
0.18995327 -1.1555859 -0.3026928 0 4
0.1896212 -1.1535658 -0.29071975 0 5
0.18875863 -1.1483182 -0.27805743 0 6
0.18982063 -1.154779 -0.26826823 0 7
0.19165073 -1.1659125 -0.2594398 0 8
0.18991435 -1.1553491 -0.24582338 0 9
0.19155887 -1.1653535 -0.23663244 0 10
0.1918561 -1.1671618 -0.22570418 0 11
0.18845843 -1.146492 -0.21065055 0 12
0.19068347 -1.1600281 -0.20198777 0 13
0.18849179 -1.1466949 -0.18867928 0 14
0.18785381 -1.1428138 -0.17712364 0 15
0.1889389 -1.149415 -0.16719748 0 16
0.18890046 -1.1491811 -0.15624531 0 17
0.19132179 -1.1639113 -0.14721721 0 18
0.18863593 -1.1475718 -0.13429946 0 19
0.19162925 -1.1657817 -0.1254307 0 20
0.19362326 -1.1779124 -0.11564326 0 21
0.19119175 -1.1631202 -0.1032572 0 22
0.19061962 -1.1596396 -0.092064664 0 23
0.19125262 -1.1634905 -0.081466429 0 24
0.19150521 -1.1650271 -0.070669524 0 25
0.1910494 -1.1622542 -0.059634753 0 26
0.19111949 -1.1626806 -0.048796196 0 27
0.19009568 -1.1564523 -0.037740767 0 28
0.19056877 -1.1593304 -0.027020209 0 29
0.18991873 -1.1553757 -0.016155001 0 30
0.19032596 -1.1578532 -0.0053962427 0 31
0.18986933 -1.1550752 0.0053832959 0 32
0.18866493 -1.1477482 0.016048349 0 33
0.18958226 -1.1533288 0.026880331 0 34
0.187959 -1.1434537 0.037316561 0 35
0.1916407 -1.1658515 0.04892927 0 36
0.19186667 -1.1672261 0.059889857 0 37
0.19098529 -1.1618643 0.070477664 0 38
0.19102348 -1.1620966 0.081368826 0 39
0.19270107 -1.1723022 0.093069956 0 40
0.19164802 -1.1658959 0.10350362 0 41
0.18799531 -1.1436746 0.11228192 0 42
0.19150142 -1.1650041 0.12534703 0 43
0.18932265 -1.1517495 0.13478836 0 44
0.18927966 -1.1514879 0.14564584 0 45
0.19046038 -1.1586709 0.15753555 0 46
0.18863146 -1.1475446 0.16692542 0 47
0.1886726 -1.147795 0.17789565 0 48
0.19388352 -1.1794957 0.19407637 0 49
0.1927911 -1.1728499 0.20422035 0 50
0.18972297 -1.1541848 0.21206398 0 51
0.19233854 -1.1700968 0.22627173 0 52
0.19111374 -1.1626457 0.23608258 0 53
0.19332036 -1.1760697 0.2502321 0 54
0.1907088 -1.1601822 0.2581647 0 55
0.18802369 -1.1438472 0.26572865 0 56
0.19200414 -1.1680624 0.28283834 0 57
0.18854384 -1.1470116 0.28906798 0 58
0.19025524 -1.1574229 0.30317399 0 59
0.18973197 -1.1542397 0.31384534 0 60
0.19031198 -1.1577681 0.32640219 0 61
0.19079216 -1.1606892 0.33891204 0 62
0.190074 -1.1563203 0.34934059 0 63
0.20630847 -1.1653697 -0.35281432 0 0
0.2064444 -1.1661376 -0.34121838 0 1
0.20791653 -1.1744531 -0.33180177 0 2
0.20515348 -1.1588457 -0.31575978 0 3
0.20525043 -1.1593933 -0.3043282 0 4
0.20583986 -1.1627227 -0.29364315 0 5
0.20409483 -1.1528656 -0.2797451 0 6
0.20152137 -1.1383289 -0.26500234 0 7
0.20530362 -1.1596937 -0.25859821 0 8
0.20633207 -1.165503 -0.24850489 0 9
0.20439874 -1.1545824 -0.23493788 0 10
0.20390022 -1.1517664 -0.223195 0 11
0.20518723 -1.1590363 -0.21340281 0 12
0.20562813 -1.1615268 -0.20267367 0 13
0.20603511 -1.1638256 -0.19190036 0 14
0.20419985 -1.1534588 -0.17914912 0 15
0.20599803 -1.1636162 -0.16961887 0 16
0.20644462 -1.1661389 -0.15888406 0 17
0.20812707 -1.1756425 -0.14901346 0 18
0.20648751 -1.1663811 -0.13678749 0 19
0.20295367 -1.1464196 -0.12360663 0 20
0.20418297 -1.1533636 -0.11347106 0 21
0.20504843 -1.1582522 -0.10304109 0 22
0.20844458 -1.177436 -0.093673937 0 23
0.20506246 -1.1583315 -0.081275612 0 24
0.20407543 -1.152756 -0.070072092 0 25
0.20306425 -1.1470442 -0.058977995 0 26
0.20726509 -1.1707735 -0.04923908 0 27
0.20726284 -1.1707608 -0.038288001 0 28
0.20635864 -1.1656532 -0.027224654 0 29
0.20554605 -1.1610631 -0.016268635 0 30
0.20586169 -1.1628461 -0.0054308996 0 31
0.20441937 -1.1546988 0.0053928494 0 32
0.206173 -1.1646045 0.016318258 0 33
0.20526266 -1.1594623 0.027080063 0 34
0.20542255 -1.1603655 0.037948042 0 35
0.20340523 -1.1489702 0.048322108 0 36
0.20580506 -1.1625262 0.059774037 0 37
0.20376189 -1.150985 0.069964431 0 38
0.20750897 -1.1721511 0.082245268 0 39
0.20552793 -1.1609608 0.092363209 0 40
0.20612635 -1.1643411 0.10358276 0 41
0.20643333 -1.166075 0.11472165 0 42
0.20690253 -1.1687254 0.12601164 0 43
0.20279184 -1.1455054 0.1343393 0 44
0.20614137 -1.1644258 0.14759175 0 45
0.20704672 -1.1695399 0.15934744 0 46
0.20508415 -1.1584539 0.16886638 0 47
0.2043103 -1.1540828 0.17924602 0 48
0.20526272 -1.1594627 0.19118096 0 49
0.20556447 -1.1611671 0.20261092 0 50
0.20199145 -1.1409843 0.21007906 0 51
0.20422736 -1.1536143 0.22355309 0 52
0.2044972 -1.1551385 0.23505105 0 53
0.20641063 -1.1659468 0.24859951 0 54
0.20496535 -1.157783 0.25817212 0 55
0.20286275 -1.1459061 0.26676628 0 56
0.2060664 -1.1640024 0.28244746 0 57
0.20714658 -1.170104 0.29550728 0 58
0.20449695 -1.1551371 0.303211 0 59
0.20423995 -1.1536855 0.31435373 0 60
0.20638284 -1.1657898 0.32935426 0 61
0.20439783 -1.1545771 0.3378357 0 62
0.2062766 -1.1651897 0.35275978 0 63
0.21782994 -1.1480315 -0.34834972 0 0
0.21836269 -1.1508392 -0.33750212 0 1
0.21839666 -1.1510183 -0.32591507 0 2
0.21739259 -1.1457266 -0.31288984 0 3
0.22096939 -1.1645774 -0.30637899 0 4
0.21726875 -1.1450738 -0.28983876 0 5
0.22004846 -1.1597236 -0.28204447 0 6
0.22218911 -1.1710056 -0.27322483 0 7
0.22314635 -1.1760505 -0.26283759 0 8
0.21926491 -1.1555942 -0.24694835 0 9
0.22018529 -1.1604449 -0.23666383 0 10
0.21765628 -1.1471162 -0.22279568 0 11
0.22080268 -1.1636987 -0.21474493 0 12
0.22013268 -1.1601676 -0.20289348 0 13
0.21923983 -1.155462 -0.19095138 0 14
0.21992429 -1.1590693 -0.18042688 0 15
0.22039163 -1.1615323 -0.16969733 0 16
0.2221155 -1.1706177 -0.15985432 0 17
0.22005028 -1.1597333 -0.14732878 0 18
0.22137398 -1.1667095 -0.13713488 0 19
0.22155428 -1.1676599 -0.12618095 0 20
0.22180752 -1.1689945 -0.1152685 0 21
0.2186698 -1.1524578 -0.10275704 0 22
0.21968628 -1.1578149 -0.092320867 0 23
0.21858427 -1.152007 -0.081014305 0 24
0.2177345 -1.1475284 -0.069911785 0 25
0.22003622 -1.1596593 -0.059761226 0 26
0.22133715 -1.1665155 -0.049170755 0 27
0.21948259 -1.1567414 -0.037914917 0 28
0.21946329 -1.1566397 -0.027075119 0 29
0.2170095 -1.1437075 -0.016061626 0 30
0.22209656 -1.1705179 -0.0054790699 0 31
0.21861421 -1.1521647 0.005393161 0 32
0.21787775 -1.1482834 0.016125888 0 33
0.22048086 -1.1620026 0.027200656 0 34
0.22267385 -1.1735603 0.038466197 0 35
0.21959403 -1.1573287 0.048783515 0 36
0.22087416 -1.1640755 0.059988808 0 37
0.21843983 -1.1512457 0.070138261 0 38
0.21990953 -1.1589916 0.0815055 0 39
0.22355558 -1.1782073 0.093946896 0 40
0.22312061 -1.1759149 0.10484856 0 41
0.22085027 -1.1639495 0.11477104 0 42
0.21941753 -1.1563985 0.12496401 0 43
0.22081505 -1.1637639 0.13678865 0 44
0.22280663 -1.1742601 0.14917424 0 45
0.21922058 -1.1553605 0.15777087 0 46
0.21969593 -1.1578658 0.16916165 0 47
0.22255623 -1.1729405 0.18258613 0 48
0.22053318 -1.1622783 0.19207785 0 49
0.2206402 -1.1628423 0.20336126 0 50
0.21885855 -1.1534525 0.21285415 0 51
0.2209505 -1.1644777 0.22616768 0 52
0.22194214 -1.169704 0.23855217 0 53
0.22039287 -1.1615388 0.24821872 0 54
0.22078957 -1.1636297 0.26006159 0 55
0.22252163 -1.1727581 0.27363372 0 56
0.21952713 -1.1569761 0.28137627 0 57
0.2188341 -1.1533237 0.29192695 0 58
0.22342381 -1.1775129 0.30978209 0 59
0.21961963 -1.1574637 0.31609517 0 60
0.2233406 -1.1770743 0.33329296 0 61
0.22056128 -1.1624265 0.34090027 0 62
0.21994044 -1.1591544 0.3517248 0 63
0.23491377 -1.1600044 -0.35283253 0 0
0.23411123 -1.1560415 -0.33984631 0 1
0.23482136 -1.1595482 -0.32912308 0 2
0.23509926 -1.1609204 -0.31780463 0 3
0.23438029 -1.1573701 -0.30521804 0 4
0.23352514 -1.1531473 -0.29258704 0 5
0.23531343 -1.1619779 -0.28327498 0 6
0.23732041 -1.1718884 -0.27409095 0 7
0.23622026 -1.1664557 -0.26132265 0 8
0.23476718 -1.1592805 -0.24833426 0 9
0.23456624 -1.1582882 -0.23679435 0 10
0.23340957 -1.1525767 -0.22439669 0 11
0.23483859 -1.1596332 -0.21451136 0 12
0.23712222 -1.1709098 -0.20526652 0 13
0.23490155 -1.1599441 -0.1921549 0 14
0.2367 -1.1688248 -0.18238476 0 15
0.23324385 -1.1517584 -0.16867565 0 16
0.23455244 -1.1582202 -0.15854324 0 17
0.23592332 -1.1649896 -0.14835386 0 18
0.23740897 -1.1723257 -0.1381277 0 19
0.23271248 -1.1491344 -0.12447885 0 20
0.23654728 -1.1680707 -0.11545549 0 21
0.23639981 -1.1673425 -0.10433551 0 22
0.23614226 -1.1660707 -0.093203649 0 23
0.23385653 -1.1547837 -0.081405655 0 24
0.23729107 -1.1717435 -0.071559414 0 25
0.23476015 -1.1592458 -0.059884157 0 26
0.23597544 -1.165247 -0.049235869 0 27
0.235571 -1.1632497 -0.038220301 0 28
0.23543558 -1.1625811 -0.027279904 0 29
0.23637839 -1.1672367 -0.016431635 0 30
0.23375317 -1.1542734 -0.0054160762 0 31
0.23563254 -1.1635537 0.0054596211 0 32
0.23718238 -1.1712068 0.016487524 0 33
0.23515369 -1.1611891 0.027247241 0 34
0.23505698 -1.1607116 0.038136907 0 35
0.23522966 -1.1615642 0.04908026 0 36
0.23262256 -1.1486905 0.059338886 0 37
0.23634765 -1.1670849 0.071274914 0 38
0.23713493 -1.1709726 0.082546875 0 39
0.23508082 -1.1608293 0.092784703 0 40
0.23410603 -1.1560158 0.10332315 0 41
0.23453559 -1.158137 0.1144736 0 42
0.23498821 -1.160372 0.12569615 0 43
0.23601449 -1.1654397 0.13731638 0 44
0.23693149 -1.1699679 0.14898781 0 45
0.2365717 -1.1681913 0.15990813 0 46
0.23593383 -1.1650414 0.17062095 0 47
0.23806767 -1.1755784 0.18343858 0 48
0.23744746 -1.1725157 0.1942375 0 49
0.23793329 -1.1749148 0.20596862 0 50
0.23731133 -1.1718436 0.21677007 0 51
0.23460752 -1.1584921 0.22554837 0 52
0.2338739 -1.1548696 0.23609544 0 53
0.23673455 -1.1689954 0.25041533 0 54
0.23660724 -1.1683668 0.26175076 0 55
0.23580049 -1.1643831 0.27233556 0 56
0.23731944 -1.1718836 0.28568986 0 57
0.23353378 -1.15319 0.29259789 0 58
0.23761787 -1.1733572 0.30943415 0 59
0.23632634 -1.1669797 0.31946337 0 60
0.23847789 -1.177604 0.33424801 0 61
0.23573905 -1.1640797 0.34220934 0 62
0.2374005 -1.1722839 0.35656753 0 63
0.25072032 -1.1642792 -0.35504368 0 0
0.25384086 -1.1787702 -0.34741929 0 1
0.24793848 -1.1513611 -0.32763988 0 2
0.25111181 -1.1660972 -0.32004288 0 3
0.24783094 -1.1508617 -0.30428234 0 4
0.2503711 -1.1626575 -0.29575884 0 5
0.24907552 -1.1566411 -0.28269923 0 6
0.25123325 -1.166661 -0.27357021 0 7
0.25106975 -1.1659018 -0.26187038 0 8
0.24881379 -1.1554258 -0.24814513 0 9
0.24914339 -1.1569563 -0.23713045 0 10
0.25167423 -1.1687089 -0.22812277 0 11
0.25152883 -1.1680337 -0.21662106 0 12
0.25434065 -1.181091 -0.2075839 0 13
0.25061083 -1.1637707 -0.19328471 0 14
0.24992639 -1.1605924 -0.18156599 0 15
0.25237188 -1.1719487 -0.17207398 0 16
0.25003797 -1.1611104 -0.1593477 0 17
0.25199667 -1.1702062 -0.14940146 0 18
0.24938928 -1.1580982 -0.13680233 0 19
0.24848068 -1.1538789 -0.12531428 0 20
0.25237465 -1.1719614 -0.11613803 0 21
0.25120345 -1.1665226 -0.10453042 0 22
0.25077981 -1.1645554 -0.093321964 0 23
0.25239378 -1.1720504 -0.082835369 0 24
0.25178832 -1.1692388 -0.071590118 0 25
0.24887703 -1.1557194 -0.059855554 0 26
0.25309843 -1.1753225 -0.049789336 0 27
0.25254941 -1.172773 -0.038632318 0 28
0.25094464 -1.1653209 -0.027414529 0 29
0.25100887 -1.1656191 -0.01645107 0 30
0.25096595 -1.1654198 -0.0054824431 0 31
0.24907115 -1.1566209 0.0054410505 0 32
0.25174433 -1.1690344 0.016499272 0 33
0.24951686 -1.1586906 0.027258547 0 34
0.2516771 -1.1687222 0.038498875 0 35
0.25083035 -1.16479 0.049343158 0 36
0.25040755 -1.1628268 0.06022365 0 37
0.25122443 -1.16662 0.071429782 0 38
0.25108916 -1.165992 0.082407199 0 39
0.2465914 -1.1451056 0.09176334 0 40
0.24862243 -1.1545372 0.10345642 0 41
0.25058988 -1.1636734 0.1153167 0 42
0.25133598 -1.1671381 0.12675427 0 43
0.24820842 -1.1526146 0.13615458 0 44
0.24801876 -1.1517339 0.14704306 0 45
0.25024739 -1.162083 0.15948117 0 46
0.25234637 -1.1718302 0.17205659 0 47
0.251607 -1.1683967 0.18278691 0 48
0.2478652 -1.1510208 0.19116713 0 49
0.24913324 -1.1569092 0.20333381 0 50
0.25152022 -1.1679937 0.21661364 0 51
0.24850707 -1.1540014 0.22525197 0 52
0.24990135 -1.1604761 0.23785186 0 53
0.2498835 -1.1603932 0.24921198 0 54
0.24853133 -1.1541141 0.25922278 0 55
0.24901558 -1.1563629 0.27115539 0 56
0.25214815 -1.1709096 0.28618667 0 57
0.24999221 -1.1608981 0.29531127 0 58
0.25139323 -1.1674041 0.30865604 0 59
0.24808176 -1.1520264 0.31618106 0 60
0.25013027 -1.1615391 0.33053619 0 61
0.25015879 -1.1616715 0.34237981 0 62
0.24855703 -1.1542335 0.35198024 0 63
0.26467609 -1.1596158 -0.35458723 0 0
0.26416597 -1.1573807 -0.34204668 0 1
0.26564971 -1.1638813 -0.33210716 0 2
0.26401284 -1.1567098 -0.31833339 0 3
0.2641651 -1.1573768 -0.30684054 0 4
0.26645955 -1.1674294 -0.2977837 0 5
0.2636916 -1.1553023 -0.2831431 0 6
0.26374763 -1.1555479 -0.27170423 0 7
0.26477298 -1.1600401 -0.26126531 0 8
0.26680622 -1.1689483 -0.25173485 0 9
0.26793864 -1.1739097 -0.24126224 0 10
0.26173237 -1.1467184 -0.22444162 0 11
0.26775485 -1.1731044 -0.21815559 0 12
0.26678616 -1.1688603 -0.20599531 0 13
0.26865721 -1.177058 -0.19602537 0 14
0.26328668 -1.1535282 -0.18095365 0 15
0.26777902 -1.1732105 -0.17272966 0 16
0.26541921 -1.1628715 -0.16002518 0 17
0.2634137 -1.1540847 -0.14774558 0 18
0.26686302 -1.1691971 -0.13849057 0 19
0.26289773 -1.1518242 -0.12543274 0 20
0.26116091 -1.1442147 -0.11369804 0 21
0.26522994 -1.1620423 -0.10441329 0 22
0.27100202 -1.1873312 -0.095406927 0 23
0.26463225 -1.1594236 -0.082166746 0 24
0.2654902 -1.1631825 -0.071413793 0 25
0.26704314 -1.1699864 -0.060759917 0 26
0.26822457 -1.1751624 -0.049918503 0 27
0.2661925 -1.1662593 -0.038522661 0 28
0.26807874 -1.1745235 -0.027706478 0 29
0.26130146 -1.1448305 -0.016201792 0 30
0.26440305 -1.1584193 -0.0054643922 0 31
0.26357237 -1.1547799 0.0054472252 0 32
0.26643297 -1.1673131 0.016519967 0 33
0.26278248 -1.1513193 0.027159099 0 34
0.26516423 -1.1617543 0.038373854 0 35
0.26575145 -1.1643271 0.049458239 0 36
0.26672006 -1.1685708 0.060686406 0 37
0.26619074 -1.1662518 0.071602225 0 38
0.2657274 -1.1642218 0.082506776 0 39
0.26705053 -1.1700187 0.094015792 0 40
0.26624539 -1.1664912 0.10481304 0 41
0.26565307 -1.1638961 0.11565374 0 42
0.26677367 -1.1688057 0.12728201 0 43
0.26482293 -1.160259 0.13743186 0 44
0.26579055 -1.1644984 0.14907873 0 45
0.26436988 -1.1582741 0.15939252 0 46
0.26398629 -1.1565934 0.17028317 0 47
0.26732209 -1.1712084 0.18372715 0 48
0.26739231 -1.1715162 0.19510244 0 49
0.26866335 -1.1770848 0.20744474 0 50
0.26645499 -1.1674094 0.21709652 0 51
0.26556987 -1.1635315 0.22773238 0 52
0.2649098 -1.1606395 0.23853497 0 53
0.26921406 -1.1794977 0.25400671 0 54
0.26175863 -1.1468335 0.25829092 0 55
0.26522076 -1.162002 0.27322179 0 56
0.26635686 -1.1669794 0.28600496 0 57
0.26795658 -1.1739883 0.29945675 0 58
0.26620528 -1.1663154 0.30921033 0 59
0.26379654 -1.1557621 0.31807259 0 60
0.26917848 -1.1793418 0.33651873 0 61
0.26689014 -1.1693159 0.34557396 0 62
0.26613083 -1.1659892 0.35653612 0 63
0.2807492 -1.1638809 -0.35692009 0 0
0.28167096 -1.1677022 -0.34609449 0 1
0.28160897 -1.1674452 -0.33408692 0 2
0.27857551 -1.1548697 -0.31874558 0 3
0.27665943 -1.1469263 -0.30494878 0 4
0.28199723 -1.1690549 -0.2990602 0 5
0.2813558 -1.1663957 -0.28668809 0 6
0.2792733 -1.1577624 -0.27301174 0 7
0.27909532 -1.1570246 -0.26133934 0 8
0.28168315 -1.1677527 -0.25220424 0 9
0.28312188 -1.1737171 -0.24191989 0 10
0.28084046 -1.1642593 -0.22853345 0 11
0.28241313 -1.170779 -0.21835242 0 12
0.28143758 -1.1667347 -0.20621498 0 13
0.2786319 -1.1551034 -0.1929251 0 14
0.28311843 -1.1737028 -0.1846506 0 15
0.27513465 -1.1406052 -0.16841461 0 16
0.27885669 -1.1560354 -0.15954426 0 17
0.2806935 -1.1636499 -0.14940068 0 18
0.27918798 -1.1574087 -0.1374905 0 19
0.28100896 -1.1649579 -0.12722966 0 20
0.28227681 -1.1702138 -0.11661761 0 21
0.28268269 -1.1718965 -0.10560307 0 22
0.28330126 -1.1744608 -0.094645508 0 23
0.28179911 -1.1682334 -0.083030373 0 24
0.28150555 -1.1670165 -0.071856268 0 25
0.28088066 -1.164426 -0.060645938 0 26
0.27914768 -1.1572417 -0.049299344 0 27
0.27948752 -1.1586505 -0.038381949 0 28
0.28284237 -1.1725584 -0.027740069 0 29
0.27961206 -1.1591668 -0.016452096 0 30
0.28230366 -1.170325 -0.0055365092 0 31
0.28020671 -1.1616319 0.0054953843 0 32
0.28203341 -1.1692048 0.016594565 0 33
0.27742973 -1.1501197 0.027209217 0 34
0.27882549 -1.155906 0.038291033 0 35
0.28350228 -1.1752942 0.050068393 0 36
0.28130984 -1.1662052 0.060738601 0 37
0.28068 -1.163594 0.071645543 0 38
0.27956694 -1.1589798 0.082372688 0 39
0.27865896 -1.1552156 0.093094602 0 40
0.27849072 -1.1545181 0.10403705 0 41
0.28206095 -1.1693189 0.11652842 0 42
0.28129566 -1.1661464 0.12735946 0 43
0.27815077 -1.1531088 0.1369797 0 44
0.28159037 -1.1673682 0.14987805 0 45
0.28153533 -1.16714 0.1610768 0 46
0.28149095 -1.1669559 0.17230541 0 47
0.28031102 -1.1620643 0.1828196 0 48
0.27677855 -1.14742 0.19164182 0 49
0.27945557 -1.1585181 0.20476274 0 50
0.28603005 -1.1857734 0.22114891 0 51
0.28023592 -1.1617531 0.2280415 0 52
0.27977368 -1.1598369 0.23905896 0 53
0.28042054 -1.1625184 0.25107378 0 54
0.27966252 -1.1593759 0.26187044 0 55
0.28657028 -1.188013 0.28014514 0 56
0.28072688 -1.1637884 0.28604728 0 57
0.28133988 -1.1663297 0.29836306 0 58
0.28279728 -1.1723715 0.31171426 0 59
0.2819033 -1.1686654 0.32255322 0 60
0.28211224 -1.1695316 0.33468401 0 61
0.2839404 -1.1771106 0.34888303 0 62
0.27721027 -1.1492099 0.35242102 0 63
0.29863173 -1.1744725 -0.36126691 0 0
0.29903042 -1.1760405 -0.34962928 0 1
0.29677525 -1.1671712 -0.33502752 0 2
0.3005847 -1.1821532 -0.32727128 0 3
0.29728517 -1.1691767 -0.31181321 0 4
0.29362842 -1.1547953 -0.29631364 0 5
0.29713559 -1.1685884 -0.28810331 0 6
0.29594591 -1.1639096 -0.27529863 0 7
0.29738489 -1.1695689 -0.26497868 0 8
0.29754195 -1.1701866 -0.25350094 0 9
0.29748914 -1.1699789 -0.24188507 0 10
0.29882982 -1.1752515 -0.23139492 0 11
0.29188374 -1.1479337 -0.2147449 0 12
0.29636076 -1.1655412 -0.20663251 0 13
0.29769656 -1.1707946 -0.19614241 0 14
0.29702318 -1.1681464 -0.18433709 0 15
0.29960853 -1.1783141 -0.17451325 0 16
0.29642096 -1.1657779 -0.16137965 0 17
0.29936531 -1.1773576 -0.15162176 0 18
0.29617819 -1.1648231 -0.13879339 0 19
0.29653692 -1.166234 -0.12775761 0 20
0.29726306 -1.1690898 -0.11686102 0 21
0.29754674 -1.1702054 -0.10577239 0 22
0.29508814 -1.1605362 -0.093808688 0 23
0.29655123 -1.1662902 -0.083145142 0 24
0.29527628 -1.1612761 -0.071720958 0 25
0.29642352 -1.1657879 -0.060902108 0 26
0.29831868 -1.1732414 -0.050133426 0 27
0.29452422 -1.1583183 -0.038488004 0 28
0.29913324 -1.1764449 -0.027916921 0 29
0.29711553 -1.1685095 -0.016635293 0 30
0.29702935 -1.1681706 -0.0055431766 0 31
0.29909074 -1.1762778 0.0055816467 0 32
0.29496428 -1.160049 0.016514845 0 33
0.29568177 -1.1628709 0.02759481 0 34
0.29797724 -1.1718985 0.038939241 0 35
0.29520071 -1.1609788 0.049609434 0 36
0.29808155 -1.1723087 0.061242756 0 37
0.29424205 -1.1572086 0.071469747 0 38
0.29517344 -1.1608715 0.082758851 0 39
0.29523709 -1.161122 0.093856037 0 40
0.29448041 -1.158146 0.10468236 0 41
0.29554823 -1.1623456 0.11618689 0 42
0.29640248 -1.1657052 0.12769969 0 43
0.29920065 -1.17671 0.14020978 0 44
0.29928076 -1.1770251 0.15157895 0 45
0.29726946 -1.1691149 0.1618416 0 46
0.29615161 -1.1647186 0.1724997 0 47
0.29669181 -1.1668431 0.18413143 0 48
0.29745272 -1.1698357 0.19598176 0 49
0.29904884 -1.1761129 0.20850672 0 50
0.29690993 -1.1677009 0.21844275 0 51
0.2984744 -1.1738539 0.23111972 0 52
0.2988193 -1.1752102 0.24296661 0 53
0.29711595 -1.1685113 0.25313798 0 54
0.29781491 -1.1712601 0.26536182 0 55
0.29541528 -1.1618227 0.27480504 0 56
0.29503 -1.1603074 0.28606173 0 57
0.29336357 -1.1537538 0.29604638 0 58
0.29509795 -1.1605747 0.30951908 0 59
0.29806873 -1.1722584 0.32453194 0 60
0.29666334 -1.1667312 0.33490121 0 61
0.29405594 -1.1564766 0.34381306 0 62
0.29376903 -1.1553483 0.35538435 0 63
0.3144159 -1.1758202 -0.36284328 0 0
0.31160825 -1.1653204 -0.34755513 0 1
0.31156465 -1.1651574 -0.33552381 0 2
0.31118992 -1.163756 -0.32321304 0 3
0.31248146 -1.168586 -0.31265676 0 4
0.30969584 -1.1581687 -0.29813385 0 5
0.31152418 -1.165006 -0.28814277 0 6
0.31179598 -1.1660225 -0.27668434 0 7
0.30917114 -1.1562065 -0.26279271 0 8
0.31098387 -1.1629854 -0.25275022 0 9
0.30811644 -1.1522621 -0.23898748 0 10
0.31086203 -1.1625298 -0.2296254 0 11
0.31311703 -1.1709628 -0.21975662 0 12
0.31392503 -1.1739845 -0.20879796 0 13
0.31047687 -1.1610894 -0.19514135 0 14
0.31418535 -1.174958 -0.18600759 0 15
0.3112838 -1.1641071 -0.17296296 0 16
0.31016171 -1.1599108 -0.16108325 0 17
0.31159061 -1.1652545 -0.15054515 0 18
0.31203943 -1.1669329 -0.13949144 0 19
0.3121393 -1.1673064 -0.12828586 0 20
0.31255701 -1.1688685 -0.11721423 0 21
0.31116962 -1.1636802 -0.10552046 0 22
0.31072438 -1.1620151 -0.094229952 0 23
0.31331268 -1.1716945 -0.083798744 0 24
0.31155622 -1.1651258 -0.072189867 0 25
0.31198499 -1.1667293 -0.061147075 0 26
0.30643687 -1.145981 -0.049125869 0 27
0.30730945 -1.1492443 -0.038309164 0 28
0.30930862 -1.1567205 -0.027537037 0 29
0.30934599 -1.1568604 -0.016522355 0 30
0.31262785 -1.1691335 -0.0055655665 0 31
0.31386343 -1.1737541 0.0055875625 0 32
0.31003252 -1.1594278 0.016559023 0 33
0.31052545 -1.1612711 0.02764537 0 34
0.31019634 -1.1600403 0.038669039 0 35
0.31027973 -1.1603521 0.049741931 0 36
0.30931446 -1.1567423 0.060623668 0 37
0.31215513 -1.1673656 0.072328642 0 38
0.31253785 -1.1687969 0.083591506 0 39
0.31281081 -1.1698177 0.094862677 0 40
0.31308046 -1.1708261 0.10616844 0 41
0.30561447 -1.1429056 0.11461065 0 42
0.31434861 -1.1755686 0.12919386 0 43
0.31134689 -1.164343 0.13918185 0 44
0.31280524 -1.1697968 0.151132 0 45
0.31273302 -1.1695267 0.16241866 0 46
0.31121007 -1.1638314 0.172922 0 47
0.30976528 -1.1584283 0.18339077 0 48
0.31228653 -1.1678571 0.19627875 0 49
0.31009051 -1.1596445 0.20624752 0 50
0.31117299 -1.1636927 0.21839222 0 51
0.31222218 -1.1676164 0.2306301 0 52
0.31237787 -1.1681986 0.24229282 0 53
0.31043804 -1.1609442 0.25230661 0 54
0.31180176 -1.1660441 0.26502872 0 55
0.30932999 -1.1568004 0.27449605 0 56
0.31013635 -1.1598159 0.2868591 0 57
0.31248194 -1.1685877 0.30081591 0 58
0.31315932 -1.171121 0.313335 0 59
0.31202805 -1.1668904 0.32408357 0 60
0.3116712 -1.1655558 0.33563852 0 61
0.31416908 -1.1748971 0.35041136 0 62
0.31181034 -1.1660762 0.3598364 0 63
0.56843221 -2.0256259 -0.62719214 0 0
0.5713675 -2.0360861 -0.60930908 0 1
0.57087326 -2.0343249 -0.58779001 0 2
0.56827319 -2.0250592 -0.56432319 0 3
0.57060218 -2.0333588 -0.54586387 0 4
0.56753975 -2.0224457 -0.52237153 0 5
0.56786746 -2.0236135 -0.50219256 0 6
0.57197577 -2.0382535 -0.48528743 0 7
0.57056981 -2.0332434 -0.46369293 0 8
0.57046574 -2.0328724 -0.44329271 0 9
0.57069433 -2.0336871 -0.42322487 0 10
0.56814969 -2.0246193 -0.40125677 0 11
0.56760031 -2.0226614 -0.38087741 0 12
0.5679546 -2.0239239 -0.36117795 0 13
0.56748509 -2.0222509 -0.34102154 0 14
0.57183003 -2.0377343 -0.32368237 0 15
0.57043338 -2.032757 -0.3030462 0 16
0.56896454 -2.027523 -0.28252363 0 17
0.57029498 -2.032264 -0.2634446 0 18
0.57280469 -2.0412076 -0.24482287 0 19
0.57031983 -2.0323524 -0.22410735 0 20
0.5715813 -2.0368478 -0.20494457 0 21
0.5729897 -2.0418668 -0.18577771 0 22
0.57135683 -2.0360479 -0.16566409 0 23
0.56628555 -2.0179763 -0.14481126 0 24
0.57000035 -2.031214 -0.12627643 0 25
0.56846118 -2.0257292 -0.10652466 0 26
0.57252514 -2.0402112 -0.087754853 0 27
0.56644082 -2.0185297 -0.06751319 0 28
0.57132518 -2.0359352 -0.048631303 0 29
0.57048738 -2.0329497 -0.029132705 0 30
0.56915808 -2.0282125 -0.0096877282 0 31
0.56892288 -2.0273745 0.0096837245 0 32
0.56669778 -2.0194452 0.028939184 0 33
0.56895095 -2.0274744 0.048429206 0 34
0.56943601 -2.0292032 0.067870185 0 35
0.5715394 -2.0366986 0.087603763 0 36
0.56701428 -2.0205731 0.10625352 0 37
0.56627953 -2.0179548 0.12545213 0 38
0.56967479 -2.0300539 0.14567795 0 39
0.57063073 -2.0334604 0.16545357 0 40
0.56901032 -2.0276861 0.18448751 0 41
0.56686127 -2.0200279 0.20325217 0 42
0.56932187 -2.0287962 0.22371522 0 43
0.56962442 -2.0298743 0.24346359 0 44
0.57130289 -2.0358558 0.2639102 0 45
0.56692845 -2.0202672 0.28151256 0 46
0.56745523 -2.0221446 0.30146405 0 47
0.57254052 -2.040266 0.32408455 0 48
0.57018596 -2.0318754 0.34264457 0 49
0.56700677 -2.0205462 0.3605752 0 50
0.5698356 -2.030627 0.38237739 0 51
0.56806904 -2.0243318 0.40119979 0 52
0.57030547 -2.0323014 0.4229365 0 53
0.57238609 -2.0397158 0.44478497 0 54
0.57428682 -2.046489 0.4667137 0 55
0.56978941 -2.0304623 0.48343241 0 56
0.56871438 -2.0266316 0.50294155 0 57
0.56797206 -2.0239861 0.52276945 0 58
0.5685845 -2.0261688 0.54393369 0 59
0.56924981 -2.0285394 0.56529301 0 60
0.57153159 -2.0366707 0.58846784 0 61
0.57134742 -2.0360143 0.60928762 0 62
0.56948781 -2.0293877 0.62835687 0 63
0.59205174 -2.0142524 -0.62587738 0 0
0.59389377 -2.0205195 -0.60679024 0 1
0.59687728 -2.0306697 -0.58881009 0 2
0.59389639 -2.0205283 -0.56505293 0 3
0.59457922 -2.0228512 -0.54496461 0 4
0.59529227 -2.0252771 -0.5249539 0 5
0.5958817 -2.0272825 -0.50488335 0 6
0.5965414 -2.0295269 -0.48491955 0 7
0.5967989 -2.0304031 -0.46468368 0 8
0.59424168 -2.021703 -0.44241703 0 9
0.59773594 -2.033591 -0.42470238 0 10
0.59193677 -2.0138614 -0.40053695 0 11
0.59648353 -2.0293303 -0.38348535 0 12
0.59947389 -2.0395038 -0.36524609 0 13
0.59787959 -2.0340798 -0.34423006 0 14
0.59995484 -2.0411401 -0.32537061 0 15
0.59565711 -2.0265186 -0.30318519 0 16
0.59581709 -2.0270629 -0.28345898 0 17
0.59459251 -2.0228968 -0.26315817 0 18
0.59407759 -2.0211449 -0.24327435 0 19
0.59452462 -2.0226655 -0.22382839 0 20
0.59783405 -2.0339248 -0.20537461 0 21
0.59249049 -2.0157454 -0.18405004 0 22
0.59592688 -2.0274365 -0.16554713 0 23
0.59812182 -2.034904 -0.14654271 0 24
0.59678304 -2.0303493 -0.1266693 0 25
0.60285109 -2.0509937 -0.10823485 0 26
0.59810489 -2.0348463 -0.087833792 0 27
0.59550148 -2.0259891 -0.068002462 0 28
0.59641427 -2.0290945 -0.048639406 0 29
0.59726346 -2.0319836 -0.029221898 0 30
0.59728247 -2.0320482 -0.0097403936 0 31
0.59777462 -2.0337226 0.0097484188 0 32
0.59759295 -2.0331044 0.029238019 0 33
0.59809738 -2.0348208 0.048776668 0 34
0.59663725 -2.0298531 0.068132155 0 35
0.59653264 -2.0294971 0.087602898 0 36
0.59810495 -2.0348463 0.10738272 0 37
0.59205639 -2.0142684 0.12566605 0 38
0.59670568 -2.0300858 0.14619574 0 39
0.59361541 -2.0195725 0.16490501 0 40
0.59490091 -2.0239458 0.18479879 0 41
0.59960514 -2.0399504 0.20598303 0 42
0.59733611 -2.0322309 0.22488688 0 43
0.59787297 -2.0340574 0.24482855 0 44
0.59850359 -2.0362027 0.26488915 0 45
0.59686381 -2.0306239 0.28395694 0 46
0.59578007 -2.0269368 0.30324775 0 47
0.60064703 -2.0434949 0.325746 0 48
0.59457648 -2.0228422 0.34232828 0 49
0.59807688 -2.0347509 0.36439493 0 50
0.59950519 -2.0396101 0.38542798 0 51
0.59818208 -2.0351088 0.40476286 0 52
0.59760022 -2.0331295 0.42460597 0 53
0.59447378 -2.0224926 0.44258982 0 54
0.597404 -2.0324619 0.46515483 0 55
0.59733057 -2.032212 0.48556104 0 56
0.59260315 -2.0161285 0.50210547 0 57
0.59612709 -2.0281174 0.52569008 0 58
0.59747916 -2.0327175 0.54762262 0 59
0.59476155 -2.0234718 0.56587607 0 60
0.60103709 -2.044822 0.59291369 0 61
0.59602022 -2.0277538 0.60896283 0 62
0.59918958 -2.0385365 0.63342309 0 63
0.62499499 -2.0335717 -0.63422042 0 0
0.62511969 -2.0339775 -0.61309397 0 1
0.62468433 -2.0325611 -0.59154105 0 2
0.62531883 -2.0346255 -0.57110244 0 3
0.62581205 -2.0362303 -0.55060053 0 4
0.62486875 -2.0331612 -0.52894902 0 5
0.621243 -2.021364 -0.50527358 0 6
0.62359589 -2.0290196 -0.48659366 0 7
0.62718064 -2.0406833 -0.468766 0 8
0.62557292 -2.0354524 -0.44707537 0 9
0.62207174 -2.0240605 -0.4242774 0 10
0.6277355 -2.0424888 -0.40773502 0 11
0.62381375 -2.0297284 -0.38498101 0 12
0.62291157 -2.026793 -0.36431396 0 13
0.62395012 -2.0301721 -0.34484109 0 14
0.6227138 -2.0261495 -0.32417712 0 15
0.62921184 -2.0472922 -0.30742741 0 16
0.62783682 -2.0428185 -0.2867201 0 17
0.62619781 -2.0374854 -0.26603761 0 18
0.62411857 -2.0307202 -0.24533208 0 19
0.62488031 -2.0331988 -0.22582722 0 20
0.62420374 -2.0309973 -0.20583847 0 21
0.62421918 -2.0310476 -0.186134 0 22
0.62347078 -2.0286126 -0.16625659 0 23
0.62424999 -2.031148 -0.14681391 0 24
0.62396407 -2.0302176 -0.12713015 0 25
0.62506211 -2.0337903 -0.10772446 0 26
0.62312722 -2.0274944 -0.087840557 0 27
0.62303233 -2.0271859 -0.068294607 0 28
0.62335259 -2.0282278 -0.04879868 0 29
0.62598789 -2.0368025 -0.029399673 0 30
0.62984061 -2.0493381 -0.0098596495 0 31
0.62462449 -2.0323663 0.0097779948 0 32
0.6230644 -2.0272903 0.029262371 0 33
0.62783116 -2.0427999 0.049149282 0 34
0.62389845 -2.030004 0.06838955 0 35
0.62570965 -2.0358973 0.0882046 0 36
0.62539369 -2.0348692 0.1077816 0 37
0.62618399 -2.0374405 0.12758245 0 38
0.62343007 -2.0284801 0.14662108 0 39
0.62383389 -2.029794 0.16635342 0 40
0.62543076 -2.0349896 0.18649526 0 41
0.62488508 -2.0332143 0.20606315 0 42
0.62409604 -2.030647 0.2255438 0 43
0.62525374 -2.0344138 0.24577828 0 44
0.62137324 -2.0217876 0.26398793 0 45
0.62016547 -2.0178578 0.28321674 0 46
0.62711322 -2.0404642 0.30640206 0 47
0.62282056 -2.0264969 0.3242327 0 48
0.62617958 -2.0374262 0.34607324 0 49
0.62691128 -2.0398071 0.36665323 0 50
0.62109703 -2.020889 0.38330445 0 51
0.62542957 -2.034986 0.40623727 0 52
0.62278914 -2.0263946 0.42476666 0 53
0.61776638 -2.0100517 0.44149631 0 54
0.61974162 -2.0164788 0.46320596 0 55
0.62738687 -2.0413544 0.48955178 0 56
0.6254279 -2.0349803 0.50867724 0 57
0.62034208 -2.0184324 0.52511722 0 58
0.62453222 -2.0320661 0.54947448 0 59
0.62458616 -2.0322416 0.57043326 0 60
0.62499166 -2.033561 0.5918321 0 61
0.6237911 -2.0296547 0.61179096 0 62
0.62357587 -2.0289543 0.63278037 0 63
0.65008843 -2.02616 -0.634354 0 0
0.65415037 -2.03882 -0.61693156 0 1
0.65296292 -2.0351191 -0.59457731 0 2
0.64915347 -2.0232458 -0.57010573 0 3
0.65466917 -2.040437 -0.55387288 0 4
0.64993352 -2.0256772 -0.52904117 0 5
0.65387201 -2.0379524 -0.51139128 0 6
0.65545702 -2.0428925 -0.49181628 0 7
0.64979452 -2.025244 -0.46701953 0 8
0.65680206 -2.0470846 -0.45137012 0 9
0.65701532 -2.0477493 -0.43090388 0 10
0.6522693 -2.0329571 -0.4074026 0 11
0.65631932 -2.0455799 -0.38948888 0 12
0.65470594 -2.0405514 -0.36820629 0 13
0.65182245 -2.0315645 -0.34641284 0 14
0.65635961 -2.0457056 -0.32857248 0 15
0.65257525 -2.0339108 -0.3065998 0 16
0.6514293 -2.030339 -0.28607118 0 17
0.65416372 -2.0388615 -0.26724741 0 18
0.65431035 -2.0393186 -0.24732412 0 19
0.65216041 -2.0326178 -0.22663626 0 20
0.65237767 -2.0332949 -0.20686869 0 21
0.65553075 -2.0431221 -0.18796507 0 22
0.65004814 -2.0260344 -0.16668779 0 23
0.65066147 -2.027946 -0.14714965 0 24
0.65188509 -2.0317595 -0.127719 0 25
0.64980769 -2.0252848 -0.10768903 0 26
0.65125483 -2.0297952 -0.088280506 0 27
0.65445518 -2.0397701 -0.068984464 0 28
0.65101141 -2.0290365 -0.049007032 0 29
0.65545011 -2.0428708 -0.029601363 0 30
0.65414041 -2.038789 -0.0098468494 0 31
0.65359747 -2.0370967 0.0098386761 0 32
0.65346622 -2.0366876 0.029511768 0 33
0.65598875 -2.0445497 0.049381718 0 34
0.64903331 -2.0228715 0.06841296 0 35
0.65383387 -2.0378335 0.08863011 0 36
0.6496973 -2.0249407 0.10767074 0 37
0.6537708 -2.0376368 0.12808844 0 38
0.65279251 -2.0345879 0.1476316 0 39
0.65150756 -2.0305829 0.16706201 0 40
0.65511495 -2.0418262 0.18784586 0 41
0.65574473 -2.0437891 0.20793639 0 42
0.6525473 -2.0338235 0.2267707 0 43
0.65359277 -2.037082 0.24705291 0 44
0.65761977 -2.049633 0.26865929 0 45
0.64626127 -2.0142317 0.2838017 0 46
0.64969045 -2.0249195 0.30524439 0 47
0.65470171 -2.0405383 0.32774255 0 48
0.6540978 -2.0386562 0.34762207 0 49
0.65322208 -2.0359266 0.36737177 0 50
0.65532172 -2.0424707 0.38889688 0 51
0.6508407 -2.0285044 0.40651029 0 52
0.65054637 -2.0275872 0.42666122 0 53
0.65368557 -2.0373714 0.44922841 0 54
0.65478873 -2.0408096 0.47060895 0 55
0.6521433 -2.0325644 0.48932987 0 56
0.65179038 -2.0314646 0.50976324 0 57
0.65118152 -2.0295668 0.53005701 0 58
0.6506502 -2.0279109 0.55047268 0 59
0.64987659 -2.0254998 0.57074082 0 60
0.64910948 -2.0231087 0.59106839 0 61
0.65225852 -2.0329235 0.61514729 0 62
0.64919907 -2.0233879 0.63348609 0 63
0.68423849 -2.0457788 -0.64308184 0 0
0.68083483 -2.0356023 -0.61844444 0 1
0.68554389 -2.0496819 -0.60124934 0 2
0.67714429 -2.0245681 -0.57278121 0 3
0.68302447 -2.0421491 -0.55657536 0 4
0.68548256 -2.0494983 -0.53742325 0 5
0.68054897 -2.0347476 -0.51264828 0 6
0.68064642 -2.0350389 -0.49190336 0 7
0.68025976 -2.0338829 -0.47090498 0 8
0.67562377 -2.0200219 -0.44720101 0 9
0.67553514 -2.019757 -0.42672926 0 10
0.68019658 -2.033694 -0.40919551 0 11
0.67984432 -2.0326409 -0.38858756 0 12
0.6858567 -2.050617 -0.37151629 0 13
0.680125 -2.0334799 -0.3481392 0 14
0.68287027 -2.041688 -0.32925102 0 15
0.68285477 -2.0416417 -0.30900756 0 16
0.67741108 -2.0253658 -0.28652245 0 17
0.67885184 -2.0296733 -0.26711702 0 18
0.68126661 -2.0368934 -0.24802722 0 19
0.68292898 -2.0418637 -0.22858621 0 20
0.68053973 -2.0347202 -0.20784937 0 21
0.68489361 -2.0477376 -0.18915017 0 22
0.68072462 -2.0352728 -0.16812383 0 23
0.68289584 -2.0417645 -0.14875041 0 24
0.68125594 -2.0368614 -0.12855658 0 25
0.68240649 -2.0403013 -0.10892544 0 26
0.67780918 -2.0265563 -0.088495433 0 27
0.67545062 -2.0195043 -0.068574794 0 28
0.6822533 -2.0398436 -0.049466938 0 29
0.68237358 -2.0402029 -0.029682044 0 30
0.6815412 -2.0377145 -0.0098813893 0 31
0.68031019 -2.0340338 0.0098635405 0 32
0.67938131 -2.0312564 0.029551886 0 33
0.68011457 -2.0334489 0.049311865 0 34
0.6786617 -2.0291049 0.068900794 0 35
0.6817798 -2.0384276 0.089013837 0 36
0.68264568 -2.0410166 0.10896362 0 37
0.68349624 -2.0435596 0.12897934 0 38
0.68495685 -2.0479267 0.14919934 0 39
0.68603307 -2.0511444 0.16943489 0 40
0.6786961 -2.0292079 0.18743858 0 41
0.68235499 -2.0401473 0.20840378 0 42
0.68143773 -2.037405 0.22808707 0 43
0.67915934 -2.0305929 0.24726005 0 44
0.67885023 -2.0296688 0.2671164 0 45
0.67832279 -2.0280917 0.28690809 0 46
0.67833173 -2.0281184 0.30696079 0 47
0.68135691 -2.0371633 0.32852134 0 48
0.68152356 -2.0376616 0.34885508 0 49
0.68246019 -2.040462 0.36967644 0 50
0.68023831 -2.0338187 0.38881278 0 51
0.68062609 -2.0349784 0.4094539 0 52
0.67577899 -2.0204861 0.42688328 0 53
0.6812008 -2.0366967 0.45089248 0 54
0.68450743 -2.0465829 0.47384542 0 55
0.6856333 -2.0499492 0.49550739 0 56
0.68341756 -2.0433242 0.51480913 0 57
0.67560142 -2.0199552 0.52967638 0 58
0.68053007 -2.0346913 0.55454278 0 59
0.67954916 -2.0317583 0.57481545 0 60
0.68096137 -2.0359807 0.59723026 0 61
0.68033105 -2.0340962 0.61798686 0 62
0.68246621 -2.0404799 0.64141619 0 63
0.7087121 -2.0354059 -0.64251196 0 0
0.70848548 -2.034755 -0.62078685 0 1
0.7077648 -2.032685 -0.59877121 0 2
0.71011204 -2.0394263 -0.57941139 0 3
0.71414441 -2.0510073 -0.56134051 0 4
0.71204782 -2.0449858 -0.53849518 0 5
0.71175802 -2.0441535 -0.51718402 0 6
0.70413589 -2.0222628 -0.49087092 0 7
0.70809352 -2.0336292 -0.47282642 0 8
0.7128855 -2.0473917 -0.45516646 0 9
0.71147972 -2.0433543 -0.43353045 0 10
0.71143633 -2.0432296 -0.41284311 0 11
0.71015406 -2.039547 -0.39154762 0 12
0.71246529 -2.0461848 -0.37227234 0 13
0.71195662 -2.0447237 -0.35153642 0 14
0.70815867 -2.0338163 -0.32936093 0 15
0.71016961 -2.0395916 -0.30999553 0 16
0.70413601 -2.0222633 -0.2872867 0 17
0.71351957 -2.0492127 -0.2708227 0 18
0.70725167 -2.0312114 -0.24837555 0 19
0.71494657 -2.0533109 -0.23083447 0 20
0.70769554 -2.0324862 -0.20849435 0 21
0.70780301 -2.032795 -0.18855961 0 22
0.70886958 -2.0358579 -0.16887942 0 23
0.71607363 -2.0565479 -0.15045755 0 24
0.7107746 -2.0413291 -0.1293804 0 25
0.70582682 -2.0271192 -0.10867682 0 26
0.71469831 -2.052598 -0.090009585 0 27
0.70769036 -2.0324712 -0.069305353 0 28
0.70939428 -2.0373647 -0.049614616 0 29
0.70961851 -2.0380089 -0.02977482 0 30
0.71349704 -2.0491478 -0.0099786231 0 31
0.7074011 -2.0316405 0.0098933689 0 32
0.71032906 -2.0400496 0.029804634 0 33
0.71198034 -2.0447919 0.049795486 0 34
0.70408165 -2.0221071 0.068951949 0 35
0.7079801 -2.0333035 0.08916349 0 36
0.70922405 -2.036876 0.1091999 0 37
0.70853549 -2.0348985 0.12897283 0 38
0.71233404 -2.0458078 0.14967181 0 39
0.71021169 -2.0397124 0.16919917 0 40
0.71102142 -2.042038 0.18941699 0 41
0.71005774 -2.0392704 0.20919028 0 42
0.70955098 -2.0378149 0.2290924 0 43
0.70656145 -2.0292292 0.24813317 0 44
0.71003854 -2.0392153 0.26950145 0 45
0.71031898 -2.0400207 0.28980938 0 46
0.71095663 -2.0418518 0.31033906 0 47
0.71115535 -2.0424225 0.33075467 0 48
0.70744658 -2.0317712 0.34930956 0 49
0.71406603 -2.050782 0.37310874 0 50
0.71505094 -2.0536108 0.39424756 0 51
0.7116608 -2.0438743 0.41297337 0 52
0.70730996 -2.0313787 0.43098965 0 53
0.70973212 -2.0383351 0.45315304 0 54
0.71256989 -2.0464852 0.4758155 0 55
0.70575863 -2.0269234 0.49200219 0 56
0.71088058 -2.0416336 0.51654643 0 57
0.7072469 -2.0311978 0.53486443 0 58
0.70938867 -2.0373487 0.55760235 0 59
0.70699251 -2.030467 0.57686603 0 60
0.70262939 -2.0179362 0.59442663 0 61
0.71102297 -2.0420425 0.62301022 0 62
0.7084434 -2.0346339 0.64226836 0 63
0.73817807 -2.0389485 -0.64644676 0 0
0.73918682 -2.0417347 -0.62564212 0 1
0.74285507 -2.051867 -0.60706651 0 2
0.7324605 -2.0231557 -0.57730407 0 3
0.73839289 -2.0395417 -0.56064516 0 4
0.73876297 -2.0405641 -0.53968215 0 5
0.73091942 -2.0188992 -0.51302969 0 6
0.73379064 -2.02683 -0.49413234 0 7
0.73874706 -2.04052 -0.47650462 0 8
0.73705924 -2.0358582 -0.45458287 0 9
0.73935473 -2.0421984 -0.43518123 0 10
0.73769218 -2.0376062 -0.41350847 0 11
0.74107856 -2.0469601 -0.39469036 0 12
0.73465294 -2.0292115 -0.37079984 0 13
0.73702651 -2.0357678 -0.3515282 0 14
0.73809749 -2.0387259 -0.33160073 0 15
0.73831004 -2.0393131 -0.31130952 0 16
0.73962629 -2.0429487 -0.29149532 0 17
0.7397576 -2.0433114 -0.27122444 0 18
0.73535711 -2.0311568 -0.24945569 0 19
0.7361151 -2.0332503 -0.22957948 0 20
0.73738986 -2.0367713 -0.2098482 0 21
0.74485451 -2.0573897 -0.19167608 0 22
0.74358541 -2.0538843 -0.17112029 0 23
0.73793209 -2.038269 -0.14977279 0 24
0.73594022 -2.0327673 -0.12940152 0 25
0.73671997 -2.0349209 -0.10957247 0 26
0.73929971 -2.0420465 -0.089938737 0 27
0.73550296 -2.0315595 -0.069577396 0 28
0.73666769 -2.0347764 -0.049768414 0 29
0.73776507 -2.0378077 -0.02990216 0 30
0.74317461 -2.0527496 -0.010039904 0 31
0.74113637 -2.0471199 0.010012369 0 32
0.73862189 -2.0401742 0.029936885 0 33
0.73696584 -2.0356002 0.049788561 0 34
0.73633248 -2.0338507 0.069655865 0 35
0.7334801 -2.0259721 0.089230761 0 36
0.73821616 -2.0390537 0.109795 0 37
0.73573124 -2.0321901 0.12936479 0 38
0.73373699 -2.0266817 0.14892134 0 39
0.73910367 -2.0415051 0.17008892 0 40
0.734056 -2.0275629 0.18889727 0 41
0.73639828 -2.0340323 0.209566 0 42
0.73801363 -2.0384941 0.23017159 0 43
0.73712522 -2.0360403 0.25005549 0 44
0.7403509 -2.04495 0.27144197 0 45
0.73951232 -2.0426338 0.29145038 0 46
0.73899215 -2.0411971 0.31159714 0 47
0.73951858 -2.0426512 0.33223915 0 48
0.73690581 -2.0354342 0.35147062 0 49
0.74093878 -2.0465739 0.37397248 0 50
0.73745489 -2.0369508 0.39276043 0 51
0.73507899 -2.0303884 0.41204369 0 52
0.73861843 -2.0401649 0.43474784 0 53
0.73819184 -2.0389864 0.45528144 0 54
0.73993242 -2.0437942 0.47726923 0 55
0.73683721 -2.0352447 0.49618384 0 56
0.73931259 -2.0420823 0.51892078 0 57
0.73483443 -2.0297129 0.53681225 0 58
0.74246836 -2.0507989 0.5637396 0 59
0.73793948 -2.0382893 0.58162242 0 60
0.73655355 -2.0344613 0.60191685 0 61
0.73775589 -2.0377824 0.62443101 0 62
0.73564708 -2.0319576 0.64423031 0 63
0.76457167 -2.0333867 -0.64761519 0 0
0.76862931 -2.044178 -0.62923944 0 1
0.76465309 -2.0336032 -0.60439914 0 2
0.76788133 -2.0421886 -0.58538514 0 3
0.76788127 -2.0421886 -0.56392568 0 4
0.77243412 -2.054297 -0.54578495 0 5
0.76294941 -2.0290723 -0.51795959 0 6
0.76592326 -2.0369811 -0.49886557 0 7
0.76725882 -2.0405331 -0.47867468 0 8
0.76262707 -2.0282149 -0.45493579 0 9
0.76744592 -2.0410306 -0.4369103 0 10
0.762999 -2.0292041 -0.41367605 0 11
0.76769662 -2.0416975 -0.39546594 0 12
0.76630402 -2.0379937 -0.37409818 0 13
0.76625115 -2.0378532 -0.35348856 0 14
0.76517737 -2.0349975 -0.33249956 0 15
0.76846206 -2.0437331 -0.31340307 0 16
0.76680863 -2.039336 -0.29230309 0 17
0.76414698 -2.0322571 -0.2709839 0 18
0.76873499 -2.0444591 -0.2522313 0 19
0.76745385 -2.0410519 -0.23150842 0 20
0.76431471 -2.0327034 -0.21038148 0 21
0.76737082 -2.0408309 -0.19099805 0 22
0.77062219 -2.0494781 -0.17152971 0 23
0.77026147 -2.0485187 -0.15121049 0 24
0.76458502 -2.0334222 -0.13003188 0 25
0.76922888 -2.0457726 -0.11065774 0 26
0.76418239 -2.0323513 -0.089918792 0 27
0.76735896 -2.0407994 -0.070211701 0 28
0.76731604 -2.0406854 -0.050139926 0 29
0.76491171 -2.034291 -0.029986305 0 30
0.76611918 -2.0375023 -0.010010649 0 31
0.76988226 -2.0475101 0.01005982 0 32
0.7685166 -2.0438783 0.030127626 0 33
0.76676595 -2.0392222 0.050103977 0 34
0.76850563 -2.043849 0.07031662 0 35
0.76755989 -2.0413339 0.090316214 0 36
0.76729411 -2.040627 0.11037941 0 37
0.76816773 -2.0429504 0.13064118 0 38
0.76740712 -2.0409274 0.15065014 0 39
0.7610783 -2.024096 0.16940537 0 40
0.76370734 -2.0310879 0.19008622 0 41
0.76572537 -2.0364549 0.21076976 0 42
0.76586092 -2.0368154 0.2310279 0 43
0.76600021 -2.0371859 0.25133398 0 44
0.76418358 -2.0323546 0.2709969 0 45
0.76282674 -2.0287459 0.29078522 0 46
0.76874608 -2.0444887 0.31351891 0 47
0.76900721 -2.0451829 0.33416376 0 48
0.76856381 -2.0440037 0.35455543 0 49
0.76668978 -2.0390198 0.3742865 0 50
0.76929849 -2.0459576 0.39629114 0 51
0.76704711 -2.0399702 0.41587085 0 52
0.76599663 -2.0371764 0.43608522 0 53
0.76330251 -2.0300114 0.45533872 0 54
0.76680243 -2.0393193 0.47838992 0 55
0.77072549 -2.0497527 0.50199336 0 56
0.76513875 -2.0348949 0.51944596 0 57
0.76547605 -2.0357919 0.54086852 0 58
0.76651216 -2.0385473 0.56292015 0 59
0.77111202 -2.0507808 0.58784801 0 60
0.75900435 -2.0185802 0.59993422 0 61
0.76456845 -2.0333781 0.62591499 0 62
0.77061081 -2.0494478 0.65273052 0 63
0.79807484 -2.045773 -0.65463614 0 0
0.79289645 -2.0324988 -0.62859803 0 1
0.79474425 -2.0372355 -0.6083371 0 2
0.7941764 -2.03578 -0.586303 0 3
0.79773206 -2.0448945 -0.56733865 0 4
0.79845434 -2.046746 -0.54634595 0 5
0.79813129 -2.0459177 -0.52472538 0 6
0.80230129 -2.056607 -0.50604987 0 7
0.80048627 -2.0519545 -0.4836264 0 8
0.79852831 -2.0469356 -0.46130246 0 9
0.79287493 -2.0324438 -0.4371261 0 10
0.79457182 -2.0367935 -0.41718352 0 11
0.79328007 -2.0334821 -0.39573419 0 12
0.80148709 -2.0545199 -0.37891218 0 13
0.79176044 -2.0295868 -0.35371673 0 14
0.80400604 -2.060977 -0.33833414 0 15
0.79833889 -2.0464499 -0.31530121 0 16
0.79344147 -2.033896 -0.29289967 0 17
0.79903752 -2.0482407 -0.27440456 0 18
0.797656 -2.0446994 -0.25345188 0 19
0.79174811 -2.0295553 -0.2312912 0 20
0.80347371 -2.0596125 -0.2141729 0 21
0.79897606 -2.0480833 -0.1925817 0 22
0.79581273 -2.0399745 -0.17154035 0 23
0.79588348 -2.0401559 -0.15130413 0 24
0.79235655 -2.0311148 -0.13049752 0 25
0.79672068 -2.0423019 -0.11099154 0 26
0.78974575 -2.0244224 -0.089990839 0 27
0.79611552 -2.0407505 -0.070541486 0 28
0.79329431 -2.0335188 -0.050199721 0 29
0.79474372 -2.0372341 -0.03017146 0 30
0.79294229 -2.0326164 -0.010033791 0 31
0.79860598 -2.0471346 0.010105458 0 32
0.79874575 -2.047493 0.030323392 0 33
0.80001539 -2.0507476 0.050625034 0 34
0.7929824 -2.0327191 0.070263863 0 35
0.79338193 -2.0337434 0.090405181 0 36
0.79986674 -2.0503664 0.11142982 0 37
0.79387558 -2.0350087 0.13074769 0 38
0.79296714 -2.03268 0.15074971 0 39
0.7955572 -2.0393195 0.17148526 0 40
0.80257452 -2.0573075 0.19344905 0 41
0.79955363 -2.0495639 0.21312797 0 42
0.79800749 -2.0456004 0.23311974 0 43
0.79976678 -2.0501103 0.25412256 0 44
0.797952 -2.0454581 0.27403179 0 45
0.79879642 -2.0476227 0.29487643 0 46
0.79821336 -2.0461283 0.31525165 0 47
0.79617274 -2.0408971 0.3350378 0 48
0.79928172 -2.0488667 0.35707682 0 49
0.79642904 -2.0415542 0.37652093 0 50
0.79363769 -2.034399 0.39591262 0 51
0.80126685 -2.0539553 0.4206987 0 52
0.79845351 -2.0467436 0.44020167 0 53
0.79570073 -2.0396874 0.45966899 0 54
0.79432756 -2.0361674 0.47990555 0 55
0.79251331 -2.0315168 0.49987611 0 56
0.7975499 -2.0444274 0.52434313 0 57
0.79372197 -2.034615 0.54310781 0 58
0.79832578 -2.0464163 0.56776094 0 59
0.7996974 -2.0499322 0.59037888 0 60
0.8025341 -2.0572038 0.61429989 0 61
0.79663152 -2.0420732 0.63155913 0 62
0.79819781 -2.0460885 0.65473706 0 63
0.82322311 -2.0359409 -0.65467966 0 0
0.82571238 -2.0420973 -0.63465869 0 1
0.82028377 -2.0286715 -0.60874581 0 2
0.8246218 -2.0394001 -0.59022135 0 3
0.82896316 -2.0501368 -0.57157797 0 4
0.83066201 -2.0543385 -0.55105752 0 5
0.8247636 -2.0397508 -0.52570504 0 6
0.8288523 -2.0498629 -0.5068599 0 7
0.81929314 -2.0262215 -0.47989959 0 8
0.82526463 -2.0409899 -0.46221453 0 9
0.8197276 -2.0272961 -0.43815377 0 10
0.8229351 -2.0352287 -0.41890401 0 11
0.82280517 -2.0349073 -0.39795041 0 12
0.82393694 -2.0377064 -0.37765127 0 13
0.82239753 -2.0338991 -0.35620376 0 14
0.82724261 -2.0458817 -0.33750042 0 15
0.82643402 -2.0438821 -0.31644738 0 16
0.83053482 -2.054024 -0.29724652 0 17
0.82728565 -2.0459881 -0.27544481 0 18
0.82932317 -2.0510273 -0.25548097 0 19
0.82549369 -2.0415564 -0.23379798 0 20
0.82589787 -2.042556 -0.21343917 0 21
0.82613784 -2.0431495 -0.19305839 0 22
0.8248601 -2.0399895 -0.17238149 0 23
0.82659703 -2.0442851 -0.15235268 0 24
0.82635462 -2.0436857 -0.13194805 0 25
0.82181031 -2.0324469 -0.11099675 0 26
0.82844669 -2.0488596 -0.091523051 0 27
0.83585566 -2.067183 -0.071805008 0 28
0.82397318 -2.037796 -0.050551608 0 29
0.82384431 -2.0374773 -0.030322799 0 30
0.81972969 -2.0273013 -0.010056551 0 31
0.82750958 -2.0465419 0.010151995 0 32
0.82874978 -2.0496092 0.030503351 0 33
0.832636 -2.0592203 0.05108308 0 34
0.83133537 -2.0560038 0.071416683 0 35
0.82767546 -2.0469522 0.091437854 0 36
0.8280192 -2.0478022 0.11183535 0 37
0.82175595 -2.0323124 0.13121377 0 38
0.82924974 -2.0508456 0.1528416 0 39
0.82100797 -2.0304627 0.17157646 0 40
0.8247326 -2.039674 0.19272999 0 41
0.82576311 -2.0422227 0.21340434 0 42
0.82974726 -2.0520761 0.2350027 0 43
0.82268554 -2.0346115 0.25343621 0 44
0.82704252 -2.0453868 0.27536386 0 45
0.82601047 -2.0428345 0.29562724 0 46
0.82176781 -2.0323417 0.31466064 0 47
0.82930964 -2.0509937 0.33834374 0 48
0.82260811 -2.03442 0.35629499 0 49
0.82064325 -2.0295606 0.37614161 0 50
0.8297016 -2.0519631 0.40128589 0 51
0.82866055 -2.0493886 0.42181846 0 52
0.83212882 -2.057966 0.44478235 0 53
0.8235153 -2.0366635 0.46123478 0 54
0.8252852 -2.0410409 0.48340943 0 55
0.83143419 -2.0562479 0.50843877 0 56
0.83047229 -2.0538692 0.52934372 0 57
0.82530373 -2.0410867 0.54750288 0 58
0.82556903 -2.0417428 0.56923771 0 59
0.82617885 -2.043251 0.59133577 0 60
0.82291847 -2.0351875 0.61070102 0 61
0.82334232 -2.0362358 0.63283706 0 62
0.8270818 -2.0454841 0.65774834 0 63
0.8551932 -2.0423808 -0.6600821 0 0
0.85446995 -2.0406537 -0.63742733 0 1
0.85714769 -2.0470486 -0.61737627 0 2
0.85305595 -2.0372767 -0.59259778 0 3
0.8549273 -2.0417459 -0.57212621 0 4
0.85434312 -2.0403507 -0.55008185 0 5
0.85148388 -2.0335224 -0.52675843 0 6
0.85224962 -2.035351 -0.50582469 0 7
0.854985 -2.0418837 -0.48606235 0 8
0.85354024 -2.0384333 -0.46397737 0 9
0.85219073 -2.0352104 -0.44209561 0 10
0.85788459 -2.0488086 -0.42383832 0 11
0.85487288 -2.041616 -0.40128776 0 12
0.85334307 -2.0379624 -0.37961474 0 13
0.85744268 -2.0477531 -0.36044934 0 14
0.85292119 -2.0369549 -0.3377324 0 15
0.85853714 -2.0503671 -0.31906179 0 16
0.86174309 -2.0580235 -0.29933614 0 17
0.85371101 -2.0388412 -0.27587503 0 18
0.85295135 -2.0370269 -0.25502425 0 19
0.85962856 -2.0529735 -0.23629813 0 20
0.85529315 -2.0426197 -0.21452859 0 21
0.85305971 -2.0372858 -0.19348086 0 22
0.8616935 -2.057905 -0.17477751 0 23
0.85320354 -2.0376291 -0.15262698 0 24
0.85532892 -2.0427051 -0.13255379 0 25
0.85500586 -2.0419335 -0.11208054 0 26
0.85804927 -2.049202 -0.092002705 0 27
0.85228878 -2.0354447 -0.071061216 0 28
0.86099732 -2.0562425 -0.05126797 0 29
0.854182 -2.0399661 -0.030513849 0 30
