# .PCD v0.7 - Point Cloud Data file format
VERSION 0.7
FIELDS x y z intensity ring
SIZE 4 4 4 4 2
TYPE F F F F U
COUNT 1 1 1 1 1
WIDTH 1220
HEIGHT 1
VIEWPOINT 0 0 0 1 0 0 0
POINTS 1220
DATA ascii
-0.61249429 -2.0374396 -0.10771617 0 26
-0.6119687 -2.0356913 -0.088030934 0 27
-0.611808 -2.0351567 -0.068435073 0 28
-0.61260003 -2.0377915 -0.048937194 0 29
-0.61485404 -2.0452893 -0.029467029 0 30
-0.61249876 -2.0374546 -0.0097841648 0 31
-0.6122784 -2.0367215 0.0097806454 0 32
-0.61717665 -2.0530152 0.029578339 0 33
-0.61195618 -2.0356495 0.048885763 0 34
-0.61428267 -2.0433886 0.068711884 0 35
-0.61591125 -2.048806 0.088598065 0 36
-0.61337966 -2.0403848 0.10787188 0 37
-0.61318541 -2.0397387 0.12748776 0 38
-0.61325091 -2.0399563 0.14717518 0 39
-0.61337042 -2.040354 0.16690654 0 40
-0.60967487 -2.0280609 0.18551311 0 41
-0.61075181 -2.0316434 0.20551933 0 42
-0.60857779 -2.0244114 0.22443123 0 43
-0.61174911 -2.0349607 0.24538516 0 44
-0.61000967 -2.0291746 0.26445755 0 45
-0.6090005 -2.0258176 0.28380284 0 46
-0.61406493 -2.0426643 0.3061595 0 47
-0.61196661 -2.0356843 0.32509428 0 48
-0.61430609 -2.0434666 0.34645092 0 49
-0.61117446 -2.0330493 0.36475593 0 50
-0.61132121 -2.0335374 0.38498303 0 51
-0.61411297 -2.042824 0.40704024 0 52
-0.60828906 -2.0234511 0.4233574 0 53
-0.61316097 -2.0396574 0.44716215 0 54
-0.61218876 -2.0364234 0.46691367 0 55
-0.61331201 -2.0401597 0.48835137 0 56
-0.61117411 -2.0330482 0.507245 0 57
-0.61507666 -2.0460298 0.53130269 0 58
-0.61210299 -2.0361381 0.54954714 0 59
-0.60925275 -2.0266569 0.56780308 0 60
-0.61153847 -2.03426 0.59092969 0 61
-0.60678524 -2.0184486 0.60727668 0 62
-0.61334372 -2.0402651 0.63511938 0 63
-0.58622211 -2.0407281 -0.6329717 0 0
-0.58552289 -2.0382941 -0.61103511 0 1
-0.58279836 -2.0288095 -0.58722025 0 2
-0.58601624 -2.0400114 -0.56948274 0 3
-0.58544999 -2.0380402 -0.54807609 0 4
-0.5839448 -2.0328004 -0.52596295 0 5
-0.58565146 -2.0387416 -0.50683045 0 6
-0.58435494 -2.0342281 -0.48517483 0 7
-0.58129936 -2.0235913 -0.46229768 0 8
-0.58110726 -2.0229225 -0.44189337 0 9
-0.58712381 -2.0438671 -0.42608622 0 10
-0.58725595 -2.044327 -0.4058702 0 11
-0.58232045 -2.0271459 -0.3823885 0 12
-0.58380598 -2.0323172 -0.36330914 0 13
-0.58472818 -2.0355275 -0.34385994 0 14
-0.58792239 -2.0466471 -0.32566586 0 15
-0.58892584 -2.0501401 -0.30617145 0 16
-0.58485937 -2.035984 -0.28419811 0 17
-0.58824432 -2.0477676 -0.26591793 0 18
-0.58622694 -2.0407448 -0.24519485 0 19
-0.58459556 -2.0350659 -0.22479847 0 20
-0.58251774 -2.0278325 -0.20439379 0 21
-0.58611399 -2.0403516 -0.18596406 0 22
-0.58939677 -2.0517795 -0.16723567 0 23
-0.58576638 -2.0391417 -0.14658566 0 24
-0.58412838 -2.0334396 -0.12663555 0 25
-0.58897454 -2.0503097 -0.10800553 0 26
-0.58224392 -2.0268795 -0.087333672 0 27
-0.58760202 -2.0455317 -0.068535805 0 28
-0.58467597 -2.0353458 -0.048702128 0 29
-0.58572501 -2.0389977 -0.029270405 0 30
-0.58493739 -2.0362558 -0.0097431317 0 31
-0.58947617 -2.0520558 0.0098187327 0 32
-0.58306324 -2.0297315 0.029137388 0 33
-0.5852198 -2.0372388 0.048747428 0 34
-0.58503693 -2.0366025 0.068236627 0 35
-0.59125215 -2.0582383 0.088684857 0 36
-0.58856124 -2.0488708 0.10792974 0 37
-0.58049119 -2.0207779 0.12584704 0 38
-0.58528447 -2.0374639 0.14646505 0 39
-0.58393204 -2.0327561 0.1656851 0 40
-0.58719105 -2.044101 0.18630581 0 41
-0.5832535 -2.0303941 0.20465198 0 42
-0.58842844 -2.0484087 0.22627236 0 43
-0.58491904 -2.0361917 0.24464782 0 44
-0.58743882 -2.0449636 0.26555383 0 45
-0.58549798 -2.0382073 0.28450841 0 46
-0.58451444 -2.0347834 0.30387804 0 47
-0.58845949 -2.0485168 0.32596338 0 48
-0.58535343 -2.0377042 0.34422761 0 49
-0.58668679 -2.0423458 0.36510193 0 50
-0.58488297 -2.0360663 0.3840712 0 51
-0.58543587 -2.037991 0.4046123 0 52
-0.58683401 -2.0428581 0.4258759 0 53
-0.58454549 -2.0348914 0.4445079 0 54
-0.58408993 -2.0333056 0.464517 0 55
-0.58401757 -2.0330539 0.48489478 0 56
-0.5869996 -2.0434346 0.50799716 0 57
-0.58537924 -2.0377941 0.527255 0 58
-0.58197671 -2.0259492 0.5448246 0 59
-0.5862456 -2.0408099 0.56970561 0 60
-0.58506811 -2.0367107 0.58950716 0 61
-0.59000176 -2.0538855 0.61570907 0 62
-0.58503133 -2.0365829 0.63168597 0 63
-0.55947113 -2.0418882 -0.63115001 0 0
-0.55694103 -2.032654 -0.60724545 0 1
-0.55469066 -2.0244412 -0.58393747 0 2
-0.5589661 -2.040045 -0.56753045 0 3
-0.5580647 -2.0367553 -0.5458439 0 4
-0.55698526 -2.0328155 -0.5241552 0 5
-0.55943716 -2.0417643 -0.50583351 0 6
-0.55795836 -2.0363669 -0.48401204 0 7
-0.56022966 -2.0446568 -0.46550119 0 8
-0.55943882 -2.0417702 -0.44447422 0 9
-0.5602591 -2.044764 -0.4248049 0 10
-0.55887359 -2.0397074 -0.40355816 0 11
-0.55764073 -2.0352077 -0.38258687 0 12
-0.55967569 -2.0426347 -0.3638958 0 13
-0.55697072 -2.0327625 -0.34220999 0 14
-0.55905539 -2.0403709 -0.32354885 0 15
-0.5592401 -2.041045 -0.30376324 0 16
-0.55856901 -2.0385959 -0.28358248 0 17
-0.55792838 -2.0362575 -0.26351246 0 18
-0.5595994 -2.0423563 -0.24454322 0 19
-0.55952132 -2.0420713 -0.22479531 0 20
-0.5577659 -2.0356646 -0.20447646 0 21
-0.55645812 -2.0308917 -0.18446426 0 22
-0.55942917 -2.0417352 -0.16584373 0 23
-0.55752265 -2.0347769 -0.14576806 0 24
-0.55914867 -2.0407114 -0.12665066 0 25
-0.5593527 -2.041456 -0.10716872 0 26
-0.56149209 -2.0492642 -0.087994032 0 27
-0.55971122 -2.0427644 -0.068207331 0 28
-0.55716389 -2.0334675 -0.048489586 0 29
-0.56121552 -2.0482547 -0.029302012 0 30
-0.56236684 -2.0524566 -0.0097868228 0 31
-0.55709416 -2.0332131 0.0096950624 0 32
-0.5604648 -2.0455148 0.029262815 0 33
-0.5585404 -2.0384912 0.04860938 0 34
-0.55534643 -2.0268345 0.067675434 0 35
-0.56127501 -2.0484717 0.087960005 0 36
-0.5596689 -2.0426099 0.10722931 0 37
-0.55759889 -2.0350552 0.12629962 0 38
-0.56183422 -2.0505128 0.14689535 0 39
-0.56435663 -2.0597186 0.16730447 0 40
-0.55946177 -2.0418539 0.18545996 0 41
-0.55618149 -2.029882 0.20389561 0 42
-0.56129736 -2.0485532 0.22550887 0 43
-0.56057179 -2.0459054 0.24496816 0 44
-0.55934691 -2.0414348 0.26418245 0 45
-0.56022257 -2.0446308 0.28442198 0 46
-0.55779463 -2.0357697 0.3029781 0 47
-0.55636042 -2.0305352 0.32198918 0 48
-0.55763948 -2.0352032 0.34262088 0 49
-0.5582751 -2.037523 0.36298516 0 50
-0.5582754 -2.0375242 0.38302231 0 51
-0.55886674 -2.0396824 0.40355322 0 52
-0.56075811 -2.0465853 0.42518327 0 53
-0.55771786 -2.0354893 0.44310692 0 54
-0.5560959 -2.0295696 0.46206635 0 55
-0.55612558 -2.0296781 0.48242217 0 56
-0.5581848 -2.0371935 0.50470114 0 57
-0.5596751 -2.0426326 0.52668649 0 58
-0.55792755 -2.0362546 0.54570973 0 59
-0.55696595 -2.0327451 0.56549966 0 60
-0.55684847 -2.0323164 0.58620906 0 61
-0.55984336 -2.0432467 0.61040998 0 62
-0.55974752 -2.042897 0.6314618 0 63
-0.53271443 -2.0424466 -0.62925023 0 0
-0.5293963 -2.0297248 -0.60437989 0 1
-0.53338373 -2.0450127 -0.58793491 0 2
-0.53170294 -2.0385685 -0.56525815 0 3
-0.53291625 -2.0432205 -0.54577911 0 4
-0.53300393 -2.0435565 -0.52519506 0 5
-0.53468561 -2.0500042 -0.50620776 0 6
-0.53376698 -2.0464821 -0.48481956 0 7
-0.53263217 -2.0421312 -0.4634001 0 8
-0.53088772 -2.0354431 -0.44164237 0 9
-0.52757841 -2.0227549 -0.41885301 0 10
-0.53035969 -2.0334184 -0.40099329 0 11
-0.53159869 -2.0381689 -0.38188583 0 12
-0.53092331 -2.0355792 -0.3614485 0 13
-0.53288889 -2.0431156 -0.34282386 0 14
-0.52867347 -2.0269535 -0.32036614 0 15
-0.52958798 -2.0304596 -0.30119592 0 16
-0.53554422 -2.0532963 -0.28468981 0 17
-0.53486723 -2.0507004 -0.26451039 0 18
-0.53391957 -2.0470672 -0.2443027 0 19
-0.5355044 -2.0531435 -0.22527227 0 20
-0.53177643 -2.0388503 -0.2041242 0 21
-0.53816879 -2.0633588 -0.18679805 0 22
-0.53025359 -2.0330117 -0.16459309 0 23
-0.53454959 -2.0494828 -0.14633961 0 24
-0.53431195 -2.0485716 -0.12672114 0 25
-0.5310151 -2.0359313 -0.10652787 0 26
-0.53110492 -2.0362759 -0.087149307 0 27
-0.53264517 -2.0421813 -0.067964025 0 28
-0.53257453 -2.0419104 -0.048531082 0 29
-0.53373122 -2.046345 -0.029178597 0 30
-0.53133059 -2.0371411 -0.0096819066 0 31
-0.52890432 -2.0278387 0.0096376948 0 32
-0.53066289 -2.0345809 0.029010855 0 33
-0.53452867 -2.0494025 0.04870915 0 34
-0.53271371 -2.042444 0.067972772 0 35
-0.53656375 -2.0572052 0.088045046 0 36
-0.53448582 -2.0492382 0.10722413 0 37
-0.53767967 -2.0614836 0.12751986 0 38
-0.53346747 -2.0453339 0.14604338 0 39
-0.53091407 -2.0355442 0.16479811 0 40
-0.53347021 -2.0453441 0.18516716 0 41
-0.535303 -2.0523713 0.20547788 0 42
-0.53559434 -2.0534883 0.2253101 0 43
-0.53850895 -2.0646629 0.24640265 0 44
-0.5317505 -2.0387509 0.26296908 0 45
-0.53302312 -2.0436301 0.2833496 0 46
-0.53427505 -2.0484302 0.30386162 0 47
-0.53442162 -2.0489922 0.32384944 0 48
-0.53350979 -2.045496 0.3432233 0 49
-0.53185266 -2.0391426 0.3620812 0 50
-0.53311145 -2.0439687 0.38297251 0 51
-0.53038383 -2.0335109 0.4010115 0 52
-0.52832675 -2.025624 0.41944715 0 53
-0.53103554 -2.0360096 0.44176531 0 54
-0.53279006 -2.0427365 0.46353742 0 55
-0.53519285 -2.051949 0.48611468 0 56
-0.53115708 -2.0364757 0.50286716 0 57
-0.53452635 -2.0493934 0.52669519 0 58
-0.5328666 -2.04303 0.54572821 0 59
-0.53310555 -2.0439463 0.56674922 0 60
-0.53251898 -2.0416973 0.58698177 0 61
-0.53205371 -2.0399134 0.60741377 0 62
-0.53273988 -2.0425441 0.62928033 0 63
-0.50355679 -2.0326781 -0.62428588 0 0
-0.50595772 -2.0423696 -0.60624677 0 1
-0.50834686 -2.0520136 -0.58810616 0 2
-0.50415629 -2.0350978 -0.56253427 0 3
-0.50424004 -2.0354359 -0.54200256 0 4
-0.5072903 -2.047749 -0.52462971 0 5
-0.50611567 -2.0430074 -0.50290525 0 6
-0.50510025 -2.0389082 -0.48151749 0 7
-0.50595397 -2.0423546 -0.46200407 0 8
-0.50646365 -2.0444119 -0.4422037 0 9
-0.50999355 -2.058661 -0.42495742 0 10
-0.50824326 -2.0515957 -0.40331492 0 11
-0.50496048 -2.0383441 -0.38072646 0 12
-0.50460333 -2.0369024 -0.36055443 0 13
-0.50433868 -2.0358341 -0.34053576 0 14
-0.50701475 -2.0466366 -0.32246736 0 15
-0.50739777 -2.0481827 -0.3028765 0 16
-0.50357175 -2.0327384 -0.2809597 0 17
-0.50494182 -2.0382688 -0.26208621 0 18
-0.50575608 -2.0415556 -0.2428844 0 19
-0.50646889 -2.0444331 -0.22361635 0 20
-0.5031094 -2.0308719 -0.20269074 0 21
-0.50578892 -2.0416882 -0.18425921 0 22
-0.50638092 -2.0440781 -0.16497244 0 23
-0.50551754 -2.0405927 -0.14525001 0 24
-0.50876057 -2.0536838 -0.12664081 0 25
-0.50556475 -2.0407834 -0.10644841 0 26
-0.50607109 -2.0428274 -0.087156788 0 27
-0.5040822 -2.0347991 -0.067506962 0 28
-0.50307477 -2.0307324 -0.048114743 0 29
-0.50295937 -2.0302665 -0.028858967 0 30
-0.50330913 -2.0316784 -0.0096258027 0 31
-0.50439286 -2.0360529 0.0096465284 0 32
-0.50546098 -2.0403645 0.029002506 0 33
-0.50681961 -2.0458488 0.048472904 0 34
-0.50583619 -2.0418789 0.067741849 0 35
-0.50919354 -2.0554316 0.087694541 0 36
-0.50620365 -2.0433624 0.10658294 0 37
-0.50661629 -2.045028 0.12610705 0 38
-0.50741339 -2.0482459 0.14579475 0 39
-0.50418538 -2.0352154 0.16425717 0 40
-0.50649917 -2.0445554 0.18451795 0 41
-0.50760257 -2.0490096 0.20450094 0 42
-0.50568366 -2.0412636 0.22326964 0 43
-0.50610787 -2.0429759 0.24305336 0 44
-0.50636351 -2.0440075 0.26282412 0 45
-0.5053454 -2.0398979 0.28194925 0 46
-0.50411004 -2.0349112 0.30091399 0 47
-0.50590241 -2.0421464 0.32175988 0 48
-0.50184256 -2.0257583 0.33885038 0 49
-0.50991774 -2.0583549 0.36435172 0 50
-0.50694478 -2.0463541 0.38222256 0 51
-0.50422567 -2.035378 0.40012679 0 52
-0.50859821 -2.0530283 0.42379472 0 53
-0.50431097 -2.0357223 0.44032413 0 54
-0.50679111 -2.0457337 0.4627685 0 55
-0.50590527 -2.0421579 0.4822849 0 56
-0.50278419 -2.0295594 0.4995949 0 57
-0.50668728 -2.0453146 0.52400607 0 58
-0.50637341 -2.0440478 0.54429567 0 59
-0.50723749 -2.0475357 0.56597227 0 60
-0.50591123 -2.042182 0.58528841 0 61
-0.50314945 -2.0310335 0.60288179 0 62
-0.50741136 -2.0482376 0.62906456 0 63
-0.47800517 -2.0364976 -0.62360656 0 0
-0.47927168 -2.0418935 -0.60431033 0 1
-0.48143202 -2.0510974 -0.58610255 0 2
-0.47976995 -2.0440161 -0.56332612 0 3
-0.48035574 -2.0465119 -0.54333794 0 4
-0.47962576 -2.043402 -0.52196556 0 5
-0.47929475 -2.0419917 -0.50116658 0 6
-0.48243293 -2.0553617 -0.48396561 0 7
-0.4774251 -2.0340261 -0.4587574 0 8
-0.48147199 -2.0512676 -0.44237256 0 9
-0.47810417 -2.0369194 -0.41922417 0 10
-0.48230141 -2.0548012 -0.40274879 0 11
-0.48056266 -2.0473936 -0.38128418 0 12
-0.4765245 -2.0301893 -0.35830182 0 13
-0.47930759 -2.0420463 -0.34056327 0 14
-0.4801333 -2.0455642 -0.3213439 0 15
-0.47831202 -2.0378048 -0.3004494 0 16
-0.48003939 -2.0451641 -0.28183997 0 17
-0.48014474 -2.0456131 -0.26225156 0 18
-0.47804451 -2.0366652 -0.24158497 0 19
-0.47935161 -2.0422339 -0.22271425 0 20
-0.47985566 -2.0443814 -0.20343475 0 21
-0.48328078 -2.0589738 -0.18526888 0 22
-0.47849584 -2.0385878 -0.16404209 0 23
-0.47817472 -2.03722 -0.14458047 0 24
-0.48046279 -2.046968 -0.12585285 0 25
-0.48003089 -2.0451279 -0.1063591 0 26
-0.48060536 -2.0475755 -0.08710064 0 27
-0.47413886 -2.0200255 -0.066818349 0 28
-0.47829705 -2.0377409 -0.048137814 0 29
-0.48255342 -2.0558751 -0.02913643 0 30
-0.47842818 -2.0382998 -0.0096285734 0 31
-0.47961688 -2.043364 0.0096524954 0 32
-0.47715554 -2.0328777 0.028810507 0 33
-0.48159158 -2.0517771 0.048469391 0 34
-0.47868744 -2.0394044 0.067459367 0 35
-0.47734514 -2.0336857 0.086509787 0 36
-0.47694072 -2.0319624 0.10567442 0 37
-0.48129138 -2.0504982 0.1260699 0 38
-0.48331225 -2.059108 0.14613385 0 39
-0.47957733 -2.0431957 0.16441286 0 40
-0.47810981 -2.0369434 0.18328655 0 41
-0.47772983 -2.0353243 0.20253351 0 42
-0.47783276 -2.035763 0.22200856 0 43
-0.47970229 -2.0437281 0.24242274 0 44
-0.48075178 -2.0481992 0.26258311 0 45
-0.48251066 -2.0556927 0.28329089 0 46
-0.48121756 -2.0501838 0.30227453 0 47
-0.48097593 -2.0491543 0.32190785 0 48
-0.47923255 -2.0417268 0.34050995 0 49
-0.47740945 -2.0339596 0.35896721 0 50
-0.47855717 -2.0388494 0.379693 0 51
-0.48031572 -2.0463414 0.40109062 0 52
-0.47942525 -2.0425477 0.42038256 0 53
-0.48206171 -2.0537801 0.4429144 0 54
-0.47879639 -2.0398686 0.46007508 0 55
-0.47910717 -2.0411925 0.4806293 0 56
-0.4750011 -2.023699 0.49667698 0 57
-0.47613522 -2.0285308 0.5181669 0 58
-0.48507386 -2.0666132 0.5486747 0 59
-0.48034659 -2.046473 0.56400323 0 60
-0.48242131 -2.0553122 0.58730692 0 61
-0.48309088 -2.0581648 0.60912591 0 62
-0.48252317 -2.0557461 0.62950075 0 63
-0.44904721 -2.0247173 -0.61826169 0 0
-0.45669687 -2.0592091 -0.60772705 0 1
-0.45440555 -2.0488777 -0.5838275 0 2
-0.45273352 -2.0413387 -0.56101155 0 3
-0.44963431 -2.0273645 -0.53674597 0 4
-0.45250797 -2.0403216 -0.51971811 0 5
-0.4518376 -2.0372989 -0.49861354 0 6
-0.45312914 -2.0431225 -0.47973546 0 7
-0.45649582 -2.0583026 -0.46293169 0 8
-0.45310116 -2.0429964 -0.43935403 0 9
-0.4548471 -2.0508685 -0.42091215 0 10
-0.45307267 -2.0428677 -0.39928761 0 11
-0.45199394 -2.0380039 -0.37847191 0 12
-0.4545438 -2.0495012 -0.36069638 0 13
-0.45273864 -2.0413618 -0.33949497 0 14
-0.4521932 -2.0389023 -0.31939971 0 15
-0.45389041 -2.046555 -0.3008939 0 16
-0.45268172 -2.041105 -0.28049228 0 17
-0.45355082 -2.0450237 -0.26144123 0 18
-0.45413223 -2.0476453 -0.24220672 0 19
-0.45218936 -2.0388851 -0.2217259 0 20
-0.45262873 -2.0408661 -0.20251581 0 21
-0.44765732 -2.0184505 -0.18111354 0 22
-0.45386961 -2.0464611 -0.16421412 0 23
-0.45223948 -2.0391111 -0.14430912 0 24
-0.45545301 -2.0536005 -0.1259068 0 25
-0.45523247 -2.0526063 -0.10644885 0 26
-0.45102441 -2.0336323 -0.08626508 0 27
-0.45199254 -2.0379977 -0.067223907 0 28
-0.45311221 -2.0430462 -0.048127878 0 29
-0.45377594 -2.0460389 -0.028915763 0 30
-0.45347592 -2.0446861 -0.0096316719 0 31
-0.45339379 -2.0443158 0.0096299276 0 32
-0.45502654 -2.0516777 0.028995454 0 33
-0.45345175 -2.0445771 0.048163943 0 34
-0.4530074 -2.0425735 0.06737484 0 35
-0.45543563 -2.0535223 0.087108798 0 36
-0.45531851 -2.0529943 0.10646898 0 37
-0.45442617 -2.0489707 0.12562293 0 38
-0.45435527 -2.048651 0.14498426 0 39
-0.45529136 -2.0528717 0.16472852 0 40
-0.45458508 -2.0496871 0.18391636 0 41
-0.4543739 -2.0487349 0.20329663 0 42
-0.45171732 -2.0367568 0.22149444 0 43
-0.45278659 -2.0415778 0.24148902 0 44
-0.45229712 -2.0393708 0.26071858 0 45
-0.45347366 -2.0446758 0.280983 0 46
-0.45512298 -2.0521126 0.30171099 0 47
-0.45293295 -2.042238 0.31992224 0 48
-0.45079932 -2.0326176 0.33804074 0 49
-0.45202145 -2.0381279 0.35869479 0 50
-0.45112503 -2.034086 0.37774432 0 51
-0.45344719 -2.0445566 0.3996177 0 52
-0.45393416 -2.0467522 0.42006734 0 53
-0.45526162 -2.0527377 0.44144896 0 54
-0.4518424 -2.0373206 0.45821267 0 55
-0.44998959 -2.0289664 0.47641155 0 56
-0.4551554 -2.0522587 0.50227481 0 57
-0.45518923 -2.0524113 0.52279764 0 58
-0.45442316 -2.0489571 0.54246259 0 59
-0.45500284 -2.0515709 0.56382358 0 60
-0.45218661 -2.0388727 0.58097661 0 61
-0.45432255 -2.0485034 0.60456753 0 62
-0.45248684 -2.0402265 0.62299752 0 63
-0.42862153 -2.0516407 -0.62482637 0 0
-0.42760628 -2.0467813 -0.60246193 0 1
-0.42885527 -2.0527596 -0.58338696 0 2
-0.42834923 -2.0503376 -0.56199461 0 3
-0.4256697 -2.0375116 -0.53800595 0 4
-0.42690507 -2.0434248 -0.5191322 0 5
-0.42640537 -2.041033 -0.49820653 0 6
-0.42797893 -2.0485651 -0.47974145 0 7
-0.42707282 -2.0442278 -0.45855042 0 8
-0.4263995 -2.0410049 -0.43776509 0 9
-0.42854506 -2.0512748 -0.4198823 0 10
-0.42859131 -2.0514963 -0.39991379 0 11
-0.42531636 -2.0358205 -0.37706667 0 12
-0.42855555 -2.0513251 -0.36006275 0 13
-0.42898649 -2.0533879 -0.34059197 0 14
-0.42733562 -2.0454857 -0.31958368 0 15
-0.4242802 -2.0308607 -0.29779688 0 16
-0.42629763 -2.0405173 -0.27967003 0 17
-0.42701948 -2.0439725 -0.26061589 0 18
-0.4279584 -2.0484667 -0.24166314 0 19
-0.42689866 -2.0433941 -0.22162864 0 20
-0.42631733 -2.0406117 -0.20195511 0 21
-0.43000659 -2.0582707 -0.18419819 0 22
-0.42896384 -2.0532794 -0.16432555 0 23
-0.42644522 -2.0412238 -0.14407663 0 24
-0.42919275 -2.0543752 -0.12562121 0 25
-0.42787555 -2.0480702 -0.10593275 0 26
-0.42762557 -2.0468736 -0.086597167 0 27
-0.42678344 -2.0428426 -0.067205541 0 28
-0.42786235 -2.048007 -0.048117165 0 29
-0.42532307 -2.0358524 -0.028695723 0 30
-0.425143 -2.0349905 -0.0095606521 0 31
-0.42785117 -2.0479534 0.0096215531 0 32
-0.42514798 -2.0350144 0.02868391 0 33
-0.4298251 -2.0574019 0.048337895 0 34
-0.43039721 -2.0601404 0.067774601 0 35
-0.42595381 -2.0388715 0.08625862 0 36
-0.42655075 -2.041729 0.10560476 0 37
-0.42723319 -2.0449955 0.12504767 0 38
-0.42876163 -2.0523114 0.14485924 0 39
-0.42714894 -2.0445921 0.16363031 0 40
-0.43076691 -2.0619102 0.18452388 0 41
-0.42917621 -2.054296 0.2033094 0 42
-0.42799833 -2.0486579 0.22219956 0 43
-0.42892298 -2.0530839 0.24220784 0 44
-0.42621407 -2.0401173 0.26012433 0 45
-0.4254562 -2.0364897 0.279118 0 46
-0.42797256 -2.0485344 0.30038849 0 47
-0.42663708 -2.0421422 0.31906128 0 48
-0.42592824 -2.0387492 0.33816388 0 49
-0.42819592 -2.0496037 0.35976058 0 50
-0.42678949 -2.0428717 0.37837267 0 51
-0.42667633 -2.04233 0.39812696 0 52
-0.42647746 -2.041378 0.41785648 0 53
-0.42918184 -2.054323 0.44062158 0 54
-0.42814466 -2.0493584 0.45970124 0 55
-0.42736638 -2.0456328 0.47905478 0 56
-0.42846745 -2.0509036 0.50061584 0 57
-0.42816618 -2.0494614 0.52066576 0 58
-0.42798075 -2.0485737 0.54092693 0 59
-0.42974615 -2.057024 0.5638274 0 60
-0.42657557 -2.0418477 0.58028579 0 61
-0.42747197 -2.0461383 0.60227269 0 62
-0.42799225 -2.0486288 0.62390906 0 63
-0.4032844 -2.0563548 -0.62470448 0 0
-0.40143824 -2.046941 -0.60101056 0 1
-0.40127364 -2.0461018 -0.58004862 0 2
-0.40191972 -2.0493963 -0.56033963 0 3
-0.40152588 -2.0473881 -0.53926933 0 4
-0.4017348 -2.0484531 -0.51911545 0 5
-0.39914954 -2.0352709 -0.49556449 0 6
-0.39984447 -2.0388145 -0.47627059 0 7
-0.4000847 -2.0400393 -0.45647281 0 8
-0.40331012 -2.0564859 -0.43998858 0 9
-0.40092376 -2.0443177 -0.41741756 0 10
-0.40193242 -2.0494609 -0.39852345 0 11
-0.39986148 -2.0389013 -0.37669811 0 12
-0.40069792 -2.0431662 -0.35773873 0 13
-0.40122136 -2.0458353 -0.33849531 0 14
-0.40119958 -2.0457242 -0.31882605 0 15
-0.40147156 -2.047111 -0.29943323 0 16
-0.40248162 -2.0522614 -0.2805801 0 17
-0.40003294 -2.0397754 -0.25943393 0 18
-0.40149012 -2.0472057 -0.24091373 0 19
-0.40179077 -2.0487385 -0.22165568 0 20
-0.4033874 -2.05688 -0.20305888 0 21
-0.40282243 -2.0539992 -0.18335879 0 22
-0.40023255 -2.0407932 -0.16292009 0 23
-0.403189 -2.0558684 -0.14474942 0 24
-0.40076244 -2.0434952 -0.12464517 0 25
-0.40030095 -2.041142 -0.10531184 0 26
-0.40433756 -2.0617247 -0.087008543 0 27
-0.40104923 -2.0449574 -0.067107804 0 28
-0.40411204 -2.060575 -0.048292045 0 29
-0.40135095 -2.0464959 -0.028774006 0 30
-0.40384039 -2.0591898 -0.0096502835 0 31
-0.40404519 -2.0602341 0.0096551767 0 32
-0.4008235 -2.0438066 0.028736193 0 33
-0.4019101 -2.0493469 0.048028905 0 34
-0.40217611 -2.0507035 0.067296363 0 35
-0.40050441 -2.0421796 0.086183704 0 36
-0.40379211 -2.0589435 0.10623031 0 37
-0.40178925 -2.0487309 0.12496453 0 38
-0.40084568 -2.0439196 0.14390813 0 39
-0.40241063 -2.0518994 0.16380671 0 40
-0.40146488 -2.0470769 0.18274084 0 41
-0.40275922 -2.0536768 0.20274267 0 42
-0.4036743 -2.0583429 0.22269478 0 43
-0.39982951 -2.0387383 0.23991729 0 44
-0.39855966 -2.0322633 0.25847846 0 45
-0.39911082 -2.0350735 0.27823022 0 46
-0.4021917 -2.0507829 0.29997033 0 47
-0.40061 -2.0427179 0.31835753 0 48
-0.4006626 -2.0429862 0.3380239 0 49
-0.40067616 -2.0430553 0.3577193 0 50
-0.40073317 -2.0433459 0.37751931 0 51
-0.40225974 -2.0511298 0.39884797 0 52
-0.40131095 -2.0462921 0.41782066 0 53
-0.40312976 -2.0555663 0.43979183 0 54
-0.40118775 -2.0456638 0.45773131 0 55
-0.40207946 -2.0502107 0.4789328 0 56
-0.40169287 -2.0482395 0.49872217 0 57
-0.40295371 -2.0546687 0.5206905 0 58
-0.40010622 -2.040149 0.53736264 0 59
-0.39929572 -2.0360162 0.55668128 0 60
-0.39895356 -2.0342715 0.57669491 0 61
-0.40126348 -2.0460501 0.6007489 0 62
-0.40247145 -2.0522096 0.62344521 0 63
-0.3716093 -2.0264719 -0.61419171 0 0
-0.37665683 -2.0539973 -0.60167694 0 1
-0.37392911 -2.0391223 -0.57672292 0 2
-0.37568146 -2.0486784 -0.55883801 0 3
-0.37504083 -2.0451849 -0.53743374 0 4
-0.37528968 -2.0465419 -0.5174225 0 5
-0.37344757 -2.0364964 -0.49470735 0 6
-0.3768605 -2.0551081 -0.47895807 0 7
-0.3754814 -2.0475874 -0.45709404 0 8
-0.37412304 -2.04018 -0.43548271 0 9
-0.37570065 -2.0487831 -0.41735443 0 10
-0.37697303 -2.0557215 -0.39880931 0 11
-0.37360597 -2.0373602 -0.37553623 0 12
-0.37778181 -2.060132 -0.35986874 0 13
-0.37846488 -2.0638568 -0.34068137 0 14
-0.37767652 -2.0595579 -0.32023406 0 15
-0.37722674 -2.0571051 -0.30019388 0 16
-0.37341243 -2.0363047 -0.27774981 0 17
-0.37794775 -2.0610368 -0.26152724 0 18
-0.37483537 -2.0440643 -0.23998353 0 19
-0.37463328 -2.0429623 -0.22051568 0 20
-0.372886 -2.0334339 -0.20027646 0 21
-0.37580046 -2.0493274 -0.18251543 0 22
-0.37571535 -2.0488629 -0.16318315 0 23
-0.37596554 -2.0502274 -0.14401586 0 24
-0.37485114 -2.0441504 -0.12439458 0 25
-0.3764154 -2.0526807 -0.10566038 0 26
-0.37755996 -2.0589223 -0.086687796 0 27
-0.37458625 -2.042706 -0.066877708 0 28
-0.37300485 -2.0340822 -0.04756007 0 29
-0.3750447 -2.0452058 -0.028688857 0 30
-0.37696138 -2.0556581 -0.0096112825 0 31
-0.37760791 -2.0591838 0.0096277669 0 32
-0.37411129 -2.0401158 0.028617458 0 33
-0.37518835 -2.0459893 0.047838476 0 34
-0.37615409 -2.0512557 0.067157619 0 35
-0.37688071 -2.055218 0.08653184 0 36
-0.37433672 -2.0413451 0.10507689 0 37
-0.37443781 -2.0418966 0.12425742 0 38
-0.37568444 -2.0486946 0.14390819 0 39
-0.37405601 -2.0398142 0.16246247 0 40
-0.37512437 -2.0456405 0.18218707 0 41
-0.37667319 -2.0540864 0.20231056 0 42
-0.37744308 -2.0582848 0.22216956 0 43
-0.37469557 -2.0433021 0.23989402 0 44
-0.37484428 -2.0441129 0.25937974 0 45
-0.37543917 -2.0473571 0.27925733 0 46
-0.37751442 -2.0586739 0.30042282 0 47
-0.37745371 -2.0583427 0.32004511 0 48
-0.37714946 -2.0566838 0.33949727 0 49
-0.37326407 -2.0354958 0.35556519 0 50
-0.37800995 -2.0613761 0.37996298 0 51
-0.37612942 -2.0511212 0.39791685 0 52
-0.3766838 -2.0541444 0.41844657 0 53
-0.37777936 -2.0601187 0.43973872 0 54
-0.37325808 -2.0354631 0.45438749 0 55
-0.37647018 -2.0529795 0.47846201 0 56
-0.37557873 -2.0481181 0.49753055 0 57
-0.37553275 -2.0478673 0.51775759 0 58
-0.37582317 -2.0494511 0.53855479 0 59
-0.37622008 -2.0516157 0.55963922 0 60
-0.37645671 -2.052906 0.5806213 0 61
-0.37371686 -2.0379651 0.59698063 0 62
-0.37497574 -2.0448298 0.61975574 0 63
-0.3480812 -2.0391867 -0.61670148 0 0
-0.34858349 -2.042129 -0.59689975 0 1
-0.34972709 -2.0488288 -0.57820821 0 2
-0.34828061 -2.040355 -0.55535734 0 3
-0.35074085 -2.0547676 -0.53877783 0 4
-0.34850591 -2.0416746 -0.51506948 0 5
-0.34967315 -2.0485127 -0.49654436 0 6
-0.34850341 -2.0416601 -0.47478932 0 7
-0.35089812 -2.0556891 -0.45790485 0 8
-0.34994903 -2.0501289 -0.43665487 0 9
-0.34951061 -2.0475607 -0.41619846 0 10
-0.34524387 -2.0225644 -0.39152366 0 11
-0.35147524 -2.0590701 -0.37871265 0 12
-0.34802347 -2.0388484 -0.35537645 0 13
-0.35094863 -2.055985 -0.338644 0 14
-0.35192254 -2.0616906 -0.31986862 0 15
-0.34879312 -2.0433574 -0.29753929 0 16
-0.3481746 -2.0397339 -0.27761257 0 17
-0.35107556 -2.0567286 -0.26041308 0 18
-0.34998003 -2.0503106 -0.24019346 0 19
-0.34950641 -2.0475359 -0.22052877 0 20
-0.34862027 -2.0423446 -0.2007167 0 21
-0.34908593 -2.0450726 -0.18174045 0 22
-0.3520802 -2.0626142 -0.16392118 0 23
-0.35033035 -2.0523629 -0.1438524 0 24
-0.34883934 -2.0436282 -0.12409239 0 25
-0.35044995 -2.0530636 -0.10545029 0 26
-0.3500717 -2.0508475 -0.086160071 0 27
-0.35194388 -2.0618157 -0.067356572 0 28
-0.35129547 -2.058017 -0.048015069 0 29
-0.34760195 -2.0363791 -0.028502928 0 30
-0.34981054 -2.0493176 -0.0095608039 0 31
-0.35228214 -2.0637972 0.0096283564 0 32
-0.34893188 -2.0441701 0.028611979 0 33
-0.34996969 -2.0502501 0.047833864 0 34
-0.34812495 -2.0394428 0.066625684 0 35
-0.34848225 -2.0415361 0.085768878 0 36
-0.34986222 -2.0496204 0.10527345 0 37
-0.34706163 -2.0332136 0.12345999 0 38
-0.35167 -2.0602109 0.14440249 0 39
-0.34896904 -2.0443878 0.16247268 0 40
-0.35082254 -2.0552464 0.18264458 0 41
-0.35126165 -2.0578187 0.20223746 0 42
-0.35030204 -2.052197 0.2210308 0 43
-0.34843343 -2.0412502 0.23913202 0 44
-0.35035506 -2.0525076 0.25987867 0 45
-0.34900728 -2.0446119 0.27827647 0 46
-0.35002923 -2.0505989 0.29859376 0 47
-0.35061651 -2.0540395 0.31868157 0 48
-0.34829906 -2.040463 0.33608735 0 49
-0.35047942 -2.0532362 0.35788429 0 50
-0.35181502 -2.0610607 0.37907875 0 51
-0.34885094 -2.0436959 0.39561427 0 52
-0.35032755 -2.0523465 0.41717127 0 53
-0.34745201 -2.0355005 0.43353915 0 54
-0.35020447 -2.0516255 0.45699963 0 55
-0.35054246 -2.0536056 0.47756723 0 56
-0.34975317 -2.0489817 0.496658 0 57
-0.35066891 -2.0543463 0.51826632 0 58
-0.35126182 -2.0578198 0.53957814 0 59
-0.35081512 -2.055203 0.55939877 0 60
-0.3530311 -2.0681849 0.58367079 0 61
-0.35100943 -2.0563412 0.60105383 0 62
-0.34922284 -2.0458746 0.61872411 0 63
-0.32623053 -2.063864 -0.62290424 0 0
-0.321309 -2.0327282 -0.59295225 0 1
-0.32259867 -2.0408874 -0.57480407 0 2
-0.32451135 -2.0529876 -0.55766755 0 3
-0.32388344 -2.0490153 -0.53618467 0 4
-0.32559714 -2.0598567 -0.5186072 0 5
-0.32496861 -2.0558803 -0.49732402 0 6
-0.32469344 -2.0541396 -0.47672692 0 7
-0.32450509 -2.052948 -0.45637092 0 8
-0.32595488 -2.0621202 -0.43832201 0 9
-0.32371324 -2.0479386 -0.41543475 0 10
-0.32503128 -2.0562768 -0.39724591 0 11
-0.32468358 -2.0540774 -0.37703153 0 12
-0.32398188 -2.049638 -0.35653576 0 13
-0.32429275 -2.0516047 -0.33724022 0 14
-0.32444683 -2.0525794 -0.31781206 0 15
-0.325331 -2.0581729 -0.29909155 0 16
-0.32422572 -2.0511808 -0.27860683 0 17
-0.325203 -2.0573635 -0.25996748 0 18
-0.32368863 -2.0477827 -0.23941293 0 19
-0.3255398 -2.059494 -0.22136883 0 20
-0.32230547 -2.0390325 -0.19998656 0 21
-0.32580894 -2.0611968 -0.18280353 0 22
-0.32299101 -2.0433695 -0.16206385 0 23
-0.32376942 -2.0482938 -0.14327732 0 24
-0.32246637 -2.0400505 -0.12362502 0 25
-0.32579747 -2.0611241 -0.10565055 0 26
-0.32510248 -2.0567274 -0.086232625 0 27
-0.32385728 -2.0488498 -0.066797853 0 28
-0.32440341 -2.0523047 -0.047785118 0 29
-0.32358271 -2.0471127 -0.028595312 0 30
-0.32515323 -2.0570483 -0.0095774932 0 31
-0.32491156 -2.0555196 0.0095703751 0 32
-0.32495522 -2.0557957 0.028716601 0 33
-0.32431951 -2.051774 0.047772761 0 34
-0.32274958 -2.041842 0.06656938 0 35
-0.32430896 -2.0517073 0.086022146 0 36
-0.32381412 -2.0485768 0.10500739 0 37
-0.32413468 -2.0506048 0.1242646 0 38
-0.3241469 -2.0506818 0.14344436 0 39
-0.32425082 -2.0513394 0.16269597 0 40
-0.32486802 -2.0552442 0.18227559 0 41
-0.32495201 -2.0557754 0.2016287 0 42
-0.32357275 -2.0470498 0.22003125 0 43
-0.32597628 -2.0622554 0.24110498 0 44
-0.32191491 -2.0365615 0.25733897 0 45
-0.3244476 -2.0525844 0.27879748 0 46
-0.32281056 -2.0422277 0.29677439 0 47
-0.32443699 -2.0525174 0.31780243 0 48
-0.32513955 -2.0569618 0.33812082 0 49
-0.32573849 -2.060751 0.35846889 0 50
-0.32338992 -2.0458932 0.37552932 0 51
-0.32419845 -2.0510082 0.39622808 0 52
-0.32344598 -2.0462477 0.41509178 0 53
-0.32461995 -2.0536747 0.43652683 0 54
-0.32271805 -2.0416427 0.45385772 0 55
-0.32358384 -2.0471199 0.47509775 0 56
-0.32454857 -2.0532231 0.49668124 0 57
-0.32567188 -2.0603297 0.51872623 0 58
-0.32543322 -2.0588198 0.53875035 0 59
-0.3254827 -2.0591328 0.55933678 0 60
-0.3243894 -2.0522161 0.57799476 0 61
-0.32438642 -2.0521975 0.59863144 0 62
-0.32576993 -2.06095 0.62202477 0 63
-0.3004114 -2.0648448 -0.62203836 0 0
-0.29780263 -2.0469139 -0.59597695 0 1
-0.29885268 -2.0541313 -0.57745552 0 2
-0.29930419 -2.0572348 -0.55777931 0 3
-0.29711145 -2.0421631 -0.53339523 0 4
-0.29965648 -2.0596561 -0.51758987 0 5
-0.29942995 -2.058099 -0.49693248 0 6
-0.3000465 -2.0623369 -0.47773695 0 7
-0.29979306 -2.060595 -0.45721677 0 8
-0.29914773 -2.0561593 -0.43624011 0 9
-0.29914457 -2.0561376 -0.41632032 0 10
-0.29907039 -2.0556276 -0.3963801 0 11
-0.29774997 -2.0465519 -0.37494984 0 12
-0.29906946 -2.0556214 -0.35690987 0 13
-0.30045056 -2.0651143 -0.33882797 0 14
-0.29673013 -2.0395422 -0.31520462 0 15
-0.2989423 -2.0547473 -0.29803699 0 16
-0.29885486 -2.0541463 -0.27848944 0 17
-0.29896376 -2.0548947 -0.25917146 0 18
-0.29821235 -2.0497301 -0.23919378 0 19
-0.29968768 -2.0598705 -0.2209965 0 20
-0.29991722 -2.0614483 -0.20180812 0 21
-0.29856792 -2.0521741 -0.18166398 0 22
-0.29687038 -2.0405061 -0.16153502 0 23
-0.29959059 -2.0592031 -0.14377186 0 24
-0.29776713 -2.04667 -0.12379491 0 25
-0.29637766 -2.0371196 -0.10422543 0 26
-0.29790667 -2.0476291 -0.085691094 0 27
-0.29923987 -2.0567925 -0.066931777 0 28
-0.2996932 -2.0599084 -0.047872737 0 29
-0.29860514 -2.0524299 -0.028616132 0 30
-0.29947731 -2.0584247 -0.0095660323 0 31
-0.29757631 -2.0453582 0.0095053092 0 32
-0.29815167 -2.0493128 0.028572673 0 33
-0.29818738 -2.0495584 0.047632203 0 34
-0.29962444 -2.0594358 0.067017801 0 35
-0.29942 -2.0580306 0.086126387 0 36
-0.29646024 -2.0376871 0.10425447 0 37
-0.29799449 -2.0482326 0.12388943 0 38
-0.29877117 -2.053571 0.14337863 0 39
-0.29756212 -2.0452609 0.16191143 0 40
-0.29689094 -2.0406475 0.1806436 0 41
-0.29667345 -2.0391526 0.19962546 0 42
-0.29920033 -2.0565207 0.22063711 0 43
-0.29778481 -2.0467913 0.23885086 0 44
-0.29679742 -2.0400047 0.25729343 0 45
-0.29826728 -2.0501075 0.27794188 0 46
-0.29809523 -2.0489252 0.29719248 0 47
-0.29875404 -2.0534532 0.31735453 0 48
-0.29768813 -2.0461268 0.33571267 0 49
-0.29840297 -2.0510402 0.35611448 0 50
-0.29950595 -2.0586216 0.37716115 0 51
-0.29648989 -2.0378909 0.39295998 0 52
-0.296819 -2.040153 0.41308382 0 53
-0.29880816 -2.0538251 0.43574491 0 54
-0.29941076 -2.0579672 0.45663372 0 55
-0.29802695 -2.0484557 0.4745214 0 56
-0.29947707 -2.058423 0.49701071 0 57
-0.29712775 -2.0422752 0.51322204 0 58
-0.29824764 -2.0499725 0.53543502 0 59
-0.30038768 -2.064682 0.55979848 0 60
-0.30013859 -2.0629699 0.5799402 0 61
-0.29882151 -2.0539169 0.59801602 0 62
-0.29874745 -2.0534081 0.61859304 0 63
-0.27341065 -2.0564263 -0.61844271 0 0
-0.27176479 -2.0440469 -0.59412438 0 1
-0.27114946 -2.0394189 -0.572339 0 2
-0.27297863 -2.0531766 -0.55572695 0 3
-0.27269861 -2.0510707 -0.5348056 0 4
-0.27270159 -2.0510931 -0.51455647 0 5
-0.27395788 -2.0605421 -0.49667141 0 6
-0.27254528 -2.0499175 -0.47404781 0 7
-0.2722021 -2.0473361 -0.45349789 0 8
-0.27294236 -2.0529041 -0.43480453 0 9
-0.27144307 -2.0416274 -0.41267532 0 10
-0.2731061 -2.0541356 -0.39541495 0 11
-0.27337092 -2.0561273 -0.37605989 0 12
-0.27119258 -2.0397432 -0.3535473 0 13
-0.27214316 -2.0468929 -0.33526397 0 14
-0.27142271 -2.0414743 -0.31496361 0 15
-0.27170047 -2.0435631 -0.2959078 0 16
-0.27264082 -2.0506361 -0.27753803 0 17
-0.27338052 -2.0561996 -0.25889245 0 18
-0.2736623 -2.0583189 -0.23978527 0 19
-0.27200827 -2.0458782 -0.21911991 0 20
-0.27301797 -2.0534728 -0.20068352 0 21
-0.27217177 -2.0471082 -0.1809056 0 22
-0.27358285 -2.0577214 -0.16261923 0 23
-0.27300173 -2.0533507 -0.14311804 0 24
-0.27319738 -2.0548222 -0.12407544 0 25
-0.27283254 -2.052078 -0.10481118 0 26
-0.27204499 -2.0461545 -0.085482925 0 27
-0.27185875 -2.0447538 -0.06642621 0 28
-0.27285936 -2.0522797 -0.04761387 0 29
-0.27163765 -2.0430908 -0.028437201 0 30
-0.27169934 -2.0435548 -0.009480685 0 31
-0.27342436 -2.0565293 0.0095408773 0 32
-0.27297238 -2.0531299 0.028576931 0 33
-0.27182001 -2.0444624 0.047432505 0 34
-0.27382612 -2.0595512 0.066906922 0 35
-0.27469972 -2.0661218 0.086317107 0 36
-0.27140313 -2.0413268 0.10426205 0 37
-0.27412158 -2.0617735 0.12449517 0 38
-0.27225959 -2.0477686 0.14272897 0 39
-0.2716327 -2.0430536 0.16146007 0 40
-0.27371147 -2.0586889 0.18192899 0 41
-0.27325377 -2.0552461 0.20085685 0 42
-0.27388155 -2.059968 0.22062898 0 43
-0.27338055 -2.0561998 0.23953839 0 44
-0.27372569 -2.0587957 0.25921935 0 45
-0.27488771 -2.0675356 0.2798253 0 46
-0.27462536 -2.0655625 0.29909328 0 47
-0.27369311 -2.0585508 0.31759819 0 48
-0.27219561 -2.0472872 0.33532855 0 49
-0.27303937 -2.0536337 0.35595492 0 50
-0.27417675 -2.0621884 0.37716842 0 51
-0.27168784 -2.0434682 0.39336151 0 52
-0.27411532 -2.0617263 0.41673791 0 53
-0.27321815 -2.0549784 0.4352439 0 54
-0.27244064 -2.0491304 0.4538953 0 55
-0.27354962 -2.0574715 0.47579473 0 56
-0.27314064 -2.0543954 0.49518982 0 57
-0.27154791 -2.0424159 0.51237953 0 58
-0.27343395 -2.0566015 0.53624773 0 59
-0.27197066 -2.0455954 0.55367494 0 60
-0.27080929 -2.0368605 0.571621 0 61
-0.27234387 -2.0484025 0.59539038 0 62
-0.27414227 -2.061929 0.62009758 0 63
-0.248099 -2.0595818 -0.61842746 0 0
-0.24659714 -2.0471141 -0.59408963 0 1
-0.24817476 -2.0602107 -0.57727391 0 2
-0.248129 -2.0598309 -0.55666006 0 3
-0.2478189 -2.0572565 -0.53558344 0 4
-0.24778748 -2.0569956 -0.51523387 0 5
-0.24931343 -2.0696633 -0.4980934 0 6
-0.24817559 -2.0602176 -0.4756881 0 7
-0.24739228 -2.053715 -0.45420265 0 8
-0.24677709 -2.0486081 -0.43321916 0 9
-0.24701796 -2.0506077 -0.41384524 0 10
-0.24808575 -2.0594718 -0.395825 0 11
-0.24866718 -2.0642986 -0.37696663 0 12
-0.2472295 -2.0523636 -0.35518101 0 13
-0.24860089 -2.0637481 -0.33749852 0 14
-0.24786848 -2.057668 -0.31696782 0 15
-0.24898636 -2.0669482 -0.29882801 0 16
-0.24731895 -2.0531063 -0.2774398 0 17
-0.24704602 -2.0508406 -0.25781575 0 18
-0.24774896 -2.0566759 -0.23922089 0 19
-0.24731573 -2.0530796 -0.21954888 0 20
-0.24698481 -2.0503323 -0.20006469 0 21
-0.24629974 -2.0446453 -0.18040667 0 22
-0.24685639 -2.0492663 -0.16169894 0 23
-0.24746425 -2.0543125 -0.14296219 0 24
-0.2460885 -2.0428917 -0.12316302 0 25
-0.24942397 -2.070581 -0.1055916 0 26
-0.24798794 -2.0586598 -0.08587148 0 27
-0.24731749 -2.0530941 -0.066593327 0 28
-0.24805723 -2.0592351 -0.047700863 0 29
-0.24642378 -2.045675 -0.028428845 0 30
-0.24762663 -2.0556605 -0.0095220003 0 31
-0.24861698 -2.0638816 0.0095600821 0 32
-0.24686074 -2.0493023 0.028479256 0 33
-0.24857773 -2.063556 0.047800954 0 34
-0.24800134 -2.0587709 0.06677746 0 35
-0.2463707 -2.0452344 0.08531148 0 36
-0.24737117 -2.0535398 0.10472256 0 37
-0.24779595 -2.057066 0.12401757 0 38
-0.24820656 -2.0604746 0.14339101 0 39
-0.24748616 -2.0544944 0.16211146 0 40
-0.24859425 -2.063693 0.18208732 0 41
-0.24827014 -2.0610025 0.20110585 0 42
-0.24621929 -2.0439775 0.21857554 0 43
-0.24841614 -2.0622144 0.23986509 0 44
-0.24804211 -2.0591094 0.25885525 0 45
-0.24659346 -2.0470836 0.27662596 0 46
-0.24834757 -2.0616453 0.29806134 0 47
-0.24835137 -2.0616767 0.31758532 0 48
-0.24844497 -2.0624537 0.33728683 0 49
-0.24936177 -2.0700645 0.35824433 0 50
-0.24726206 -2.052634 0.37483653 0 51
-0.24848202 -2.0627613 0.39645723 0 52
-0.24707985 -2.0511212 0.41394892 0 53
-0.24648394 -2.0461743 0.43270454 0 54
-0.24766575 -2.0559852 0.45470473 0 55
-0.2487426 -2.0649245 0.4767749 0 56
-0.24885783 -2.0658813 0.49718317 0 57
-0.24740009 -2.0537798 0.51442838 0 58
-0.2470808 -2.0511293 0.5339883 0 59
-0.24738395 -2.0536458 0.55498862 0 60
-0.24655057 -2.0467277 0.57349592 0 61
-0.24770747 -2.0563316 0.59676456 0 62
-0.2469465 -2.0500143 0.61555463 0 63
-0.22242764 -2.0594311 -0.61751425 0 0
-0.22306876 -2.0653672 -0.59854549 0 1
-0.2218435 -2.0540226 -0.57473218 0 2
-0.22111943 -2.0473185 -0.5525021 0 3
-0.22177981 -2.0534329 -0.53383768 0 4
-0.22173159 -2.0529864 -0.51350784 0 5
-0.22229326 -2.0581868 -0.49463618 0 6
-0.22191827 -2.0547149 -0.47375169 0 7
-0.22197284 -2.0552201 -0.45389757 0 8
-0.22176486 -2.0532944 -0.43360078 0 9
-0.2218723 -2.0542891 -0.41400635 0 10
-0.2204839 -2.0414343 -0.39180753 0 11
-0.22239381 -2.0591178 -0.37549278 0 12
-0.21967477 -2.0339425 -0.35149902 0 13
-0.22192793 -2.0548043 -0.3355642 0 14
-0.22253038 -2.0603824 -0.31694046 0 15
-0.22224578 -2.0577474 -0.29708025 0 16
-0.22208557 -2.0562639 -0.27747649 0 17
-0.22139139 -2.0498366 -0.25732782 0 18
-0.22264095 -2.0614061 -0.23943453 0 19
-0.22380583 -2.0721915 -0.22128163 0 20
-0.22152136 -2.0510399 -0.19985284 0 21
-0.22196326 -2.0551314 -0.18107738 0 22
-0.22029719 -2.0397055 -0.16071863 0 23
-0.22217332 -2.0570762 -0.14295359 0 24
-0.22327727 -2.0672977 -0.12445948 0 25
-0.22273465 -2.0622735 -0.10502034 0 26
-0.22258398 -2.0608785 -0.085843377 0 27
-0.22093095 -2.0455732 -0.066256262 0 28
-0.2212877 -2.0488765 -0.047394298 0 29
-0.22220989 -2.0574148 -0.028551864 0 30
-0.22134262 -2.0493851 -0.0094796084 0 31
-0.2230248 -2.0649602 0.0095516527 0 32
-0.22278513 -2.062741 0.028625777 0 33
-0.22136118 -2.0495567 0.047410037 0 34
-0.22198744 -2.0553553 0.066573098 0 35
-0.22191322 -2.0546682 0.085584685 0 36
-0.22204694 -2.0559063 0.10469608 0 37
-0.22223939 -2.0576882 0.12388095 0 38
-0.22157755 -2.0515602 0.14257026 0 39
-0.22407426 -2.0746768 0.1634742 0 40
-0.22216876 -2.0570343 0.18124503 0 41
-0.22294028 -2.0641775 0.20113295 0 42
-0.22017728 -2.0385952 0.217694 0 43
-0.22148515 -2.0507047 0.23819155 0 44
-0.22180101 -2.0536292 0.25780395 0 45
-0.22318244 -2.0664196 0.27884692 0 46
-0.22163914 -2.0521305 0.29626933 0 47
-0.22170444 -2.0527351 0.3157641 0 48
-0.22218385 -2.057174 0.33595118 0 49
-0.22136678 -2.0496087 0.35420638 0 50
-0.22285362 -2.063375 0.37626913 0 51
-0.22071789 -2.0436006 0.39222333 0 52
-0.22136819 -2.0496218 0.4130657 0 53
-0.22244596 -2.0596008 0.4349325 0 54
-0.22334701 -2.0679433 0.45670748 0 55
-0.22105649 -2.0467358 0.47191197 0 56
-0.2222077 -2.0573945 0.49444577 0 57
-0.22283259 -2.0631804 0.51605767 0 58
-0.22148111 -2.0506673 0.53311867 0 59
-0.22127201 -2.0487313 0.55288333 0 60
-0.22237638 -2.0589564 0.57611269 0 61
-0.22150396 -2.0508788 0.59434676 0 62
-0.22281258 -2.0629952 0.61858296 0 63
-0.19702457 -2.061336 -0.61731237 0 0
-0.19608971 -2.0515554 -0.59379917 0 1
-0.19740751 -2.0653427 -0.57717675 0 2
-0.19663925 -2.0573049 -0.55450261 0 3
-0.19725128 -2.0637078 -0.53583783 0 4
-0.1957344 -2.047838 -0.51157939 0 5
-0.19553435 -2.0457449 -0.49103111 0 6
-0.19602868 -2.0509169 -0.4722845 0 7
-0.19627501 -2.053494 -0.45294905 0 8
-0.19740453 -2.0653114 -0.43559289 0 9
-0.1963035 -2.053792 -0.41338843 0 10
-0.19742309 -2.0655055 -0.3959316 0 11
-0.19643641 -2.0551825 -0.37430638 0 12
-0.19655356 -2.0564082 -0.35493696 0 13
-0.1947104 -2.0371246 -0.33226088 0 14
-0.19749869 -2.0662966 -0.31745264 0 15
-0.19728211 -2.0640304 -0.29761463 0 16
-0.19743961 -2.0656784 -0.27839825 0 17
-0.19679375 -2.0589211 -0.25814497 0 18
-0.19698299 -2.0609009 -0.23907645 0 19
-0.19700745 -2.061157 -0.21982798 0 20
-0.19566342 -2.0470953 -0.19921897 0 21
-0.19615711 -2.0522604 -0.18059824 0 22
-0.19642685 -2.0550826 -0.16172773 0 23
-0.19459945 -2.0359638 -0.14130943 0 24
-0.19582842 -2.0488217 -0.12319287 0 25
-0.19702362 -2.061326 -0.10484079 0 26
-0.19674565 -2.058418 -0.085633636 0 27
-0.19605885 -2.0512326 -0.066356458 0 28
-0.19613893 -2.0520704 -0.047408804 0 29
-0.19745454 -2.0658345 -0.028632848 0 30
-0.19624145 -2.053143 -0.0094851116 0 31
-0.1967348 -2.0583043 0.0095089572 0 32
-0.19697277 -2.0607941 0.028562989 0 33
-0.19491971 -2.0393143 0.047114104 0 34
-0.19540343 -2.0443752 0.066134632 0 35
-0.19642784 -2.0550928 0.085495308 0 36
-0.19642554 -2.055069 0.10452254 0 37
-0.1968352 -2.059355 0.12382622 0 38
-0.19711447 -2.0622766 0.14313573 0 39
-0.19684365 -2.0594432 0.1620709 0 40
-0.19689825 -2.0600145 0.1812806 0 41
-0.19655183 -2.05639 0.20012352 0 42
-0.19652839 -2.056145 0.21929342 0 43
-0.19653369 -2.0562003 0.23853116 0 44
-0.19719101 -2.0630774 0.2586661 0 45
-0.19809182 -2.0725019 0.27931789 0 46
-0.19705674 -2.0616727 0.29727465 0 47
-0.19617897 -2.0524893 0.31533137 0 48
-0.19723561 -2.063544 0.33656996 0 49
-0.19613257 -2.0520036 0.35417673 0 50
-0.19791874 -2.0706911 0.37713096 0 51
-0.19722879 -2.0634727 0.39554194 0 52
-0.19578516 -2.0483692 0.41229689 0 53
-0.19671763 -2.0581248 0.4340772 0 54
-0.19630933 -2.053853 0.45302826 0 55
-0.19728278 -2.0640376 0.47530591 0 56
-0.19587326 -2.0492907 0.49188221 0 57
-0.19572853 -2.0477765 0.51156402 0 58
-0.19658169 -2.0567026 0.53401893 0 59
-0.19654749 -2.0563447 0.55424386 0 60
-0.19768301 -2.0682249 0.57798225 0 61
-0.19694094 -2.060461 0.59637684 0 62
-0.19528577 -2.0431442 0.61186445 0 63
-0.17081624 -2.0534067 -0.61426228 0 0
-0.17173702 -2.0644753 -0.59688234 0 1
-0.17081007 -2.0533323 -0.57319009 0 2
-0.17089726 -2.0543804 -0.55310625 0 3
-0.1717653 -2.0648153 -0.53553647 0 4
-0.1712165 -2.0582182 -0.51360774 0 5
-0.17034228 -2.047709 -0.49096268 0 6
-0.17127743 -2.0589507 -0.47361371 0 7
-0.17076854 -2.0528331 -0.45230594 0 8
-0.17208943 -2.0687118 -0.43583083 0 9
-0.17129521 -2.0591643 -0.41401452 0 10
-0.17171566 -2.0642185 -0.39525029 0 11
-0.17143062 -2.060792 -0.37491578 0 12
-0.1710832 -2.0566158 -0.35458285 0 13
-0.17314215 -2.0813665 -0.33910397 0 14
-0.1711081 -2.056915 -0.3156642 0 15
-0.17045321 -2.0490425 -0.29512897 0 16
-0.17164782 -2.0634031 -0.27778614 0 17
-0.17065361 -2.0514517 -0.25692594 0 18
-0.17102586 -2.0559263 -0.2382374 0 19
-0.17043491 -2.0488224 -0.21827245 0 20
-0.17118995 -2.057899 -0.20005038 0 21
-0.17148504 -2.0614462 -0.18120733 0 22
-0.17146863 -2.061249 -0.16203482 0 23
-0.17129754 -2.0591922 -0.14276466 0 24
-0.17116353 -2.0575814 -0.12358368 0 25
-0.17123915 -2.0584905 -0.10458156 0 26
-0.171976 -2.0673482 -0.085910678 0 27
-0.17043146 -2.0487812 -0.066204354 0 28
-0.17152303 -2.061903 -0.047583643 0 29
-0.17152508 -2.0619276 -0.028547307 0 30
-0.17134435 -2.0597551 -0.0095052067 0 31
-0.17030138 -2.0472174 0.0094473483 0 32
-0.17112392 -2.0571053 0.028480541 0 33
-0.17083775 -2.0536649 0.047393531 0 34
-0.17152227 -2.0618939 0.066628084 0 35
-0.17008308 -2.0445931 0.084965065 0 36
-0.17140785 -2.0605183 0.10468459 0 37
-0.17067052 -2.0516548 0.12322772 0 38
-0.17118664 -2.0578592 0.14267224 0 39
-0.17175004 -2.0646317 0.16230075 0 40
-0.17130336 -2.0592623 0.18101534 0 41
-0.1699852 -2.0434165 0.19864254 0 42
-0.17069924 -2.052 0.21861097 0 43
-0.17120615 -2.0580935 0.23848854 0 44
-0.17129661 -2.0591812 0.25789401 0 45
-0.1706069 -2.05089 0.27610156 0 46
-0.17217682 -2.0697622 0.29811329 0 47
-0.17157234 -2.0624957 0.31652066 0 48
-0.17097065 -2.0552628 0.33485106 0 49
-0.17097926 -2.0553663 0.35436741 0 50
-0.17106526 -2.0564001 0.37411675 0 51
-0.17173238 -2.0644195 0.39528877 0 52
-0.17112376 -2.0571032 0.41360012 0 53
-0.17045581 -2.0490739 0.43169355 0 54
-0.17066297 -2.0515642 0.45202634 0 55
-0.17058313 -2.0506043 0.47169384 0 56
-0.17075667 -2.0526905 0.49215701 0 57
-0.17186856 -2.0660567 0.51556379 0 58
-0.1716301 -2.06319 0.53511494 0 59
-0.17074327 -2.0525293 0.55260783 0 60
-0.17231178 -2.0713847 0.57822949 0 61
-0.17116152 -2.0575571 0.59488213 0 62
-0.17122863 -2.0583639 0.61574525 0 63
-0.14657234 -2.0697088 -0.61855304 0 0
-0.14597499 -2.0612741 -0.59539282 0 1
-0.14548546 -2.0543616 -0.57293469 0 2
-0.14652357 -2.0690203 -0.55652058 0 3
-0.14682175 -2.0732307 -0.53721029 0 4
-0.14526558 -2.0512567 -0.51138616 0 5
-0.14648411 -2.0684631 -0.49546939 0 6
-0.14711623 -2.077389 -0.47740284 0 7
-0.14602377 -2.0619626 -0.45388755 0 8
-0.14579037 -2.0586669 -0.43330416 0 9
-0.14548828 -2.0544012 -0.41266596 0 10
-0.14616267 -2.0639243 -0.39481995 0 11
-0.1462958 -2.065804 -0.37547195 0 12
-0.14500916 -2.0476358 -0.3527005 0 13
-0.14672635 -2.0718839 -0.33723956 0 14
-0.14507803 -2.0486081 -0.31409189 0 15
-0.14566788 -2.0569372 -0.2959857 0 16
-0.14523 -2.0507541 -0.27582198 0 17
-0.14496878 -2.0470655 -0.256134 0 18
-0.14574207 -2.0579848 -0.23825026 0 19
-0.14631248 -2.0660393 -0.21989837 0 20
-0.14604975 -2.0623298 -0.20029138 0 21
-0.14701964 -2.0760252 -0.18231617 0 22
-0.14583705 -2.0593262 -0.16173048 0 23
-0.14568686 -2.0572054 -0.14249192 0 24
-0.14544056 -2.0537274 -0.12323547 0 25
-0.14644256 -2.0678763 -0.10495899 0 26
-0.1462096 -2.0645866 -0.085714728 0 27
-0.14555301 -2.0553153 -0.066352651 0 28
-0.14521946 -2.0506053 -0.04727814 0 29
-0.14577326 -2.0584254 -0.028471848 0 30
-0.14603326 -2.0620968 -0.0095070079 0 31
-0.14573006 -2.0578153 0.0094872685 0 32
-0.14530246 -2.0517774 0.028379895 0 33
-0.14586093 -2.0596631 0.047486972 0 34
-0.14551464 -2.0547733 0.066335157 0 35
-0.14552017 -2.0548515 0.085310556 0 36
-0.14541997 -2.0534368 0.10422608 0 37
-0.14614521 -2.0636775 0.12383255 0 38
-0.14520353 -2.0503802 0.1420192 0 39
-0.14584967 -2.0595043 0.16174448 0 40
-0.14550811 -2.0546813 0.18044174 0 41
-0.14589724 -2.0601761 0.20008223 0 42
-0.14659615 -2.0700452 0.22032472 0 43
-0.14593843 -2.0607576 0.23857126 0 44
-0.14581358 -2.0589948 0.25762662 0 45
-0.14522278 -2.0506523 0.2758083 0 46
-0.1462712 -2.0654566 0.29721162 0 47
-0.145937 -2.0607374 0.31595156 0 48
-0.14557955 -2.0556901 0.3346037 0 49
-0.14625753 -2.0652637 0.35573688 0 50
-0.14679745 -2.0728877 0.37675944 0 51
-0.14612906 -2.0634496 0.39472914 0 52
-0.1452529 -2.0510776 0.41199833 0 53
-0.14585987 -2.0596483 0.43351072 0 54
-0.14600813 -2.0617421 0.45383897 0 55
-0.14536634 -2.0526795 0.47172436 0 56
-0.1455725 -2.0555904 0.49238595 0 57
-0.146162 -2.0639148 0.51454192 0 58
-0.14617659 -2.0641208 0.5348497 0 59
-0.14614086 -2.0636163 0.555067 0 60
-0.14549644 -2.0545166 0.57297796 0 61
-0.14598367 -2.0613966 0.59542817 0 62
-0.14600566 -2.061707 0.61616158 0 63
-0.12015682 -2.0550003 -0.61366934 0 0
-0.1207533 -2.0652015 -0.5960533 0 1
-0.12078732 -2.0657835 -0.57566243 0 2
-0.12037407 -2.0587158 -0.55330896 0 3
-0.12047302 -2.0604081 -0.53346354 0 4
-0.12008478 -2.0537684 -0.51160556 0 5
-0.12134934 -2.0753956 -0.49673498 0 6
-0.12034068 -2.0581446 -0.47260451 0 7
-0.12010726 -2.0541527 -0.45180911 0 8
-0.12046892 -2.060338 -0.43331137 0 9
-0.12020852 -2.0558844 -0.41263577 0 10
-0.11987695 -2.0502138 -0.39188558 0 11
-0.12045064 -2.0600255 -0.37412417 0 12
-0.12061977 -2.0629179 -0.3550505 0 13
-0.12053686 -2.0614998 -0.33528277 0 14
-0.11969329 -2.0470729 -0.31360713 0 15
-0.12078003 -2.0656588 -0.29700455 0 16
-0.12021615 -2.056015 -0.27630988 0 17
-0.12011648 -2.0543103 -0.25683627 0 18
-0.12111683 -2.071419 -0.23961498 0 19
-0.12033179 -2.0579929 -0.21886791 0 20
-0.12066565 -2.0637028 -0.20026548 0 21
-0.12007488 -2.0535989 -0.18020339 0 22
-0.12058065 -2.0622489 -0.16183133 0 23
-0.12003347 -2.0528908 -0.14208011 0 24
-0.12146807 -2.0774262 -0.1245585 0 25
-0.12042278 -2.0595491 -0.10445327 0 26
-0.12061693 -2.0628693 -0.085575387 0 27
-0.11939836 -2.0420284 -0.065871328 0 28
-0.12152374 -2.0783782 -0.047880389 0 29
