# .PCD v0.7 - Point Cloud Data file format
VERSION 0.7
FIELDS x y z intensity ring
SIZE 4 4 4 4 2
TYPE F F F F U
COUNT 1 1 1 1 1
WIDTH 1230
HEIGHT 1
VIEWPOINT 0 0 0 1 0 0 0
POINTS 1230
DATA ascii
-0.096840516 -2.0988038 -0.46133327 0 8
-0.096450314 -2.0903468 -0.43933988 0 9
-0.096852385 -2.099061 -0.42103085 0 10
-0.096379638 -2.0888152 -0.39900729 0 11
-0.097006433 -2.1023996 -0.3815743 0 12
-0.096313216 -2.0873754 -0.35902894 0 13
-0.096324511 -2.0876203 -0.33931273 0 14
-0.097036742 -2.1030564 -0.32197654 0 15
-0.096726097 -2.0963237 -0.30121982 0 16
-0.096359938 -2.0883882 -0.28048009 0 17
-0.096000701 -2.0806026 -0.25995615 0 18
-0.096714221 -2.0960665 -0.24231023 0 19
-0.096989892 -2.102041 -0.22340871 0 20
-0.09599451 -2.0804684 -0.20176265 0 21
-0.096400224 -2.0892613 -0.18321492 0 22
-0.096474953 -2.0908809 -0.16397269 0 23
-0.096645154 -2.0945697 -0.14487149 0 24
-0.095827565 -2.0768502 -0.1244439 0 25
-0.096329361 -2.0877256 -0.10581421 0 26
-0.096689351 -2.0955276 -0.086874276 0 27
-0.096359394 -2.0883763 -0.067323096 0 28
-0.096541725 -2.0923281 -0.048170768 0 29
-0.097088508 -2.1041784 -0.029062876 0 30
-0.095908418 -2.0786026 -0.0095693348 0 31
-0.09709385 -2.1042941 0.0096876118 0 32
-0.096344069 -2.0880442 0.028840033 0 33
-0.097096704 -2.1043558 0.04844768 0 34
-0.095858254 -2.0775151 0.066972964 0 35
-0.095837466 -2.0770648 0.086108863 0 36
-0.09620145 -2.0849533 0.1056737 0 37
-0.097171016 -2.1059666 0.12618853 0 38
-0.096755251 -2.0969558 0.14503652 0 39
-0.096657321 -2.0948331 0.16428265 0 40
-0.096406773 -2.0894032 0.18322736 0 41
-0.096014403 -2.0808995 0.20180446 0 42
-0.096765928 -2.097187 0.22289284 0 43
-0.095872171 -2.077817 0.24020053 0 44
-0.095924467 -2.0789502 0.25974971 0 45
-0.096091926 -2.0825796 0.27969995 0 46
-0.096094556 -2.0826366 0.29925314 0 47
-0.096340813 -2.0879736 0.3196674 0 48
-0.096438281 -2.090086 0.33971348 0 49
-0.096854977 -2.099117 0.36104849 0 50
-0.095737077 -2.0748892 0.37658131 0 51
-0.096786894 -2.0976415 0.40069333 0 52
-0.096627571 -2.0941885 0.42005354 0 53
-0.095800281 -2.0762589 0.43637893 0 54
-0.096629791 -2.0942366 0.46032941 0 55
-0.096125685 -2.0833113 0.47807586 0 56
-0.096625224 -2.0941377 0.50089854 0 57
-0.095831782 -2.0769415 0.5170455 0 58
-0.096414104 -2.0895619 0.54066396 0 59
-0.096642293 -2.0945075 0.56256658 0 60
-0.096342906 -2.0880189 0.58148456 0 61
-0.096858114 -2.099185 0.60547203 0 62
-0.097168408 -2.1059101 0.62846774 0 63
-0.071413204 -2.1112454 -0.62975031 0 0
-0.070683785 -2.0896809 -0.60243452 0 1
-0.070547022 -2.0856378 -0.58053601 0 2
-0.070988946 -2.0987027 -0.5634163 0 3
-0.071116216 -2.1024652 -0.54373527 0 4
-0.0710769 -2.1013029 -0.52285302 0 5
-0.070627861 -2.0880277 -0.49919164 0 6
-0.071099304 -2.1019652 -0.4821195 0 7
-0.070497163 -2.0841637 -0.45789012 0 8
-0.070967183 -2.0980594 -0.44074413 0 9
-0.070797779 -2.093051 -0.41961905 0 10
-0.070984319 -2.0985661 -0.40067288 0 11
-0.070733674 -2.091156 -0.37934712 0 12
-0.071257889 -2.1066537 -0.3621667 0 13
-0.071120694 -2.1025977 -0.34157911 0 14
-0.070273027 -2.0775375 -0.31791329 0 15
-0.070474416 -2.0834913 -0.29922879 0 16
-0.070755549 -2.0918026 -0.28080058 0 17
-0.071147308 -2.1033845 -0.26267344 0 18
-0.071415827 -2.1113229 -0.24395394 0 19
-0.070622742 -2.0878763 -0.2217942 0 20
-0.070724785 -2.0908933 -0.20267399 0 21
-0.070468031 -2.0833025 -0.18260257 0 22
-0.070789315 -2.0928009 -0.16404259 0 23
-0.071058102 -2.1007471 -0.14522734 0 24
-0.070908569 -2.0963266 -0.12554917 0 25
-0.07113409 -2.1029937 -0.10653568 0 26
-0.071015246 -2.0994802 -0.086995363 0 27
-0.070749722 -2.0916302 -0.067394853 0 28
-0.071137756 -2.1031022 -0.048395019 0 29
-0.070804425 -2.0932474 -0.02889769 0 30
-0.071316764 -2.1083944 -0.0097017176 0 31
-0.070853494 -2.0946982 0.009638695 0 32
-0.071243867 -2.1062393 0.029077044 0 33
-0.070771419 -2.0922718 0.048145801 0 34
-0.070931509 -2.0970047 0.067568026 0 35
-0.070746318 -2.0915296 0.086665921 0 36
-0.071005225 -2.0991838 0.10634267 0 37
-0.070732787 -2.0911298 0.12523794 0 38
-0.071211874 -2.1052933 0.14554162 0 39
-0.071082108 -2.1014569 0.16472109 0 40
-0.070805319 -2.0932741 0.18347658 0 41
-0.070829846 -2.0939991 0.20297503 0 42
-0.070933416 -2.0970612 0.22276989 0 43
-0.071023986 -2.0997388 0.24261545 0 44
-0.070940822 -2.09728 0.26191109 0 45
-0.071311004 -2.1082239 0.28300494 0 46
-0.070865013 -2.0950389 0.30088726 0 47
-0.071234062 -2.1059494 0.32226101 0 48
-0.071189366 -2.1046278 0.34190893 0 49
-0.070621043 -2.087826 0.35892996 0 50
-0.070779435 -2.0925088 0.37959251 0 51
-0.07125219 -2.1064851 0.40218487 0 52
-0.07084249 -2.094373 0.41988406 0 53
-0.070953369 -2.097651 0.44065836 0 54
-0.070619874 -2.0877914 0.45868716 0 55
-0.071167104 -2.1039698 0.48257926 0 56
-0.070866272 -2.0950758 0.50087667 0 57
-0.07061623 -2.0876839 0.51946431 0 58
-0.070659004 -2.0889485 0.54023951 0 59
-0.071174674 -2.1041934 0.56489033 0 60
-0.071249619 -2.1064093 0.58631772 0 61
-0.071010157 -2.0993299 0.60521621 0 62
-0.070718065 -2.0906944 0.62362033 0 63
-0.045189522 -2.099911 -0.62615633 0 0
-0.045102861 -2.0958836 -0.60401714 0 1
-0.045245931 -2.1025321 -0.58503938 0 2
-0.045320947 -2.1060178 -0.56518781 0 3
-0.04502948 -2.0924737 -0.54096717 0 4
-0.045201853 -2.1004839 -0.52247143 0 5
-0.04526975 -2.1036389 -0.50275278 0 6
-0.045323659 -2.106144 -0.48291361 0 7
-0.045283087 -2.1042585 -0.46214771 0 8
-0.045140937 -2.0976532 -0.4405089 0 9
-0.045447681 -2.1119072 -0.42325535 0 10
-0.045370519 -2.1083217 -0.40239856 0 11
-0.045289941 -2.1045771 -0.38165191 0 12
-0.045220483 -2.1013496 -0.36113197 0 13
-0.045380145 -2.1087689 -0.3424651 0 14
-0.044965141 -2.089484 -0.31963262 0 15
-0.045051351 -2.0934901 -0.30056256 0 16
-0.044667672 -2.0756609 -0.27853897 0 17
-0.045292117 -2.1046782 -0.26274559 0 18
-0.045256916 -2.1030426 -0.24291453 0 19
-0.04547016 -2.1129518 -0.2243816 0 20
-0.045414835 -2.1103809 -0.20449337 0 21
-0.045157041 -2.0984015 -0.18386345 0 22
-0.045315251 -2.1057534 -0.16500172 0 23
-0.045261692 -2.1032646 -0.14535192 0 24
-0.045122631 -2.0968025 -0.12553497 0 25
-0.045336537 -2.1067426 -0.10668928 0 26
-0.04508248 -2.0949366 -0.086777568 0 27
-0.045107566 -2.0961025 -0.067515977 0 28
-0.044986814 -2.0904913 -0.048088461 0 29
-0.045134578 -2.0973575 -0.02894458 0 30
-0.045575067 -2.1178267 -0.0097418055 0 31
-0.045337047 -2.106766 0.0096909273 0 32
-0.045034159 -2.0926912 0.028880183 0 33
-0.045300268 -2.105057 0.048423521 0 34
-0.045243796 -2.102433 0.067719884 0 35
-0.045087729 -2.0951805 0.086787671 0 36
-0.045496233 -2.1141634 0.10706508 0 37
-0.045102794 -2.0958807 0.12547977 0 38
-0.045347467 -2.1072505 0.14562736 0 39
-0.045522403 -2.1153793 0.16575599 0 40
-0.045351785 -2.107451 0.18465635 0 41
-0.045178313 -2.09939 0.20342836 0 42
-0.045027323 -2.0923736 0.22219633 0 43
-0.045226827 -2.1016443 0.24275303 0 44
-0.045251206 -2.1027772 0.26250827 0 45
-0.045605775 -2.1192536 0.28438878 0 46
-0.045484345 -2.113611 0.30345127 0 47
-0.044873014 -2.0852029 0.31897777 0 48
-0.045449499 -2.1119916 0.34298849 0 49
-0.045241144 -2.1023095 0.36129695 0 50
-0.045203947 -2.1005812 0.38092726 0 51
-0.04505536 -2.0936763 0.39960334 0 52
-0.045195702 -2.100198 0.42090866 0 53
-0.045202103 -2.1004953 0.44110575 0 54
-0.04533083 -2.1064773 0.46263498 0 55
-0.045423798 -2.1107974 0.4839806 0 56
-0.045069762 -2.0943456 0.50053173 0 57
-0.044981565 -2.0902472 0.51992518 0 58
-0.045303658 -2.1052146 0.5442611 0 59
-0.045347281 -2.1072419 0.56551623 0 60
-0.045017675 -2.0919254 0.58208799 0 61
-0.04521377 -2.1010375 0.60550243 0 62
-0.045500614 -2.114367 0.63046688 0 63
-0.019402822 -2.1042397 -0.62732857 0 0
-0.019328155 -2.0961421 -0.60397744 0 1
-0.01943144 -2.1073434 -0.58626735 0 2
-0.019275969 -2.0904825 -0.56091255 0 3
-0.019457521 -2.1101718 -0.54543954 0 4
-0.019452229 -2.1095979 -0.52463931 0 5
-0.019531686 -2.1182151 -0.50614071 0 6
-0.019442702 -2.1085646 -0.48337728 0 7
-0.019442897 -2.1085858 -0.46301058 0 8
-0.019412128 -2.1052489 -0.44202048 0 9
-0.019498514 -2.1146176 -0.42371845 0 10
-0.019535964 -2.118679 -0.40429899 0 11
-0.019393919 -2.1032741 -0.38134354 0 12
-0.01943218 -2.1074235 -0.36210737 0 13
-0.019379932 -2.1017573 -0.34126192 0 14
-0.019376218 -2.1013546 -0.32138777 0 15
-0.0194322 -2.1074257 -0.30250609 0 16
-0.0194625 -2.1107118 -0.283189 0 17
-0.019620968 -2.1278977 -0.26559409 0 18
-0.019469041 -2.1114213 -0.24383624 0 19
-0.019410944 -2.1051204 -0.22350772 0 20
-0.019479366 -2.1125407 -0.20466398 0 21
-0.019351138 -2.0986345 -0.18384911 0 22
-0.019426504 -2.1068082 -0.16505317 0 23
-0.019458432 -2.1102705 -0.14580852 0 24
-0.01939071 -2.102926 -0.12587778 0 25
-0.019540304 -2.1191497 -0.10729732 0 26
-0.019528823 -2.1179044 -0.08771237 0 27
-0.019350661 -2.098583 -0.067583099 0 28
-0.019442765 -2.1085715 -0.048495203 0 29
-0.019300532 -2.0931463 -0.028881004 0 30
-0.019393712 -2.1032519 -0.0096729342 0 31
-0.019331435 -2.0964978 0.0096418718 0 32
-0.019374399 -2.1011572 0.028991537 0 33
-0.019513354 -2.1162269 0.048671268 0 34
-0.019416207 -2.1056912 0.067812018 0 35
-0.019475378 -2.1121085 0.087472327 0 36
-0.019373726 -2.1010842 0.10638263 0 37
-0.019357771 -2.0993538 0.12566395 0 38
-0.019437905 -2.1080444 0.14565471 0 39
-0.019353734 -2.0989161 0.16443489 0 40
-0.019440688 -2.1083465 0.18469991 0 41
-0.019436933 -2.1079392 0.20421816 0 42
-0.019459665 -2.1104043 0.22406873 0 43
-0.019395415 -2.1034365 0.24291411 0 44
-0.019273963 -2.0902648 0.26089692 0 45
-0.019483181 -2.1129546 0.28348994 0 46
-0.019393247 -2.1032014 0.3018997 0 47
-0.019388935 -2.1027336 0.32159868 0 48
-0.019441133 -2.1083946 0.34233963 0 49
-0.019490121 -2.1137073 0.36318707 0 50
-0.019362146 -2.0998285 0.38071883 0 51
-0.019411366 -2.1051662 0.4017204 0 52
-0.019331476 -2.0965023 0.42008859 0 53
-0.01941959 -2.1060584 0.44219041 0 54
-0.019347252 -2.0982132 0.46073288 0 55
-0.019462233 -2.110683 0.48386288 0 56
-0.019357899 -2.0993679 0.50163722 0 57
-0.019448375 -2.10918 0.52453536 0 58
-0.019476486 -2.1122286 0.54597121 0 59
-0.019395715 -2.1034689 0.56439704 0 60
-0.019460475 -2.1104922 0.58714336 0 61
-0.019302089 -2.0933151 0.60316288 0 62
-0.019379307 -2.1016896 0.62656826 0 63
0.0064945561 -2.1118453 -0.62957215 0 0
0.0065058945 -2.1155322 -0.60954142 0 1
0.0064919149 -2.1109862 -0.58725864 0 2
0.0065021943 -2.1143289 -0.56728953 0 3
0.0065090037 -2.1165431 -0.54706579 0 4
0.006498815 -2.11323 -0.52552277 0 5
0.0065084994 -2.1163793 -0.50568289 0 6
0.0064835045 -2.1082516 -0.48328725 0 7
0.0065064807 -2.1157227 -0.46456015 0 8
0.0064903433 -2.1104753 -0.44310108 0 9
0.006537294 -2.1257424 -0.42593151 0 10
0.006505026 -2.1152496 -0.40362933 0 11
0.0064629689 -2.1015739 -0.38102087 0 12
0.0064561423 -2.099354 -0.36070722 0 13
0.0065466752 -2.128793 -0.34563863 0 14
0.0065401085 -2.1266575 -0.32524538 0 15
0.0064869439 -2.10937 -0.30277374 0 16
0.0064559467 -2.0992906 -0.28164601 0 17
0.0065278043 -2.1226566 -0.26492989 0 18
0.0064797718 -2.1070378 -0.24332081 0 19
0.0064854785 -2.1088934 -0.22389984 0 20
0.0064910916 -2.1107187 -0.20447972 0 21
0.0064803162 -2.1072147 -0.1845938 0 22
0.0064440398 -2.0954187 -0.16415469 0 23
0.0064996378 -2.1134977 -0.14602599 0 24
0.006538243 -2.1260509 -0.1272572 0 25
0.0065121627 -2.1175704 -0.1072133 0 26
0.0065585021 -2.1326387 -0.088319249 0 27
0.0064975489 -2.1128185 -0.06803897 0 28
0.0064851912 -2.1088002 -0.048498627 0 29
0.0065138079 -2.1181054 -0.029224282 0 30
0.0065157763 -2.1187453 -0.0097438209 0 31
0.0064988332 -2.113236 0.0097184842 0 32
0.0065163071 -2.1189179 0.029235493 0 33
0.0065111434 -2.1172388 0.048692703 0 34
0.0065194769 -2.1199489 0.06826859 0 35
0.0064731217 -2.1048753 0.087169483 0 36
0.0064938478 -2.1116147 0.10691178 0 37
0.0064948271 -2.1119332 0.12641217 0 38
0.0065061972 -2.1156306 0.14617336 0 39
0.006504029 -2.1149256 0.16568285 0 40
0.00648634 -2.1091735 0.1847654 0 41
0.0064956853 -2.1122124 0.20462443 0 42
0.0064673717 -2.1030056 0.22327474 0 43
0.0065561403 -2.1318707 0.24618851 0 44
0.0065007675 -2.1138651 0.26383263 0 45
0.0064920504 -2.1110303 0.28322104 0 46
0.0064499709 -2.0973475 0.30104804 0 47
0.0064858687 -2.1090202 0.32254797 0 48
0.0064852634 -2.1088235 0.34239632 0 49
0.0065116673 -2.1174092 0.36380944 0 50
0.0064613102 -2.1010346 0.38092309 0 51
0.006522811 -2.121033 0.40473288 0 52
0.0064707599 -2.1041074 0.42159653 0 53
0.0064839725 -2.1084037 0.44266611 0 54
0.0064933212 -2.1114435 0.46362054 0 55
0.0065177707 -2.1193941 0.48584151 0 56
0.0065167211 -2.1190526 0.50632167 0 57
0.0065006828 -2.1138375 0.52567381 0 58
0.0065245107 -2.1215856 0.54836911 0 59
0.006441378 -2.0945532 0.56198359 0 60
0.0065355245 -2.1251669 0.59120357 0 61
0.0064692143 -2.1036048 0.60610479 0 62
0.0064822547 -2.1078451 0.6283797 0 63
0.032652322 -2.124094 -0.63329554 0 0
0.032540448 -2.1168165 -0.60998064 0 1
0.032557495 -2.1179254 -0.58925587 0 2
0.032718141 -2.1283758 -0.57112318 0 3
0.03259236 -2.1201935 -0.54807144 0 4
0.032624494 -2.1222839 -0.52783412 0 5
0.032790262 -2.1330674 -0.50972819 0 6
0.032547574 -2.1172802 -0.48541197 0 7
0.03246681 -2.1120262 -0.46380106 0 8
0.032671265 -2.1253264 -0.44626972 0 9
0.032456063 -2.1113272 -0.42309114 0 10
0.032599118 -2.1206331 -0.40470248 0 11
0.032508433 -2.1147339 -0.3834503 0 12
0.032547008 -2.1172433 -0.36382216 0 13
0.032523915 -2.115741 -0.34355843 0 14
0.032515328 -2.1151824 -0.3235271 0 15
0.032769781 -2.1317351 -0.30601865 0 16
0.032607608 -2.1211853 -0.28461573 0 17
0.032309689 -2.1018052 -0.26235718 0 18
0.032522865 -2.1156726 -0.24434568 0 19
0.032391392 -2.1071203 -0.22373696 0 20
0.032353718 -2.1046696 -0.20391682 0 21
0.032473814 -2.1124818 -0.18507619 0 22
0.03261131 -2.1214263 -0.16621098 0 23
0.032781154 -2.1324749 -0.14735387 0 24
0.032489743 -2.1135182 -0.12652138 0 25
0.032655608 -2.1243081 -0.10756663 0 26
0.032401208 -2.1077585 -0.087298788 0 27
0.032461487 -2.11168 -0.068010025 0 28
0.032629374 -2.1226015 -0.048821568 0 29
0.032499231 -2.1141353 -0.029172815 0 30
0.032497797 -2.114042 -0.0097232945 0 31
0.032658268 -2.124481 0.0097713061 0 32
0.032544564 -2.1170843 0.029213507 0 33
0.032414149 -2.1086006 0.048499536 0 34
0.032734182 -2.1294191 0.068581343 0 35
0.032422587 -2.1091495 0.087356389 0 36
0.032477055 -2.1126926 0.10697848 0 37
0.032646835 -2.1237371 0.12713312 0 38
0.032498419 -2.1140826 0.14608295 0 39
0.032477908 -2.1127481 0.16553104 0 40
0.032444529 -2.1105769 0.18490928 0 41
0.032637145 -2.123107 0.20570318 0 42
0.032593716 -2.1202819 0.22513448 0 43
0.03240899 -2.1082649 0.24349014 0 44
0.032741204 -2.1298761 0.26586112 0 45
0.032471601 -2.1123378 0.28342861 0 46
0.032656252 -2.1243498 0.30495849 0 47
0.032617372 -2.1218207 0.32454243 0 48
0.032502685 -2.1143601 0.3433342 0 49
0.032565027 -2.1184154 0.36402357 0 50
0.032331627 -2.1032324 0.38136482 0 51
0.032272041 -2.0993562 0.40064198 0 52
0.032549966 -2.1174357 0.42431524 0 53
0.032605167 -2.1210268 0.44536686 0 54
0.03245328 -2.111146 0.46360779 0 55
0.032661304 -2.1246784 0.48710811 0 56
0.032626707 -2.1224277 0.50718564 0 57
0.032460775 -2.1116338 0.52518529 0 58
0.032711998 -2.1279759 0.55008322 0 59
0.032603212 -2.1208994 0.56911695 0 60
0.032511238 -2.1149163 0.58841872 0 61
0.032469504 -2.1122015 0.6086508 0 62
0.032422047 -2.1091144 0.62882936 0 63
0.058843024 -2.1262887 -0.6341176 0 0
0.058787622 -2.1242867 -0.61229527 0 1
0.058782037 -2.1240847 -0.59112597 0 2
0.058893476 -2.1281116 -0.57120347 0 3
0.058940046 -2.1297946 -0.550699 0 4
0.05886396 -2.1270452 -0.52915829 0 5
0.058700029 -2.1211214 -0.50700766 0 6
0.058810662 -2.1251192 -0.48733813 0 7
0.05907369 -2.1346238 -0.46888757 0 8
0.059072342 -2.1345749 -0.44833031 0 9
0.058538124 -2.1152711 -0.42399365 0 10
0.05891192 -2.128778 -0.40636438 0 11
0.058889341 -2.1279624 -0.38595104 0 12
0.058408454 -2.1105855 -0.36277407 0 13
0.058808785 -2.1250513 -0.34516162 0 14
0.058654226 -2.1194663 -0.32426813 0 15
0.058770478 -2.1236672 -0.30494118 0 16
0.058988448 -2.1315434 -0.28608128 0 17
0.059017628 -2.1325979 -0.26627132 0 18
0.058726128 -2.1220646 -0.24514876 0 19
0.058903895 -2.1284881 -0.22606565 0 20
0.058830839 -2.1258483 -0.20602331 0 21
0.058782801 -2.1241124 -0.1861444 0 22
0.058619849 -2.1182241 -0.166004 0 23
0.058449343 -2.1120629 -0.14598203 0 24
0.059036147 -2.1332672 -0.1277374 0 25
0.058592822 -2.1172476 -0.1072375 0 26
0.058562119 -2.1161382 -0.087669045 0 27
0.058905099 -2.1285317 -0.068570904 0 28
0.058729809 -2.1221974 -0.048825197 0 29
0.05878181 -2.1240766 -0.02931775 0 30
0.058932427 -2.1295192 -0.009797072 0 31
0.0590414 -2.1334569 0.0098151872 0 32
0.058623333 -2.11835 0.02923871 0 33
0.05898428 -2.131393 0.049036756 0 34
0.059018675 -2.1326356 0.068703115 0 35
0.058923427 -2.129194 0.088209935 0 36
0.058660939 -2.119709 0.10736217 0 37
0.05895678 -2.130399 0.12756567 0 38
0.058097653 -2.0993545 0.14510366 0 39
0.058594819 -2.1173198 0.16593313 0 40
0.05852269 -2.1147132 0.18532072 0 41
0.058744796 -2.1227391 0.20572199 0 42
0.058655534 -2.1195135 0.22511247 0 43
0.058816738 -2.1253388 0.24552701 0 44
0.058722273 -2.1219251 0.26493877 0 45
0.058793359 -2.1244938 0.28513512 0 46
0.059028476 -2.1329899 0.30627984 0 47
0.058796622 -2.1246119 0.32505536 0 48
0.058953602 -2.1302843 0.34601155 0 49
0.058607895 -2.1177921 0.36401281 0 50
0.058239717 -2.1044881 0.38169351 0 51
0.058872558 -2.1273558 0.40609291 0 52
0.058883239 -2.1277418 0.42649332 0 53
0.058835812 -2.1260278 0.44653517 0 54
0.058766656 -2.123529 0.46645054 0 55
0.058766045 -2.123507 0.4869684 0 56
0.058606382 -2.1177375 0.50619876 0 57
0.05938888 -2.146013 0.53387707 0 58
0.058592625 -2.1172404 0.54745293 0 59
0.058792904 -2.1244774 0.57022798 0 60
0.058643483 -2.1190782 0.58973265 0 61
0.058615632 -2.1180718 0.61050391 0 62
0.058819272 -2.1254303 0.63386166 0 63
0.084929913 -2.1240904 -0.63372564 0 0
0.084128559 -2.1040487 -0.60671431 0 1
0.085152134 -2.1296482 -0.59292084 0 2
0.084965006 -2.1249681 -0.57059699 0 3
0.085509613 -2.1385889 -0.55320299 0 4
0.084687524 -2.1180284 -0.52713436 0 5
0.084997863 -2.1257899 -0.50833493 0 6
0.085291252 -2.1331277 -0.48937815 0 7
0.08483813 -2.1217949 -0.46626353 0 8
0.084412672 -2.1111543 -0.44359571 0 9
0.084960267 -2.1248496 -0.42609081 0 10
0.085159697 -2.1298375 -0.40673575 0 11
0.084893793 -2.1231871 -0.38524517 0 12
0.085231371 -2.1316299 -0.36654371 0 13
0.084747858 -2.1195374 -0.3444092 0 14
0.085444711 -2.1369655 -0.32708147 0 15
0.085081138 -2.1278727 -0.30567217 0 16
0.085482724 -2.1379161 -0.28705594 0 17
0.084935501 -2.1242301 -0.2653369 0 18
0.084855281 -2.1222239 -0.24526918 0 19
0.085407995 -2.1360471 -0.22696288 0 20
0.084954157 -2.1246967 -0.20599738 0 21
0.085327119 -2.1340246 -0.18709084 0 22
0.085224643 -2.1314619 -0.16711092 0 23
0.084692359 -2.1181493 -0.14646362 0 24
0.084893733 -2.1231856 -0.12718664 0 25
0.08459843 -2.1158001 -0.10720877 0 26
0.085103288 -2.1284266 -0.088214822 0 27
0.085004546 -2.125957 -0.068516456 0 28
0.085397534 -2.1357856 -0.049158264 0 29
0.084912032 -2.1236434 -0.029323965 0 30
0.085022338 -2.1264019 -0.0097868005 0 31
0.084829755 -2.1215854 0.0097646322 0 32
0.084494002 -2.1131885 0.029179601 0 33
0.085005969 -2.1259925 0.048932862 0 34
0.085195757 -2.1307392 0.068670578 0 35
0.08482746 -2.1215281 0.087928914 0 36
0.084956147 -2.1247466 0.10766209 0 37
0.085150898 -2.1296172 0.12757191 0 38
0.08536014 -2.1348505 0.14761846 0 39
0.085142843 -2.129416 0.16695052 0 40
0.085209474 -2.1310823 0.1868329 0 41
0.08486598 -2.1224916 0.20578358 0 42
0.084887959 -2.1230412 0.22558095 0 43
0.084967703 -2.1250355 0.24559411 0 44
0.084994078 -2.1256952 0.26551989 0 45
0.085103169 -2.1284237 0.28578141 0 46
0.085048921 -2.1270669 0.30555642 0 47
0.085101508 -2.1283822 0.3257677 0 48
0.08502949 -2.126581 0.34555376 0 49
0.08479663 -2.1207571 0.36467409 0 50
0.085157216 -2.1297753 0.38644058 0 51
0.084572576 -2.1151536 0.40393156 0 52
0.085286446 -2.1330073 0.42772666 0 53
0.085276075 -2.1327479 0.44813296 0 54
0.084833391 -2.1216764 0.46623749 0 55
0.084572129 -2.1151423 0.48525202 0 56
0.085054487 -2.1272061 0.50867361 0 57
0.085250996 -2.1321208 0.53064167 0 58
0.084867112 -2.12252 0.54904634 0 59
0.084874153 -2.1226959 0.56998682 0 60
0.084964015 -2.1249435 0.59161097 0 61
0.084416747 -2.1112564 0.6087926 0 62
0.084913693 -2.1236849 0.63360465 0 63
0.11109336 -2.1238995 -0.63402826 0 0
0.11173379 -2.1361434 -0.61631852 0 1
0.11174986 -2.1364505 -0.5951522 0 2
0.11148043 -2.1312995 -0.57262188 0 3
0.11096641 -2.1214724 -0.54908681 0 4
0.11176559 -2.1367512 -0.53209591 0 5
0.11210737 -2.1432853 -0.51280946 0 6
0.11112738 -2.1245499 -0.48768687 0 7
0.11171407 -2.1357663 -0.46960005 0 8
0.11236049 -2.1481247 -0.45162007 0 9
0.11123931 -2.1266897 -0.42670184 0 10
0.11156888 -2.1329904 -0.40756905 0 11
0.11140425 -2.129843 -0.3866722 0 12
0.11190938 -2.1395001 -0.36810583 0 13
0.11182237 -2.1378367 -0.34757987 0 14
0.11099146 -2.1219513 -0.32496774 0 15
0.1111703 -2.1253703 -0.30548599 0 16
0.11083571 -2.1189735 -0.28467402 0 17
0.11201219 -2.1414657 -0.2676416 0 18
0.11135078 -2.1288209 -0.24617122 0 19
0.11197328 -2.1407218 -0.22758867 0 20
0.11180995 -2.1375992 -0.20736594 0 21
0.11142636 -2.1302657 -0.18686731 0 22
0.11143523 -2.1304352 -0.16712524 0 23
0.11135345 -2.1288719 -0.14728861 0 24
0.11208812 -2.1429174 -0.1284415 0 25
0.11170284 -2.1355517 -0.108271 0 26
0.11167998 -2.1351144 -0.088542238 0 27
0.11147148 -2.1311283 -0.068722099 0 28
0.11145425 -2.1307988 -0.049071319 0 29
0.11156515 -2.1329193 -0.029468765 0 30
0.11067341 -2.1158707 -0.0097438563 0 31
0.1112515 -2.1269226 0.009794753 0 32
0.11133643 -2.1285465 0.029408351 0 33
0.11190342 -2.1393862 0.049269084 0 34
0.11240996 -2.1490703 0.069300674 0 35
0.11148258 -2.1313405 0.088385731 0 36
0.11169843 -2.1354671 0.10826672 0 37
0.11187419 -2.1388276 0.12819636 0 38
0.11186175 -2.1385896 0.14796093 0 39
0.1108846 -2.1199083 0.16629945 0 40
0.11169326 -2.1353683 0.1873149 0 41
0.11193779 -2.1400435 0.20760304 0 42
0.11163916 -2.1343341 0.22690958 0 43
0.11150356 -2.1317415 0.24650897 0 44
0.11113364 -2.1246696 0.26554239 0 45
0.11154127 -2.1324627 0.28648621 0 46
0.11040325 -2.1107056 0.30337819 0 47
0.11218888 -2.1448438 0.3284736 0 48
0.11098371 -2.121803 0.34497306 0 49
0.11143676 -2.1304646 0.36655125 0 50
0.11180519 -2.1375084 0.38806385 0 51
0.1110704 -2.1234605 0.4057481 0 52
0.11152408 -2.132134 0.42779416 0 53
0.11198185 -2.1408856 0.45009816 0 54
0.1111526 -2.1250319 0.46723989 0 55
0.11160739 -2.1337266 0.48979339 0 56
0.11144561 -2.1306338 0.50978243 0 57
0.11148226 -2.1313343 0.530747 0 58
0.11133084 -2.1284397 0.55089015 0 59
0.11115885 -2.1251514 0.57097006 0 60
0.11125051 -2.126904 0.59249282 0 61
0.11207329 -2.1426339 0.61819118 0 62
0.11140943 -2.1299422 0.63583219 0 63
0.1382197 -2.1381555 -0.63874304 0 0
0.1383338 -2.1399202 -0.61785233 0 1
0.1377219 -2.1304545 -0.59390885 0 2
0.1384166 -2.1412013 -0.57569599 0 3
0.13760851 -2.1287007 -0.55135399 0 4
0.13742062 -2.1257942 -0.52974814 0 5
0.13790591 -2.1333013 -0.51078779 0 6
0.1390986 -2.1517513 -0.49428621 0 7
0.13917276 -2.1528986 -0.4737075 0 8
0.13830203 -2.1394289 -0.45011538 0 9
0.13781713 -2.131928 -0.42806047 0 10
0.137813 -2.1318638 -0.40764681 0 11
0.13849555 -2.1424227 -0.38923576 0 12
0.13852623 -2.1428971 -0.36895546 0 13
0.13814174 -2.1369493 -0.34768552 0 14
0.13871005 -2.1457407 -0.32884732 0 15
0.13813248 -2.136806 -0.30735058 0 16
0.13785221 -2.1324706 -0.28669333 0 17
0.13808678 -2.1360991 -0.26716289 0 18
0.13864528 -2.1447387 -0.2481903 0 19
0.13860402 -2.1441004 -0.22811182 0 20
0.1388482 -2.1478777 -0.2085129 0 21
0.13737901 -2.1251502 -0.18655266 0 22
0.13738118 -2.1251843 -0.16683322 0 23
0.13824202 -2.1385007 -0.1480612 0 24
0.13736485 -2.1249313 -0.12745506 0 25
0.13803002 -2.1352212 -0.1083321 0 26
0.13855967 -2.1434143 -0.088950358 0 27
0.13731058 -2.1240921 -0.068544462 0 28
0.13890998 -2.1488333 -0.04952224 0 29
0.13759124 -2.1284335 -0.029427942 0 30
0.13888101 -2.1483853 -0.0099007068 0 31
0.13845256 -2.1417575 0.0098701622 0 32
0.13763952 -2.1291804 0.029438268 0 33
0.13838336 -2.140687 0.049334496 0 34
0.13875748 -2.1464744 0.069266744 0 35
0.13876013 -2.1465154 0.089079052 0 36
0.13814296 -2.1369681 0.10842074 0 37
0.13879709 -2.1470871 0.12878397 0 38
0.13865632 -2.1449096 0.14850493 0 39
0.13809787 -2.1362708 0.16770354 0 40
0.13878545 -2.1469071 0.18846254 0 41
0.13927245 -2.1544406 0.20915003 0 42
0.13796395 -2.1341991 0.22705841 0 43
0.13861358 -2.1442485 0.24813357 0 44
0.13842647 -2.1413538 0.26782012 0 45
0.13747282 -2.1266017 0.28590432 0 46
0.13821159 -2.1380301 0.30752662 0 47
0.13751288 -2.1272213 0.32600909 0 48
0.13847126 -2.1420469 0.34851488 0 49
0.13846037 -2.1418784 0.36878005 0 50
0.13826966 -2.1389282 0.38860089 0 51
0.13809651 -2.1362498 0.40848544 0 52
0.13838612 -2.1407297 0.42982775 0 53
0.13784587 -2.1323724 0.44863078 0 54
0.137336 -2.1244853 0.46745566 0 55
0.13775869 -2.1310239 0.48952481 0 56
0.13759606 -2.1285081 0.5096401 0 57
0.13782576 -2.1320612 0.5313099 0 58
0.13775764 -2.1310077 0.55195153 0 59
0.13867128 -2.1451409 0.57675523 0 60
0.1387234 -2.1459472 0.59822768 0 61
0.13828877 -2.1392238 0.61765122 0 62
0.13819446 -2.1377649 0.6386264 0 63
0.16462164 -2.1378865 -0.63921911 0 0
0.16450119 -2.1363223 -0.61735082 0 1
0.16417095 -2.1320336 -0.59486681 0 2
0.16513333 -2.1445317 -0.57709378 0 3
0.1639055 -2.1285863 -0.55180466 0 4
0.1655872 -2.1504259 -0.53635323 0 5
0.16431287 -2.1338766 -0.5113706 0 6
0.16405472 -2.1305242 -0.48983639 0 7
0.16484672 -2.1408095 -0.4714579 0 8
0.16513303 -2.1445277 -0.45158121 0 9
0.16385187 -2.1278896 -0.4276219 0 10
0.1644333 -2.1354406 -0.40868643 0 11
0.16488047 -2.1412477 -0.38936123 0 12
0.16539471 -2.1479261 -0.37014353 0 13
0.16474517 -2.1394908 -0.34840226 0 14
0.16494185 -2.1420448 -0.32856691 0 15
0.16471942 -2.1391563 -0.3079567 0 16
0.16481327 -2.1403751 -0.28800672 0 17
0.16488223 -2.1412706 -0.26804301 0 18
0.16461915 -2.1378541 -0.24760915 0 19
0.16580601 -2.1532676 -0.22928669 0 20
0.16431417 -2.1338935 -0.2073358 0 21
0.16432603 -2.1340475 -0.18749689 0 22
0.16519734 -2.1453631 -0.16856404 0 23
0.16493748 -2.1419883 -0.14843185 0 24
0.16329691 -2.1206827 -0.12731104 0 25
0.16398935 -2.1296751 -0.10814486 0 26
0.1662484 -2.1590126 -0.089675732 0 27
0.16395183 -2.1291878 -0.06876877 0 28
0.16537969 -2.1477311 -0.049539953 0 29
0.16512538 -2.1444285 -0.029674917 0 30
0.16497256 -2.1424439 -0.0098819276 0 31
0.16484711 -2.1408145 0.0098744128 0 32
0.16517204 -2.1450346 0.029683305 0 33
0.16318323 -2.1192062 0.048881996 0 34
0.16502357 -2.1431062 0.0692183 0 35
0.16455752 -2.1370537 0.088763662 0 36
0.16553272 -2.1497183 0.10916266 0 37
0.16462281 -2.1379018 0.12834474 0 38
0.16502039 -2.143065 0.14850648 0 39
0.16592602 -2.1548262 0.16930757 0 40
0.16430457 -2.1337688 0.1874724 0 41
0.1645464 -2.1369092 0.20762883 0 42
0.16480851 -2.1403134 0.22790729 0 43
0.16383761 -2.1277046 0.24643363 0 44
0.16500613 -2.1428797 0.26824442 0 45
0.16535288 -2.147383 0.28894967 0 46
0.16497011 -2.1424119 0.30842537 0 47
0.16611117 -2.1572306 0.33089623 0 48
0.16497242 -2.142442 0.34888285 0 49
0.16547714 -2.1489966 0.37032801 0 50
0.16571932 -2.1521418 0.39134219 0 51
0.16570479 -2.151953 0.41184664 0 52
0.1646733 -2.1385574 0.42976564 0 53
0.1656346 -2.1510415 0.45295283 0 54
0.16422993 -2.1327994 0.4696939 0 55
0.16512546 -2.1444294 0.49303341 0 56
0.16402653 -2.1301579 0.51047945 0 57
0.16440627 -2.1350896 0.5325281 0 58
0.16612558 -2.1574175 0.55927873 0 59
0.16493066 -2.1418996 0.5763855 0 60
0.16363755 -2.1251063 0.59293401 0 61
0.16509773 -2.1440692 0.61958957 0 62
0.16538857 -2.1478465 0.64219713 0 63
0.19111191 -2.1381202 -0.63994324 0 0
0.19121011 -2.1392186 -0.61882049 0 1
0.19143213 -2.1417027 -0.59817612 0 2
0.19243066 -2.152874 -0.57993156 0 3
0.19174644 -2.1452191 -0.55668563 0 4
0.19282265 -2.1572595 -0.53860825 0 5
0.19229177 -2.15132 -0.51607847 0 6
0.19120851 -2.1392009 -0.49233466 0 7
0.19171512 -2.1448689 -0.47283524 0 8
0.19177718 -2.1455631 -0.4522616 0 9
0.19342722 -2.1640234 -0.43532839 0 10
0.19250521 -2.153708 -0.41260436 0 11
0.19175561 -2.1453216 -0.39050126 0 12
0.19251399 -2.1538062 -0.37153664 0 13
0.19176805 -2.1454608 -0.34973201 0 14
0.19216408 -2.1498916 -0.33010799 0 15
0.19209689 -2.1491399 -0.30971056 0 16
0.19161856 -2.1437883 -0.28876123 0 17
0.19202882 -2.1483784 -0.26920798 0 18
0.19211355 -2.1493263 -0.24919263 0 19
0.19204384 -2.1485465 -0.22901811 0 20
0.19063796 -2.1328177 -0.20744337 0 21
0.19048622 -2.13112 -0.18743131 0 22
0.1931763 -2.161216 -0.16998342 0 23
0.19308677 -2.1602144 -0.14984807 0 24
0.19152021 -2.142688 -0.12876374 0 25
0.19260192 -2.1547899 -0.10953217 0 26
0.19275238 -2.1564732 -0.089661926 0 27
0.19217947 -2.1500638 -0.069514088 0 28
0.19188809 -2.1468039 -0.049569249 0 29
0.19275841 -2.1565409 -0.029873071 0 30
0.1916559 -2.144206 -0.0099001778 0 31
0.19279064 -2.1569014 0.0099587943 0 32
0.19185206 -2.1464007 0.029732609 0 33
0.19212416 -2.1494451 0.049630228 0 34
0.19167894 -2.1444638 0.069333039 0 35
0.19206259 -2.148756 0.089341067 0 36
0.19217969 -2.1500661 0.10929205 0 37
0.19257976 -2.1545422 0.12947609 0 38
0.19199538 -2.1480041 0.14900108 0 39
0.19039088 -2.1300533 0.16753243 0 40
0.19271876 -2.1560972 0.18962803 0 41
0.19131969 -2.1404448 0.2081852 0 42
0.19083935 -2.1350708 0.22758171 0 43
0.1921376 -2.1495953 0.24922383 0 44
0.19291149 -2.1582534 0.27044541 0 45
0.19336317 -2.1633067 0.2913903 0 46
0.19281115 -2.1571307 0.31086215 0 47
0.19172353 -2.1449625 0.32935119 0 48
0.19135828 -2.1408763 0.34898469 0 49
0.19052902 -2.1315987 0.36770582 0 50
0.19220902 -2.1503942 0.3914246 0 51
0.19213133 -2.1495249 0.41180298 0 52
0.19328436 -2.162425 0.43500683 0 53
0.19220369 -2.1503346 0.4532674 0 54
0.19212274 -2.1494291 0.47384056 0 55
0.19269885 -2.1558745 0.49617204 0 56
0.19316836 -2.1611271 0.51843107 0 57
0.19157085 -2.1432545 0.53511161 0 58
0.191754 -2.1453037 0.5567075 0 59
0.19264695 -2.1552937 0.58058339 0 60
0.1909308 -2.1360939 0.59660959 0 61
0.19159256 -2.1434975 0.62005824 0 62
0.19231705 -2.151603 0.64397866 0 63
0.2185943 -2.147471 -0.64349782 0 0
0.21956854 -2.157042 -0.62471014 0 1
0.21732594 -2.1350107 -0.59700835 0 2
0.21886428 -2.1501234 -0.57987171 0 3
0.22000012 -2.1612818 -0.56151342 0 4
0.21934783 -2.1548736 -0.53864533 0 5
0.2189119 -2.1505911 -0.51651031 0 6
0.21948437 -2.1562152 -0.49683404 0 7
0.21904629 -2.1519115 -0.47494566 0 8
0.21799392 -2.1415727 -0.45195135 0 9
0.21986867 -2.1599905 -0.43502811 0 10
0.21961968 -2.1575444 -0.41382539 0 11
0.21938577 -2.1552465 -0.39276919 0 12
0.21954603 -2.1568208 -0.37249422 0 13
0.21824668 -2.1440561 -0.34991401 0 14
0.21905787 -2.1520252 -0.3308242 0 15
0.21875083 -2.1490088 -0.31005588 0 16
0.2206627 -2.1677911 -0.29233769 0 17
0.22085722 -2.1697021 -0.27219972 0 18
0.21836427 -2.1452112 -0.24900801 0 19
0.21892734 -2.1507428 -0.22952183 0 20
0.21877363 -2.1492329 -0.20928578 0 21
0.21908857 -2.1523268 -0.18951905 0 22
0.21911651 -2.1526012 -0.16950496 0 23
0.22013752 -2.1626315 -0.15019216 0 24
0.21792999 -2.1409447 -0.12881027 0 25
0.22035035 -2.1647224 -0.11016646 0 26
0.21969631 -2.1582971 -0.089843296 0 27
0.21863322 -2.1478534 -0.069524288 0 28
0.21895932 -2.151057 -0.04972586 0 29
0.21940796 -2.1554644 -0.029893275 0 30
0.21890905 -2.1505632 -0.0099412063 0 31
0.21867666 -2.1482801 0.0099306526 0 32
0.21835728 -2.1451426 0.029750124 0 33
0.2192018 -2.1534393 0.049780928 0 34
0.21881996 -2.1496878 0.069583669 0 35
0.21817701 -2.1433716 0.089221984 0 36
0.21770844 -2.1387684 0.10884561 0 37
0.21990959 -2.1603925 0.12998034 0 38
0.2186949 -2.1484592 0.1492079 0 39
0.2178302 -2.1399643 0.16850989 0 40
0.21871281 -2.1486351 0.18919398 0 41
0.21822019 -2.1437957 0.20875633 0 42
0.21929824 -2.1543865 0.22991067 0 43
0.21732044 -2.1349566 0.2478177 0 44
0.2197749 -2.1590693 0.2708658 0 45
0.22011146 -2.1623757 0.29160741 0 46
0.21906112 -2.1520569 0.31049567 0 47
0.21892221 -2.1506925 0.33061931 0 48
0.21782729 -2.139936 0.34924161 0 49
0.21901143 -2.1515689 0.37158719 0 50
0.22157277 -2.1767316 0.39668459 0 51
0.21904102 -2.1518598 0.41273504 0 52
0.21978429 -2.1591616 0.43486115 0 53
0.21962157 -2.157563 0.4553259 0 54
0.21862389 -2.1477616 0.47402978 0 55
0.2188288 -2.1497748 0.49535006 0 56
0.21839769 -2.1455395 0.51529706 0 57
0.21872531 -2.1487579 0.53711659 0 58
0.21932992 -2.1546979 0.55980289 0 59
0.21738464 -2.1355872 0.57595146 0 60
0.21878192 -2.1493142 0.601008 0 61
0.21811785 -2.1427903 0.62058264 0 62
0.21874079 -2.1489103 0.64392906 0 63
0.24594863 -2.1530821 -0.64603662 0 0
0.24661383 -2.1589055 -0.62608069 0 1
0.24641654 -2.1571784 -0.60400867 0 2
0.24512924 -2.1459091 -0.57950431 0 3
0.24654023 -2.1582611 -0.56147385 0 4
0.24587959 -2.1524777 -0.53876144 0 5
0.24711843 -2.1633229 -0.52025855 0 6
0.24865022 -2.1767325 -0.5022282 0 7
0.24728541 -2.1647847 -0.47842187 0 8
0.24722952 -2.1642954 -0.45735365 0 9
0.24587028 -2.1523964 -0.4340747 0 10
0.24650027 -2.1579113 -0.41444585 0 11
0.24658665 -2.1586676 -0.39391541 0 12
0.24486655 -2.1436095 -0.37070456 0 13
0.24630848 -2.1562324 -0.35236886 0 14
0.24721055 -2.1641293 -0.33312702 0 15
0.24569812 -2.1508892 -0.31073958 0 16
0.24609867 -2.1543956 -0.29091737 0 17
0.24477443 -2.142803 -0.26918235 0 18
0.24689899 -2.1614017 -0.25122076 0 19
0.24661432 -2.1589098 -0.23069955 0 20
0.24740294 -2.1658134 -0.21118063 0 21
0.24461009 -2.1413643 -0.18880433 0 22
0.24639238 -2.1569669 -0.17007445 0 23
0.2457277 -2.1511481 -0.14959319 0 24
0.24507664 -2.1454487 -0.12925279 0 25
0.24561878 -2.1501946 -0.10957254 0 26
0.24770239 -2.1684349 -0.090385251 0 27
0.24469002 -2.1420641 -0.06942904 0 28
0.24542028 -2.1484571 -0.049731757 0 29
0.24661301 -2.1588984 -0.029980687 0 30
0.24534082 -2.1477613 -0.0099414485 0 31
0.24611191 -2.1545117 0.0099726943 0 32
0.24670048 -2.1596639 0.029991319 0 33
0.24479915 -2.1430194 0.049605891 0 34
0.24616306 -2.1549592 0.069846995 0 35
0.24564594 -2.1504323 0.089634866 0 36
0.24679136 -2.1604598 0.11009564 0 37
0.24639781 -2.1570144 0.12994957 0 38
0.24597207 -2.1532874 0.14974195 0 39
0.24597685 -2.1533291 0.16978762 0 40
0.24771479 -2.1685436 0.19120073 0 41
0.24574463 -2.1512964 0.20976511 0 42
0.24657613 -2.1585753 0.23066382 0 43
0.24469857 -2.142139 0.24898185 0 44
0.24758634 -2.167419 0.27227467 0 45
0.24636824 -2.1567557 0.29123601 0 46
0.24621966 -2.1554549 0.31139919 0 47
0.24738458 -2.1656528 0.33336154 0 48
0.24488039 -2.1437306 0.35032585 0 49
0.24729598 -2.1648772 0.37438247 0 50
0.24656436 -2.1584723 0.3938798 0 51
0.2453175 -2.1475573 0.41245723 0 52
0.24403523 -2.136332 0.43083501 0 53
0.24684152 -2.1608987 0.45663589 0 54
0.24517192 -2.1462827 0.4743329 0 55
0.24539696 -2.1482527 0.49565718 0 56
0.24662851 -2.159034 0.51922715 0 57
0.24416584 -2.1374753 0.53500634 0 58
0.2475158 -2.1668015 0.56369561 0 59
0.24605829 -2.1540422 0.58170062 0 60
0.24434586 -2.1390512 0.59893304 0 61
0.24475275 -2.1426132 0.62135601 0 62
0.24575633 -2.1513989 0.64553154 0 63
0.27494207 -2.1699319 -0.65205753 0 0
0.27589408 -2.1774454 -0.6323933 0 1
0.27419233 -2.1640146 -0.606821 0 2
0.2726787 -2.1520686 -0.58202916 0 3
0.27379259 -2.1608598 -0.56298316 0 4
0.27382541 -2.1611187 -0.54172611 0 5
0.27471694 -2.168155 -0.52219355 0 6
0.27600309 -2.1783056 -0.50333613 0 7
0.27338949 -2.1576784 -0.4775582 0 8
0.273054 -2.1550305 -0.45607087 0 9
0.27470207 -2.1680377 -0.43787724 0 10
0.27475962 -2.1684918 -0.41709527 0 11
0.27486017 -2.1692855 -0.39643976 0 12
0.27360207 -2.1593561 -0.37398124 0 13
0.27367941 -2.1599665 -0.35350233 0 14
0.2746284 -2.1674562 -0.33413371 0 15
0.27283156 -2.153275 -0.3115454 0 16
0.27453476 -2.1667173 -0.29301488 0 17
0.27474442 -2.1683719 -0.27279815 0 18
0.27353773 -2.1588483 -0.25129592 0 19
0.27284259 -2.153362 -0.23044783 0 20
0.27454376 -2.1667881 -0.21158883 0 21
0.27488992 -2.1695204 -0.1915704 0 22
0.27391773 -2.1618474 -0.17071193 0 23
0.27512786 -2.1713982 -0.15122522 0 24
0.2738255 -2.1611192 -0.13038985 0 25
0.27417043 -2.1638417 -0.11043144 0 26
0.27395546 -2.1621451 -0.090256669 0 27
0.27485842 -2.1692715 -0.070415109 0 28
0.27524227 -2.1723011 -0.050358225 0 29
0.27308193 -2.155251 -0.029974403 0 30
0.27332371 -2.1571593 -0.0099997502 0 31
0.27398849 -2.1624057 0.010024071 0 32
0.27338636 -2.1576536 0.030007817 0 33
0.27407405 -2.1630812 0.050144494 0 34
0.27421668 -2.1642067 0.070250712 0 35
0.27418706 -2.1639729 0.09033297 0 36
0.27194068 -2.1462438 0.10953332 0 37
0.27458107 -2.1670825 0.13074966 0 38
0.27401766 -2.162636 0.15061499 0 39
0.27365613 -2.1597826 0.1705489 0 40
0.27454191 -2.1667738 0.19132788 0 41
0.27270821 -2.1523015 0.2101742 0 42
0.27483079 -2.1690536 0.23212709 0 43
0.27480274 -2.1688321 0.25245807 0 44
0.27431735 -2.1650014 0.27237409 0 45
0.273691 -2.1600578 0.29211432 0 46
0.27398232 -2.1623571 0.31285942 0 47
0.27427927 -2.1647007 0.33370894 0 48
0.27539396 -2.1734982 0.35571694 0 49
0.27364954 -2.1597307 0.37404609 0 50
0.2744402 -2.1659708 0.395834 0 51
0.27516222 -2.1716692 0.4177064 0 52
0.27423733 -2.1643698 0.43713644 0 53
0.27266333 -2.1519473 0.45541835 0 54
0.27543005 -2.1737831 0.48112264 0 55
0.27411589 -2.1634111 0.49989453 0 56
0.27348197 -2.1584082 0.51984608 0 57
0.27271846 -2.1523824 0.53953612 0 58
0.27520779 -2.172029 0.56589311 0 59
0.27327734 -2.1567934 0.58330691 0 60
0.27368885 -2.1600411 0.60570675 0 61
0.27179486 -2.145093 0.62299722 0 62
0.27324823 -2.1565635 0.64804041 0 63
0.30092561 -2.1615303 -0.65059566 0 0
0.30285004 -2.1753533 -0.63281941 0 1
0.30144978 -2.1652954 -0.60817355 0 2
0.30298471 -2.1763208 -0.58955121 0 3
0.30309668 -2.177125 -0.56814891 0 4
0.30096459 -2.1618104 -0.54278612 0 5
0.30149803 -2.165642 -0.52244169 0 6
0.30120513 -2.163538 -0.50074178 0 7
0.30194789 -2.1688733 -0.4808214 0 8
0.30269912 -2.1742694 -0.4608953 0 9
0.30227333 -2.171211 -0.43923563 0 10
0.30163231 -2.1666067 -0.41741452 0 11
0.30282512 -2.1751745 -0.39816639 0 12
0.30139533 -2.1649044 -0.37555557 0 13
0.30342773 -2.179503 -0.35728329 0 14
0.30229962 -2.1713998 -0.33528936 0 15
0.30242649 -2.1723111 -0.31481388 0 16
0.30111817 -2.1629133 -0.29297906 0 17
0.30079657 -2.1606035 -0.27226555 0 18
0.30355182 -2.1803944 -0.2542192 0 19
0.30261654 -2.1736763 -0.23300241 0 20
0.30275699 -2.174685 -0.21270745 0 21
0.30288717 -2.1756201 -0.19242334 0 22
0.30229232 -2.1713474 -0.17174265 0 23
0.30349869 -2.1800127 -0.15207358 0 24
0.30340037 -2.1793065 -0.1317023 0 25
0.30245709 -2.1725309 -0.11105631 0 26
0.30126917 -2.1639981 -0.090481825 0 27
0.29993266 -2.1543982 -0.070046738 0 28
0.30011404 -2.1557007 -0.050055165 0 29
0.302212 -2.1707704 -0.030239636 0 30
0.30288333 -2.1755924 -0.0101017 0 31
0.30135906 -2.1646438 0.010050864 0 32
0.30353406 -2.1802666 0.030371923 0 33
0.30026343 -2.1567738 0.050080083 0 34
0.30386579 -2.1826494 0.07096529 0 35
0.30092916 -2.1615558 0.090379708 0 36
0.30227992 -2.1712582 0.11099125 0 37
0.30260351 -2.1735826 0.1313564 0 38
0.30420122 -2.1850588 0.1524256 0 39
0.30086449 -2.1610913 0.17093146 0 40
0.30291232 -2.1758008 0.19243932 0 41
0.3012037 -2.1635277 0.21161613 0 42
0.30127382 -2.1640315 0.23196857 0 43
0.30352673 -2.1802142 0.25419819 0 44
0.29925972 -2.1495645 0.2708745 0 45
0.30030391 -2.1570647 0.29218683 0 46
0.30145222 -2.165313 0.31379971 0 47
0.30036369 -2.1574941 0.33314216 0 48
0.30080724 -2.1606801 0.35419768 0 49
0.30020422 -2.1563487 0.37407142 0 50
0.30126989 -2.1640034 0.3961215 0 51
0.30211553 -2.1700776 0.41808322 0 52
0.30357742 -2.1805782 0.44113061 0 53
0.30175987 -2.1675227 0.45946515 0 54
0.30115262 -2.163161 0.47955501 0 55
0.30178681 -2.1677163 0.50170881 0 56
0.30299261 -2.1763775 0.52503157 0 57
0.3015531 -2.1660376 0.5438475 0 58
0.30272555 -2.1744592 0.56745327 0 59
0.30145335 -2.1653211 0.58657146 0 60
0.30184868 -2.1681607 0.60897839 0 61
0.30266091 -2.173995 0.63242429 0 62
0.30046487 -2.158221 0.64959955 0 63
0.33103526 -2.1810911 -0.6576587 0 0
0.32758552 -2.1583617 -0.62900078 0 1
0.32921347 -2.1690879 -0.61032963 0 2
0.33053249 -2.1777785 -0.5910024 0 3
0.33080959 -2.1796043 -0.56981438 0 4
0.33203194 -2.1876578 -0.55025941 0 5
0.3292948 -2.1696236 -0.5243395 0 6
0.32968193 -2.1721745 -0.50364083 0 7
0.32997847 -2.1741281 -0.48284939 0 8
0.32912752 -2.1685216 -0.46049997 0 9
0.32734314 -2.156765 -0.43709442 0 10
0.32840627 -2.1637695 -0.41761434 0 11
0.33187312 -2.1866114 -0.40097663 0 12
0.32802299 -2.1612442 -0.37559199 0 13
0.32975346 -2.1726458 -0.35679692 0 14
0.33074796 -2.1791983 -0.33709604 0 15
0.33041328 -2.1769931 -0.31605732 0 16
0.32921952 -2.1691279 -0.29434696 0 17
0.32882077 -2.1665006 -0.27349749 0 18
0.32914346 -2.1686265 -0.25329992 0 19
0.33140242 -2.1835103 -0.23447563 0 20
0.32846537 -2.1641591 -0.21205689 0 21
0.32935661 -2.1700311 -0.19227268 0 22
0.33029366 -2.1762049 -0.17243506 0 23
0.33108026 -2.1813877 -0.15244196 0 24
0.32789481 -2.1603994 -0.13079348 0 25
0.32949418 -2.1709373 -0.11117355 0 26
0.32859963 -2.1650436 -0.090687633 0 27
0.32981122 -2.1730263 -0.070778914 0 28
0.32801339 -2.161181 -0.050272271 0 29
0.33000171 -2.1742814 -0.030342778 0 30
0.33036822 -2.1766963 -0.010124923 0 31
0.32942885 -2.170507 0.010096133 0 32
0.33120567 -2.182214 0.030453481 0 33
0.3300738 -2.1747565 0.050588056 0 34
0.3310554 -2.1812239 0.07104592 0 35
0.3296552 -2.1719983 0.090978943 0 36
0.32902518 -2.1678474 0.11101531 0 37
0.33132437 -2.182996 0.1321615 0 38
0.33170724 -2.1855185 0.15273066 0 39
0.32752475 -2.1579614 0.17098951 0 40
0.32892567 -2.1671917 0.1920211 0 41
0.3275556 -2.1581647 0.21146953 0 42
0.33001399 -2.1743622 0.23349328 0 43
0.32880101 -2.1663704 0.25303638 0 44
0.32887176 -2.1668365 0.27353993 0 45
0.32993719 -2.1738563 0.29498857 0 46
0.33100599 -2.1808982 0.31662425 0 47
0.33262408 -2.1915593 0.33900815 0 48
0.32995799 -2.1739933 0.35701823 0 49
0.33082497 -2.1797056 0.37880027 0 50
0.32955056 -2.171309 0.39817047 0 51
0.329393 -2.1702707 0.41886908 0 52
0.32921135 -2.1690741 0.43958899 0 53
0.33070341 -2.1789045 0.46270487 0 54
0.32996005 -2.1740069 0.48282245 0 55
0.32935417 -2.1700149 0.50314009 0 56
0.3282465 -2.1627169 0.52267027 0 57
0.32995149 -2.1739504 0.54681158 0 58
0.33115041 -2.1818497 0.57040143 0 59
0.32805422 -2.1614499 0.58657122 0 60
0.33076978 -2.179342 0.61321491 0 61
0.33167857 -2.1853297 0.63685989 0 62
0.32985345 -2.1733046 0.65531087 0 63
0.35620072 -2.1669567 -0.65466803 0 0
0.35937443 -2.1862643 -0.63837177 0 1
0.35899663 -2.1839659 -0.61571151 0 2
0.35803226 -2.1780989 -0.59223938 0 3
0.35835275 -2.1800487 -0.57103938 0 4
0.3588056 -2.1828036 -0.55010659 0 5
0.35663652 -2.1696081 -0.52535582 0 6
0.35793886 -2.1775308 -0.50586504 0 7
0.35588399 -2.16503 -0.48176423 0 8
0.35815552 -2.1788487 -0.46359318 0 9
0.35823718 -2.1793456 -0.44252998 0 10
0.35591036 -2.1651902 -0.41870156 0 11
0.35773498 -2.1762905 -0.39986044 0 12
0.35935384 -2.1861389 -0.38065743 0 13
0.35890862 -2.1834304 -0.35926563 0 14
0.35855353 -2.1812701 -0.33807299 0 15
0.35889989 -2.1833773 -0.31760088 0 16
0.35789466 -2.1772621 -0.29602554 0 17
0.35506126 -2.1600249 -0.27321053 0 18
0.35671982 -2.1701148 -0.25396687 0 19
0.35730565 -2.1736786 -0.23387401 0 20
0.35867786 -2.1820266 -0.21422362 0 21
0.35854667 -2.1812284 -0.19364081 0 22
0.35914677 -2.1848791 -0.1734592 0 23
0.35683191 -2.1707966 -0.15199699 0 24
0.35598162 -2.1656239 -0.13136484 0 25
0.35849217 -2.180897 -0.11190086 0 26
0.35806873 -2.1783209 -0.091421299 0 27
0.35860717 -2.1815965 -0.071196303 0 28
0.35634881 -2.1678579 -0.050525691 0 29
0.35867506 -2.1820095 -0.03050987 0 30
0.35986054 -2.1892214 -0.010202996 0 31
0.35678071 -2.1704853 0.010115674 0 32
0.35710594 -2.1724637 0.030376397 0 33
0.35865077 -2.1818616 0.050852079 0 34
0.35409299 -2.1541343 0.070300072 0 35
0.35919973 -2.1852014 0.091710061 0 36
0.35969424 -2.1882098 0.11227608 0 37
0.35852385 -2.1810896 0.13230298 0 38
0.35855392 -2.1812725 0.15273049 0 39
0.36054257 -2.1933706 0.17413335 0 40
0.3581199 -2.1786323 0.19341034 0 41
0.36025617 -2.1916282 0.21516629 0 42
0.36146036 -2.1989541 0.23659347 0 43
0.35964015 -2.1878808 0.25604603 0 44
0.35711908 -2.1725435 0.27479395 0 45
0.35956323 -2.1874127 0.29740566 0 46
0.35725081 -2.1733451 0.31614155 0 47
0.35960692 -2.1876786 0.33906621 0 48
0.35653394 -2.1689839 0.35688856 0 49
0.35870078 -2.1821661 0.37996569 0 50
0.35845557 -2.1806743 0.40066588 0 51
0.3577053 -2.1761098 0.42081317 0 52
0.35578951 -2.1644552 0.43950635 0 53
0.3602286 -2.1914604 0.46627659 0 54
0.35740674 -2.1742938 0.48382559 0 55
0.35679454 -2.1705692 0.50424778 0 56
0.3586576 -2.1819034 0.52833301 0 57
0.35883391 -2.1829758 0.55014998 0 58
0.35992563 -2.1896174 0.57354581 0 59
0.36019498 -2.191256 0.59581691 0 60
0.35638517 -2.1680789 0.61123264 0 61
0.3581388 -2.1787472 0.63617688 0 62
0.35610622 -2.1663818 0.65449435 0 63
0.38649774 -2.1832006 -0.66096139 0 0
0.38614997 -2.1812363 -0.63824189 0 1
0.38744974 -2.1885781 -0.61830831 0 2
0.38684744 -2.1851759 -0.59541208 0 3
0.38894963 -2.1970506 -0.576702 0 4
0.38633668 -2.182291 -0.55113292 0 5
0.38685179 -2.1852005 -0.53024316 0 6
0.38800979 -2.1917417 -0.5102362 0 7
0.38651389 -2.1832919 -0.48684868 0 8
0.38528252 -2.1763363 -0.46403155 0 9
0.38574451 -2.178946 -0.44337845 0 10
0.38806027 -2.1920269 -0.42478183 0 11
0.3881886 -2.1927519 -0.40373144 0 12
0.3854785 -2.1774433 -0.37993997 0 13
0.38686576 -2.1852794 -0.36032537 0 14
0.38426661 -2.1705978 -0.33712575 0 15
0.38959727 -2.2007089 -0.32079458 0 16
0.38371766 -2.1674969 -0.29531705 0 17
0.38665268 -2.1840758 -0.27683306 0 18
0.38795182 -2.1914144 -0.25699839 0 19
0.38562602 -2.1782765 -0.23486114 0 20
0.38535556 -2.176749 -0.21415451 0 21
0.3880364 -2.1918921 -0.19499634 0 22
0.38533393 -2.1766267 -0.17316711 0 23
0.38755384 -2.1891663 -0.15360527 0 24
0.38404965 -2.1693721 -0.13186871 0 25
0.38640168 -2.182658 -0.11222653 0 26
0.38811284 -2.1923239 -0.092202306 0 27
0.38785079 -2.1908436 -0.071648307 0 28
0.38544044 -2.1772282 -0.050850708 0 29
0.38613799 -2.1811686 -0.030562192 0 30
0.38702518 -2.1861799 -0.010210228 0 31
0.38718963 -2.187109 0.010214566 0 32
0.38490212 -2.1741874 0.030464375 0 33
0.38743031 -2.1884685 0.051113226 0 34
0.38652024 -2.1833277 0.071402512 0 35
0.38890043 -2.1967728 0.092389412 0 36
0.38697982 -2.1859238 0.11239444 0 37
0.38635603 -2.1824 0.13266063 0 38
0.38542897 -2.1771636 0.15276308 0 39
0.38476229 -2.1733978 0.17291023 0 40
0.38811654 -2.1923447 0.19503662 0 41
0.38421813 -2.1703238 0.2135224 0 42
0.38742781 -2.1884544 0.23595852 0 43
0.38661996 -2.1838911 0.25611609 0 44
0.3861185 -2.1810584 0.2764506 0 45
0.38706648 -2.1864133 0.29789439 0 46
0.38501629 -2.1748326 0.31702262 0 47
0.38628674 -2.1820087 0.33889803 0 48
0.38437438 -2.1712065 0.35800493 0 49
0.38897073 -2.1971698 0.38338202 0 50
0.38567373 -2.1785462 0.40111589 0 51
0.3863467 -2.1823473 0.4229061 0 52
0.38858598 -2.1949964 0.44664446 0 53
0.38500959 -2.1747947 0.46370283 0 54
0.38591346 -2.1799002 0.48609236 0 55
0.38562357 -2.1782627 0.50709832 0 56
0.38561752 -2.1782286 0.52855146 0 57
0.3865563 -2.1835315 0.55144626 0 58
0.38646278 -2.1830032 0.57301468 0 59
0.38489428 -2.1741433 0.59240592 0 60
0.38346815 -2.1660876 0.61195433 0 61
0.38732779 -2.1878893 0.64018863 0 62
0.38351837 -2.1663711 0.65586627 0 63
0.41457835 -2.1849566 -0.66298622 0 0
0.41363531 -2.1799865 -0.63931614 0 1
0.41710499 -2.1982727 -0.6224491 0 2
0.41532573 -2.1888957 -0.59777194 0 3
0.41458783 -2.1850066 -0.5748353 0 4
0.41627717 -2.1939099 -0.55531806 0 5
0.41721791 -2.198868 -0.53476405 0 6
0.41679481 -2.1966381 -0.51253045 0 7
0.417209 -2.1988211 -0.49141833 0 8
0.41536853 -2.189121 -0.46781114 0 9
0.41529721 -2.1887453 -0.44637781 0 10
0.41509908 -2.1877012 -0.42490059 0 11
0.41310725 -2.1772037 -0.4017736 0 12
0.41779175 -2.2018924 -0.38507336 0 13
0.41616613 -2.1933246 -0.3624683 0 14
0.41711727 -2.1983376 -0.3422049 0 15
0.41388661 -2.1813111 -0.31868476 0 16
0.41614529 -2.1932149 -0.29949564 0 17
0.41627353 -2.1938908 -0.27870485 0 18
0.41851541 -2.2057061 -0.25925842 0 19
0.41465589 -2.1853654 -0.23615736 0 20
0.41603357 -2.1926262 -0.21620351 0 21
