# .PCD v0.7 - Point Cloud Data file format
VERSION 0.7
FIELDS x y z intensity ring
SIZE 4 4 4 4 2
TYPE F F F F U
COUNT 1 1 1 1 1
WIDTH 1366
HEIGHT 1
VIEWPOINT 0 0 0 1 0 0 0
POINTS 1366
DATA ascii
5.0121827 4.4999814 -0.52768344 0 23
5.0022154 4.4910331 -0.46446699 0 24
5.0033679 4.4920678 -0.40247157 0 25
5.0111294 4.4990358 -0.34096557 0 26
5.0151005 4.5026011 -0.27911413 0 27
5.0035343 4.4922171 -0.21653922 0 28
5.0041451 4.4927654 -0.15466358 0 29
5.01227 4.5000596 -0.092938326 0 30
5.0142355 4.5018244 -0.030989841 0 31
5.0045276 4.4931087 0.030929843 0 32
5.0028167 4.4915729 0.092763044 0 33
5.0041962 4.4928112 0.15466516 0 34
5.012042 4.499855 0.2169074 0 35
5.0086002 4.4967651 0.27875236 0 36
5.0138593 4.5014868 0.34115133 0 37
5.0112548 4.4991484 0.40310597 0 38
5.0020275 4.4908638 0.46444952 0 39
5.0081582 4.4963684 0.52725971 0 40
4.9936295 4.4833245 0.58788007 0 41
5.0101199 4.4981294 0.65227711 0 42
5.0110898 4.4990001 0.71498251 0 43
4.9994426 4.4885435 0.77587658 0 44
5.0104442 4.4984207 0.84041071 0 45
5.0110168 4.4989347 0.90348512 0 46
4.9902401 4.4802814 0.96261132 0 47
5.0054684 4.4939532 1.0287796 0 48
5.0011902 4.4901123 1.0912552 0 49
5.0033779 4.4920764 1.1553047 0 50
5.00734 4.4956336 1.2200434 0 51
4.9975019 4.4868007 1.2815576 0 52
5.002975 4.4917145 1.3471674 0 53
5.0056534 4.4941192 1.4123664 0 54
4.9944139 4.4840283 1.4737772 0 55
5.0061097 4.4945292 1.5422238 0 56
5.0041842 4.4928002 1.6068753 0 57
5.0043716 4.4929686 1.6724701 0 58
5.0148139 4.5023437 1.7419325 0 59
0 0 0 0 60
0 0 0 0 61
0 0 0 0 62
0 0 0 0 63
1.8068274 1.6627598 -0.73201209 0 0
1.8816078 1.7315774 -0.73676813 0 1
1.9413952 1.7865977 -0.73396629 0 2
2.0147583 1.8541114 -0.73463798 0 3
2.0847495 1.9185216 -0.73229223 0 4
2.1709285 1.9978292 -0.73368293 0 5
2.2673059 2.0865219 -0.73622918 0 6
2.3653457 2.1767447 -0.73687822 0 7
2.4631627 2.266762 -0.73501205 0 8
2.5650747 2.360548 -0.73188138 0 9
2.6978571 2.482743 -0.73462588 0 10
2.8419194 2.6153185 -0.73697197 0 11
2.9702158 2.7333851 -0.73183012 0 12
3.154454 2.9029331 -0.73656571 0 13
3.3482707 3.0812957 -0.73880118 0 14
3.5322981 3.2506497 -0.7341572 0 15
3.7766671 3.475534 -0.7367028 0 16
4.025331 3.7043707 -0.73392355 0 17
4.3419199 3.9957161 -0.73646343 0 18
4.6761737 4.3033185 -0.73386425 0 19
4.9153004 4.5233779 -0.70919776 0 20
4.9129963 4.5212579 -0.64682156 0 21
4.899302 4.5086555 -0.58325797 0 22
4.9081831 4.5168281 -0.52254218 0 23
4.897006 4.5065427 -0.45980868 0 24
4.9115057 4.519886 -0.39952272 0 25
4.9062233 4.5150251 -0.3375797 0 26
4.904397 4.5133438 -0.27602082 0 27
4.9091144 4.5176854 -0.21484086 0 28
4.9011993 4.5104017 -0.15318441 0 29
4.9114261 4.5198131 -0.092092037 0 30
4.9090858 4.5176587 -0.030680984 0 31
4.9112015 4.5196061 0.030694209 0 32
4.9140129 4.5221934 0.092140533 0 33
4.9125724 4.5208678 0.15353987 0 34
4.8975329 4.5070271 0.214334 0 35
4.9073329 4.516046 0.27618605 0 36
4.9144664 4.5226107 0.33814687 0 37
4.9071012 4.5158329 0.39916444 0 38
4.9178586 4.525732 0.46176663 0 39
4.9115186 4.5198979 0.52289736 0 40
4.9072781 4.5159955 0.58420753 0 41
4.9043021 4.5132565 0.64567691 0 42
4.9031458 4.5121927 0.70744407 0 43
4.9042273 4.5131879 0.76965421 0 44
4.9061031 4.5149145 0.83215857 0 45
4.9034419 4.512465 0.89402616 0 46
4.912106 4.5204387 0.95818937 0 47
4.9153152 4.5233917 1.0216053 0 48
4.9134984 4.5217199 1.0841712 0 49
4.9096737 4.5182004 1.1464099 0 50
4.9104643 4.5189276 1.209887 0 51
4.9103956 4.5188642 1.2733731 0 52
4.9087682 4.5173669 1.3366565 0 53
4.9151473 4.5232372 1.4024171 0 54
4.908813 4.5174079 1.4647983 0 55
4.9076047 4.5162959 1.5288703 0 56
4.9051828 4.5140676 1.5927887 0 57
4.915195 4.5232811 1.6611301 0 58
4.9120741 4.5204091 1.7254226 0 59
0 0 0 0 60
0 0 0 0 61
0 0 0 0 62
0 0 0 0 63
1.790867 1.6892084 -0.73390567 0 0
1.8476493 1.7427675 -0.73180717 0 1
1.9209788 1.8119344 -0.73461545 0 2
1.9845469 1.8718941 -0.73195958 0 3
2.0713627 1.9537817 -0.7359733 0 4
2.158596 2.0360632 -0.73792052 0 5
2.244256 2.1168609 -0.73714119 0 6
2.3298113 2.1975594 -0.73417085 0 7
2.4424808 2.3038335 -0.73723823 0 8
2.5385621 2.3944604 -0.7326622 0 9
2.6542144 2.5035479 -0.73106939 0 10
2.8032284 2.6441031 -0.73531437 0 11
2.9459188 2.7786937 -0.73420674 0 12
3.1036353 2.9274573 -0.73304945 0 13
3.2894137 3.10269 -0.73417711 0 14
3.5073383 3.308244 -0.7373687 0 15
3.7224381 3.5111337 -0.73449087 0 16
3.9914713 3.7648954 -0.73613513 0 17
4.3055182 4.0611153 -0.73870349 0 18
4.6188698 4.3566794 -0.73322314 0 19
4.8267393 4.5527492 -0.70444405 0 20
4.8110461 4.5379472 -0.6406973 0 21
4.8027453 4.530117 -0.57835078 0 22
4.8208027 4.5471497 -0.51915294 0 23
4.8091593 4.5361671 -0.45676312 0 24
4.8101263 4.5370793 -0.39578438 0 25
4.8089237 4.5359454 -0.33469731 0 26
4.8180256 4.5445304 -0.27428412 0 27
4.8069553 4.5340886 -0.21279389 0 28
4.8111277 4.5380239 -0.15210181 0 29
4.8201361 4.5465212 -0.091421656 0 30
4.811492 4.5383673 -0.030417519 0 31
4.8095069 4.5364952 0.03040497 0 32
4.8203425 4.5467153 0.091425568 0 33
4.8192215 4.5456581 0.1523577 0 34
4.8090024 4.5360193 0.21288452 0 35
4.8048625 4.532114 0.27353474 0 36
4.8167672 4.5433431 0.3352432 0 37
4.8055701 4.5327816 0.39540946 0 38
4.8075542 4.5346532 0.45661065 0 39
4.8127017 4.5395083 0.51828057 0 40
4.8239098 4.5500803 0.58089948 0 41
4.8095222 4.5365095 0.64049435 0 42
4.803431 4.5307641 0.70104229 0 43
4.8063045 4.5334744 0.76297742 0 44
4.803987 4.5312886 0.82422644 0 45
4.8189898 4.5454397 0.88875192 0 46
4.8271523 4.5531387 0.95246696 0 47
4.8111005 4.5379982 1.0114665 0 48
4.8119926 4.5388398 1.0740075 0 49
4.818716 4.5451813 1.1381354 0 50
4.8182063 4.5447006 1.200834 0 51
4.8107224 4.5376415 1.2618997 0 52
4.8126554 4.539465 1.3255844 0 53
4.8146358 4.5413327 1.3895668 0 54
4.8184614 4.5449409 1.454404 0 55
4.8136668 4.5404186 1.5168842 0 56
4.8170099 4.5435719 1.5821797 0 57
4.8215532 4.5478578 1.648258 0 58
4.8113589 4.5382419 1.709518 0 59
0 0 0 0 60
0 0 0 0 61
0 0 0 0 62
0 0 0 0 63
1.7768512 1.7177606 -0.73676229 0 0
1.8263645 1.7656273 -0.73192054 0 1
1.8963813 1.8333155 -0.73377442 0 2
1.9607079 1.8955029 -0.73170835 0 3
2.0391819 1.9713674 -0.73309678 0 4
2.1351557 2.0641494 -0.73852831 0 5
2.2070041 2.1336083 -0.73346746 0 6
2.3035502 2.226944 -0.73446912 0 7
2.3914096 2.3118813 -0.73034841 0 8
2.5051425 2.4218318 -0.73155648 0 9
2.6417279 2.553875 -0.73622423 0 10
2.7657986 2.6738195 -0.734065 0 11
2.9144137 2.8174925 -0.73493373 0 12
3.0777843 2.97543 -0.73552966 0 13
3.2467117 3.1387396 -0.73320514 0 14
3.4448757 3.3303134 -0.73279083 0 15
3.6857152 3.5631437 -0.73583448 0 16
3.9494245 3.818083 -0.73698348 0 17
4.2122941 4.0722108 -0.73124486 0 18
4.577558 4.4253278 -0.73524779 0 19
4.7135243 4.5567722 -0.69604582 0 20
4.7297316 4.5724401 -0.63730788 0 21
4.7213969 4.564383 -0.57527 0 22
4.7146492 4.5578599 -0.51371801 0 23
4.7116818 4.5549912 -0.45279044 0 24
4.7193274 4.5623822 -0.39289969 0 25
4.7158866 4.5590558 -0.33209863 0 26
4.7266159 4.5694284 -0.2722584 0 27
4.7315454 4.574194 -0.21192953 0 28
4.7270856 4.5698824 -0.15120995 0 29
4.7244 4.567286 -0.0906642 0 30
4.715641 4.5588183 -0.030163668 0 31
4.731916 4.5745521 0.030267771 0 32
4.7168622 4.5599995 0.090519555 0 33
4.7197747 4.5628147 0.15097609 0 34
4.717 4.5601325 0.21127805 0 35
4.7156796 4.558856 0.27162847 0 36
4.7186003 4.5616794 0.33228976 0 37
4.7312183 4.5738778 0.39388967 0 38
4.7210298 4.5640278 0.45368874 0 39
4.721065 4.5640626 0.51441705 0 40
4.7248626 4.5677333 0.57569224 0 41
4.7322512 4.5748763 0.63764739 0 42
4.7095323 4.5529127 0.69545627 0 43
4.7233877 4.5663075 0.75867093 0 44
4.7224984 4.5654478 0.81981516 0 45
4.7220674 4.5650311 0.88116276 0 46
4.7304955 4.5731788 0.9444195 0 47
4.7218184 4.5647907 1.004421 0 48
4.721364 4.5643516 1.066226 0 49
4.7306867 4.5733638 1.1305407 0 50
4.7212987 4.5642881 1.1905798 0 51
4.7181067 4.5612025 1.2522233 0 52
4.7320652 4.5746965 1.3187813 0 53
4.7270474 4.5698452 1.3804013 0 54
4.7311916 4.5738521 1.4449295 0 55
4.7232666 4.5661902 1.5059767 0 56
4.7244267 4.5673118 1.5700982 0 57
4.7308168 4.5734897 1.6363409 0 58
4.7268233 4.5696292 1.6993181 0 59
0 0 0 0 60
0 0 0 0 61
0 0 0 0 62
0 0 0 0 63
1.7524643 1.736375 -0.735448 0 0
1.8093396 1.7927282 -0.73387665 0 1
1.8712676 1.8540876 -0.73282325 0 2
1.947799 1.9299164 -0.73569149 0 3
2.0246878 2.0060992 -0.73669857 0 4
2.1015723 2.0822778 -0.73571295 0 5
2.1903253 2.1702161 -0.73673749 0 6
2.2757883 2.2548945 -0.73440248 0 7
2.3723536 2.3505731 -0.73330051 0 8
2.4747949 2.4520738 -0.73144394 0 9
2.6060629 2.5821369 -0.73507792 0 10
2.7292721 2.7042148 -0.73314059 0 11
2.8649495 2.8386464 -0.73120713 0 12
3.0427403 3.0148051 -0.73595858 0 13
3.2175827 3.1880422 -0.73542422 0 14
3.4202032 3.3888025 -0.73635095 0 15
3.6500065 3.6164961 -0.73752791 0 16
3.8914936 3.8557661 -0.73496515 0 17
4.1778922 4.1395354 -0.73405367 0 18
4.5240755 4.4825406 -0.7354551 0 19
4.6215334 4.579103 -0.69072407 0 20
4.6225004 4.5800619 -0.63040006 0 21
4.6379519 4.5953708 -0.57194448 0 22
4.637713 4.5951343 -0.51145291 0 23
4.6364202 4.5938535 -0.4509522 0 24
4.6272902 4.5848074 -0.38990137 0 25
4.6320686 4.5895419 -0.33014536 0 26
4.6356721 4.593112 -0.27025276 0 27
4.6331511 4.5906143 -0.21003486 0 28
4.6311145 4.5885963 -0.14993358 0 29
4.637979 4.5953984 -0.090083331 0 30
4.6256933 4.5832253 -0.029946547 0 31
4.6242146 4.5817599 0.029936973 0 32
4.6291785 4.586678 0.089912392 0 33
4.6272345 4.5847521 0.14980796 0 34
4.628664 4.5861688 0.20983146 0 35
4.6333117 4.5907736 0.27011517 0 36
4.6200233 4.5776072 0.32928684 0 37
4.6315899 4.5890675 0.39026368 0 38
4.6275344 4.5850492 0.45008796 0 39
4.6376915 4.5951133 0.51145059 0 40
4.6163573 4.5739746 0.56928152 0 41
4.6344256 4.591877 0.63202631 0 42
4.6352024 4.5926471 0.69276708 0 43
4.6375561 4.5949793 0.75390303 0 44
4.6347804 4.5922289 0.81432873 0 45
4.626709 4.5842314 0.8738212 0 46
4.6260347 4.5835633 0.93474609 0 47
4.6352344 4.5926785 0.99794042 0 48
4.6313028 4.5887828 1.05855 0 49
4.6256599 4.5831919 1.1188251 0 50
4.6309671 4.5884504 1.1819392 0 51
4.6412501 4.598639 1.2467387 0 52
4.6338506 4.5913076 1.3070449 0 53
4.6285791 4.5860844 1.3680109 0 54
4.6309376 4.5884209 1.4314345 0 55
4.634553 4.5920033 1.4955816 0 56
4.6337733 4.5912309 1.5586152 0 57
4.6339149 4.5913711 1.6222289 0 58
4.6330223 4.5904865 1.6857616 0 59
4.6383848 4.5958004 1.7519366 0 60
0 0 0 0 61
0 0 0 0 62
0 0 0 0 63
1.7325165 1.7593495 -0.7360999 0 0
1.7841454 1.8117778 -0.73263854 0 1
1.854259 1.8829774 -0.73517436 0 2
1.9200616 1.9497991 -0.73421514 0 3
1.9891704 2.0199783 -0.73275763 0 4
2.072818 2.1049213 -0.73465228 0 5
2.1518595 2.1851871 -0.73278177 0 6
2.2444799 2.279242 -0.73328799 0 7
2.3525987 2.3890355 -0.73621899 0 8
2.4622598 2.5003946 -0.73677063 0 9
2.5659018 2.6056421 -0.73273194 0 10
2.6941938 2.7359209 -0.73269945 0 11
2.8355906 2.8795075 -0.73269558 0 12
2.9863873 3.0326397 -0.73129261 0 13
3.1787245 3.2279558 -0.73555928 0 14
3.37479 3.427058 -0.73559076 0 15
3.592037 3.6476698 -0.73482203 0 16
3.8417358 3.9012358 -0.73457223 0 17
4.1477041 4.2119427 -0.73779368 0 18
4.4788876 4.5482554 -0.73714519 0 19
4.542871 4.6132302 -0.68739367 0 20
4.5454464 4.6158457 -0.62758476 0 21
4.5469804 4.617403 -0.56768483 0 22
4.5428023 4.6131606 -0.50720352 0 23
4.5477324 4.6181664 -0.4478156 0 24
4.5379806 4.608264 -0.38712147 0 25
4.5464425 4.6168566 -0.32806391 0 26
4.5304523 4.6006188 -0.26739642 0 27
4.5418949 4.6122389 -0.20845322 0 28
4.5414505 4.6117878 -0.14885539 0 29
4.5344701 4.6046991 -0.089165896 0 30
4.5349369 4.6051731 -0.029723348 0 31
4.5355811 4.6058273 0.029727569 0 32
4.5380378 4.6083221 0.089236051 0 33
4.5401816 4.6104994 0.1488138 0 34
4.5322709 4.6024661 0.20801152 0 35
4.5371957 4.6074672 0.26779443 0 36
4.5489635 4.6194172 0.32824585 0 37
4.5383658 4.608655 0.38715431 0 38
4.5366635 4.6069264 0.44672564 0 39
4.5370326 4.6073012 0.50655931 0 40
4.5409088 4.6112375 0.56692684 0 41
4.5520821 4.6225839 0.62850094 0 42
4.5344257 4.6046543 0.6861158 0 43
4.5506053 4.6210842 0.74894863 0 44
4.5390429 4.6093431 0.80740511 0 45
4.5472503 4.6176772 0.8694725 0 46
4.5516853 4.6221809 0.93113708 0 47
4.5428009 4.6131592 0.99017793 0 48
4.5454307 4.6158295 1.0518162 0 49
4.5359049 4.6061559 1.1107314 0 50
4.5478292 4.6182652 1.1751254 0 51
4.5454173 4.6158156 1.2361488 0 52
4.5407257 4.6110516 1.2966726 0 53
4.5352631 4.6055045 1.3570659 0 54
4.5512819 4.6217713 1.4242718 0 55
4.5438242 4.6141982 1.4845006 0 56
4.5463796 4.6167932 1.5481979 0 57
4.5410442 4.6113749 1.6094459 0 58
4.5363545 4.6066127 1.6710727 0 59
4.545547 4.6159472 1.7381783 0 60
0 0 0 0 61
0 0 0 0 62
0 0 0 0 63
1.7084436 1.7781147 -0.73510605 0 0
1.7633218 1.8352307 -0.73329896 0 1
1.8363665 1.9112544 -0.73734254 0 2
1.8919578 1.9691126 -0.73267198 0 3
1.9773438 2.0579805 -0.73766726 0 4
2.0365868 2.1196396 -0.73099357 0 5
2.1301944 2.2170646 -0.73463213 0 6
2.210129 2.3002591 -0.731251 0 7
2.3309269 2.4259832 -0.73871648 0 8
2.4218471 2.520611 -0.73389709 0 9
2.5451438 2.648936 -0.73605013 0 10
2.6636865 2.7723129 -0.7336182 0 11
2.8164153 2.9312699 -0.73699868 0 12
2.9600713 3.0807841 -0.73406953 0 13
3.1373985 3.265343 -0.73523211 0 14
3.3241072 3.4596655 -0.73376077 0 15
3.5662661 3.7117 -0.73883098 0 16
3.809952 3.9653234 -0.73776233 0 17
4.0568171 4.2222557 -0.73080683 0 18
4.384933 4.5637522 -0.73086268 0 19
4.4561362 4.6378593 -0.6828472 0 20
4.450047 4.6315217 -0.62222922 0 21
4.4554157 4.6371093 -0.56332946 0 22
4.4534683 4.6350827 -0.50355482 0 23
4.4444642 4.625711 -0.44321421 0 24
4.4625115 4.6444945 -0.38552627 0 25
4.456552 4.6382923 -0.32566851 0 26
4.4485021 4.6299138 -0.26589966 0 27
4.4475789 4.628953 -0.20672128 0 28
4.4540668 4.6357055 -0.14784841 0 29
4.4603138 4.6422071 -0.088823445 0 30
4.4568706 4.6386232 -0.029583288 0 31
4.4443932 4.6256371 0.029500468 0 32
4.4474173 4.6287847 0.088566616 0 33
4.4454837 4.6267724 0.1475635 0 34
4.4563279 4.6380591 0.20712791 0 35
4.4509916 4.6325045 0.26604846 0 36
4.4587927 4.6406245 0.32583225 0 37
4.4511404 4.6326599 0.38454387 0 38
4.4557033 4.6374087 0.44433504 0 39
4.4551153 4.636797 0.50374109 0 40
4.4427328 4.6239095 0.56172585 0 41
4.4499454 4.6314158 0.62221503 0 42
4.4426365 4.6238093 0.68077856 0 43
4.4486279 4.6300449 0.74147916 0 44
4.4525528 4.63413 0.80209583 0 45
4.4555054 4.6372023 0.86276776 0 46
4.4646363 4.6467061 0.92494833 0 47
4.4484296 4.629838 0.98194283 0 48
4.4494624 4.6309133 1.0427071 0 49
4.4446678 4.6259232 1.1022353 0 50
4.4589701 4.6408086 1.1668218 0 51
4.4646583 4.646729 1.2296321 0 52
4.4660411 4.6481681 1.2915695 0 53
4.4595995 4.6414638 1.3514011 0 54
4.4455581 4.6268497 1.4088845 0 55
4.4554095 4.6371031 1.4741323 0 56
4.4521317 4.6336918 1.5353901 0 57
4.4550605 4.6367393 1.599058 0 58
4.4578042 4.6395955 1.663027 0 59
4.4492731 4.6307163 1.7230077 0 60
0 0 0 0 61
0 0 0 0 62
0 0 0 0 63
1.6857828 1.7982731 -0.73481452 0 0
1.7493579 1.8660905 -0.73697877 0 1
1.8144987 1.935578 -0.73806286 0 2
1.8632435 1.9875754 -0.7309615 0 3
1.9487613 2.0788 -0.73648477 0 4
2.0170166 2.1516099 -0.73341018 0 5
2.0935431 2.2332428 -0.73140746 0 6
2.1966181 2.3431957 -0.73625821 0 7
2.2842302 2.4366541 -0.73335755 0 8
2.4026089 2.562932 -0.73756158 0 9
2.5128109 2.6804876 -0.73617595 0 10
2.6367955 2.8127458 -0.73568213 0 11
2.7725894 2.9576008 -0.73499155 0 12
2.9201667 3.115026 -0.73361713 0 13
3.1096365 3.3171389 -0.73822916 0 14
3.2920585 3.5117335 -0.73616272 0 15
3.5043561 3.7381978 -0.73547238 0 16
3.7389309 3.9884255 -0.73345113 0 17
4.0182629 4.2863965 -0.73330098 0 18
4.3321824 4.621264 -0.73148656 0 19
4.3627157 4.6538343 -0.67724961 0 20
4.3671083 4.6585202 -0.61859518 0 21
4.3640823 4.6552925 -0.55897701 0 22
4.3684034 4.6599021 -0.50037766 0 23
4.3610425 4.6520495 -0.44056639 0 24
4.366643 4.6580238 -0.38216338 0 25
4.3663411 4.657702 -0.32323709 0 26
4.36904 4.6605806 -0.26455548 0 27
4.3686323 4.6601462 -0.20569976 0 28
4.3816552 4.6740379 -0.14734145 0 29
4.3555923 4.6462355 -0.0878691 0 30
4.37642 4.6684532 -0.0294281 0 31
4.3606911 4.6516747 0.029322334 0 32
4.3736501 4.6654983 0.088233396 0 33
4.3559985 4.6466694 0.1464787 0 34
4.3666873 4.658071 0.20560816 0 35
4.3578687 4.648664 0.26387903 0 36
4.366363 4.6577253 0.32323873 0 37
4.3608665 4.6518621 0.38165784 0 38
4.3612266 4.6522455 0.44058499 0 39
4.3636975 4.6548815 0.49983859 0 40
4.3630867 4.6542301 0.55884945 0 41
4.3777447 4.6698661 0.62010181 0 42
4.370667 4.6623163 0.67848396 0 43
4.3577633 4.6485515 0.73580587 0 44
4.365921 4.6572537 0.79674584 0 45
4.3782544 4.6704102 0.85886467 0 46
4.3592267 4.6501126 0.91488725 0 47
4.3666148 4.6579938 0.97645253 0 48
4.3666034 4.6579814 1.0366336 0 49
4.3714638 4.6631665 1.0982183 0 50
4.3699064 4.6615052 1.1584277 0 51
4.3702097 4.6618285 1.2193154 0 52
4.3692193 4.6607723 1.2800463 0 53
4.3718581 4.6635866 1.3420888 0 54
4.3697023 4.6612878 1.4029034 0 55
4.3742867 4.6661777 1.4661649 0 56
4.361722 4.6527743 1.5238262 0 57
4.37783 4.6699572 1.5918286 0 58
4.3622742 4.6533637 1.6486106 0 59
4.37218 4.6639299 1.7152323 0 60
0 0 0 0 61
0 0 0 0 62
0 0 0 0 63
1.6602825 1.8152981 -0.73337364 0 0
1.7277547 1.8890699 -0.73760784 0 1
1.784904 1.951555 -0.73573041 0 2
1.8367406 2.0082314 -0.73019677 0 3
1.9093512 2.0876215 -0.73123688 0 4
1.9895357 2.1752927 -0.73308837 0 5
2.0715442 2.2649579 -0.73339647 0 6
2.1588502 2.3604155 -0.73327225 0 7
2.268157 2.4799278 -0.73793167 0 8
2.3586485 2.5788686 -0.73374581 0 9
2.4683256 2.6987858 -0.73281008 0 10
2.5890341 2.8307643 -0.73201281 0 11
2.7301505 2.9850564 -0.73341626 0 12
2.8668494 3.1345186 -0.72985047 0 13
3.0648899 3.3510494 -0.73733288 0 14
3.239084 3.5415072 -0.73399925 0 15
3.4547148 3.777271 -0.73474646 0 16
3.6834891 4.0274053 -0.73223466 0 17
3.984921 4.3569808 -0.73693776 0 18
4.282845 4.6827211 -0.73282307 0 19
4.2766747 4.6759748 -0.67276788 0 20
4.2836905 4.6836457 -0.61489058 0 21
4.2912984 4.6919637 -0.55700213 0 22
4.2783628 4.6778202 -0.49661511 0 23
4.2897763 4.6903 -0.43916011 0 24
4.2867761 4.6870189 -0.38018879 0 25
4.2736874 4.6727085 -0.3206073 0 26
4.2789793 4.6784945 -0.26256576 0 27
4.2691069 4.6677003 -0.20370066 0 28
4.2784567 4.6779232 -0.14579447 0 29
4.2815895 4.6813483 -0.087530851 0 30
4.2891908 4.6896596 -0.0292271 0 31
4.2800837 4.6797018 0.029165044 0 32
4.2866645 4.6868973 0.087634608 0 33
4.2839184 4.6838946 0.14598057 0 34
4.2747107 4.6738276 0.20396806 0 35
4.2764726 4.6757541 0.26241195 0 36
4.2782044 4.6776476 0.32094619 0 37
4.2790122 4.6785302 0.37950024 0 38
4.2849412 4.6850133 0.43866512 0 39
4.2761154 4.6753631 0.49635425 0 40
4.2787471 4.6782408 0.55537301 0 41
4.2677536 4.6662211 0.61260301 0 42
4.2876 4.6879201 0.67448652 0 43
4.2676678 4.6661272 0.73022622 0 44
4.2784796 4.6779485 0.79122603 0 45
4.2872581 4.6875463 0.85225689 0 46
4.2837372 4.6836967 0.91106242 0 47
4.2859502 4.6861162 0.97122651 0 48
4.2802281 4.6798601 1.0297117 0 49
4.2887959 4.6892281 1.0918535 0 50
4.2957139 4.6967916 1.1539828 0 51
4.2753367 4.6745119 1.2087911 0 52
4.2782688 4.6777177 1.2701559 0 53
4.2841907 4.6841922 1.3327576 0 54
4.2898359 4.6903648 1.3956732 0 55
4.2840676 4.6840582 1.4551209 0 56
4.2793317 4.6788802 1.5150279 0 57
4.2773676 4.6767325 1.5760905 0 58
4.2786651 4.6781511 1.6386286 0 59
4.2766614 4.6759601 1.7001879 0 60
0 0 0 0 61
0 0 0 0 62
0 0 0 0 63
1.6313767 1.8283348 -0.73048097 0 0
1.6914579 1.8956696 -0.73200828 0 1
1.7535732 1.9652841 -0.73272175 0 2
1.8270278 2.0476069 -0.73628944 0 3
1.8891803 2.1172631 -0.73342717 0 4
1.9653859 2.2026691 -0.73411441 0 5
2.0480325 2.2952938 -0.73500925 0 6
2.1332967 2.3908522 -0.734523 0 7
2.2287631 2.4978442 -0.73505235 0 8
2.3306942 2.6120815 -0.73498589 0 9
2.437695 2.7320008 -0.73363441 0 10
2.5807974 2.8923802 -0.73968393 0 11
2.6890895 3.0137463 -0.73228568 0 12
2.8404253 3.1833532 -0.73303324 0 13
3.0221186 3.3869824 -0.7370069 0 14
3.1986072 3.5847788 -0.73476028 0 15
3.4267125 3.8404236 -0.73877859 0 16
3.6576767 4.0992723 -0.737068 0 17
3.9217908 4.3952732 -0.73520225 0 18
4.192297 4.6984382 -0.72716033 0 19
4.1964903 4.7031374 -0.66920102 0 20
4.1831436 4.6881795 -0.60868675 0 21
4.1977096 4.704504 -0.55232143 0 22
4.1920266 4.6981349 -0.49326202 0 23
4.1961646 4.7027721 -0.43546379 0 24
4.1976719 4.7044616 -0.37738821 0 25
4.2014904 4.7087412 -0.3195107 0 26
4.1957231 4.7022777 -0.26098531 0 27
4.1964917 4.7031388 -0.20297994 0 28
4.2021155 4.7094417 -0.1451554 0 29
4.20579 4.7135601 -0.087159567 0 30
4.1940746 4.7004299 -0.028970623 0 31
4.1951904 4.7016807 0.028978333 0 32
4.1943231 4.7007084 0.086921923 0 33
4.201901 4.7092013 0.14514799 0 34
4.1914253 4.6974611 0.20273489 0 35
4.1937919 4.7001128 0.26086518 0 36
4.2035027 4.7109966 0.31966373 0 37
4.1893792 4.6951675 0.37664267 0 38
4.1895795 4.6953921 0.43478042 0 39
4.1941752 4.7005429 0.49351487 0 40
4.2026944 4.7100906 0.55297726 0 41
4.2018328 4.709125 0.61140627 0 42
4.1944709 4.7008743 0.66887897 0 43
4.1922474 4.6983824 0.72715169 0 44
4.1916461 4.6977086 0.78579098 0 45
4.1883821 4.6940503 0.84401178 0 46
4.194746 4.7011828 0.90436202 0 47
4.1979213 4.7047415 0.96431535 0 48
4.1983991 4.705277 1.0238675 0 49
4.1977849 4.7045884 1.0833293 0 50
4.1929283 4.6991453 1.1418071 0 51
4.1969228 4.7036223 1.2028825 0 52
4.1929097 4.6991248 1.2618736 0 53
4.2033544 4.7108302 1.3255305 0 54
4.1982436 4.7051024 1.3845927 0 55
4.2022681 4.7096133 1.4468979 0 56
4.1945429 4.7009549 1.5053608 0 57
4.1987839 4.705708 1.5683372 0 58
4.190258 4.6961527 1.6267633 0 59
4.2053595 4.7130775 1.6947535 0 60
4.186317 4.6917357 1.7492315 0 61
0 0 0 0 62
0 0 0 0 63
1.6180533 1.858917 -0.73469478 0 0
1.6831075 1.933655 -0.73862863 0 1
1.7308382 1.9884909 -0.73338348 0 2
1.7909155 2.0575116 -0.73187685 0 3
1.8726974 2.1514673 -0.737243 0 4
1.9363141 2.2245541 -0.73341739 0 5
2.0186942 2.3191974 -0.73465937 0 6
2.1112187 2.4254949 -0.73713458 0 7
2.1950061 2.521755 -0.73409051 0 8
2.3017786 2.6444216 -0.73606592 0 9
2.4260468 2.7871885 -0.74038732 0 10
2.5291908 2.9056866 -0.73507786 0 11
2.6563234 3.051744 -0.73352635 0 12
2.7992423 3.2159376 -0.73255509 0 13
2.9639826 3.4052014 -0.73298514 0 14
3.1500204 3.6189327 -0.73376602 0 15
3.3663435 3.8674576 -0.73596054 0 16
3.5946434 4.1297426 -0.7345435 0 17
3.8753054 4.4521842 -0.73669523 0 18
4.1104832 4.7223701 -0.72298694 0 19
4.1104546 4.7223372 -0.66469079 0 20
4.1100874 4.7219152 -0.6064592 0 21
4.1083641 4.7199354 -0.54816067 0 22
4.1061711 4.7174163 -0.48994824 0 23
4.1106601 4.7225733 -0.43258414 0 24
4.1100154 4.7218328 -0.37469923 0 25
4.113358 4.7256732 -0.31720355 0 26
4.1102529 4.7221055 -0.25926107 0 27
4.1053615 4.7164865 -0.20136207 0 28
4.1085067 4.7200994 -0.14391586 0 29
4.1107979 4.7227321 -0.086387932 0 30
4.109313 4.7210259 -0.028783953 0 31
4.1197062 4.7329659 0.028856751 0 32
4.1098075 4.7215939 0.086367115 0 33
4.1043777 4.7153559 0.14377125 0 34
4.110774 4.7227044 0.20162754 0 35
4.1072965 4.7187095 0.25907457 0 36
4.0943079 4.7037873 0.31573448 0 37
4.1095157 4.7212586 0.37465367 0 38
4.1099243 4.7217283 0.43250674 0 39
4.1121922 4.7243333 0.49066663 0 40
4.118052 4.7310658 0.54945332 0 41
4.1139874 4.7263961 0.60703468 0 42
4.1052279 4.7163324 0.6638456 0 43
4.1111908 4.7231832 0.72311145 0 44
4.1113324 4.7233462 0.78156394 0 45
4.1099892 4.7218027 0.83985126 0 46
4.1179175 4.7309108 0.90027195 0 47
4.1096935 4.7214632 0.95731241 0 48
4.1124334 4.7246108 1.016994 0 49
4.1155343 4.7281733 1.0770255 0 50
4.1054502 4.716588 1.1336932 0 51
4.1052489 4.7163568 1.1931394 0 52
4.1106906 4.7226086 1.2545112 0 53
4.1262169 4.7404461 1.3194875 0 54
4.1119328 4.7240357 1.375181 0 55
4.108242 4.7197952 1.4343977 0 56
4.1126113 4.7248149 1.4966943 0 57
4.1096702 4.7214365 1.5566192 0 58
4.1100912 4.72192 1.6180596 0 59
4.1067834 4.7181196 1.6782811 0 60
4.1000047 4.7103314 1.7372367 0 61
0 0 0 0 62
0 0 0 0 63
1.6006804 1.8852737 -0.73727673 0 0
1.644825 1.9372671 -0.73222709 0 1
1.7207934 2.0267422 -0.73963118 0 2
1.7557079 2.0678644 -0.72782499 0 3
1.8481975 2.1767981 -0.73807973 0 4
1.9119804 2.2519214 -0.73463339 0 5
1.9939475 2.3484619 -0.73610711 0 6
2.0875514 2.458708 -0.7393713 0 7
2.1725626 2.5588338 -0.73705173 0 8
2.2577171 2.6591284 -0.73237669 0 9
2.380286 2.8034892 -0.73688674 0 10
2.4986053 2.9428453 -0.73665005 0 11
2.6245928 3.091233 -0.73520517 0 12
2.7613437 3.2522974 -0.73304743 0 13
2.9396594 3.4623168 -0.73744285 0 14
3.1038556 3.6557062 -0.73342812 0 15
3.3150184 3.9044127 -0.73518032 0 16
3.5363183 4.1650591 -0.73303533 0 17
3.8137608 4.4918289 -0.73543984 0 18
4.0252533 4.7409244 -0.71819544 0 19
4.0301199 4.7466559 -0.66108853 0 20
4.0245886 4.7401414 -0.60239851 0 21
4.0336008 4.7507553 -0.54593843 0 22
4.0316296 4.7484341 -0.487984 0 23
4.0377431 4.7556348 -0.43103203 0 24
4.0252728 4.7409472 -0.37226009 0 25
4.0281935 4.7443867 -0.31511104 0 26
4.0251889 4.7408485 -0.25755313 0 27
4.0307364 4.7473822 -0.20054992 0 28
4.029983 4.7464948 -0.14319892 0 29
4.0335722 4.7507219 -0.085986167 0 30
4.0227747 4.7380047 -0.02858372 0 31
4.0304523 4.7470474 0.028638273 0 32
4.0295238 4.7459536 0.085899867 0 33
4.0291896 4.7455602 0.14317073 0 34
4.0296702 4.7461267 0.20049687 0 35
4.014709 4.7285051 0.25688258 0 36
4.0351086 4.7525315 0.31565201 0 37
4.0292172 4.7455931 0.3726249 0 38
4.0371113 4.7548904 0.43096459 0 39
4.0364103 4.754065 0.4885627 0 40
4.0314121 4.748178 0.54564226 0 41
4.0322065 4.749114 0.60353875 0 42
4.0264564 4.742341 0.66048759 0 43
4.0246682 4.7402349 0.71809101 0 44
4.0250134 4.7406421 0.77617759 0 45
4.0350523 4.7524652 0.83641666 0 46
4.0305233 4.7471309 0.89385968 0 47
4.0210962 4.7360282 0.95016837 0 48
4.0317793 4.7486105 1.011412 0 49
4.0358043 4.7533512 1.0713755 0 50
4.0293384 4.7457356 1.1287048 0 51
4.025209 4.7408719 1.1867303 0 52
4.0269279 4.7428966 1.2466527 0 53
4.0244565 4.7399855 1.3054861 0 54
4.0361323 4.7537374 1.3692763 0 55
4.0239573 4.7393975 1.4252096 0 56
4.0401573 4.7584782 1.4915079 0 57
4.0241551 4.7396307 1.5461867 0 58
4.0310082 4.7477026 1.6097877 0 59
4.032804 4.7498174 1.6717905 0 60
4.0235033 4.738863 1.7293817 0 61
0 0 0 0 62
0 0 0 0 63
1.5756353 1.9027069 -0.73646176 0 0
1.6267817 1.9644703 -0.73489273 0 1
1.6909353 2.0419409 -0.73753405 0 2
1.7453613 2.1076646 -0.73422414 0 3
1.8043691 2.1789215 -0.73122138 0 4
1.8889254 2.2810299 -0.73649639 0 5
1.9645079 2.3723021 -0.73595226 0 6
2.0451498 2.4696836 -0.73505378 0 7
2.1304567 2.5726984 -0.73344404 0 8
2.2219157 2.6831427 -0.73141044 0 9
2.3338945 2.8183661 -0.73319823 0 10
2.449013 2.957381 -0.73269504 0 11
2.58779 3.1249654 -0.73560423 0 12
2.7316275 3.2986608 -0.73587096 0 13
2.8740649 3.4706655 -0.73163849 0 14
3.0491009 3.6820354 -0.7311331 0 15
3.2710218 3.9500229 -0.73613924 0 16
3.4988575 4.225153 -0.73598403 0 17
3.7599828 4.5404825 -0.7357803 0 18
3.9465723 4.7658048 -0.71455896 0 19
3.9436367 4.7622595 -0.65645826 0 20
3.9462929 4.7654672 -0.59940487 0 21
3.9518049 4.7721233 -0.54276878 0 22
3.9391577 4.7568512 -0.48383462 0 23
3.9444108 4.7631946 -0.42728889 0 24
3.9480886 4.7676358 -0.37051573 0 25
3.9411983 4.759315 -0.31286013 0 26
3.9491756 4.7689486 -0.25642219 0 27
3.9455104 4.7645226 -0.19920941 0 28
3.9357302 4.7527118 -0.14191569 0 29
3.9484181 4.768034 -0.085414283 0 30
3.9352591 4.7521434 -0.02837494 0 31
3.9442902 4.7630486 0.028440058 0 32
3.9477916 4.7672772 0.08540073 0 33
3.9455943 4.7646236 0.14227137 0 34
3.9445105 4.7633147 0.19915892 0 35
3.946852 4.7661424 0.2562713 0 36
3.937417 4.7547488 0.31255996 0 37
3.9484193 4.7680349 0.37054676 0 38
3.9351549 4.752017 0.42628619 0 39
3.951484 4.7717361 0.48534861 0 40
3.9524999 4.7729626 0.54286426 0 41
3.9475827 4.767025 0.59960085 0 42
3.9461401 4.7652826 0.65687501 0 43
3.9499512 4.7698851 0.71517074 0 44
3.950608 4.770678 0.77308327 0 45
3.9520755 4.77245 0.83131832 0 46
3.9440644 4.7627764 0.88760662 0 47
3.9475915 4.7670355 0.94657904 0 48
3.950134 4.7701058 1.0055687 0 49
3.9507673 4.7708707 1.0642941 0 50
3.9444108 4.7631946 1.1212368 0 51
3.9460924 4.7652249 1.1805907 0 52
3.9448071 4.7636728 1.2392701 0 53
3.9491491 4.7689166 1.2999814 0 54
3.9468884 4.7661867 1.35878 0 55
3.9441671 4.7629004 1.4175856 0 56
3.9449275 4.7638183 1.4778655 0 57
3.9452994 4.7642674 1.5382813 0 58
3.9456313 4.7646685 1.5989687 0 59
3.9427359 4.7611718 1.6585975 0 60
3.9432716 4.7618189 1.719934 0 61
0 0 0 0 62
0 0 0 0 63
1.5352354 1.9010271 -0.72844964 0 0
1.5957403 1.975948 -0.73179072 0 1
1.6548005 2.0490801 -0.73270768 0 2
1.7106688 2.1182599 -0.73053199 0 3
1.7916853 2.2185798 -0.73708105 0 4
1.8718122 2.3177981 -0.74088043 0 5
1.9353875 2.3965209 -0.73602712 0 6
2.0089493 2.4876101 -0.7329815 0 7
2.093858 2.5927494 -0.73176479 0 8
2.1985302 2.7223613 -0.73467636 0 9
2.2843962 2.828686 -0.72852033 0 10
2.4107306 2.9851215 -0.7321682 0 11
2.5420289 3.1477034 -0.73354322 0 12
2.6782267 3.3163521 -0.73241556 0 13
2.8576374 3.5385101 -0.73847723 0 14
3.0275474 3.7489033 -0.73696285 0 15
3.2226117 3.9904444 -0.73623168 0 16
3.4508905 4.2731142 -0.73689115 0 17
3.7144945 4.5995255 -0.73789072 0 18
3.8693879 4.7913246 -0.71119767 0 19
3.8653266 4.7862954 -0.65317035 0 20
3.8669631 4.788322 -0.59625363 0 21
3.8622155 4.782443 -0.53850025 0 22
3.8715174 4.7939615 -0.48273057 0 23
3.8624432 4.7827253 -0.42474824 0 24
3.8780179 4.8020105 -0.36945331 0 25
3.8660386 4.7871771 -0.31154311 0 26
3.8663685 4.7875857 -0.25484869 0 27
3.8652117 4.7861533 -0.19811164 0 28
3.8767965 4.800498 -0.14190841 0 29
3.8662999 4.7875009 -0.084904931 0 30
3.8684313 4.7901402 -0.02831565 0 31
3.865422 4.7864137 0.028293623 0 32
3.8708086 4.7930837 0.08500395 0 33
3.8698621 4.7919116 0.14165458 0 34
3.8798306 4.804255 0.19886091 0 35
3.8684983 4.7902226 0.25498909 0 36
3.8563876 4.7752266 0.31076539 0 37
3.8640745 4.7847452 0.36812496 0 38
3.8610761 4.7810321 0.42459789 0 39
3.865211 4.7861524 0.48194423 0 40
3.8658695 4.7869678 0.53900975 0 41
3.8686028 4.7903523 0.59650642 0 42
3.867084 4.7884717 0.65346736 0 43
3.8639431 4.7845821 0.71019685 0 44
3.8569827 4.7759638 0.76619625 0 45
3.8665748 4.7878408 0.82565486 0 46
3.8661578 4.7873244 0.883255 0 47
3.8666329 4.7879133 0.94121236 0 48
3.8599901 4.7796874 0.99750745 0 49
3.8607922 4.7806807 1.0558121 0 50
3.8680043 4.7896113 1.1161747 0 51
3.85993 4.779613 1.1723077 0 52
3.8699553 4.792027 1.2341734 0 53
3.8706026 4.7928286 1.2934278 0 54
3.8659539 4.7870722 1.3510797 0 55
3.8684285 4.7901363 1.4114275 0 56
3.8791409 4.8034015 1.4752358 0 57
3.8590581 4.7785335 1.5274506 0 58
3.8672881 4.7887244 1.5909629 0 59
3.8606727 4.7805328 1.6486797 0 60
3.8695855 4.7915692 1.7133636 0 61
0 0 0 0 62
0 0 0 0 63
1.5206728 1.931097 -0.73275149 0 0
1.5813929 2.0082052 -0.73647988 0 1
1.6323164 2.0728729 -0.73398268 0 2
1.6947998 2.1522202 -0.73500133 0 3
1.7606673 2.2358654 -0.73557544 0 4
1.8289434 2.3225687 -0.73516101 0 5
1.9038072 2.4176378 -0.73526722 0 6
1.9848678 2.5205765 -0.735448 0 7
2.0664115 2.6241286 -0.73339427 0 8
2.1610425 2.7443001 -0.73337024 0 9
2.2747514 2.8886986 -0.73671675 0 10
2.3913503 3.0367672 -0.73756748 0 11
2.5106761 3.1882987 -0.73575336 0 12
2.6468551 3.361232 -0.7350837 0 13
2.8020205 3.5582759 -0.73535603 0 14
2.9667382 3.7674503 -0.73338205 0 15
3.1730311 4.0294209 -0.7361685 0 16
3.3950267 4.3113322 -0.73622698 0 17
3.6538653 4.6400309 -0.73712522 0 18
3.780421 4.8007431 -0.70564228 0 19
3.7859812 4.8078041 -0.64970332 0 20
3.7918849 4.8153009 -0.59376216 0 21
3.8013527 4.8273244 -0.53824991 0 22
3.7902279 4.8131971 -0.47993818 0 23
3.7809982 4.801476 -0.4222526 0 24
3.7798164 4.7999754 -0.36569318 0 25
3.7819817 4.8027253 -0.30950505 0 26
3.7810743 4.8015728 -0.2530992 0 27
3.7846613 4.806128 -0.19699721 0 28
3.783505 4.8046594 -0.14064549 0 29
3.7843459 4.8057275 -0.084396534 0 30
3.7822206 4.8030286 -0.028114792 0 31
3.7879112 4.8102551 0.028157093 0 32
3.7926335 4.8162518 0.08458136 0 33
3.7820058 4.8027558 0.14058976 0 34
3.779963 4.8001618 0.19675267 0 35
3.7880394 4.8104177 0.25356543 0 36
3.7895706 4.8123622 0.3101261 0 37
3.7901499 4.813098 0.36669293 0 38
3.7885282 4.8110385 0.42309353 0 39
3.7914429 4.8147397 0.48009199 0 40
3.7866895 4.8087034 0.5361737 0 41
3.7922757 4.8157973 0.59382337 0 42
3.7784874 4.7982879 0.64841735 0 43
3.782872 4.8038559 0.70609975 0 44
3.7781618 4.797874 0.76220053 0 45
3.7849152 4.8064504 0.82077605 0 46
3.7843633 4.8057494 0.87800246 0 47
3.7767761 4.7961144 0.93362463 0 48
3.7860749 4.8079228 0.99360907 0 49
3.7749126 4.7937479 1.0483674 0 50
3.7924826 4.8160601 1.1113867 0 51
3.779279 4.799293 1.1656482 0 52
3.7901118 4.8130493 1.2274919 0 53
3.7830112 4.8040328 1.2838007 0 54
3.7947583 4.8189502 1.3468052 0 55
3.7905664 4.8136268 1.4045089 0 56
3.7879791 4.8103409 1.4629512 0 57
3.7896404 4.8124509 1.5232817 0 58
3.7791255 4.799098 1.5788512 0 59
3.7813849 4.8019671 1.6399122 0 60
3.7887259 4.8112898 1.7036277 0 61
3.7902575 4.8132348 1.7651833 0 62
0 0 0 0 63
1.5000373 1.9538471 -0.73432946 0 0
1.547449 2.0156024 -0.73215896 0 1
1.6085473 2.0951848 -0.73482394 0 2
1.6649806 2.1686909 -0.73357892 0 3
1.7389634 2.2650559 -0.73808825 0 4
1.8041234 2.3499291 -0.73674369 0 5
1.8765327 2.4442444 -0.73628569 0 6
1.9488657 2.5384605 -0.73361844 0 7
2.0364699 2.6525679 -0.73428833 0 8
2.1255827 2.76864 -0.73283458 0 9
2.2308588 2.9057655 -0.73401785 0 10
2.3597479 3.0736477 -0.73942155 0 11
2.4762318 3.2253721 -0.73722637 0 12
2.6153786 3.406615 -0.73791975 0 13
2.7486551 3.5802119 -0.73284906 0 14
2.9348922 3.8227921 -0.73707414 0 15
3.1224127 4.0670433 -0.73597181 0 16
3.3440883 4.355783 -0.73673993 0 17
3.5918295 4.6784739 -0.73616028 0 18
3.7061772 4.8274155 -0.702811 0 19
3.7063906 4.8276935 -0.64618337 0 20
3.7088406 4.8308845 -0.59001559 0 21
3.713316 4.8367138 -0.53416526 0 22
3.70768 4.8293729 -0.47696897 0 23
3.7128148 4.8360615 -0.42124727 0 24
3.7138498 4.8374095 -0.36503831 0 25
3.7057002 4.8267941 -0.30809635 0 26
3.7097683 4.8320932 -0.25228435 0 27
3.7109852 4.8336778 -0.19624121 0 28
3.7082639 4.8301334 -0.14004581 0 29
3.7042325 4.8248825 -0.083926663 0 30
3.7045772 4.8253312 -0.02797658 0 31
3.707042 4.8285418 0.027995195 0 32
3.7121494 4.8351946 0.084106036 0 33
3.7082834 4.8301592 0.14004654 0 34
3.7102079 4.8326654 0.19620012 0 35
3.7023594 4.822443 0.25178051 0 36
3.7025156 4.8226461 0.30783159 0 37
3.7130568 4.8363762 0.36496037 0 38
3.7032092 4.8235497 0.42015743 0 39
3.7021756 4.8222032 0.47626087 0 40
3.7115722 4.8344426 0.53391439 0 41
3.7062383 4.8274951 0.58960164 0 42
3.7099898 4.8323817 0.64681089 0 43
3.714366 4.8380818 0.70436388 0 44
3.6989398 4.8179884 0.75811297 0 45
3.7045863 4.8253431 0.81616169 0 46
3.7069621 4.8284378 0.87375367 0 47
3.7054911 4.8265219 0.93060368 0 48
3.7046826 4.8254685 0.98774606 0 49
3.7101789 4.8326278 1.0468137 0 50
3.7151303 4.839077 1.1060725 0 51
3.7092328 4.8313956 1.1622796 0 52
3.7082095 4.8300629 1.2201096 0 53
3.7085645 4.8305249 1.2785974 0 54
3.7111967 4.8339534 1.3381432 0 55
3.7118428 4.834795 1.3972622 0 56
3.6992381 4.818377 1.4514514 0 57
3.7060406 4.8272376 1.513423 0 58
3.7068255 4.8282599 1.5733306 0 59
3.7132139 4.8365812 1.6360164 0 60
3.7138877 4.8374586 1.6965951 0 61
3.7107906 4.8334246 1.755721 0 62
0 0 0 0 63
1.4733984 1.9687999 -0.73308462 0 0
1.5297196 2.0440581 -0.73560709 0 1
1.5801575 2.1114547 -0.73365998 0 2
1.6384147 2.1892998 -0.73367977 0 3
1.6923456 2.261364 -0.73004889 0 4
1.7821683 2.3813877 -0.73968005 0 5
1.8352221 2.45228 -0.73185307 0 6
1.9297425 2.5785809 -0.73829979 0 7
2.0009925 2.6737876 -0.73329574 0 8
2.1014946 2.8080812 -0.73637873 0 9
2.1884322 2.9242499 -0.73183417 0 10
2.3117521 3.0890336 -0.73622876 0 11
2.4310153 3.2483969 -0.73560095 0 12
2.5554368 3.4146526 -0.73279881 0 13
2.7143879 3.627048 -0.73554838 0 14
2.8735516 3.8397274 -0.73347116 0 15
3.0608444 4.089994 -0.73325861 0 16
3.2923605 4.3993526 -0.73720604 0 17
3.5174589 4.7001362 -0.73270768 0 18
3.6346171 4.8566861 -0.70051277 0 19
3.621762 4.839509 -0.6417554 0 20
3.6179805 4.834456 -0.58497405 0 21
3.6346855 4.8567781 -0.53140497 0 22
3.630826 4.8516207 -0.47472095 0 23
3.6265886 4.8459582 -0.41819334 0 24
3.63166 4.852735 -0.36279753 0 25
3.6290121 4.8491969 -0.30665478 0 26
3.6281278 4.8480153 -0.25076741 0 27
3.6288855 4.8490276 -0.19503804 0 28
3.6347318 4.8568397 -0.1395137 0 29
3.6260853 4.8452859 -0.08349967 0 30
3.6329904 4.8545127 -0.027884655 0 31
3.6386731 4.8621063 0.02792827 0 32
3.635746 4.8581953 0.083722137 0 33
3.6246049 4.843308 0.139125 0 34
3.6217117 4.8394418 0.19465247 0 35
3.6291564 4.8493896 0.25083852 0 36
3.6210907 4.8386121 0.30598539 0 37
3.6291115 4.8493299 0.36254296 0 38
3.6329231 4.854423 0.41892383 0 39
3.6386776 4.862112 0.47574753 0 40
3.6316769 4.8527575 0.53096509 0 41
3.6268952 4.8463683 0.58641541 0 42
3.6237223 4.8421283 0.64210272 0 43
3.6283298 4.8482852 0.699301 0 44
3.6292737 4.8495464 0.75599933 0 45
3.6371098 4.8600173 0.81440032 0 46
3.6306517 4.851388 0.86976218 0 47
3.6244967 4.843163 0.92514914 0 48
3.6264293 4.8457456 0.98269457 0 49
3.6232049 4.8414373 1.0389928 0 50
3.62216 4.8400407 1.0960294 0 51
3.6280773 4.8479476 1.1554418 0 52
3.6296947 4.8501091 1.2138072 0 53
3.6397443 4.8635373 1.2753925 0 54
3.6368172 4.8596263 1.3327698 0 55
3.6341887 4.8561139 1.3904035 0 56
3.6466053 4.8727055 1.4541997 0 57
3.6317923 4.8529119 1.5073572 0 58
3.6274538 4.8471146 1.5648214 0 59
3.6305764 4.8512869 1.6257669 0 60
3.6361833 4.858779 1.6882635 0 61
3.6362715 4.8588972 1.7485996 0 62
0 0 0 0 63
1.4494373 1.9872577 -0.73326558 0 0
1.510525 2.0710125 -0.73856705 0 1
1.5508174 2.1262555 -0.73212141 0 2
1.6214225 2.2230592 -0.7382558 0 3
1.6786393 2.3015063 -0.73628885 0 4
1.7397008 2.3852248 -0.73417181 0 5
1.805285 2.4751444 -0.73199648 0 6
1.8876077 2.5880134 -0.73429924 0 7
1.9821036 2.7175725 -0.73856372 0 8
2.0535238 2.8154933 -0.73164546 0 9
2.1703079 2.9756107 -0.73795331 0 10
2.2818952 3.1286032 -0.73891622 0 11
2.3835976 3.2680426 -0.73335701 0 12
2.5114908 3.4433913 -0.73228335 0 13
2.6665573 3.6559958 -0.73471385 0 14
2.8381195 3.8912172 -0.73658466 0 15
3.0201328 4.1407676 -0.7356478 0 16
3.2257869 4.4227304 -0.73442113 0 17
3.4721413 4.7604957 -0.73540586 0 18
3.5607755 4.8820181 -0.69779837 0 19
3.5510736 4.8687162 -0.63978976 0 20
3.5527568 4.8710241 -0.58406854 0 21
3.5549388 4.8740158 -0.52846819 0 22
3.5551438 4.8742967 -0.47262654 0 23
3.5521083 4.8701348 -0.4164789 0 24
3.5570059 4.8768497 -0.36130309 0 25
3.5506663 4.8681579 -0.30506974 0 26
3.5525069 4.8706813 -0.24966142 0 27
3.5577233 4.8778334 -0.19442233 0 28
3.5574112 4.8774052 -0.13883741 0 29
3.5537105 4.8723316 -0.083206408 0 30
3.5569425 4.8767629 -0.027759127 0 31
3.5533111 4.8717837 0.027730787 0 32
3.5515144 4.8693204 0.083154984 0 33
3.5569563 4.8767819 0.13881966 0 34
3.5515378 4.8693528 0.19408432 0 35
3.5575585 4.8776073 0.25001642 0 36
3.5560856 4.8755879 0.30553538 0 37
3.5517714 4.8696728 0.36077142 0 38
3.5480354 4.8645506 0.41600135 0 39
3.5549636 4.8740497 0.47260255 0 40
3.5514884 4.8692851 0.52795529 0 41
3.5490217 4.8659034 0.58345449 0 42
3.5517957 4.8697062 0.63991982 0 43
3.546875 4.8629599 0.69507432 0 44
3.5454774 4.8610435 0.75093853 0 45
3.5545855 4.8735309 0.80927932 0 46
3.55568 4.8750319 0.86609703 0 47
3.5472987 4.8635406 0.92063987 0 48
3.5558374 4.8752475 0.97973627 0 49
3.5449743 4.8603539 1.0336194 0 50
3.545192 4.860652 1.0907427 0 51
3.5472035 4.86341 1.1486444 0 52
3.5542955 4.8731337 1.2085402 0 53
3.5564516 4.8760896 1.2671204 0 54
3.5545437 4.8734736 1.3244803 0 55
3.5513072 4.8690367 1.381496 0 56
3.5580466 4.8782768 1.4426961 0 57
3.551317 4.86905 1.4986928 0 58
3.5560398 4.875525 1.5597588 0 59
3.550899 4.8684769 1.6167728 0 60
3.550993 4.8686056 1.6763791 0 61
3.5526671 4.8709011 1.7370669 0 62
0 0 0 0 63
1.4296798 2.0116642 -0.73572874 0 0
1.4844651 2.0887511 -0.73832762 0 1
1.5238198 2.1441262 -0.73176754 0 2
1.5852525 2.2305663 -0.73421997 0 3
1.6530917 2.3260212 -0.73757279 0 4
1.7087651 2.4043577 -0.73353803 0 5
1.7762411 2.4993012 -0.73262578 0 6
1.8525674 2.606698 -0.73308182 0 7
1.9387521 2.7279661 -0.73485386 0 8
2.026463 2.8513818 -0.73444062 0 9
2.1392236 3.0100441 -0.73991328 0 10
2.226119 3.1323123 -0.73327178 0 11
2.3433714 3.2972951 -0.73339975 0 12
2.4826543 3.4932764 -0.73634428 0 13
2.6199195 3.6864185 -0.73429799 0 14
2.7813573 3.9135733 -0.73428702 0 15
2.9739251 4.1845303 -0.73687017 0 16
3.1714468 4.4624577 -0.73448682 0 17
3.4267926 4.8217483 -0.73830289 0 18
3.4742944 4.888587 -0.69257861 0 19
3.4767158 4.891994 -0.63718253 0 20
3.4853117 4.904089 -0.58285034 0 21
3.4715679 4.8847504 -0.52496397 0 22
3.468879 4.8809671 -0.46910185 0 23
3.4804094 4.897191 -0.41510144 0 24
3.4700255 4.8825803 -0.35853937 0 25
3.478395 4.8943563 -0.30400816 0 26
3.4672463 4.8786693 -0.24786676 0 27
3.4810905 4.898149 -0.19351134 0 28
3.4792693 4.8955865 -0.13812669 0 29
3.4838629 4.90205 -0.082976066 0 30
3.4810584 4.8981042 -0.027634867 0 31
3.4756596 4.8905072 0.027592005 0 32
3.4787583 4.8948679 0.082854494 0 33
3.4761634 4.8912168 0.13800338 0 34
3.468796 4.8808498 0.1928279 0 35
3.4678741 4.8795528 0.24791163 0 36
3.4739428 4.888092 0.30361906 0 37
3.4895043 4.9099884 0.36055204 0 38
3.4704843 4.8832254 0.41391769 0 39
3.4729989 4.8867636 0.46965897 0 40
3.4725006 4.8860626 0.525105 0 41
3.4742677 4.8885493 0.58100343 0 42
3.4750626 4.8896675 0.63687956 0 43
3.4713328 4.8844194 0.69198817 0 44
3.4754469 4.8902082 0.7487855 0 45
3.4722919 4.8857694 0.80416065 0 46
3.4781144 4.8939619 0.86179668 0 47
3.4848952 4.9035029 0.92002326 0 48
3.4757662 4.8906574 0.97417045 0 49
3.4801154 4.8967772 1.0321867 0 50
3.4724035 4.8859262 1.0867505 0 51
3.4802594 4.8969798 1.146379 0 52
3.4628623 4.8725004 1.1977326 0 53
3.47475 4.8892279 1.259336 0 54
3.4760728 4.891089 1.3175515 0 55
3.4718904 4.8852043 1.3738662 0 56
3.4802098 4.8969102 1.4354423 0 57
3.4686816 4.8806891 1.4890342 0 58
3.4776089 4.8932505 1.5516318 0 59
3.4754314 4.8901868 1.6096686 0 60
3.4726365 4.8862538 1.6676267 0 61
3.4670391 4.8783779 1.7243994 0 62
0 0 0 0 63
1.4002435 2.0224557 -0.73332298 0 0
1.45265 2.0981495 -0.73528022 0 1
1.4995698 2.1659188 -0.73285657 0 2
1.5657611 2.2615228 -0.73801637 0 3
1.6251606 2.3473172 -0.7379331 0 4
1.6834222 2.431468 -0.73543805 0 5
1.7473729 2.5238357 -0.73346382 0 6
1.8333706 2.6480472 -0.73831457 0 7
1.9035863 2.749464 -0.73428398 0 8
1.9915034 2.8764479 -0.73453391 0 9
2.088398 3.0163987 -0.73510724 0 10
2.2006459 3.178525 -0.73769957 0 11
2.3125491 3.3401537 -0.73655194 0 12
2.4454508 3.5321114 -0.73813593 0 13
2.5727553 3.7159851 -0.73383027 0 14
2.7311811 3.9448087 -0.73379093 0 15
2.9215028 4.2197022 -0.736682 0 16
3.1145673 4.4985566 -0.73406935 0 17
3.3448956 4.831234 -0.73340201 0 18
3.3999341 4.9107289 -0.68974048 0 19
3.4061577 4.9197183 -0.63529027 0 20
3.393544 4.9014993 -0.57753944 0 21
3.404387 4.9171605 -0.52390856 0 22
3.3978624 4.9077368 -0.46762374 0 23
3.4030859 4.9152818 -0.41305661 0 24
3.3956997 4.904613 -0.35706416 0 25
3.3995228 4.9101348 -0.30236888 0 26
3.4006937 4.9118261 -0.24740808 0 27
3.4003837 4.9113784 -0.19236754 0 28
3.3966374 4.9059672 -0.13723077 0 29
3.4006414 4.9117508 -0.082426228 0 30
3.4011297 4.912456 -0.027477805 0 31
3.412008 4.9281678 0.02756569 0 32
3.3943436 4.9026542 0.082273573 0 33
3.4071264 4.9211173 0.13765456 0 34
3.3940406 4.9022164 0.19200869 0 35
3.3967755 4.906167 0.24712303 0 36
3.3883348 4.8939757 0.30137378 0 37
3.401252 4.9126325 0.35764799 0 38
3.4025688 4.9145346 0.41299382 0 39
3.3976614 4.9074464 0.46759608 0 40
3.3986261 4.9088397 0.523022 0 41
3.3982913 4.9083562 0.57834738 0 42
3.4026883 4.9147072 0.6346432 0 43
3.3972807 4.9068966 0.68920225 0 44
3.4005616 4.9116354 0.74560738 0 45
3.3935194 4.901464 0.7998153 0 46
3.4022512 4.9140759 0.85790682 0 47
3.4006467 4.9117579 0.91365737 0 48
3.3972793 4.9068947 0.96901035 0 49
3.4006345 4.9117408 1.026449 0 50
3.4105322 4.9260364 1.0862619 0 51
3.4060097 4.9195042 1.1417611 0 52
3.3942275 4.9024868 1.1947536 0 53
3.4000785 4.9109378 1.2540641 0 54
3.3960299 4.9050899 1.309975 0 55
3.3987074 4.908957 1.3686897 0 56
3.3951948 4.9038839 1.4251409 0 57
3.4031386 4.9153576 1.4867319 0 58
3.4001961 4.9111075 1.5439196 0 59
3.3915305 4.898591 1.5985869 0 60
3.3895304 4.8957024 1.6565015 0 61
3.4004893 4.911531 1.7212077 0 62
0 0 0 0 63
1.3807509 2.0476472 -0.73624527 0 0
1.4295087 2.1199546 -0.7367059 0 1
1.4697995 2.1797059 -0.73135102 0 2
1.5284297 2.266654 -0.73350221 0 3
1.5880932 2.3551347 -0.73419619 0 4
1.6507016 2.4479828 -0.73423833 0 5
1.7125736 2.5397387 -0.73191017 0 6
1.8072803 2.6801882 -0.74102384 0 7
1.8703406 2.7737064 -0.73456061 0 8
1.9542325 2.8981175 -0.73387563 0 9
2.0431981 3.0300534 -0.73225671 0 10
2.1424267 3.1772089 -0.7312246 0 11
2.2633197 3.3564925 -0.7339623 0 12
2.3890927 3.5430133 -0.73421943 0 13
2.5204439 3.7378066 -0.73196387 0 14
2.6790066 3.9729543 -0.73284328 0 15
2.859544 4.2406902 -0.73415196 0 16
3.0615706 4.5402946 -0.73468143 0 17
3.290628 4.8799858 -0.73460478 0 18
3.3291767 4.9371538 -0.68765014 0 19
3.3264637 4.9331303 -0.63169247 0 20
3.3265707 4.9332886 -0.5764218 0 21
3.3199096 4.9234104 -0.52018553 0 22
3.3149335 4.9160309 -0.464495 0 23
3.3240583 4.929563 -0.41079083 0 24
3.3240194 4.9295053 -0.35587376 0 25
3.3308861 4.9396887 -0.30164376 0 26
3.3260384 4.9324994 -0.2463707 0 27
3.3168111 4.9188156 -0.19104692 0 28
3.318954 4.9219933 -0.13652714 0 29
3.3392167 4.9520426 -0.082407095 0 30
3.3179412 4.9204912 -0.027292477 0 31
3.3159795 4.917582 0.027276341 0 32
3.3258772 4.9322605 0.082077906 0 33
3.3209286 4.9249215 0.13660838 0 34
3.3228014 4.9276986 0.19139196 0 35
3.3202541 4.9239216 0.24594225 0 36
3.3184092 4.921185 0.30051386 0 37
3.3125718 4.9125285 0.35464817 0 38
3.3243613 4.9300122 0.41082829 0 39
3.32726 4.9343109 0.4662222 0 40
3.3176157 4.9200087 0.51982617 0 41
3.3243098 4.9299359 0.57603002 0 42
3.3250835 4.9310832 0.63143033 0 43
3.3293493 4.9374094 0.68768573 0 44
3.3211975 4.9253206 0.74142921 0 45
3.3245225 4.9302511 0.79778171 0 46
3.3291283 4.9370813 0.85471177 0 47
3.3172843 4.919517 0.90744436 0 48
3.3245282 4.9302597 0.96547854 0 49
3.3314826 4.9405732 1.0238361 0 50
3.328712 4.9364643 1.0794538 0 51
3.3275878 4.9347973 1.135728 0 52
3.318491 4.9213066 1.1893058 0 53
3.3209743 4.9249892 1.2471302 0 54
3.3289304 4.9367881 1.3074095 0 55
3.3157308 4.9172134 1.359521 0 56
3.3275578 4.9347529 1.4221132 0 57
3.3211489 4.9252481 1.4772596 0 58
3.3207686 4.924684 1.5352346 0 59
3.3295588 4.9377203 1.5978745 0 60
3.3237054 4.9290395 1.6538277 0 61
3.3240228 4.9295101 1.7130551 0 62
0 0 0 0 63
1.3506733 2.0571642 -0.73364007 0 0
1.4043689 2.1389463 -0.73724884 0 1
1.4497766 2.2081051 -0.73484272 0 2
1.5026941 2.288702 -0.73460197 0 3
1.5659866 2.3851006 -0.73747915 0 4
1.6270932 2.4781699 -0.73723584 0 5
1.6853013 2.5668249 -0.73368841 0 6
1.7511204 2.6670718 -0.73138869 0 7
1.8316698 2.7897537 -0.73279029 0 8
1.9240665 2.93048 -0.73602384 0 9
2.013706 3.0670068 -0.73514754 0 10
2.1105568 3.2145169 -0.73378259 0 11
2.237241 3.4074655 -0.73903704 0 12
2.3534911 3.5845218 -0.73676842 0 13
2.4867666 3.7875092 -0.73565328 0 14
2.6356089 4.0142059 -0.73441887 0 15
2.8072844 4.2756791 -0.73417765 0 16
2.992964 4.5584812 -0.73161376 0 17
3.2394643 4.933917 -0.73667127 0 18
3.2477913 4.9466 -0.68335181 0 19
3.2451146 4.9425235 -0.62773812 0 20
3.2535148 4.955317 -0.57427776 0 21
3.2457819 4.9435396 -0.51805627 0 22
3.246701 4.9449396 -0.46341926 0 23
3.2480695 4.9470239 -0.4088867 0 24
3.2505286 4.9507689 -0.35449651 0 25
3.2476792 4.9464293 -0.2995941 0 26
3.242758 4.9389338 -0.24468194 0 27
3.2448571 4.942131 -0.19038838 0 28
3.2508037 4.9511881 -0.13621786 0 29
3.2534337 4.955194 -0.081787616 0 30
3.2443717 4.9413915 -0.027185068 0 31
3.248174 4.9471827 0.027216928 0 32
3.2437248 4.9404063 0.081543542 0 33
3.2476792 4.9464293 0.13608694 0 34
3.2515411 4.952311 0.19078055 0 35
3.2527354 4.9541302 0.24543478 0 36
3.2385256 4.932488 0.29874972 0 37
3.2435098 4.9400792 0.35373107 0 38
3.2402453 4.9351072 0.40790176 0 39
3.2511537 4.9517212 0.46405479 0 40
3.2537479 4.9556723 0.5193277 0 41
3.2452877 4.9427867 0.57282561 0 42
3.2436113 4.9402337 0.62744731 0 43
3.2497158 4.9495311 0.68375677 0 44
