# .PCD v0.7 - Point Cloud Data file format
VERSION 0.7
FIELDS x y z intensity ring
SIZE 4 4 4 4 2
TYPE F F F F U
COUNT 1 1 1 1 1
WIDTH 1252
HEIGHT 1
VIEWPOINT 0 0 0 1 0 0 0
POINTS 1252
DATA ascii
-0.42933401 2.9509804 0.65478069 0 55
-0.42707407 2.935447 0.67999148 0 56
-0.42792204 2.9412754 0.7101773 0 57
-0.42729038 2.9369338 0.73804903 0 58
-0.427782 2.9403129 0.76798415 0 59
-0.42471558 2.9192362 0.79149425 0 60
-0.42750189 2.9383876 0.82603681 0 61
-0.4278554 2.9408174 0.85624486 0 62
-0.42873099 2.9468355 0.88773978 0 63
-0.38435736 2.4315972 -0.73389155 0 0
-0.39908811 2.5247898 -0.73648793 0 1
-0.41137943 2.6025498 -0.73299301 0 2
-0.4263846 2.6974783 -0.73273504 0 3
-0.4432877 2.804414 -0.7338568 0 4
-0.45654365 2.8882763 -0.72717726 0 5
-0.45370072 2.8702908 -0.69433248 0 6
-0.45480657 2.8772869 -0.66776383 0 7
-0.45422709 2.873621 -0.63880676 0 8
-0.45598724 2.8847566 -0.6131807 0 9
-0.45568493 2.8828437 -0.58479953 0 10
-0.45405784 2.8725502 -0.55493933 0 11
-0.45544451 2.8813229 -0.52887475 0 12
-0.45473382 2.8768268 -0.50042576 0 13
-0.45328653 2.8676705 -0.47138408 0 14
-0.45455471 2.8756936 -0.44525927 0 15
-0.45365953 2.8700304 -0.41706979 0 16
-0.45476046 2.8769951 -0.3907752 0 17
-0.45567861 2.8828039 -0.36426976 0 18
-0.45544323 2.8813148 -0.33686385 0 19
-0.4552387 2.8800209 -0.3095648 0 20
-0.45389861 2.8715429 -0.28163847 0 21
-0.45263165 2.8635275 -0.25396067 0 22
-0.45692509 2.8906896 -0.22926657 0 23
-0.45241749 2.8621728 -0.2002078 0 24
-0.45218301 2.8606892 -0.17335491 0 25
-0.45393047 2.8717444 -0.1472019 0 26
-0.45456704 2.8757715 -0.12057278 0 27
-0.45320296 2.867142 -0.09347631 0 28
-0.45389822 2.8715405 -0.066859908 0 29
-0.45537689 2.8808949 -0.040242087 0 30
-0.4532364 2.8673534 -0.013350224 0 31
-0.45378807 2.8708436 0.013366474 0 32
-0.453632 2.8698561 0.04008789 0 33
-0.4527615 2.8643491 0.066692464 0 34
-0.45608962 2.8854041 0.094071701 0 35
-0.45397854 2.8720484 0.12041668 0 36
-0.45304385 2.8661354 0.14691438 0 37
-0.45404124 2.8724451 0.1740673 0 38
-0.45605591 2.8851907 0.20181791 0 39
-0.45352834 2.8692002 0.2275622 0 40
-0.45448634 2.8752611 0.25500131 0 41
-0.45360452 2.8696823 0.28145602 0 42
-0.45637596 2.8872154 0.31033814 0 43
-0.4539012 2.8715591 0.33572331 0 44
-0.45385391 2.8712602 0.36281109 0 45
-0.45573935 2.883188 0.39161634 0 46
-0.4575372 2.894562 0.42063472 0 47
-0.45389709 2.8715332 0.4446151 0 48
-0.45368341 2.8701816 0.47179684 0 49
-0.45688957 2.8904648 0.50279808 0 50
-0.45353571 2.869247 0.52665818 0 51
-0.45484874 2.8775537 0.55590594 0 52
-0.45476779 2.8770416 0.58362257 0 53
-0.45300311 2.8658776 0.60916781 0 54
-0.45267302 2.8637893 0.63662118 0 55
-0.4545821 2.8758669 0.66743428 0 56
-0.45245919 2.8624365 0.69243252 0 57
-0.45577261 2.8833985 0.72594917 0 58
-0.45639831 2.887357 0.75556129 0 59
-0.45468974 2.8765478 0.78137696 0 60
-0.4552691 2.880213 0.81119525 0 61
-0.45385647 2.8712761 0.83755893 0 62
-0.45608088 2.8853488 0.87084037 0 63
-0.41419035 2.4264781 -0.73382819 0 0
-0.42591408 2.4951601 -0.72931743 0 1
-0.44424176 2.6025302 -0.73447049 0 2
-0.46053863 2.6980033 -0.73436046 0 3
-0.47700164 2.7944496 -0.73272878 0 4
-0.47869617 2.8043766 -0.7074824 0 5
-0.47823149 2.8016546 -0.67910033 0 6
-0.47814101 2.8011243 -0.65140319 0 7
-0.47740582 2.7968173 -0.62299114 0 8
-0.47767776 2.7984104 -0.59603053 0 9
-0.48001337 2.8120933 -0.57160163 0 10
-0.47835836 2.8023977 -0.54248208 0 11
-0.47954059 2.8093238 -0.51670235 0 12
-0.47727621 2.7960579 -0.48736 0 13
-0.47775289 2.7988508 -0.46100238 0 14
-0.48081055 2.8167636 -0.4370172 0 15
-0.47673294 2.7928755 -0.40667886 0 16
-0.47902113 2.8062804 -0.38194138 0 17
-0.4789649 2.8059509 -0.35527602 0 18
-0.47707403 2.7948737 -0.32741886 0 19
-0.4791638 2.8071163 -0.30233896 0 20
-0.48055759 2.8152816 -0.27667907 0 21
-0.47754878 2.7976549 -0.24862055 0 22
-0.4797563 2.8105874 -0.22336449 0 23
-0.4792524 2.8076353 -0.19679028 0 24
-0.47776529 2.7989233 -0.16995512 0 25
-0.47988287 2.8113286 -0.14439663 0 26
-0.47974214 2.8105044 -0.11807472 0 27
-0.48035863 2.814116 -0.091933146 0 28
-0.48034489 2.8140354 -0.06565354 0 29
-0.47774741 2.7988186 -0.039174695 0 30
-0.47908226 2.8066387 -0.013093978 0 31
-0.47650859 2.7915611 0.013023636 0 32
-0.47925493 2.8076501 0.039298307 0 33
-0.47908396 2.8066485 0.065481201 0 34
-0.4775897 2.7978947 0.091403224 0 35
-0.47960791 2.8097179 0.11804168 0 36
-0.47744703 2.7970588 0.14366369 0 37
-0.48047471 2.814796 0.17091893 0 38
-0.4787899 2.8049259 0.19660038 0 39
-0.47775257 2.7988486 0.2224316 0 40
-0.47825554 2.8017955 0.24898851 0 41
-0.47798789 2.8002272 0.27519956 0 42
-0.47792098 2.7998354 0.3015548 0 43
-0.47709826 2.7950156 0.32743549 0 44
-0.4793295 2.8080871 0.35554647 0 45
-0.47614923 2.7894557 0.37965149 0 46
-0.47893956 2.8058026 0.4085612 0 47
-0.47815144 2.8011854 0.43460029 0 48
-0.47692928 2.7940257 0.46020764 0 49
-0.47981682 2.8109419 0.48995429 0 50
-0.48024389 2.8134439 0.51746017 0 51
-0.477918 2.799818 0.54198271 0 52
-0.47732228 2.7963278 0.56839705 0 53
-0.47883943 2.8052158 0.59748 0 54
-0.47931698 2.8080134 0.62548512 0 55
-0.47766358 2.7983274 0.65075278 0 56
-0.4811857 2.8189614 0.68329537 0 57
-0.47779483 2.7990961 0.70615029 0 58
-0.47940201 2.8085117 0.73641604 0 59
-0.47854009 2.8034623 0.76306498 0 60
-0.48013648 2.8128147 0.79381573 0 61
-0.47807553 2.800741 0.81863648 0 62
-0.47872362 2.8045375 0.84816289 0 63
-0.44458342 2.4244168 -0.73480254 0 0
-0.45706114 2.4924607 -0.73011595 0 1
-0.47448292 2.5874658 -0.73181033 0 2
-0.49560127 2.7026291 -0.73722249 0 3
-0.501019 2.732173 -0.71796048 0 4
-0.50317526 2.7439318 -0.69374198 0 5
-0.50288045 2.7423241 -0.66616756 0 6
-0.50391001 2.7479386 -0.64042735 0 7
-0.50352085 2.7458162 -0.6129635 0 8
-0.50150377 2.7348168 -0.58375508 0 9
-0.50310093 2.7435265 -0.55887955 0 10
-0.50321645 2.7441561 -0.53236538 0 11
-0.50306273 2.7433181 -0.50566185 0 12
-0.50458407 2.7516143 -0.4806585 0 13
-0.50160861 2.7353883 -0.45153123 0 14
-0.50146711 2.7346168 -0.42519677 0 15
-0.50450426 2.751179 -0.40148029 0 16
-0.50128841 2.7336423 -0.37286592 0 17
-0.50342757 2.7453077 -0.34835511 0 18
-0.50127679 2.7335789 -0.32093605 0 19
-0.50396872 2.7482586 -0.29664475 0 20
-0.50178075 2.7363269 -0.26950562 0 21
-0.504273 2.7499177 -0.24491081 0 22
-0.5022558 2.7389178 -0.21814306 0 23
-0.50344145 2.7453833 -0.19284628 0 24
-0.50295168 2.7427125 -0.16690482 0 25
-0.50142503 2.7343874 -0.14075078 0 26
-0.50154537 2.7350433 -0.11515485 0 27
-0.50037205 2.7286451 -0.089335181 0 28
-0.50134301 2.7339401 -0.063923851 0 29
-0.5026387 2.7410057 -0.038449097 0 30
-0.49940482 2.7233706 -0.012733189 0 31
-0.50434607 2.7503164 0.012859176 0 32
-0.5019021 2.7369888 0.038392752 0 33
-0.50300026 2.7429771 0.064135157 0 34
-0.50341755 2.7452528 0.089878924 0 35
-0.50305015 2.7432494 0.11550035 0 36
-0.50376147 2.7471285 0.14140663 0 37
-0.50196326 2.7373223 0.1665768 0 38
-0.50153399 2.7349815 0.19211562 0 39
-0.50208282 2.7379744 0.21806793 0 40
-0.50466633 2.7520628 0.24510184 0 41
-0.49996039 2.7264001 0.26852793 0 42
-0.50207418 2.7379272 0.2955296 0 43
-0.50265384 2.7410882 0.32181767 0 44
-0.50334024 2.7448313 0.34829468 0 45
-0.50429541 2.7500401 0.37510255 0 46
-0.50254077 2.7404716 0.39991775 0 47
-0.500121 2.7272763 0.42405543 0 48
-0.50508517 2.7543468 0.45466071 0 49
-0.50402158 2.7485468 0.48012266 0 50
-0.5001232 2.727288 0.50270712 0 51
-0.50531209 2.7555845 0.5345825 0 52
-0.50418818 2.7494552 0.56008732 0 53
-0.50225931 2.7389369 0.58463454 0 54
-0.5037213 2.7469094 0.61320752 0 55
-0.50287563 2.7422976 0.63911271 0 56
-0.50331914 2.7447162 0.6667487 0 57
-0.50086087 2.7313108 0.69055104 0 58
-0.50153267 2.7349741 0.71869659 0 59
-0.50200075 2.7375269 0.74674195 0 60
-0.50208592 2.7379913 0.77438337 0 61
-0.50483167 2.7529645 0.80642533 0 62
-0.49954522 2.7241364 0.82564276 0 63
-0.47429904 2.4184597 -0.73470914 0 0
-0.49220982 2.5097871 -0.73690861 0 1
-0.50594366 2.5798161 -0.73135108 0 2
-0.5239585 2.6716743 -0.73048097 0 3
-0.52680731 2.6862001 -0.70752853 0 4
-0.52763498 2.6904206 -0.68180168 0 5
-0.52724624 2.6884382 -0.65460306 0 6
-0.5248968 2.6764586 -0.62522537 0 7
-0.52525693 2.6782951 -0.59928691 0 8
-0.52644587 2.6843574 -0.57432276 0 9
-0.52830946 2.6938598 -0.55004382 0 10
-0.52739406 2.6891923 -0.52292103 0 11
-0.52769262 2.6907144 -0.49712417 0 12
-0.52602184 2.6821952 -0.46962655 0 13
-0.52565247 2.6803117 -0.44347313 0 14
-0.52343595 2.6690097 -0.41596511 0 15
-0.52538711 2.6789587 -0.39185429 0 16
-0.52776784 2.6910982 -0.36792031 0 17
-0.52806097 2.6925929 -0.34246412 0 18
-0.52709758 2.6876805 -0.31628436 0 19
-0.52815819 2.6930885 -0.29136875 0 20
-0.52520919 2.6780515 -0.26438206 0 21
-0.52554488 2.6797631 -0.2392202 0 22
-0.52253568 2.6644192 -0.21270524 0 23
-0.52444571 2.6741583 -0.18828194 0 24
-0.52472574 2.6755862 -0.16320023 0 25
-0.52540112 2.6790299 -0.13822339 0 26
-0.52688539 2.6865985 -0.11337936 0 27
-0.52721679 2.6882882 -0.088219494 0 28
-0.52565372 2.6803181 -0.062816471 0 29
-0.52786851 2.6916115 -0.037844416 0 30
-0.5262925 2.6835754 -0.012576434 0 31
-0.52640039 2.6841254 0.012579012 0 32
-0.52639759 2.6841109 0.03773896 0 33
-0.52550238 2.6795464 0.062798381 0 34
-0.52449775 2.6744239 0.087764516 0 35
-0.52808726 2.6927269 0.11363799 0 36
-0.52645582 2.6844079 0.13850088 0 37
-0.52728772 2.6886501 0.16399708 0 38
-0.52747536 2.6896067 0.18936962 0 39
-0.52539915 2.6790202 0.21387085 0 40
-0.52514482 2.6777232 0.23903811 0 41
-0.52703768 2.6873748 0.26530248 0 42
-0.52713168 2.6878543 0.29080245 0 43
-0.52549243 2.6794956 0.31532118 0 44
-0.52746224 2.6895399 0.34207582 0 45
-0.52702022 2.6872859 0.3673991 0 46
-0.5257169 2.6806402 0.39210027 0 47
-0.52638423 2.6840429 0.41830802 0 48
-0.5268836 2.6865895 0.44451183 0 49
-0.52184093 2.6608768 0.46589389 0 50
-0.52635765 2.6839075 0.49586654 0 51
-0.52439868 2.6739187 0.51995105 0 52
-0.5285486 2.6950791 0.55029279 0 53
-0.5251199 2.6775961 0.57287616 0 54
-0.52619922 2.6830997 0.60036194 0 55
-0.52560896 2.68009 0.62607366 0 56
-0.52362436 2.6699703 0.65010631 0 57
-0.52532506 2.6786423 0.67881685 0 58
-0.52424186 2.6731191 0.70408303 0 59
-0.52335322 2.6685877 0.72963703 0 60
-0.52468199 2.6753633 0.75843775 0 61
-0.52519113 2.6779592 0.78628635 0 62
-0.52483714 2.6761541 0.81299472 0 63
-0.50206089 2.4031658 -0.73188317 0 0
-0.52039176 2.4909086 -0.73318905 0 1
-0.54104447 2.5897648 -0.73600179 0 2
-0.54889023 2.6273193 -0.72014451 0 3
-0.54915857 2.6286039 -0.69408417 0 4
-0.5483551 2.6247578 -0.66681987 0 5
-0.54958856 2.630662 -0.6421321 0 6
-0.54668438 2.616761 -0.61280394 0 7
-0.54966855 2.6310449 -0.59018207 0 8
-0.5497945 2.6316476 -0.56444913 0 9
-0.54681808 2.6174006 -0.53576446 0 10
-0.54781622 2.6221786 -0.51116121 0 11
-0.54525554 2.6099215 -0.48339942 0 12
-0.54735547 2.6199732 -0.45987579 0 13
-0.55013216 2.6332638 -0.43677503 0 14
-0.54564852 2.6118026 -0.40806419 0 15
-0.54904407 2.6280558 -0.38536707 0 16
-0.5498125 2.6317339 -0.3607012 0 17
-0.54808748 2.623477 -0.33450535 0 18
-0.54598737 2.6134245 -0.30831274 0 19
-0.54711241 2.6188097 -0.28403878 0 20
-0.54825521 2.6242797 -0.25971952 0 21
-0.54930967 2.6293268 -0.235303 0 22
-0.54870683 2.6264415 -0.21019617 0 23
-0.5487929 2.6268535 -0.18541241 0 24
-0.54355168 2.6017661 -0.15909316 0 25
-0.5479151 2.6226518 -0.13565195 0 26
-0.54845923 2.6252563 -0.11106683 0 27
-0.54495949 2.6085043 -0.085814707 0 28
-0.54667205 2.6167018 -0.06147844 0 29
-0.54748493 2.6205928 -0.036937747 0 30
-0.54825294 2.624269 -0.012329159 0 31
-0.54940945 2.6298046 0.012355166 0 32
-0.54487771 2.6081131 0.036761843 0 33
-0.54705894 2.6185536 0.061521947 0 34
-0.54698789 2.6182134 0.086134113 0 35
-0.54900092 2.6278493 0.11117653 0 36
-0.54863238 2.626085 0.13582954 0 37
-0.54700166 2.6182795 0.16010292 0 38
-0.54592216 2.6131124 0.18444251 0 39
-0.54967129 2.631058 0.21056561 0 40
-0.55076861 2.6363103 0.23592795 0 41
-0.54691541 2.6178668 0.25908485 0 42
-0.54880601 2.6269162 0.28491804 0 43
-0.54752964 2.6208067 0.30918363 0 44
-0.54581821 2.6126149 0.33312038 0 45
-0.54577392 2.6124029 0.35805172 0 46
-0.54656804 2.6162038 0.38362914 0 47
-0.54854971 2.6256893 0.41023386 0 48
-0.54689062 2.6177478 0.43420145 0 49
-0.55043817 2.6347287 0.46246576 0 50
-0.548796 2.6268682 0.48653823 0 51
-0.54756057 2.6209548 0.51092267 0 52
-0.54926914 2.629133 0.53816599 0 53
-0.54895616 2.6276348 0.56358844 0 54
-0.54708046 2.6186569 0.58740324 0 55
-0.54677719 2.6172049 0.61290789 0 56
-0.54909444 2.6282971 0.64155483 0 57
-0.54469723 2.607249 0.66237181 0 58
-0.55150175 2.6398196 0.69704568 0 59
-0.54718983 2.6191804 0.71791363 0 60
-0.54934835 2.6295121 0.74729788 0 61
-0.54803652 2.6232331 0.77213818 0 62
-0.54863602 2.6261024 0.7997784 0 63
-0.53021389 2.3906915 -0.7300145 0 0
-0.55029005 2.4812131 -0.73227161 0 1
-0.56820804 2.5620039 -0.73004276 0 2
-0.56671798 2.5552852 -0.70225704 0 3
-0.56829298 2.562387 -0.67839342 0 4
-0.57067961 2.5731478 -0.65544158 0 5
-0.57027578 2.5713272 -0.62931293 0 6
-0.56996286 2.5699162 -0.60342932 0 7
-0.56724936 2.5576813 -0.57524669 0 8
-0.56879598 2.5646546 -0.55153865 0 9
-0.57268333 2.5821826 -0.52995694 0 10
-0.5703007 2.5714395 -0.5025993 0 11
-0.5680908 2.5614753 -0.47568426 0 12
-0.56907362 2.5659068 -0.45157981 0 13
-0.56708503 2.5569403 -0.42523986 0 14
-0.56684309 2.5558493 -0.40038088 0 15
-0.571648 2.5775144 -0.37895799 0 16
-0.56921697 2.5665531 -0.35270029 0 17
-0.57113099 2.5751834 -0.32921824 0 18
-0.57042432 2.5719967 -0.30422989 0 19
-0.56945765 2.5676382 -0.27922705 0 20
-0.56873077 2.5643606 -0.25446236 0 21
-0.57031679 2.571512 -0.23073919 0 22
-0.56773728 2.5598812 -0.20541248 0 23
-0.57011724 2.5706122 -0.18192378 0 24
-0.56532252 2.5489933 -0.15627946 0 25
-0.56845856 2.5631335 -0.13292497 0 26
-0.56802732 2.5611892 -0.10864362 0 27
-0.56476963 2.5465004 -0.083997011 0 28
-0.56823397 2.5621207 -0.060355674 0 29
-0.56703568 2.5567179 -0.036132965 0 30
-0.56978679 2.5691223 -0.012102075 0 31
-0.57158566 2.5772331 0.012140281 0 32
-0.56334162 2.5400615 0.035897568 0 33
-0.56574047 2.5508778 0.060090829 0 34
-0.56780481 2.5601857 0.08444842 0 35
-0.57099199 2.5745564 0.10921065 0 36
-0.5695641 2.5681181 0.13318348 0 37
-0.56967688 2.5686266 0.15748318 0 38
-0.56601894 2.5521333 0.18061601 0 39
-0.56975883 2.5689962 0.20614387 0 40
-0.56577879 2.5510504 0.2289032 0 41
-0.5687604 2.5644944 0.25447562 0 42
-0.57300943 2.583653 0.28096864 0 43
-0.57180589 2.5782263 0.30496675 0 44
-0.56839263 2.5628362 0.32763976 0 45
-0.56730437 2.5579293 0.35151517 0 46
-0.56698948 2.5565095 0.37586972 0 47
-0.56717837 2.5573611 0.40061772 0 48
-0.56865197 2.5640056 0.42641488 0 49
-0.56829256 2.5623851 0.45096001 0 50
-0.57153606 2.5770097 0.47856912 0 51
-0.57037622 2.57178 0.50266588 0 52
-0.56871825 2.5643044 0.52628767 0 53
-0.57061583 2.5728605 0.5533033 0 54
-0.56782556 2.5602791 0.575831 0 55
-0.57042837 2.572015 0.60392213 0 56
-0.56864256 2.5639629 0.62751061 0 57
-0.57041878 2.5719719 0.65514207 0 58
-0.5697391 2.5689075 0.68011975 0 59
-0.56923956 2.5666549 0.70538175 0 60
-0.57105857 2.5748568 0.73370516 0 61
-0.56741053 2.5584078 0.75505382 0 62
-0.57050866 2.5723772 0.78549349 0 63
-0.56040043 2.3875351 -0.73109961 0 0
-0.58367622 2.4866996 -0.73595327 0 1
-0.59152663 2.5201454 -0.72013336 0 2
-0.58610862 2.4970624 -0.68818462 0 3
-0.59458196 2.5331624 -0.67254102 0 4
-0.58944309 2.5112686 -0.64147723 0 5
-0.58813733 2.5057056 -0.61497599 0 6
-0.58776343 2.5041127 -0.58963072 0 7
-0.58734554 2.5023322 -0.56437987 0 8
-0.59012419 2.5141704 -0.54220134 0 9
-0.59104222 2.5180817 -0.51825356 0 10
-0.58920419 2.5102508 -0.49201861 0 11
-0.58990687 2.5132444 -0.46803916 0 12
-0.58734274 2.5023203 -0.44162673 0 13
-0.59085798 2.5172968 -0.41982338 0 14
-0.58862412 2.5077796 -0.39395469 0 15
-0.59076232 2.5168893 -0.37108457 0 16
-0.59028304 2.5148473 -0.34656602 0 17
-0.58944023 2.5112565 -0.32194793 0 18
-0.59118766 2.5187013 -0.2987631 0 19
-0.58836663 2.5066824 -0.27336431 0 20
-0.59275287 2.5253696 -0.25129753 0 21
-0.59073234 2.5167613 -0.22646113 0 22
-0.5879271 2.5048099 -0.20155826 0 23
-0.58690673 2.5004628 -0.17745657 0 24
-0.58886707 2.5088146 -0.15424837 0 25
-0.58787352 2.5045815 -0.13025348 0 26
-0.58879775 2.5085192 -0.10670846 0 27
-0.58798933 2.505075 -0.082862809 0 28
-0.58935869 2.5109091 -0.059315521 0 29
-0.58898073 2.509299 -0.035562478 0 30
-0.58964908 2.5121462 -0.011866941 0 31
-0.58782232 2.5043635 0.011830177 0 32
-0.58975595 2.5126016 0.035609286 0 33
-0.58696383 2.500706 0.059074491 0 34
-0.58831936 2.5064809 0.082909316 0 35
-0.58886474 2.5088046 0.1067206 0 36
-0.59200275 2.5221736 0.1311684 0 37
-0.59166133 2.5207191 0.1549803 0 38
-0.58757144 2.5032947 0.17765756 0 39
-0.58740842 2.5026002 0.20138045 0 40
-0.59036309 2.5151882 0.22631958 0 41
-0.58941197 2.5111361 0.24988115 0 42
-0.58714008 2.501457 0.27279446 0 43
-0.59080803 2.5170839 0.29857123 0 44
-0.59016263 2.5143342 0.32234251 0 45
-0.58993495 2.5133643 0.34636167 0 46
-0.58790135 2.5047004 0.36928746 0 47
-0.59114957 2.518539 0.3956449 0 48
-0.58978504 2.5127256 0.41906103 0 49
-0.59077811 2.5169566 0.44420984 0 50
-0.58621919 2.4975336 0.46511331 0 51
-0.58689833 2.5004268 0.49009308 0 52
-0.58705693 2.5011024 0.514759 0 53
-0.59164375 2.5206444 0.54359752 0 54
-0.58917129 2.5101106 0.56613421 0 55
-0.59082872 2.5171719 0.59270573 0 56
-0.58758098 2.5033352 0.61439425 0 57
-0.58887964 2.5088682 0.64086407 0 58
-0.5895012 2.5115163 0.66679412 0 59
-0.59000069 2.5136442 0.69275451 0 60
-0.58952999 2.5116389 0.71770269 0 61
-0.58935785 2.5109055 0.74311721 0 62
-0.58970815 2.5123978 0.76933444 0 63
-0.59406114 2.3980114 -0.73648882 0 0
-0.60481364 2.4414155 -0.72469747 0 1
-0.60855961 2.4565365 -0.7040422 0 2
-0.60794711 2.4540641 -0.67834342 0 3
-0.60832816 2.4556024 -0.65388584 0 4
-0.6090225 2.4584053 -0.62983918 0 5
-0.61094505 2.466166 -0.60706967 0 6
-0.60857844 2.4566126 -0.58016437 0 7
-0.60735118 2.4516585 -0.55459332 0 8
-0.60725671 2.4512775 -0.53020823 0 9
-0.61165148 2.4690175 -0.50966489 0 10
-0.61142743 2.4681129 -0.48519638 0 11
-0.60898978 2.4582732 -0.45916173 0 12
-0.6069842 2.4501772 -0.43370867 0 13
-0.61084414 2.4657586 -0.41244957 0 14
-0.60785168 2.4536791 -0.38660082 0 15
-0.60926139 2.4593697 -0.36368108 0 16
-0.60918349 2.4590549 -0.33988401 0 17
-0.60584408 2.4455752 -0.31445876 0 18
-0.61161262 2.4688606 -0.29372099 0 19
-0.60932463 2.4596248 -0.26902923 0 20
-0.60869586 2.4570868 -0.24522902 0 21
-0.60885417 2.4577258 -0.22180593 0 22
-0.60889912 2.457907 -0.19837154 0 23
-0.61111343 2.4668455 -0.17559081 0 24
-0.60911816 2.4587915 -0.15162186 0 25
-0.60599965 2.446203 -0.12759534 0 26
-0.60740834 2.4518893 -0.10460933 0 27
-0.61041301 2.4640181 -0.081746832 0 28
-0.60851312 2.4563491 -0.058199007 0 29
-0.60946119 2.460176 -0.034969863 0 30
-0.6132772 2.4755797 -0.011728944 0 31
-0.60937876 2.4598434 0.011654387 0 32
-0.60871488 2.4571636 0.03492704 0 33
-0.61112469 2.4668911 0.05844878 0 34
-0.6076442 2.4528415 0.081376038 0 35
-0.6083703 2.4557724 0.104775 0 36
-0.61033398 2.4636991 0.12850794 0 37
-0.60715264 2.4508572 0.15113258 0 38
-0.61103547 2.4665308 0.17556842 0 39
-0.60708731 2.4505935 0.19778129 0 40
-0.61300445 2.474479 0.22331789 0 41
-0.60918421 2.4590578 0.24542573 0 42
-0.61142814 2.468116 0.26995799 0 43
-0.60834819 2.4556832 0.29215327 0 44
-0.60723847 2.4512036 0.31518251 0 45
-0.61023271 2.4632902 0.34046942 0 46
-0.60786241 2.4537225 0.36284599 0 47
-0.60742474 2.4519556 0.38632926 0 48
-0.61091489 2.4660442 0.41249737 0 49
-0.61070651 2.465203 0.43636838 0 50
-0.60628349 2.4473486 0.45712125 0 51
-0.60963213 2.4608662 0.48377177 0 52
-0.60650057 2.448225 0.50537288 0 53
-0.60760802 2.4526954 0.5305149 0 54
-0.60767406 2.4529622 0.55488819 0 55
-0.60522276 2.4430671 0.57696539 0 56
-0.61152679 2.4685142 0.60764772 0 57
-0.60701191 2.450289 0.62775981 0 58
-0.61233813 2.4717891 0.65819609 0 59
-0.60917091 2.4590044 0.67970896 0 60
-0.6106056 2.4647956 0.70640922 0 61
-0.61026841 2.4634345 0.73123348 0 62
-0.60844278 2.4560652 0.75431854 0 63
-0.62357366 2.3908043 -0.73657459 0 0
-0.62628061 2.4011827 -0.71498686 0 1
-0.62670308 2.4028025 -0.6907984 0 2
-0.63124007 2.4201975 -0.67107689 0 3
-0.62654024 2.402178 -0.64166284 0 4
-0.62630284 2.401268 -0.61712712 0 5
-0.62956423 2.4137721 -0.59603304 0 6
-0.62551349 2.3982418 -0.56815279 0 7
-0.63002902 2.4155543 -0.54813719 0 8
-0.62932795 2.4128664 -0.52353424 0 9
-0.6253705 2.3976934 -0.49649176 0 10
-0.62655574 2.4022377 -0.47372499 0 11
-0.6270476 2.4041235 -0.45045367 0 12
-0.63024664 2.4163888 -0.42906708 0 13
-0.62963545 2.4140453 -0.4050639 0 14
-0.62445688 2.3941905 -0.37840909 0 15
-0.6267451 2.4029639 -0.3564527 0 16
-0.6302557 2.4164233 -0.33503744 0 17
-0.62529635 2.3974092 -0.30923074 0 18
-0.63113308 2.4197874 -0.28878418 0 19
-0.62404835 2.3926244 -0.26252031 0 20
-0.62500805 2.3963037 -0.23991147 0 21
-0.62964225 2.4140713 -0.21854842 0 22
-0.62779677 2.4069958 -0.19487093 0 23
-0.62673444 2.4029229 -0.17157637 0 24
-0.62586403 2.3995855 -0.14843427 0 25
-0.6268971 2.4035463 -0.12576292 0 26
-0.62622952 2.4009871 -0.10275836 0 27
-0.62838858 2.4092648 -0.080180615 0 28
-0.62960893 2.4139435 -0.057373375 0 29
-0.62744451 2.4056451 -0.034301817 0 30
-0.6284498 2.4094996 -0.011451613 0 31
-0.62881875 2.4109142 0.011458336 0 32
-0.62738603 2.405421 0.034298617 0 33
-0.63073909 2.4182768 0.057476364 0 34
-0.62708235 2.4042566 0.080013938 0 35
-0.62747431 2.4057596 0.10296261 0 36
-0.62808716 2.4081092 0.12600167 0 37
-0.62427318 2.3934863 0.14805698 0 38
-0.62971735 2.4143593 0.17239296 0 39
-0.62730491 2.4051099 0.19471826 0 40
-0.62907368 2.4118917 0.21835108 0 41
-0.62451041 2.3943956 0.23972045 0 42
-0.62873042 2.4105754 0.26448992 0 43
-0.62785423 2.4072161 0.2872839 0 44
-0.62422758 2.3933113 0.30870217 0 45
-0.62851012 2.4097307 0.33410949 0 46
-0.63045412 2.4171841 0.35856214 0 47
-0.62775433 2.4068329 0.38040727 0 48
-0.62869275 2.4104311 0.40445745 0 49
-0.62442142 2.3940544 0.42510128 0 50
-0.63021892 2.4162827 0.45273188 0 51
-0.62822109 2.4086227 0.47498411 0 52
-0.6313132 2.4204779 0.50120974 0 53
-0.6294812 2.4134541 0.52366167 0 54
-0.62468684 2.3950722 0.5434894 0 55
-0.62831402 2.4089789 0.57069647 0 56
-0.628874 2.4111259 0.59537959 0 57
-0.62565821 2.3987966 0.61649197 0 58
-0.62860781 2.4101055 0.64378035 0 59
-0.62522411 2.3971322 0.66468132 0 60
-0.63055736 2.4175801 0.6950469 0 61
-0.6249907 2.3962371 0.71351427 0 62
-0.62751001 2.4058964 0.74122423 0 63
-0.64511609 2.3544645 -0.72776771 0 0
-0.6505233 2.3741992 -0.70928037 0 1
-0.6456005 2.3562324 -0.67964065 0 2
-0.64573103 2.3567088 -0.65562475 0 3
-0.6495055 2.3704846 -0.63528228 0 4
-0.64202374 2.3431785 -0.60418135 0 5
-0.64059269 2.3379557 -0.57921296 0 6
-0.64563441 2.3563564 -0.56006843 0 7
-0.6441642 2.3509905 -0.53524333 0 8
-0.64403409 2.3505156 -0.51168519 0 9
-0.64470011 2.3529463 -0.48883057 0 10
-0.64330262 2.3478458 -0.46452367 0 11
-0.64535552 2.3553386 -0.44276637 0 12
-0.64289743 2.3463671 -0.41800579 0 13
-0.64252585 2.3450112 -0.3947762 0 14
-0.64677697 2.3605261 -0.37431702 0 15
-0.6416747 2.3419046 -0.34853935 0 16
-0.64103931 2.3395855 -0.32545218 0 17
-0.64655501 2.3597162 -0.30537128 0 18
-0.64689583 2.36096 -0.28269151 0 19
-0.64951348 2.3705134 -0.26095089 0 20
-0.64715731 2.3619142 -0.23724727 0 21
-0.64251482 2.3449709 -0.21299183 0 22
-0.64587736 2.3572431 -0.19147144 0 23
-0.64641637 2.35921 -0.16900991 0 24
-0.64489853 2.3536706 -0.14607354 0 25
-0.64758509 2.3634756 -0.12407354 0 26
-0.64113182 2.3399234 -0.10047474 0 27
-0.64412135 2.3508341 -0.078493692 0 28
-0.64546233 2.3557281 -0.056174137 0 29
-0.63877481 2.331321 -0.033351514 0 30
-0.64658219 2.3598154 -0.011252415 0 31
-0.64006186 2.3360183 0.011138943 0 32
-0.64619488 2.3584018 0.033738926 0 33
-0.64382887 2.3497665 0.056031976 0 34
-0.64368391 2.3492374 0.078440383 0 35
-0.64577961 2.3568861 0.10120311 0 36
-0.64384449 2.3498237 0.12335686 0 37
-0.64447761 2.3521342 0.14597818 0 38
-0.64260125 2.3452861 0.16801243 0 39
-0.6462239 2.3585076 0.19157417 0 40
-0.64342701 2.3483 0.21329421 0 41
-0.64487034 2.3535678 0.23640889 0 42
-0.64505363 2.3542366 0.25915909 0 43
-0.64556116 2.3560889 0.28210825 0 44
-0.64585209 2.3571508 0.30503929 0 45
-0.64525235 2.3549619 0.32759112 0 46
-0.64347064 2.348459 0.34951484 0 47
-0.64522928 2.3548775 0.37342131 0 48
-0.64605802 2.3579023 0.3969464 0 49
-0.64880282 2.3679199 0.42184541 0 50
-0.64441854 2.3519187 0.4421235 0 51
-0.64172673 2.3420944 0.46338576 0 52
-0.64529532 2.3551185 0.48928183 0 53
-0.64232808 2.3442893 0.51032978 0 54
-0.64785939 2.3644767 0.53831375 0 55
-0.64256686 2.3451607 0.55740738 0 56
-0.64786512 2.3644974 0.58578849 0 57
-0.64687842 2.3608966 0.60874987 0 58
-0.64417654 2.3510356 0.63006997 0 59
-0.64536631 2.3553779 0.65525448 0 60
-0.64701396 2.3613911 0.68112862 0 61
-0.6395725 2.3342323 0.69734049 0 62
-0.64479911 2.3533077 0.72741014 0 63
-0.66116393 2.3016119 -0.71388996 0 0
-0.66343927 2.3095329 -0.69234645 0 1
-0.66294569 2.3078146 -0.66797566 0 2
-0.66247404 2.3061726 -0.64378339 0 3
-0.66253167 2.3063734 -0.62023705 0 4
-0.6649155 2.3146718 -0.59889388 0 5
-0.66055638 2.2994971 -0.57165414 0 6
-0.66272348 2.3070409 -0.55024225 0 7
-0.66218525 2.3051674 -0.52662486 0 8
-0.66307312 2.3082581 -0.50422293 0 9
-0.66372669 2.3105333 -0.48167828 0 10
-0.66467535 2.3138359 -0.45937708 0 11
-0.663508 2.309772 -0.4357014 0 12
-0.66705459 2.322118 -0.41511568 0 13
-0.66438097 2.3128109 -0.39070117 0 14
-0.66246384 2.3061371 -0.36695635 0 15
-0.66308308 2.3082929 -0.34472442 0 16
-0.6642012 2.3121853 -0.32275233 0 17
-0.66325074 2.3088765 -0.29982486 0 18
-0.66109413 2.301369 -0.27650875 0 19
-0.66567355 2.3173106 -0.25597593 0 20
-0.6621151 2.3049231 -0.23232292 0 21
-0.66473621 2.3140476 -0.21090958 0 22
-0.66235232 2.3057489 -0.1879361 0 23
-0.66566408 2.3172777 -0.16657972 0 24
-0.66006863 2.2977989 -0.14309894 0 25
-0.66113389 2.3015075 -0.12123805 0 26
-0.66192883 2.3042746 -0.099286005 0 27
-0.667759 2.3245704 -0.077885032 0 28
-0.66135019 2.3022602 -0.055088907 0 29
-0.66355509 2.309936 -0.033159804 0 30
-0.66728944 2.3229358 -0.011114846 0 31
-0.66408646 2.3117857 0.011061495 0 32
-0.6634599 2.3096044 0.033155046 0 33
-0.66246998 2.3061585 0.055182189 0 34
-0.66424644 2.3123426 0.077475339 0 35
-0.66170198 2.3034849 0.099251978 0 36
-0.66400683 2.3115087 0.12176488 0 37
-0.66122371 2.30182 0.14334936 0 38
-0.66040647 2.298975 0.16526403 0 39
-0.6618979 2.304167 0.18780716 0 40
-0.67056817 2.3343494 0.21275996 0 41
-0.66349351 2.3097217 0.23280659 0 42
-0.66530746 2.316036 0.25583515 0 43
-0.66562128 2.3171287 0.2784023 0 44
-0.66197032 2.304419 0.29924604 0 45
-0.66347295 2.3096499 0.32239845 0 46
-0.66248471 2.3062096 0.34441331 0 47
-0.66239393 2.3058939 0.36691764 0 48
-0.66233385 2.3056846 0.38949734 0 49
-0.66374004 2.3105798 0.41305304 0 50
-0.66381824 2.3108518 0.4359051 0 51
-0.66121542 2.3017912 0.4569858 0 52
-0.66491812 2.3146811 0.48254296 0 53
-0.66380465 2.3108046 0.50477922 0 54
-0.66070801 2.3000247 0.52545005 0 55
-0.66319311 2.3086758 0.55063218 0 56
-0.66268659 2.3069127 0.57349765 0 57
-0.66420645 2.3122034 0.59825522 0 58
-0.66304052 2.3081446 0.62071341 0 59
-0.6600129 2.297605 0.64139169 0 60
-0.65944862 2.2956407 0.66445202 0 61
-0.6625604 2.3064733 0.69142926 0 62
-0.66497505 2.3148789 0.718005 0 63
-0.67824703 2.2561636 -0.70232695 0 0
-0.68105716 2.2655115 -0.6816088 0 1
-0.6808399 2.2647886 -0.65789562 0 2
-0.67896998 2.2585685 -0.63277721 0 3
-0.67838907 2.2566361 -0.60905886 0 4
-0.67759627 2.253999 -0.58530706 0 5
-0.68048096 2.2635949 -0.56476635 0 6
-0.67982829 2.2614236 -0.54131514 0 7
-0.67536604 2.2465804 -0.51509869 0 8
-0.68492395 2.2783742 -0.499497 0 9
-0.68234104 2.2697823 -0.47489613 0 10
-0.68143165 2.2667572 -0.45165977 0 11
-0.68223321 2.2694237 -0.42964029 0 12
-0.67742926 2.2534435 -0.40429753 0 13
-0.68018448 2.2626085 -0.38360441 0 14
-0.68088502 2.2649388 -0.36170572 0 15
-0.6813693 2.2665498 -0.33971602 0 16
-0.6804058 2.2633448 -0.31707871 0 17
-0.67689019 2.2516503 -0.29345229 0 18
-0.68120533 2.2660043 -0.27324548 0 19
-0.67992008 2.261729 -0.25074083 0 20
-0.67863595 2.2574575 -0.2283625 0 21
-0.6781981 2.256001 -0.20636351 0 22
-0.68285817 2.2715025 -0.1858151 0 23
-0.68078387 2.2646022 -0.16338253 0 24
-0.67656755 2.250577 -0.14066559 0 25
-0.68510824 2.2789874 -0.12048641 0 26
-0.67708367 2.2522938 -0.097397648 0 27
-0.68019742 2.2626514 -0.076084919 0 28
-0.67720908 2.2527111 -0.054098453 0 29
-0.68017548 2.2625787 -0.032597575 0 30
-0.68451184 2.2770033 -0.010934515 0 31
-0.68235952 2.2698438 0.010900133 0 32
-0.68253827 2.2704382 0.032710809 0 33
-0.68270445 2.2709911 0.054537445 0 34
-0.67861527 2.2573886 0.075907946 0 35
-0.68320078 2.2726421 0.098277584 0 36
-0.67587626 2.2482772 0.11886282 0 37
-0.68068206 2.2642636 0.14152104 0 38
-0.68046468 2.2635405 0.16330594 0 39
-0.68303585 2.2720935 0.18586345 0 40
-0.67892629 2.2584233 0.20658508 0 41
-0.6814431 2.2667954 0.22930712 0 42
-0.67892253 2.2584107 0.25037295 0 43
-0.68157107 2.267221 0.2733922 0 44
-0.68207705 2.2689042 0.29570094 0 45
-0.68135321 2.2664962 0.3175202 0 46
-0.68037874 2.2632549 0.33922216 0 47
-0.68301082 2.2720101 0.36283499 0 48
-0.68323451 2.2727542 0.38532454 0 49
-0.68062592 2.2640769 0.40620536 0 50
-0.67825562 2.2561922 0.42713538 0 51
-0.67936164 2.2598712 0.45028773 0 52
-0.68040156 2.2633307 0.4735463 0 53
-0.67873156 2.2577753 0.49498105 0 54
-0.68202406 2.2687278 0.52017677 0 55
-0.68004149 2.2621329 0.54148489 0 56
-0.67931473 2.2597153 0.56379843 0 57
-0.68124282 2.266129 0.58845693 0 58
-0.68315732 2.2724977 0.61333984 0 59
-0.6812343 2.2661006 0.63488746 0 60
-0.6799466 2.2618172 0.65703249 0 61
-0.67874748 2.2578285 0.67929727 0 62
-0.67926216 2.2595406 0.7033782 0 63
-0.69888115 2.2251899 -0.69530773 0 0
-0.69351959 2.2081192 -0.66685688 0 1
-0.69627744 2.2168999 -0.64642274 0 2
-0.69548023 2.2143617 -0.62274075 0 3
-0.69567055 2.2149675 -0.60007608 0 4
-0.69737822 2.2204046 -0.57876647 0 5
-0.69375384 2.2088649 -0.5531978 0 6
-0.69553858 2.2145474 -0.53210139 0 7
-0.69603604 2.2161314 -0.51004118 0 8
-0.70156723 2.2337422 -0.49156627 0 9
-0.69800156 2.2223895 -0.46674085 0 10
-0.692783 2.2057738 -0.44117263 0 11
-0.69898367 2.2255163 -0.42292312 0 12
-0.68803555 2.1906583 -0.39452115 0 13
-0.69725257 2.2200046 -0.37780637 0 14
-0.69366145 2.208571 -0.35403925 0 15
-0.69475496 2.2120523 -0.3328031 0 16
-0.69498378 2.212781 -0.31116876 0 17
-0.6947642 2.2120819 -0.28938696 0 18
-0.6920712 2.2035074 -0.26671532 0 19
-0.69946021 2.2270336 -0.2478292 0 20
-0.69442737 2.2110095 -0.22451068 0 21
-0.69609869 2.2163308 -0.20350233 0 22
-0.69964421 2.2276194 -0.18291529 0 23
-0.6960445 2.2161582 -0.16049284 0 24
-0.6960761 2.216259 -0.1390451 0 25
-0.69762677 2.2211962 -0.1178757 0 26
-0.69727856 2.2200875 -0.09636841 0 27
-0.69956505 2.2273674 -0.075182013 0 28
-0.6988045 2.224946 -0.05363398 0 29
-0.6947096 2.2119079 -0.031988204 0 30
-0.69349301 2.2080343 -0.010643462 0 31
-0.69495171 2.2126789 0.010665849 0 32
-0.69466472 2.2117651 0.03198614 0 33
-0.69693977 2.2190087 0.053490859 0 34
-0.69510728 2.2131741 0.074702933 0 35
-0.70242465 2.2364721 0.097079627 0 36
-0.69239664 2.2045438 0.11699197 0 37
-0.69280678 2.2058496 0.13839203 0 38
-0.69736046 2.2203481 0.16079627 0 39
-0.69593322 2.2158039 0.18194507 0 40
-0.69448566 2.211195 0.20303078 0 41
-0.69427383 2.2105205 0.22446105 0 42
-0.69730037 2.2201569 0.24706392 0 43
-0.69825792 2.2232056 0.26909962 0 44
-0.69640249 2.217298 0.29006934 0 45
-0.69427198 2.2105145 0.31085005 0 46
-0.69486177 2.2123926 0.33285427 0 47
-0.69716573 2.2197282 0.35582781 0 48
-0.6951924 2.2134452 0.37669006 0 49
-0.69536752 2.2140028 0.3987253 0 50
-0.6966303 2.2180235 0.42149919 0 51
-0.69965059 2.2276397 0.445546 0 52
-0.69392449 2.2094083 0.46401456 0 53
-0.69428563 2.2105579 0.48646429 0 54
-0.69566011 2.2149343 0.50976568 0 55
-0.69575536 2.2152376 0.53226727 0 56
-0.69546086 2.2142999 0.55455899 0 57
-0.6948595 2.2123852 0.57667619 0 58
-0.69466144 2.2117548 0.59920561 0 59
-0.69932085 2.2265899 0.6261797 0 60
-0.69588214 2.2156413 0.6460557 0 61
-0.69616169 2.2165313 0.66939735 0 62
-0.69932163 2.2265923 0.69574594 0 63
-0.71420127 2.1798427 -0.6838305 0 0
-0.71191621 2.1728683 -0.65880495 0 1
-0.71448016 2.1806939 -0.63837898 0 2
-0.71149695 2.1715887 -0.61312592 0 3
-0.71223396 2.1738381 -0.59126133 0 4
-0.71276319 2.1754534 -0.56929111 0 5
-0.71566778 2.1843188 -0.54921281 0 6
-0.7139129 2.1789627 -0.52562082 0 7
-0.71130025 2.1709883 -0.50162661 0 8
-0.71463835 2.1811767 -0.48189589 0 9
-0.71436626 2.1803463 -0.45972112 0 10
-0.71606326 2.1855259 -0.43885079 0 11
-0.7064752 2.1562614 -0.41138211 0 12
-0.7107864 2.16942 -0.39224067 0 13
-0.71003383 2.1671231 -0.37026468 0 14
-0.71252996 2.1747415 -0.34999439 0 15
-0.71015555 2.1674945 -0.32738841 0 16
-0.71126902 2.1708932 -0.30648509 0 17
-0.7095378 2.1656091 -0.28442726 0 18
-0.7160266 2.1854138 -0.26557091 0 19
-0.7101028 2.1673336 -0.24213901 0 20
-0.71162111 2.1719677 -0.2214181 0 21
-0.71498078 2.1822219 -0.20116252 0 22
-0.71050441 2.1685593 -0.17876959 0 23
-0.7146818 2.1813095 -0.15859354 0 24
-0.71162409 2.1719768 -0.13680555 0 25
-0.71691471 2.1881247 -0.11657965 0 26
-0.71685857 2.187953 -0.095348954 0 27
-0.7162897 2.1862168 -0.074084729 0 28
-0.71073663 2.1692681 -0.052498527 0 29
-0.71298504 2.1761305 -0.031595197 0 30
-0.71774763 2.1906667 -0.010601485 0 31
-0.71299148 2.1761503 0.010531235 0 32
-0.71556914 2.1840177 0.031709712 0 33
-0.71527708 2.1831262 0.052833907 0 34
-0.71505338 2.1824434 0.073956855 0 35
-0.71105075 2.1702268 0.094576463 0 36
-0.70885575 2.1635275 0.11526915 0 37
-0.71214843 2.1735771 0.13690636 0 38
-0.71424204 2.1799672 0.15849596 0 39
-0.7132172 2.1768391 0.17945217 0 40
-0.71601772 2.1853867 0.20145427 0 41
-0.71185064 2.1726682 0.22148952 0 42
-0.71264458 2.1750915 0.24300575 0 43
-0.71085012 2.1696146 0.26365095 0 44
-0.7142331 2.1799397 0.28630939 0 45
-0.71491337 2.1820161 0.30805543 0 46
-0.7077831 2.1602535 0.32629472 0 47
-0.71183771 2.1726286 0.34965438 0 48
-0.71564722 2.1842558 0.37319195 0 49
-0.7135936 2.1779881 0.39378983 0 50
-0.71290523 2.1758871 0.41512635 0 51
-0.71694452 2.1882155 0.43939087 0 52
-0.71459275 2.1810374 0.45986688 0 53
-0.71227723 2.1739702 0.48030376 0 54
-0.71251798 2.174705 0.50248539 0 55
-0.71274495 2.1753979 0.5247609 0 56
-0.71629959 2.1862471 0.54969764 0 57
-0.70841557 2.1621838 0.56581861 0 58
-0.71099204 2.1700478 0.59023041 0 59
-0.71293831 2.175988 0.61436802 0 60
-0.71275145 2.1754177 0.63683438 0 61
-0.7141341 2.1796377 0.66085738 0 62
-0.7111699 2.1705906 0.68092799 0 63
-0.73024404 2.1395302 -0.6739502 0 0
-0.72948575 2.1373086 -0.65069389 0 1
-0.72608662 2.1273496 -0.62532932 0 2
-0.73121089 2.1423631 -0.60736698 0 3
-0.72899055 2.1358576 -0.58332509 0 4
-0.72817415 2.1334658 -0.56060416 0 5
-0.72821736 2.1335924 -0.53866923 0 6
-0.72859651 2.1347032 -0.51706642 0 7
-0.72909039 2.1361501 -0.49561095 0 8
-0.72952574 2.1374259 -0.4741759 0 9
-0.72822893 2.1336262 -0.45172423 0 10
-0.72614861 2.1275313 -0.42896605 0 11
-0.72541565 2.1253836 -0.4071621 0 12
-0.73173106 2.143887 -0.38922164 0 13
-0.72397852 2.1211729 -0.36390737 0 14
-0.72774875 2.1322196 -0.34456518 0 15
-0.72781092 2.1324015 -0.32341513 0 16
-0.72946554 2.1372495 -0.30297875 0 17
-0.72728306 2.1308548 -0.28101599 0 18
-0.72740304 2.1312065 -0.26005092 0 19
-0.72806406 2.1331432 -0.23930132 0 20
-0.72605836 2.1272669 -0.21775483 0 21
-0.72538221 2.1252859 -0.19672137 0 22
-0.72414029 2.1216471 -0.17562304 0 23
-0.73050225 2.1402867 -0.15625224 0 24
-0.72796023 2.132839 -0.13489401 0 25
-0.72464561 2.1231277 -0.11358287 0 26
-0.7290374 2.1359949 -0.093468271 0 27
-0.72947729 2.1372838 -0.072724991 0 28
-0.72963488 2.1377456 -0.051948853 0 29
-0.72761804 2.1318364 -0.031079646 0 30
-0.72877365 2.1352222 -0.01037575 0 31
-0.72782999 2.1324575 0.010362316 0 32
-0.72698879 2.1299927 0.03105277 0 33
-0.72691935 2.1297894 0.05175551 0 34
-0.72670579 2.1291635 0.072448686 0 35
-0.72546071 2.1255157 0.09300971 0 36
-0.73485136 2.1530292 0.11518255 0 37
-0.72826868 2.1337426 0.13495116 0 38
-0.7253347 2.1251466 0.15514693 0 39
-0.72870678 2.1350262 0.17673054 0 40
-0.72638744 2.1282308 0.19699398 0 41
-0.72579974 2.126509 0.21767725 0 42
-0.72458011 2.1229358 0.23815621 0 43
-0.73051703 2.1403301 0.26116416 0 44
-0.73051417 2.1403217 0.28226447 0 45
-0.72459662 2.1229839 0.30095646 0 46
-0.72935599 2.1369286 0.32410172 0 47
-0.72522092 2.1248131 0.34336832 0 48
-0.72698146 2.1299713 0.36541682 0 49
-0.73182023 2.1441483 0.38926905 0 50
-0.72851998 2.134479 0.40890449 0 51
-0.73116392 2.1422253 0.43192878 0 52
-0.72772276 2.1321433 0.45141023 0 53
-0.72636485 2.1281648 0.47212136 0 54
-0.72648323 2.1285117 0.4938387 0 55
-0.72559667 2.1259141 0.51493752 0 56
-0.7282896 2.1338041 0.53872269 0 57
-0.72473341 2.1233847 0.55795521 0 58
-0.72712392 2.1303885 0.5818314 0 59
-0.72648656 2.1285214 0.60344285 0 60
-0.72942299 2.1371248 0.62820268 0 61
-0.72683609 2.1295455 0.64833045 0 62
-0.72997272 2.1387353 0.67369974 0 63
-0.74867052 2.1083536 -0.66697901 0 0
-0.74023765 2.0846055 -0.63737166 0 1
-0.74283242 2.0919127 -0.61755103 0 2
-0.74001026 2.0839651 -0.59334594 0 3
-0.74746275 2.1049523 -0.57735103 0 4
-0.7427426 2.0916598 -0.5519771 0 5
-0.74141818 2.08793 -0.52940255 0 6
-0.74547309 2.099349 -0.51068473 0 7
-0.74643046 2.1020453 -0.48979071 0 8
-0.7424401 2.0908079 -0.4658241 0 9
-0.74671966 2.1028597 -0.44712064 0 10
-0.74362236 2.0941374 -0.42404458 0 11
-0.74099225 2.0867305 -0.40147245 0 12
-0.74686223 2.1032612 -0.38348433 0 13
-0.74377531 2.094568 -0.36088482 0 14
-0.74127555 2.0875282 -0.33879051 0 15
-0.73977685 2.0833077 -0.31732491 0 16
-0.74301761 2.0924344 -0.29789838 0 17
-0.74490476 2.0977488 -0.27783692 0 18
-0.74522388 2.0986474 -0.25717673 0 19
-0.74241632 2.0907409 -0.23555084 0 20
-0.74252599 2.0910497 -0.21496588 0 21
-0.74483097 2.0975409 -0.19498627 0 22
-0.74148774 2.0881259 -0.17358989 0 23
-0.74607503 2.1010444 -0.15404545 0 24
-0.74389946 2.0949175 -0.13306411 0 25
-0.74371183 2.0943892 -0.11252617 0 26
-0.74464625 2.0970206 -0.092156522 0 27
-0.74061316 2.0856631 -0.071272992 0 28
-0.7427904 2.0917945 -0.051050302 0 29
-0.74627656 2.1016119 -0.030770468 0 30
-0.74530298 2.0988703 -0.010242864 0 31
-0.74336904 2.0934238 0.010216285 0 32
-0.74415356 2.0956333 0.030682929 0 33
-0.7442593 2.0959311 0.051151253 0 34
-0.74638474 2.1019166 0.071828417 0 35
-0.74292481 2.0921729 0.09194348 0 36
-0.74434 2.0961583 0.1126212 0 37
-0.74218959 2.0901024 0.13275824 0 38
-0.74543381 2.0992386 0.15391305 0 39
-0.73992127 2.0837145 0.17322317 0 40
-0.74941492 2.11045 0.19618629 0 41
-0.74858266 2.1081061 0.21671934 0 42
-0.74251556 2.0910203 0.23558232 0 43
-0.74333829 2.0933373 0.25652602 0 44
-0.74737966 2.1047184 0.27876005 0 45
-0.74608082 2.1010606 0.29912651 0 46
-0.74480665 2.0974724 0.31948245 0 47
-0.74196106 2.0894589 0.33910382 0 48
-0.74159962 2.0884409 0.35982916 0 49
-0.74286282 2.0919983 0.3814308 0 50
-0.74222088 2.0901904 0.40213814 0 51
-0.7411164 2.0870802 0.42261559 0 52
-0.74555486 2.0995796 0.44642317 0 53
-0.73886245 2.0807328 0.46357936 0 54
-0.74301583 2.0924294 0.48755011 0 55
-0.74501461 2.098058 0.51037061 0 56
-0.74653631 2.1023433 0.53305709 0 57
-0.74497813 2.0979555 0.55363846 0 58
-0.74170053 2.0887253 0.57290024 0 59
-0.74426258 2.0959404 0.5967555 0 60
-0.74295139 2.092248 0.61764997 0 61
-0.7441898 2.0957353 0.64077467 0 62
-0.74283284 2.0919139 0.66177833 0 63
-0.75465786 2.0451159 -0.6498602 0 0
-0.76159161 2.0639062 -0.63385826 0 1
-0.76408142 2.0706537 -0.61400235 0 2
-0.75632399 2.0496311 -0.58617395 0 3
-0.75841069 2.0552859 -0.56624353 0 4
-0.75723481 2.0520995 -0.54395342 0 5
-0.75660098 2.0503817 -0.52220148 0 6
-0.75362134 2.0423069 -0.49902523 0 7
-0.75444609 2.0445418 -0.47851747 0 8
-0.75573307 2.0480297 -0.45832902 0 9
-0.75617081 2.049216 -0.43765858 0 10
-0.75768822 2.0533283 -0.4176361 0 11
-0.75508499 2.0462735 -0.39544526 0 12
-0.76077807 2.0617015 -0.37758392 0 13
-0.75577742 2.0481498 -0.35446161 0 14
-0.75647575 2.0500424 -0.33419117 0 15
-0.75891888 2.0566633 -0.3146641 0 16
-0.75812918 2.054523 -0.29380599 0 17
-0.75968188 2.0587308 -0.27388573 0 18
-0.75321609 2.0412087 -0.25125396 0 19
-0.75296372 2.0405247 -0.23091897 0 20
-0.76183361 2.0645621 -0.21318981 0 21
-0.75748658 2.0527816 -0.19167684 0 22
-0.75918686 2.0573895 -0.17179778 0 23
-0.75845003 2.0553925 -0.15137067 0 24
-0.7562955 2.0495539 -0.13076352 0 25
-0.75550127 2.0474017 -0.11049241 0 26
-0.75993139 2.059407 -0.09090732 0 27
-0.76015902 2.060024 -0.070710912 0 28
-0.75734508 2.0523982 -0.050312307 0 29
-0.75343078 2.0417905 -0.030027974 0 30
-0.76103622 2.0624011 -0.010109792 0 31
-0.76041454 2.0607164 0.010101534 0 32
-0.75828475 2.0549448 0.030221431 0 33
-0.75789618 2.0538917 0.050348919 0 34
-0.76023877 2.06024 0.070718326 0 35
-0.75697941 2.0514071 0.090554185 0 36
-0.75857592 2.0557339 0.11094208 0 37
-0.74997693 2.0324306 0.12967104 0 38
-0.76070702 2.0615091 0.15182112 0 39
-0.75980288 2.0590589 0.17193718 0 40
-0.75908023 2.0571005 0.1920801 0 41
-0.76069731 2.0614827 0.21287182 0 42
-0.75653672 2.0502076 0.23201473 0 43
-0.75979817 2.059046 0.25344959 0 44
-0.76120323 2.0628538 0.27443421 0 45
-0.75730771 2.0522969 0.29348764 0 46
-0.75947785 2.0581779 0.31489584 0 47
-0.7551133 2.0463502 0.33358929 0 48
-0.75286776 2.0402646 0.35309696 0 49
-0.75934887 2.0578284 0.37687463 0 50
-0.75488919 2.0457428 0.39534271 0 51
-0.75461411 2.0449972 0.41594163 0 52
-0.75489914 2.0457699 0.43692258 0 53
-0.75823259 2.0548034 0.45984489 0 54
-0.75418317 2.0438294 0.47835073 0 55
-0.75987935 2.0592661 0.50316912 0 56
-0.75889474 2.0565977 0.52378458 0 57
-0.75756019 2.0529811 0.54418713 0 58
-0.75659519 2.0503662 0.56488806 0 59
-0.75740957 2.052573 0.58701527 0 60
-0.75768316 2.0533144 0.60886085 0 61
-0.75389314 2.0430434 0.62745094 0 62
-0.75443554 2.0445135 0.64966875 0 63
-0.77086681 2.0124998 -0.64245957 0 0
-0.7780323 2.0312068 -0.62670654 0 1
-0.76988292 2.0099313 -0.59875852 0 2
-0.77315772 2.0184805 -0.57994032 0 3
-0.77652758 2.0272784 -0.5611155 0 4
-0.7766059 2.0274827 -0.53991872 0 5
-0.77229589 2.0162308 -0.51588339 0 6
-0.77053148 2.0116243 -0.49380594 0 7
-0.77202123 2.0155137 -0.47390953 0 8
-0.77101719 2.0128925 -0.45255312 0 9
-0.76868254 2.0067973 -0.43058524 0 10
-0.77255297 2.016902 -0.41212821 0 11
-0.77185839 2.0150886 -0.39122331 0 12
-0.77335656 2.0189998 -0.37147698 0 13
-0.77305579 2.0182147 -0.35089946 0 14
-0.77092618 2.0126548 -0.32961684 0 15
-0.77121091 2.0133982 -0.30947217 0 16
-0.77439862 2.0217204 -0.29045483 0 17
-0.77197039 2.0153809 -0.26936111 0 18
-0.77019441 2.0107443 -0.24865104 0 19
-0.77644736 2.0270689 -0.23045926 0 20
-0.77085769 2.012476 -0.20877434 0 21
-0.77478415 2.0227268 -0.18974574 0 22
-0.77262068 2.0170786 -0.16921225 0 23
-0.77275991 2.0174422 -0.14926431 0 24
-0.77082318 2.0123858 -0.12898715 0 25
-0.77104503 2.012965 -0.10913739 0 26
-0.76816958 2.0054584 -0.08893612 0 27
-0.77751011 2.0298436 -0.06999784 0 28
-0.77687138 2.0281758 -0.049948923 0 29
-0.77646583 2.027117 -0.02995033 0 30
-0.77491474 2.0230677 -0.0099629387 0 31
-0.77051359 2.0115776 0.0099063534 0 32
-0.77384984 2.0202875 0.029849425 0 33
-0.77004486 2.010354 0.049510013 0 34
-0.77680171 2.0279939 0.069934055 0 35
-0.77423018 2.0212805 0.089637794 0 36
-0.77591389 2.0256763 0.10982655 0 37
-0.77187449 2.0151305 0.12916307 0 38
-0.77177525 2.0148714 0.14907411 0 39
-0.77846235 2.0323296 0.17049164 0 40
-0.77011621 2.0105402 0.18860255 0 41
-0.77275521 2.0174298 0.20928825 0 42
-0.77360827 2.0196569 0.2296166 0 43
-0.7725448 2.0168805 0.24940985 0 44
-0.77374983 2.0200267 0.26998201 0 45
-0.76764858 2.0040979 0.2879231 0 46
-0.77124709 2.0134926 0.30948669 0 47
-0.77313244 2.0184147 0.33056012 0 48
-0.77011782 2.0105445 0.34956589 0 49
-0.77617347 2.0263541 0.37283006 0 50
-0.7722066 2.0159976 0.3913998 0 51
-0.77485228 2.0229046 0.41335478 0 52
-0.7713573 2.0137804 0.43208352 0 53
-0.77482563 2.022835 0.45478851 0 54
-0.77129006 2.0136049 0.47346067 0 55
-0.76798457 2.0049751 0.4921737 0 56
-0.77806902 2.0313027 0.51973975 0 57
-0.77677548 2.0279255 0.54003662 0 58
-0.77384698 2.0202801 0.55917853 0 59
-0.7713142 2.0136678 0.57855749 0 60
-0.7691046 2.0078993 0.59815317 0 61
-0.77255982 2.0169199 0.62229842 0 62
-0.7740168 2.0207233 0.6450848 0 63
-0.78372967 1.9731025 -0.63291121 0 0
-0.78445733 1.9749343 -0.61227423 0 1
-0.78290474 1.9710257 -0.58999181 0 2
-0.78300351 1.9712744 -0.56910056 0 3
-0.78792953 1.9836761 -0.55168712 0 4
-0.78640801 1.9798455 -0.52976799 0 5
-0.78988045 1.9885876 -0.51125693 0 6
-0.78642589 1.9798906 -0.48835292 0 7
-0.78215677 1.9691426 -0.46523252 0 8
-0.78521985 1.9768542 -0.4465878 0 9
-0.78901792 1.9864161 -0.42826152 0 10
-0.7846759 1.9754847 -0.40560606 0 11
-0.78750789 1.9826144 -0.38676935 0 12
-0.79131943 1.9922104 -0.36831045 0 13
-0.78804696 1.9839717 -0.34660438 0 14
-0.77952152 1.9625082 -0.32294959 0 15
-0.78684878 1.9809551 -0.30594951 0 16
-0.78364706 1.9728945 -0.28480303 0 17
-0.78831995 1.9846588 -0.26653042 0 18
-0.78600281 1.9788254 -0.24588051 0 19
-0.78480476 1.9758092 -0.22571158 0 20
-0.78567082 1.9779896 -0.20618334 0 21
-0.78882504 1.9859306 -0.18718974 0 22
-0.7863211 1.9796267 -0.16686893 0 23
-0.78881615 1.9859082 -0.14763768 0 24
-0.78688157 1.9810376 -0.12758838 0 25
-0.77609152 1.9538729 -0.10644294 0 26
-0.78285974 1.9709125 -0.087824382 0 27
-0.78320795 1.971789 -0.068322808 0 28
-0.78850949 1.9851362 -0.049124032 0 29
-0.78314775 1.9716375 -0.029270697 0 30
-0.78231502 1.969541 -0.0097459741 0 31
-0.78399146 1.9737617 0.009766859 0 32
-0.78571624 1.9781039 0.029366694 0 33
-0.78428012 1.9744883 0.048860542 0 34
-0.7881673 1.9842745 0.068755433 0 35
-0.78716147 1.9817423 0.088306963 0 36
-0.78821611 1.9843974 0.10810585 0 37
-0.78171808 1.9680382 0.12675115 0 38
-0.78469199 1.9755251 0.14686579 0 39
-0.78370458 1.9730393 0.16631365 0 40
-0.78462631 1.9753598 0.18619338 0 41
-0.79042089 1.9899482 0.2074299 0 42
-0.78936064 1.9872791 0.22702187 0 43
-0.78709012 1.9815626 0.24622063 0 44
-0.79366416 1.9981134 0.26833731 0 45
-0.78174067 1.9680951 0.28411019 0 46
-0.78742123 1.9823962 0.3061721 0 47
-0.78399539 1.9737715 0.32480308 0 48
-0.78838712 1.9848281 0.34675398 0 49
-0.78837061 1.9847865 0.36693794 0 50
-0.78483045 1.9758739 0.38545442 0 51
-0.78197879 1.9686944 0.40421191 0 52
-0.78278315 1.9707196 0.42487741 0 53
-0.78034627 1.9645846 0.44381598 0 54
-0.79015929 1.9892896 0.46999249 0 55
-0.78149748 1.9674828 0.48529246 0 56
-0.78492826 1.9761201 0.50805163 0 57
-0.78859693 1.9853563 0.53124261 0 58
-0.79052132 1.9902011 0.55350184 0 59
-0.78591043 1.9785926 0.5712133 0 60
-0.78976238 1.9882903 0.59515965 0 61
-0.78403288 1.9738659 0.61194295 0 62
-0.78529471 1.9770427 0.63417506 0 63
-0.79497242 1.9318274 -0.62275994 0 0
-0.7981177 1.9394705 -0.60427654 0 1
-0.79802936 1.9392561 -0.58337533 0 2
-0.79999608 1.9440352 -0.56403399 0 3
-0.7947613 1.9313143 -0.53980178 0 4
-0.79723763 1.937332 -0.52097601 0 5
-0.80294281 1.951196 -0.50414401 0 6
-0.80215383 1.9492786 -0.4831987 0 7
-0.80305064 1.951458 -0.46335229 0 8
-0.80326915 1.9519889 -0.4431684 0 9
-0.79891419 1.9414061 -0.42064375 0 10
-0.7937097 1.928759 -0.39798614 0 11
-0.80097049 1.946403 -0.38159776 0 12
-0.79820323 1.9396784 -0.36038589 0 13
-0.79993087 1.9438767 -0.34129232 0 14
-0.80146569 1.9476064 -0.3220948 0 15
-0.80380201 1.9532838 -0.30317941 0 16
-0.80339766 1.9523013 -0.28323492 0 17
-0.80137473 1.9473854 -0.26282829 0 18
-0.80056483 1.9454173 -0.24293418 0 19
-0.8015337 1.9477717 -0.22361767 0 20
-0.80067444 1.9456836 -0.2038267 0 21
-0.79714024 1.9370953 -0.18349668 0 22
-0.80008763 1.9442576 -0.1647044 0 23
-0.79663616 1.9358704 -0.14463505 0 24
-0.79727924 1.9374331 -0.12540196 0 25
-0.80111253 1.9467483 -0.1065834 0 26
