# .PCD v0.7 - Point Cloud Data file format
VERSION 0.7
FIELDS x y z intensity ring
SIZE 4 4 4 4 2
TYPE F F F F U
COUNT 1 1 1 1 1
WIDTH 1325
HEIGHT 1
VIEWPOINT 0 0 0 1 0 0 0
POINTS 1325
DATA ascii
5.2673292 -3.4815812 -0.26147985 0 27
5.2653913 -3.4803004 -0.20325252 0 28
5.2755275 -3.487 -0.14543523 0 29
5.269907 -3.483285 -0.087158337 0 30
5.2805529 -3.4903216 -0.029109828 0 31
5.2707334 -3.4838312 0.029055698 0 32
5.2849355 -3.4932184 0.087406896 0 33
5.2788901 -3.4892225 0.14552793 0 34
5.2674184 -3.4816399 0.20333076 0 35
5.2682481 -3.4821882 0.26152545 0 36
5.2676101 -3.4817669 0.31969377 0 37
5.269453 -3.4829848 0.37808019 0 38
5.2649908 -3.4800353 0.43604937 0 39
5.2800469 -3.4899874 0.49582678 0 40
5.2693067 -3.4828882 0.55331379 0 41
5.2810683 -3.4906623 0.61326957 0 42
5.2718916 -3.4845967 0.67092711 0 43
5.2650762 -3.480092 0.72882169 0 44
5.2779222 -3.4885826 0.78963047 0 45
5.2747827 -3.4865074 0.84829187 0 46
5.2736335 -3.4857483 0.90737146 0 47
5.2697129 -3.4831567 0.96607369 0 48
5.269908 -3.4832857 1.0256557 0 49
5.2818084 -3.4911516 1.0878311 0 50
5.2873263 -3.4947987 1.1490791 0 51
5.269042 -3.4827132 1.2052093 0 52
5.2665353 -3.4810562 1.2649223 0 53
5.2744184 -3.4862669 1.3274152 0 54
5.2712083 -3.4841452 1.3874046 0 55
5.2724271 -3.4849508 1.4487826 0 56
5.2669921 -3.4813583 1.5085411 0 57
5.2770081 -3.4879785 1.5730488 0 58
5.2874355 -3.4948709 1.6382011 0 59
5.2661595 -3.480808 1.6936979 0 60
5.2610011 -3.4773982 1.7543737 0 61
0 0 0 0 62
0 0 0 0 63
2.0751536 -1.3352582 -0.73563212 0 0
2.1470089 -1.3814936 -0.73560464 0 1
2.207401 -1.4203529 -0.73021758 0 2
2.3006792 -1.4803728 -0.73403251 0 3
2.3851292 -1.5347122 -0.73307991 0 4
2.483777 -1.5981871 -0.73448735 0 5
2.5945928 -1.6694915 -0.73719269 0 6
2.7045026 -1.740213 -0.73722035 0 7
2.8208268 -1.8150618 -0.73652351 0 8
2.9308674 -1.8858676 -0.73172128 0 9
3.0783758 -1.9807819 -0.73346227 0 10
3.243901 -2.0872891 -0.73606414 0 11
3.4240091 -2.2031798 -0.73818636 0 12
3.5867493 -2.3078949 -0.73281974 0 13
3.8226402 -2.4596791 -0.73803896 0 14
4.0289979 -2.5924599 -0.73271924 0 15
4.3025665 -2.7684877 -0.73437858 0 16
4.6254478 -2.9762459 -0.73792434 0 17
4.945817 -3.1823874 -0.73403412 0 18
5.3047061 -3.4133146 -0.72844243 0 19
5.320653 -3.4235759 -0.67172438 0 20
5.3043308 -3.4130733 -0.61105108 0 21
5.3053255 -3.4137132 -0.55264634 0 22
5.3153663 -3.4201741 -0.49515674 0 23
5.3070302 -3.4148104 -0.43602052 0 24
5.3041339 -3.4129465 -0.37752885 0 25
5.2917552 -3.4049816 -0.31859401 0 26
5.3104181 -3.4169903 -0.26151332 0 27
5.3002901 -3.4104733 -0.2029655 0 28
5.305944 -3.4141114 -0.14510544 0 29
5.303309 -3.412416 -0.087010212 0 30
5.3020568 -3.4116104 -0.028994922 0 31
5.3049264 -3.4134567 0.029010614 0 32
5.3117099 -3.4178214 0.087148041 0 33
5.298996 -3.4096406 0.14491542 0 34
5.2975368 -3.4087019 0.20286007 0 35
5.3106294 -3.4171259 0.26152369 0 36
5.3072767 -3.414969 0.31952849 0 37
5.3058486 -3.4140501 0.37765092 0 38
5.3106122 -3.417115 0.43631479 0 39
5.3054848 -3.4138157 0.4942362 0 40
5.3122592 -3.418175 0.55336869 0 41
5.2961731 -3.407824 0.6101113 0 42
5.2903018 -3.4040465 0.66789258 0 43
5.2964802 -3.4080219 0.72731292 0 44
5.31356 -3.4190118 0.78861278 0 45
5.3092146 -3.4162157 0.84700954 0 46
5.304214 -3.4129982 0.90534371 0 47
5.3143525 -3.4195218 0.96647573 0 48
5.3135581 -3.4190106 1.0258912 0 49
5.3099017 -3.4166579 1.0848823 0 50
5.3108611 -3.4172752 1.1449751 0 51
5.3009629 -3.4109063 1.2028261 0 52
5.3073034 -3.4149861 1.2645327 0 53
5.3067026 -3.4145994 1.3248731 0 54
5.3072586 -3.4149573 1.3857359 0 55
5.2985826 -3.4093747 1.4443406 0 56
5.3054624 -3.4138014 1.5074226 0 57
5.3137693 -3.4191468 1.5713555 0 58
5.3031311 -3.4123013 1.6299405 0 59
5.3164916 -3.4208982 1.6962285 0 60
5.3045664 -3.4132249 1.7547728 0 61
0 0 0 0 62
0 0 0 0 63
2.0853388 -1.3058375 -0.73349506 0 0
2.1573737 -1.3509458 -0.73340881 0 1
2.2457511 -1.4062878 -0.73712778 0 2
2.3316693 -1.4600896 -0.73813587 0 3
2.4105687 -1.5094963 -0.7351383 0 4
2.5069628 -1.5698582 -0.73557973 0 5
2.5915875 -1.6228502 -0.73061371 0 6
2.7105014 -1.6973139 -0.7331109 0 7
2.8498037 -1.7845448 -0.73830408 0 8
2.9705238 -1.8601397 -0.73585576 0 9
3.1026049 -1.9428489 -0.73348755 0 10
3.2667801 -2.0456553 -0.73549229 0 11
3.4470992 -2.158571 -0.73738623 0 12
3.620362 -2.2670679 -0.73393613 0 13
3.8369601 -2.4027016 -0.73504394 0 14
4.0650206 -2.5455129 -0.73352259 0 15
4.3475246 -2.7224166 -0.73628271 0 16
4.6158614 -2.890449 -0.7306695 0 17
4.991796 -3.1258588 -0.73509794 0 18
5.3473516 -3.3485074 -0.7285893 0 19
5.3241096 -3.3339534 -0.66693467 0 20
5.3477836 -3.348778 -0.61126685 0 21
5.3521891 -3.3515368 -0.55319327 0 22
5.3408675 -3.3444474 -0.49366397 0 23
5.3429446 -3.3457477 -0.43555817 0 24
5.345736 -3.3474958 -0.37753162 0 25
5.3386207 -3.3430405 -0.31891656 0 26
5.3521729 -3.3515265 -0.26152027 0 27
5.3422046 -3.3452845 -0.20298 0 28
5.352397 -3.3516672 -0.14523774 0 29
5.3485131 -3.3492348 -0.087069586 0 30
5.3427453 -3.345623 -0.028990263 0 31
5.3526282 -3.3518119 0.029043889 0 32
5.3352914 -3.3409555 0.086854346 0 33
5.3469028 -3.3482265 0.14508866 0 34
5.3386507 -3.3430591 0.20284496 0 35
5.3399124 -3.3438492 0.26092118 0 36
5.3361697 -3.3415053 0.31877011 0 37
5.3469963 -3.3482852 0.37762064 0 38
5.3452582 -3.3471968 0.43574679 0 39
5.3305926 -3.3380129 0.49271423 0 40
5.3415174 -3.3448544 0.55209029 0 41
5.3420534 -3.34519 0.61061192 0 42
5.3431149 -3.3458545 0.6693154 0 43
5.3546309 -3.3530657 0.72958112 0 44
5.3395624 -3.3436301 0.78631043 0 45
5.3598566 -3.356338 0.84844041 0 46
5.3403258 -3.3441079 0.90442032 0 47
5.3577909 -3.3550446 0.96679962 0 48
5.3402338 -3.3440504 1.023025 0 49
5.3271518 -3.3358586 1.0799443 0 50
5.3314962 -3.3385789 1.140487 0 51
5.3432631 -3.3459473 1.2029976 0 52
5.3596101 -3.356184 1.2670667 0 53
5.3438134 -3.346292 1.3237652 0 54
5.3293991 -3.3372657 1.3806976 0 55
5.3496914 -3.3499725 1.4469341 0 56
5.3329296 -3.3394766 1.5034459 0 57
5.346035 -3.3476832 1.5686053 0 58
5.3352942 -3.3409572 1.6270763 0 59
5.3515 -3.3511055 1.6941229 0 60
5.3453379 -3.3472466 1.7545118 0 61
0 0 0 0 62
0 0 0 0 63
2.1059573 -1.2829741 -0.73514277 0 0
2.1833808 -1.3301414 -0.73663408 0 1
2.2536669 -1.3729606 -0.73412913 0 2
2.3423209 -1.4269696 -0.73589748 0 3
2.4255188 -1.4776547 -0.73410088 0 4
2.5230985 -1.5371015 -0.73471284 0 5
2.647799 -1.6130704 -0.74081284 0 6
2.7232876 -1.6590589 -0.73099613 0 7
2.8440578 -1.7326336 -0.73124063 0 8
2.9948666 -1.8245081 -0.73627269 0 9
3.1231194 -1.9026413 -0.73275101 0 10
3.2947841 -2.0072215 -0.7361846 0 11
3.4554195 -2.1050825 -0.73357344 0 12
3.6367195 -2.2155325 -0.73167402 0 13
3.8773396 -2.3621211 -0.73715937 0 14
4.0944872 -2.4944098 -0.73324949 0 15
4.3919668 -2.6756382 -0.73818159 0 16
4.6793222 -2.8506985 -0.73511064 0 17
5.0466056 -3.0744519 -0.73754632 0 18
5.3692555 -3.271014 -0.72603858 0 19
5.3717313 -3.2725222 -0.66780877 0 20
5.3905892 -3.2840106 -0.6114977 0 21
5.376524 -3.2754419 -0.5515039 0 22
5.3659396 -3.2689939 -0.49222872 0 23
5.3739061 -3.2738471 -0.43476757 0 24
5.372602 -3.2730527 -0.37655813 0 25
5.376596 -3.2754858 -0.31875494 0 26
5.3657813 -3.2688975 -0.26020148 0 27
5.3734708 -3.273582 -0.2026232 0 28
5.3764606 -3.2754033 -0.14478686 0 29
5.3729172 -3.2732446 -0.086805075 0 30
5.3779883 -3.276334 -0.028960703 0 31
5.3771577 -3.2758279 0.028956227 0 32
5.3807073 -3.2779903 0.086930931 0 33
5.3725429 -3.2730167 0.14468136 0 34
5.3722038 -3.27281 0.20257542 0 35
5.3711305 -3.272156 0.26046085 0 36
5.3720493 -3.2727158 0.31848538 0 37
5.3725057 -3.272994 0.37655139 0 38
5.3713126 -3.2722673 0.43455777 0 39
5.3753791 -3.2747445 0.49309462 0 40
5.3765492 -3.2754574 0.55150646 0 41
5.3718505 -3.2725949 0.60937202 0 42
5.3657436 -3.2688746 0.66706443 0 43
5.3734913 -3.2735944 0.72661132 0 44
5.370337 -3.271673 0.7848587 0 45
5.3780231 -3.2763553 0.84487492 0 46
5.3695245 -3.2711778 0.90248495 0 47
5.3807921 -3.2780421 0.96360373 0 48
5.3855906 -3.2809656 1.0239079 0 49
5.3715076 -3.2723858 1.0806972 0 50
5.3779955 -3.2763386 1.1417296 0 51
5.3663969 -3.2692723 1.1990645 0 52
5.3818808 -3.2787054 1.262705 0 53
5.3686209 -3.2706275 1.3198482 0 54
5.3742433 -3.2740526 1.381781 0 55
5.3656011 -3.2687876 1.440257 0 56
5.3721647 -3.2727864 1.5030478 0 57
5.3696518 -3.2712553 1.563614 0 58
5.3651271 -3.2684989 1.6237947 0 59
5.3737283 -3.2737386 1.6882883 0 60
5.3640656 -3.2678523 1.7473375 0 61
0 0 0 0 62
0 0 0 0 63
2.1216023 -1.2570006 -0.7351529 0 0
2.2054284 -1.3066655 -0.73859578 0 1
2.2715354 -1.3458326 -0.73450339 0 2
2.3710282 -1.4047797 -0.73943365 0 3
2.447587 -1.450139 -0.73532754 0 4
2.5394208 -1.5045484 -0.73402303 0 5
2.6423459 -1.5655292 -0.73384571 0 6
2.7493086 -1.6289022 -0.73254901 0 7
2.8812602 -1.7070804 -0.73535311 0 8
2.9985948 -1.7765985 -0.73176324 0 9
3.1474035 -1.8647642 -0.73301327 0 10
3.3182104 -1.9659634 -0.73596179 0 11
3.4793518 -2.0614359 -0.73321736 0 12
3.6786203 -2.179498 -0.73465657 0 13
3.8794882 -2.2985077 -0.73213905 0 14
4.1364374 -2.4507442 -0.73530972 0 15
4.3902955 -2.6011493 -0.73246938 0 16
4.7267547 -2.8004935 -0.73709661 0 17
5.0518179 -2.9930859 -0.7328738 0 18
5.4066072 -3.2032905 -0.72570819 0 19
5.4109597 -3.2058692 -0.66773438 0 20
5.4080353 -3.2041364 -0.60896128 0 21
5.3959641 -3.1969848 -0.54942405 0 22
5.4095693 -3.2050455 -0.49257848 0 23
5.4194727 -3.2109129 -0.43522683 0 24
5.4045291 -3.2020593 -0.37600777 0 25
5.4111753 -3.205997 -0.31844375 0 26
5.4091468 -3.2047951 -0.26037371 0 27
5.4033189 -3.2013423 -0.20224904 0 28
5.4134531 -3.2073464 -0.14471005 0 29
5.4087892 -3.2045834 -0.08674144 0 30
5.4060235 -3.2029445 -0.028897397 0 31
5.4079809 -3.2041044 0.028907862 0 32
5.414094 -3.2077265 0.086826518 0 33
5.4184165 -3.2102871 0.14484273 0 34
5.4132519 -3.2072272 0.20262082 0 35
5.4072452 -3.2036686 0.26028219 0 36
5.4134045 -3.2073176 0.31857494 0 37
5.4040675 -3.2017858 0.37597567 0 38
5.4142866 -3.2078404 0.43481037 0 39
5.4166541 -3.2092431 0.49322361 0 40
5.4120903 -3.2065392 0.55106604 0 41
5.4009233 -3.1999228 0.60816044 0 42
5.3941045 -3.1958828 0.66565436 0 43
5.4105806 -3.2056448 0.72624159 0 44
5.4042864 -3.2019155 0.78400689 0 45
5.3926125 -3.1949987 0.8409313 0 46
5.4117298 -3.2063255 0.90288377 0 47
5.4216986 -3.2122316 0.96378291 0 48
5.3977861 -3.1980641 1.0186731 0 49
5.4090133 -3.204716 1.080233 0 50
5.4040198 -3.2017574 1.1388102 0 51
5.4198341 -3.2111273 1.202091 0 52
5.4118543 -3.2063992 1.2603916 0 53
5.4110308 -3.2059114 1.320483 0 54
5.4130759 -3.207123 1.3815213 0 55
5.3998451 -3.1992841 1.4387803 0 56
5.4044051 -3.2019858 1.5009388 0 57
5.4186988 -3.2104545 1.5662823 0 58
5.4084716 -3.2043951 1.6248648 0 59
5.4047947 -3.2022166 1.6855503 0 60
5.4044142 -3.2019911 1.7475231 0 61
0 0 0 0 62
0 0 0 0 63
2.1515884 -1.2392812 -0.74020708 0 0
2.2122457 -1.2742188 -0.73557603 0 1
2.2912199 -1.3197067 -0.73556554 0 2
2.3725209 -1.3665347 -0.73460329 0 3
2.4692147 -1.4222288 -0.7365154 0 4
2.5607634 -1.4749594 -0.7348941 0 5
2.6604555 -1.5323806 -0.73358655 0 6
2.7772536 -1.5996544 -0.73469836 0 7
2.8989787 -1.6697661 -0.7345795 0 8
3.0481341 -1.7556772 -0.73852831 0 9
3.1751542 -1.8288389 -0.73418337 0 10
3.3354125 -1.9211452 -0.73448211 0 11
3.5032122 -2.0177951 -0.73296148 0 12
3.7033961 -2.1330979 -0.73431075 0 13
3.9178467 -2.256618 -0.73408592 0 14
4.185473 -2.4107666 -0.73870099 0 15
4.4390254 -2.5568089 -0.73529845 0 16
4.7232862 -2.7205386 -0.73128372 0 17
5.1121225 -2.9445021 -0.73631406 0 18
5.4363351 -3.1312435 -0.72447556 0 19
5.4408422 -3.1338394 -0.6666162 0 20
5.4399123 -3.1333039 -0.60816634 0 21
5.4439549 -3.1356325 -0.55034292 0 22
5.4585648 -3.1440475 -0.49348223 0 23
5.4449244 -3.1361907 -0.43414098 0 24
5.4296513 -3.1273937 -0.37505174 0 25
5.43504 -3.1304975 -0.3175588 0 26
5.4433794 -3.1353009 -0.26014605 0 27
5.4432759 -3.1352415 -0.20228632 0 28
5.4501886 -3.1392229 -0.14464924 0 29
5.4329762 -3.1293089 -0.086505696 0 30
5.4543548 -3.1416225 -0.028947063 0 31
5.4482069 -3.1380816 0.028914437 0 32
5.434597 -3.1302426 0.086531498 0 33
5.4383197 -3.1323867 0.14433424 0 34
5.4411497 -3.1340168 0.2022073 0 35
5.4552608 -3.1421444 0.26071391 0 36
5.4559135 -3.1425207 0.31877843 0 37
5.4592085 -3.1444182 0.3770934 0 38
5.4549623 -3.1419725 0.43494135 0 39
5.4534578 -3.1411061 0.49302056 0 40
5.4350395 -3.1304975 0.5494417 0 41
5.4366326 -3.1314149 0.60779965 0 42
5.4529486 -3.1408126 0.66809946 0 43
5.4383798 -3.1324213 0.72474802 0 44
5.4530735 -3.1408846 0.78542221 0 45
5.4438825 -3.1355908 0.84285015 0 46
5.4438891 -3.1355946 0.90174824 0 47
5.4508219 -3.1395876 0.96202457 0 48
5.4502125 -3.1392367 1.0212048 0 49
5.4386816 -3.1325953 1.0783838 0 50
5.4413037 -3.1341052 1.1384597 0 51
5.4472837 -3.1375499 1.1995316 0 52
5.4436402 -3.1354513 1.25872 0 53
5.443511 -3.1353767 1.3189011 0 54
5.4403901 -3.1335793 1.3785542 0 55
5.4466276 -3.137172 1.440858 0 56
5.4396911 -3.1331766 1.4999253 0 57
5.4457779 -3.1366825 1.5628426 0 58
5.4360938 -3.1311045 1.6214738 0 59
5.437861 -3.1321225 1.683724 0 60
5.4444728 -3.1359308 1.7478752 0 61
0 0 0 0 62
0 0 0 0 63
2.1621108 -1.2101843 -0.73865175 0 0
2.2244883 -1.2450985 -0.73450047 0 1
2.3147786 -1.2956361 -0.73795831 0 2
2.3814406 -1.3329484 -0.73223478 0 3
2.4929202 -1.395346 -0.73841268 0 4
2.5970707 -1.4536415 -0.74012798 0 5
2.6801813 -1.5001605 -0.73388374 0 6
2.7982233 -1.5662314 -0.7350952 0 7
2.9141188 -1.6311008 -0.73327821 0 8
3.0513597 -1.7079178 -0.73416597 0 9
3.1865394 -1.7835811 -0.73168939 0 10
3.3702726 -1.886421 -0.73699486 0 11
3.5448432 -1.9841322 -0.73651141 0 12
3.7472486 -2.0974233 -0.73783624 0 13
3.931509 -2.2005582 -0.73152047 0 14
4.1829782 -2.3413115 -0.73312414 0 15
4.4695263 -2.501699 -0.73519957 0 16
4.7775145 -2.6740873 -0.73453313 0 17
5.1109533 -2.8607209 -0.73102373 0 18
5.4689555 -3.0611031 -0.72375178 0 19
5.4678283 -3.060472 -0.66526145 0 20
5.475378 -3.064698 -0.60787231 0 21
5.4860873 -3.0706923 -0.55074346 0 22
5.4776573 -3.0659738 -0.49176279 0 23
5.4842701 -3.069675 -0.43423572 0 24
5.4865623 -3.0709579 -0.37634602 0 25
5.4821706 -3.0685 -0.31808394 0 26
5.4833007 -3.0691323 -0.26023066 0 27
5.4794006 -3.0669494 -0.20221201 0 28
5.4807668 -3.067714 -0.14444871 0 29
5.485394 -3.0703042 -0.086732619 0 30
5.4836607 -3.0693338 -0.028900107 0 31
5.4854646 -3.0703435 0.028909614 0 32
5.4807553 -3.0677075 0.086659268 0 33
5.4823642 -3.0686083 0.14449082 0 34
5.4737329 -3.0637772 0.20200287 0 35
5.4725695 -3.0631258 0.25972137 0 36
5.4761996 -3.0651577 0.31773746 0 37
5.4847264 -3.0699303 0.37622008 0 38
5.4817357 -3.0682564 0.43403503 0 39
5.4850049 -3.0700862 0.49242243 0 40
5.4745359 -3.0642266 0.54958385 0 41
5.4794316 -3.066967 0.60832232 0 42
5.4729776 -3.0633543 0.66588795 0 43
5.4742408 -3.0640614 0.72445124 0 44
5.4773297 -3.0657904 0.78342688 0 45
5.4768839 -3.0655408 0.84205979 0 46
5.4754305 -3.0647273 0.90066242 0 47
5.481102 -3.0679018 0.96063811 0 48
5.481524 -3.0681381 1.0199257 0 49
5.464797 -3.0587754 1.0760229 0 50
5.4741063 -3.0639861 1.137354 0 51
5.4746966 -3.0643165 1.19718 0 52
5.4806252 -3.0676348 1.2584547 0 53
5.4825397 -3.0687065 1.3191149 0 54
5.470705 -3.0620825 1.3765907 0 55
5.4784789 -3.0664334 1.4392003 0 56
5.4691567 -3.0612156 1.4975575 0 57
5.4801044 -3.0673432 1.5617514 0 58
5.4655843 -3.0592163 1.6189274 0 59
5.4867854 -3.0710828 1.6870522 0 60
5.4704204 -3.061923 1.7439862 0 61
0 0 0 0 62
0 0 0 0 63
2.1673555 -1.1783589 -0.73543775 0 0
2.2411275 -1.2184676 -0.73499179 0 1
2.3250151 -1.264076 -0.73621064 0 2
2.4079056 -1.3091424 -0.73536682 0 3
2.4985325 -1.3584148 -0.73507172 0 4
2.5916958 -1.4090663 -0.73360294 0 5
2.696599 -1.4661007 -0.73338747 0 6
2.8173275 -1.5317389 -0.7351104 0 7
2.9279568 -1.5918864 -0.7317794 0 8
3.0895526 -1.6797436 -0.73832983 0 9
3.2116194 -1.7461095 -0.7324627 0 10
3.3930712 -1.8447621 -0.73696411 0 11
3.5679469 -1.9398395 -0.73629999 0 12
3.7543883 -2.0412049 -0.73424441 0 13
3.9836645 -2.165859 -0.7362138 0 14
4.2142353 -2.2912169 -0.73360902 0 15
4.488225 -2.4401808 -0.73328429 0 16
4.8355093 -2.6289942 -0.73842365 0 17
5.1814733 -2.8170896 -0.73610002 0 18
5.5111122 -2.9963095 -0.72440016 0 19
5.5092859 -2.9953165 -0.66577393 0 20
5.5054641 -2.9932387 -0.60708028 0 21
5.5172462 -2.9996445 -0.55012703 0 22
5.5156145 -2.9987571 -0.49182284 0 23
5.5040579 -2.9924743 -0.43285626 0 24
5.5129933 -2.9973321 -0.37560248 0 25
5.522181 -3.0023274 -0.31823927 0 26
5.5078902 -2.9945576 -0.25963047 0 27
5.5177364 -2.9999108 -0.20225014 0 28
5.5139589 -2.9978571 -0.14434105 0 29
5.5091729 -2.995255 -0.086519696 0 30
5.5127006 -2.9971731 -0.028856741 0 31
5.5136666 -2.9976981 0.028861795 0 32
5.4954886 -2.9878151 0.086304791 0 33
5.5256391 -3.0042074 0.14464681 0 34
5.5115309 -2.9965372 0.20202269 0 35
5.4999533 -2.9902425 0.25925633 0 36
5.5200138 -3.0011492 0.3181144 0 37
5.5041137 -2.9925044 0.37499753 0 38
5.512681 -2.9971623 0.43353438 0 39
5.497509 -2.9889138 0.49020842 0 40
5.5073957 -2.9942889 0.54914486 0 41
5.5106816 -2.9960752 0.60765564 0 42
5.5107446 -2.9961097 0.66595024 0 43
5.5040574 -2.9924738 0.72347283 0 44
5.5131183 -2.9974 0.78321475 0 45
5.5092139 -2.9952774 0.84130412 0 46
5.5130143 -2.9973438 0.90071398 0 47
5.5097151 -2.9955499 0.95912462 0 48
5.5148001 -2.9983144 1.0191802 0 49
5.5011635 -2.9909005 1.0758606 0 50
5.5080271 -2.9946322 1.1366651 0 51
5.5242357 -3.0034444 1.1998461 0 52
5.5043521 -2.9926341 1.2553582 0 53
5.5056496 -2.9933395 1.3157198 0 54
5.5148878 -2.9983621 1.3783268 0 55
5.5133805 -2.9975429 1.4385773 0 56
5.4989748 -2.9897106 1.4955428 0 57
5.5191464 -3.0006776 1.5622444 0 58
5.5065751 -2.9938428 1.6200421 0 59
5.5147843 -2.998306 1.6841978 0 60
5.506073 -2.9935696 1.7434853 0 61
0 0 0 0 62
0 0 0 0 63
2.175508 -1.1483629 -0.73335713 0 0
2.2477531 -1.1864982 -0.73232454 0 1
2.3235016 -1.2264827 -0.7309007 0 2
2.430939 -1.2831945 -0.73752654 0 3
2.5181663 -1.3292383 -0.73598367 0 4
2.6166971 -1.3812488 -0.73581654 0 5
2.7057476 -1.428255 -0.73104388 0 6
2.8471591 -1.5029004 -0.73801643 0 7
2.9525716 -1.5585434 -0.73308617 0 8
3.10743 -1.6402869 -0.73772627 0 9
3.2477288 -1.7143451 -0.73583472 0 10
3.401587 -1.7955606 -0.73396277 0 11
3.5914257 -1.8957686 -0.73627889 0 12
3.7819998 -1.9963652 -0.73478794 0 13
3.9770751 -2.0993373 -0.73017007 0 14
4.2536488 -2.2453294 -0.73560822 0 15
4.5238252 -2.3879447 -0.73424774 0 16
4.8218813 -2.5452764 -0.73150772 0 17
5.2323923 -2.7619689 -0.73845309 0 18
5.5397649 -2.9242184 -0.72338527 0 19
5.5413933 -2.9250779 -0.6652571 0 20
5.5390754 -2.9238544 -0.60677624 0 21
5.5454574 -2.9272232 -0.54930943 0 22
5.5424857 -2.9256544 -0.49097392 0 23
5.5336967 -2.9210153 -0.43232971 0 24
5.5301652 -2.9191511 -0.37429857 0 25
5.5374608 -2.923002 -0.31702453 0 26
5.547061 -2.9280696 -0.25976005 0 27
5.5424824 -2.925653 -0.20182329 0 28
5.5533648 -2.931397 -0.14441809 0 29
5.5419736 -2.9253843 -0.086463362 0 30
5.5485482 -2.9288547 -0.028853685 0 31
5.54567 -2.9273353 0.028838716 0 32
5.5391779 -2.9239085 0.086419746 0 33
5.5562606 -2.9329257 0.1444934 0 34
5.5435677 -2.9262257 0.20186281 0 35
5.536078 -2.9222722 0.25924575 0 36
5.5567722 -2.9331958 0.31813014 0 37
5.5528932 -2.9311483 0.37583688 0 38
5.5340486 -2.9212008 0.43235719 0 39
5.5331097 -2.9207053 0.49014339 0 40
5.5266762 -2.9173093 0.54744905 0 41
5.5390577 -2.9238451 0.60677427 0 42
5.5494447 -2.929328 0.6662237 0 43
5.5386338 -2.9236214 0.72323757 0 44
5.5551763 -2.9323533 0.78400791 0 45
5.5553579 -2.9324493 0.84278047 0 46
5.5516305 -2.9304817 0.90106761 0 47
5.5396838 -2.9241755 0.95800972 0 48
5.5492315 -2.9292154 1.0188098 0 49
5.5470314 -2.9280541 1.0777081 0 50
5.549932 -2.9295852 1.1377927 0 51
5.5426292 -2.9257302 1.1959369 0 52
5.545095 -2.927032 1.2563467 0 53
5.5407209 -2.9247231 1.315407 0 54
5.5541935 -2.9318345 1.3790359 0 55
5.5406752 -2.9246991 1.4362068 0 56
5.5531111 -2.9312632 1.5003498 0 57
5.5539188 -2.9316897 1.5617648 0 58
5.5569682 -2.9332993 1.6241335 0 59
5.5417767 -2.9252801 1.6813287 0 60
5.5543733 -2.9319293 1.7472314 0 61
0 0 0 0 62
0 0 0 0 63
2.1969452 -1.1253595 -0.73586315 0 0
2.2594683 -1.1573862 -0.73144931 0 1
2.3457959 -1.2016066 -0.73321044 0 2
2.4343188 -1.2469515 -0.73384458 0 3
2.5236576 -1.2927141 -0.73288733 0 4
2.645149 -1.3549467 -0.73907626 0 5
2.7250483 -1.3958743 -0.73156583 0 6
2.8547409 -1.4623077 -0.7352652 0 7
2.972723 -1.5227426 -0.73338503 0 8
3.1329501 -1.6048172 -0.73904419 0 9
3.2584987 -1.6691279 -0.73356915 0 10
3.4103117 -1.7468923 -0.73115516 0 11
3.6224861 -1.8555763 -0.73791313 0 12
3.8188529 -1.9561629 -0.73721892 0 13
4.022583 -2.0605211 -0.73381782 0 14
4.2627392 -2.1835384 -0.7324816 0 15
4.5749793 -2.3434796 -0.73781747 0 16
4.8820133 -2.5007544 -0.73590952 0 17
5.2393508 -2.6837964 -0.73472214 0 18
5.5910392 -2.8639445 -0.72542727 0 19
5.576335 -2.8564124 -0.66518492 0 20
5.5863476 -2.8615415 -0.60805416 0 21
5.5825381 -2.8595901 -0.54945785 0 22
5.5693789 -2.8528492 -0.49021164 0 23
5.5702376 -2.8532894 -0.43241078 0 24
5.5812006 -2.8589048 -0.37534505 0 25
5.5629773 -2.8495703 -0.31645539 0 26
5.581903 -2.8592646 -0.2597256 0 27
5.5739198 -2.8551755 -0.20167436 0 28
5.5808277 -2.8587139 -0.14420724 0 29
5.5852761 -2.8609924 -0.086583532 0 30
5.5778179 -2.8571723 -0.028821016 0 31
5.5966802 -2.8668342 0.028918479 0 32
5.58111 -2.8588583 0.086518951 0 33
5.5794568 -2.8580117 0.1441718 0 34
5.5797038 -2.8581381 0.20188363 0 35
5.5855203 -2.8611176 0.25989389 0 36
5.5781765 -2.8573558 0.31732002 0 37
5.5779943 -2.8572624 0.37512943 0 38
5.5801902 -2.8583872 0.43318334 0 39
5.5756192 -2.8560457 0.49076092 0 40
5.5786409 -2.8575938 0.54907429 0 41
5.5790291 -2.8577926 0.60725754 0 42
5.5752497 -2.8558567 0.66505545 0 43
5.5733395 -2.8548779 0.7231307 0 44
5.5799727 -2.8582759 0.78248805 0 45
5.5838327 -2.8602533 0.84170103 0 46
5.5684562 -2.8523767 0.89803785 0 47
5.5642171 -2.8502054 0.95611924 0 48
5.5895534 -2.8631835 1.0196717 0 49
5.5836825 -2.8601763 1.0779144 0 50
5.5897102 -2.8632638 1.1386436 0 51
5.5785031 -2.8575232 1.1960055 0 52
5.5848336 -2.8607659 1.2572851 0 53
5.5857625 -2.8612416 1.3176479 0 54
5.5696635 -2.8529952 1.3740628 0 55
5.5879178 -2.8623457 1.4392204 0 56
5.5790873 -2.8578224 1.4977604 0 57
5.5906506 -2.8637457 1.5620736 0 58
5.5813398 -2.8589764 1.6208591 0 59
5.5746474 -2.8555481 1.6805214 0 60
5.591609 -2.8642364 1.7477334 0 61
0 0 0 0 62
0 0 0 0 63
2.2044444 -1.0951957 -0.73380876 0 0
2.2844579 -1.1349475 -0.73496574 0 1
2.3635504 -1.1742415 -0.73419118 0 2
2.4526658 -1.2185153 -0.73480302 0 3
2.539588 -1.2616993 -0.73295277 0 4
2.6512392 -1.317169 -0.73619682 0 5
2.7441769 -1.3633416 -0.73214513 0 6
2.8905785 -1.4360757 -0.73989141 0 7
2.9908934 -1.4859135 -0.73330462 0 8
3.1228232 -1.5514579 -0.73209965 0 9
3.296253 -1.6376199 -0.73747951 0 10
3.4509439 -1.7144723 -0.73529106 0 11
3.620693 -1.7988058 -0.73298675 0 12
3.8417435 -1.9086266 -0.73705143 0 13
4.0646577 -2.0193729 -0.73690778 0 14
4.299201 -2.1358972 -0.73417842 0 15
4.5692878 -2.2700796 -0.73234254 0 16
4.8782239 -2.423563 -0.73079085 0 17
5.2929058 -2.6295822 -0.73764211 0 18
5.6192389 -2.7917087 -0.72457731 0 19
5.6179161 -2.7910514 -0.66600072 0 20
5.6132631 -2.7887397 -0.60720539 0 21
5.6204205 -2.7922955 -0.54976541 0 22
5.6149507 -2.7895782 -0.4911665 0 23
5.6172991 -2.790745 -0.4333674 0 24
5.6117926 -2.7880092 -0.37506852 0 25
5.6057625 -2.7850132 -0.31691721 0 26
5.6152797 -2.7897415 -0.25966281 0 27
5.6012101 -2.7827518 -0.20140848 0 28
5.6078591 -2.7860548 -0.14400959 0 29
5.6038179 -2.7840474 -0.086333752 0 30
5.6077318 -2.7859917 -0.028796392 0 31
5.5948367 -2.7795851 0.028730175 0 32
5.6122684 -2.7882457 0.086463943 0 33
5.6215572 -2.7928603 0.14436136 0 34
5.6124611 -2.788341 0.20181303 0 35
5.6269507 -2.7955399 0.26020253 0 36
5.5973611 -2.7808392 0.31644225 0 37
5.6145115 -2.7893598 0.37525019 0 38
5.6060677 -2.7851648 0.43250087 0 39
5.625886 -2.795011 0.49212307 0 40
5.5986896 -2.7814994 0.54763979 0 41
5.6076803 -2.7859662 0.60660148 0 42
5.6037989 -2.7840376 0.66432714 0 43
5.5968471 -2.7805839 0.72168994 0 44
5.6081691 -2.7862089 0.7815786 0 45
5.6086392 -2.7864425 0.84021199 0 46
5.6136122 -2.788913 0.89972156 0 47
5.61905 -2.7916148 0.95957029 0 48
5.613831 -2.789022 1.0177673 0 49
5.5944581 -2.779397 1.0733156 0 50
5.621851 -2.7930064 1.1381087 0 51
5.6035042 -2.7838914 1.1939361 0 52
5.6043901 -2.7843316 1.2538853 0 53
5.6150093 -2.7896073 1.3163558 0 54
5.6059527 -2.7851079 1.3744626 0 55
5.612577 -2.7883987 1.4366319 0 56
5.6121254 -2.7881746 1.4973125 0 57
5.6032557 -2.7837679 1.5559136 0 58
5.6071677 -2.7857115 1.6182897 0 59
5.608695 -2.7864702 1.6803291 0 60
5.6103959 -2.7873151 1.7427609 0 61
0 0 0 0 62
0 0 0 0 63
2.2156608 -1.067005 -0.73311955 0 0
2.3051844 -1.1101172 -0.73718649 0 1
2.376832 -1.1446209 -0.73388934 0 2
2.466749 -1.1879226 -0.73459041 0 3
2.5478358 -1.2269719 -0.73092347 0 4
2.6649373 -1.2833649 -0.73556286 0 5
2.7543929 -1.3264445 -0.73046392 0 6
2.9066789 -1.3997815 -0.73955089 0 7
3.0228968 -1.455749 -0.73670667 0 8
3.1508343 -1.5173603 -0.73423684 0 9
3.3223195 -1.5999433 -0.73885399 0 10
3.4646633 -1.6684923 -0.7337873 0 11
3.6437547 -1.7547381 -0.7332319 0 12
3.8525076 -1.855268 -0.73468423 0 13
4.0640883 -1.95716 -0.73238611 0 14
4.3320079 -2.0861831 -0.73534459 0 15
4.6266742 -2.2280867 -0.73709321 0 16
4.945066 -2.3814158 -0.73636174 0 17
5.2929916 -2.5489681 -0.73323053 0 18
5.6525607 -2.7221272 -0.7245031 0 19
5.647965 -2.719914 -0.66554773 0 20
5.6491394 -2.7204795 -0.60742164 0 21
5.6498151 -2.7208047 -0.54932654 0 22
5.6581087 -2.7247989 -0.49197364 0 23
5.6378341 -2.7150352 -0.4323433 0 24
5.6497931 -2.7207944 -0.37534386 0 25
5.6547742 -2.7231929 -0.31777093 0 26
5.6549072 -2.7232571 -0.25992715 0 27
5.6385827 -2.7153957 -0.20153645 0 28
5.6476383 -2.7197566 -0.1441614 0 29
5.6515331 -2.7216325 -0.086546727 0 30
5.6391301 -2.7156591 -0.028783971 0 31
5.6468773 -2.7193902 0.028823517 0 32
5.6422338 -2.717154 0.086404316 0 33
5.6526194 -2.7221553 0.14428854 0 34
5.6410222 -2.7165704 0.20162363 0 35
5.6384597 -2.7153363 0.25917113 0 36
5.6467547 -2.7193313 0.31732029 0 37
5.6400495 -2.7161019 0.37469652 0 38
5.6507111 -2.7212365 0.4333308 0 39
5.6421261 -2.7171021 0.49058396 0 40
5.6450772 -2.7185233 0.54886597 0 41
5.640101 -2.7161269 0.60644978 0 42
5.6565876 -2.7240665 0.66656387 0 43
5.6470442 -2.7194707 0.72379607 0 44
5.6327014 -2.7125635 0.78029001 0 45
5.6423335 -2.7172019 0.84019071 0 46
5.6456661 -2.718807 0.89943278 0 47
5.6409416 -2.7165315 0.95753193 0 48
5.6426339 -2.7173467 1.0168545 0 49
5.6421022 -2.7170906 1.075965 0 50
5.6456981 -2.7188225 1.1360824 0 51
5.6450157 -2.7184937 1.1955681 0 52
5.6495481 -2.7206764 1.2564087 0 53
5.6464434 -2.7191813 1.315787 0 54
5.63448 -2.7134199 1.3731726 0 55
5.6482587 -2.7200556 1.4370954 0 56
5.6500411 -2.7209136 1.4983886 0 57
5.6524296 -2.722064 1.5601559 0 58
5.643507 -2.717767 1.6190101 0 59
5.657867 -2.7246826 1.6848958 0 60
5.6423612 -2.7172153 1.7421798 0 61
0 0 0 0 62
0 0 0 0 63
2.2285266 -1.0396414 -0.73309118 0 0
2.3123059 -1.0787257 -0.73516637 0 1
2.4011211 -1.1201593 -0.73708034 0 2
2.4763761 -1.1552669 -0.73317146 0 3
2.5662854 -1.1972109 -0.73193771 0 4
2.6814218 -1.2509239 -0.73581159 0 5
2.7888992 -1.3010638 -0.73531663 0 6
2.9043617 -1.3549287 -0.73466671 0 7
3.0479696 -1.421924 -0.73850018 0 8
3.1548464 -1.4717836 -0.73089921 0 9
3.3279376 -1.5525333 -0.73580217 0 10
3.5005255 -1.6330482 -0.73707396 0 11
3.6858754 -1.7195168 -0.73739725 0 12
3.877403 -1.8088671 -0.73513454 0 13
4.0905123 -1.9082859 -0.7328639 0 14
4.3550634 -2.031703 -0.73496187 0 15
4.6216841 -2.1560855 -0.73201913 0 16
4.9385099 -2.3038898 -0.73111171 0 17
5.3622251 -2.5015593 -0.73850429 0 18
5.6850028 -2.6521399 -0.72442657 0 19
5.6777415 -2.6487525 -0.66516829 0 20
5.6738129 -2.6469197 -0.60652918 0 21
5.687798 -2.6534438 -0.54980564 0 22
5.683517 -2.6514468 -0.49131089 0 23
5.6712651 -2.645731 -0.43237948 0 24
5.6723466 -2.6462355 -0.37465212 0 25
5.6736035 -2.646822 -0.31697613 0 26
5.6777749 -2.6487679 -0.25946155 0 27
5.6828117 -2.6511178 -0.20193686 0 28
5.6886935 -2.6538615 -0.14436546 0 29
5.672298 -2.6462128 -0.086359888 0 30
5.6784263 -2.6490717 -0.028816104 0 31
5.6810112 -2.6502776 0.028829223 0 32
5.6855531 -2.6523967 0.086561695 0 33
5.6864204 -2.6528013 0.14430778 0 34
5.6755152 -2.6477139 0.20167758 0 35
5.6741447 -2.6470745 0.25929564 0 36
5.6753335 -2.647629 0.31707281 0 37
5.6744866 -2.647234 0.37479347 0 38
5.6833682 -2.6513774 0.43330222 0 39
5.6725068 -2.6463103 0.4903591 0 40
5.6774969 -2.6486382 0.54880995 0 41
5.6767554 -2.6482923 0.60684371 0 42
5.6742234 -2.6471112 0.66475612 0 43
5.6797657 -2.6496966 0.72375917 0 44
5.6785026 -2.6491075 0.78206313 0 45
5.6800308 -2.6498206 0.84088868 0 46
5.6727638 -2.64643 0.89849752 0 47
5.6646967 -2.6426668 0.95597601 0 48
5.6681957 -2.6442993 1.0155246 0 49
5.6862388 -2.6527164 1.0780799 0 50
5.6907272 -2.6548104 1.1384885 0 51
5.6831455 -2.6512733 1.1966485 0 52
5.6701961 -2.6452322 1.253672 0 53
5.6885228 -2.6537819 1.3178889 0 54
5.6726527 -2.6463785 1.3744411 0 55
5.6731033 -2.6465886 1.4350278 0 56
5.6773357 -2.6485631 1.4968771 0 57
5.653975 -2.637665 1.5515128 0 58
5.6727715 -2.6464338 1.6179476 0 59
5.6872315 -2.6531796 1.6837976 0 60
5.6779313 -2.6488409 1.7429739 0 61
0 0 0 0 62
0 0 0 0 63
2.251739 -1.0169482 -0.7365579 0 0
2.3257136 -1.0503572 -0.73526722 0 1
2.4213302 -1.0935403 -0.73910034 0 2
2.513799 -1.1353018 -0.74006212 0 3
2.5827544 -1.1664439 -0.73248869 0 4
2.7010989 -1.2198915 -0.73703921 0 5
2.8008721 -1.2649521 -0.73431677 0 6
2.9195492 -1.3185499 -0.73435169 0 7
3.0619593 -1.3828663 -0.73771393 0 8
3.1868017 -1.4392486 -0.73414683 0 9
3.3386552 -1.5078299 -0.73401695 0 10
3.498657 -1.5800911 -0.73253405 0 11
3.6795177 -1.6617728 -0.73198193 0 12
3.9127731 -1.7671175 -0.737665 0 13
4.1307554 -1.8655645 -0.73590833 0 14
4.3897424 -1.9825301 -0.73664457 0 15
4.673811 -2.1108234 -0.73610872 0 16
5.0048718 -2.2603397 -0.73676568 0 17
5.359077 -2.4203088 -0.73391646 0 18
5.6960845 -2.5725107 -0.72175318 0 19
5.710907 -2.579205 -0.66528791 0 20
5.7083755 -2.5780618 -0.60678917 0 21
5.7119346 -2.579669 -0.54903102 0 22
5.703918 -2.5760484 -0.49029911 0 23
5.7108445 -2.5791767 -0.43294635 0 24
5.7013903 -2.5749071 -0.37445086 0 25
5.7102714 -2.578918 -0.31722906 0 26
5.6983986 -2.5735557 -0.25893828 0 27
5.7075548 -2.5776911 -0.20167452 0 28
5.7073369 -2.5775926 -0.14402336 0 29
5.7174416 -2.5821562 -0.086557239 0 30
5.7143841 -2.5807753 -0.028835356 0 31
5.7137976 -2.5805104 0.028832398 0 32
5.709106 -2.5783916 0.086431049 0 33
5.7198496 -2.5832436 0.1443391 0 34
5.7082853 -2.578021 0.20170034 0 35
5.7129531 -2.5801289 0.25959966 0 36
5.7059836 -2.5769815 0.31699088 0 37
5.719583 -2.5831234 0.3756457 0 38
5.7184033 -2.5825906 0.43351939 0 39
5.6963024 -2.5726092 0.48964453 0 40
5.7191119 -2.5829105 0.54972094 0 41
5.7130742 -2.5801837 0.6072886 0 42
5.7093291 -2.5784924 0.66510409 0 43
5.7168264 -2.5818784 0.72438145 0 44
5.6882353 -2.5689657 0.77899408 0 45
5.693275 -2.5712419 0.83810532 0 46
5.7244339 -2.585314 0.90157813 0 47
5.7200007 -2.583312 0.95987576 0 48
5.7177277 -2.5822852 1.0186329 0 49
5.7112503 -2.57936 1.0767273 0 50
5.7001371 -2.5743411 1.1339524 0 51
5.717597 -2.5822265 1.1971264 0 52
5.69698 -2.5729153 1.2525042 0 53
5.7109323 -2.5792165 1.3156334 0 54
5.7115955 -2.5795159 1.3760874 0 55
5.7093873 -2.5785186 1.4360772 0 56
5.7110171 -2.5792546 1.4972821 0 57
5.7029157 -2.5755959 1.5561342 0 58
5.7034497 -2.5758371 1.6175414 0 59
5.701797 -2.5750906 1.6786082 0 60
5.7116623 -2.579546 1.7434597 0 61
0 0 0 0 62
0 0 0 0 63
2.2680492 -0.99092233 -0.7378515 0 0
2.3390939 -1.021962 -0.73546892 0 1
2.4196241 -1.0571462 -0.73455614 0 2
2.5166833 -1.0995518 -0.73687506 0 3
2.6038907 -1.1376532 -0.73446012 0 4
2.7210238 -1.1888292 -0.73843133 0 5
2.8123345 -1.2287234 -0.73330534 0 6
2.9378991 -1.2835832 -0.73494166 0 7
3.0557642 -1.335079 -0.7322107 0 8
3.2228651 -1.4080863 -0.73841023 0 9
3.3686683 -1.4717884 -0.73658085 0 10
3.5368574 -1.545271 -0.73649818 0 11
3.7066419 -1.6194508 -0.73336095 0 12
3.9120297 -1.7091858 -0.7335071 0 13
4.1312909 -1.8049822 -0.73199433 0 14
4.3914776 -1.918659 -0.73292118 0 15
4.6801801 -2.0447946 -0.73309636 0 16
5.014843 -2.1910105 -0.73421192 0 17
5.3639069 -2.3435183 -0.73057622 0 18
5.7646761 -2.5186164 -0.72646534 0 19
5.7394924 -2.5076134 -0.66497558 0 20
5.7342668 -2.5053306 -0.60622084 0 21
5.7485099 -2.5115533 -0.54953665 0 22
5.7412934 -2.5084004 -0.49082342 0 23
5.7531271 -2.5135705 -0.43377587 0 24
5.7402253 -2.5079339 -0.37494767 0 25
5.7488084 -2.5116839 -0.31763017 0 26
5.7459183 -2.510421 -0.25967526 0 27
5.7519107 -2.5130391 -0.20213464 0 28
5.7505007 -2.512423 -0.14432207 0 29
5.7449899 -2.5100155 -0.086500496 0 30
5.7498417 -2.5121353 -0.028856222 0 31
5.741724 -2.5085886 0.028815482 0 32
5.7605429 -2.5168107 0.086734675 0 33
5.7524791 -2.5132875 0.14437172 0 34
5.7595587 -2.5163805 0.20240341 0 35
5.7446856 -2.5098825 0.25961956 0 36
5.7443266 -2.5097256 0.31738251 0 37
5.7565494 -2.5150659 0.37601396 0 38
5.7555232 -2.5146174 0.43395653 0 39
5.7490849 -2.5118046 0.4914895 0 40
5.7496443 -2.512049 0.54964507 0 41
5.7438693 -2.509526 0.60723603 0 42
5.7592425 -2.5162425 0.66726381 0 43
5.7402163 -2.5079298 0.72338289 0 44
5.7464552 -2.5106556 0.78268015 0 45
5.7438154 -2.5095024 0.84093922 0 46
5.7451096 -2.5100677 0.89990532 0 47
5.7351499 -2.5057163 0.95717514 0 48
5.7427511 -2.5090373 1.0175176 0 49
5.7400904 -2.5078747 1.0762691 0 50
5.7399478 -2.5078125 1.1356516 0 51
5.7495513 -2.5120084 1.1972589 0 52
5.7595968 -2.5163972 1.2593727 0 53
5.7285366 -2.5028269 1.3124999 0 54
5.7485433 -2.5115678 1.3774444 0 55
5.7368364 -2.5064533 1.4351207 0 56
5.7461305 -2.5105138 1.4982812 0 57
5.74751 -2.5111165 1.559759 0 58
5.7391653 -2.5074708 1.6188037 0 59
5.7445002 -2.5098014 1.6819673 0 60
5.740418 -2.508018 1.7426918 0 61
0 0 0 0 62
0 0 0 0 63
2.280968 -0.9633432 -0.73814476 0 0
2.3483717 -0.9918105 -0.73449588 0 1
2.4173961 -1.0209622 -0.73001325 0 2
2.5292587 -1.0682063 -0.73665547 0 3
2.6181791 -1.1057609 -0.73459965 0 4
2.7097323 -1.1444274 -0.73149282 0 5
2.8456652 -1.2018373 -0.73808694 0 6
2.9532192 -1.2472615 -0.73488182 0 7
3.0744898 -1.2984791 -0.73281646 0 8
3.2154434 -1.3580093 -0.73282844 0 9
3.3648593 -1.4211136 -0.73187172 0 10
3.5600886 -1.5035666 -0.73743004 0 11
3.7363696 -1.5780171 -0.73534793 0 12
3.9348292 -1.6618345 -0.73389506 0 13
4.1772065 -1.7642 -0.73623037 0 14
4.4373217 -1.8740569 -0.73667073 0 15
4.715652 -1.991607 -0.73476106 0 16
5.0581136 -2.1362419 -0.73664552 0 17
5.4322076 -2.2942367 -0.73598087 0 18
5.7686906 -2.436347 -0.72314125 0 19
5.7750497 -2.4390326 -0.66557014 0 20
5.7900958 -2.4453871 -0.60889804 0 21
5.7858095 -2.4435768 -0.5501883 0 22
5.7801003 -2.4411657 -0.49153763 0 23
5.7802978 -2.4412491 -0.43352836 0 24
5.7757101 -2.4393115 -0.37527791 0 25
5.7684975 -2.4362652 -0.31703883 0 26
5.7721086 -2.4377904 -0.25948453 0 27
5.7661023 -2.4352539 -0.2015658 0 28
5.7773566 -2.440007 -0.14423217 0 29
5.772727 -2.4380517 -0.086460203 0 30
5.7840171 -2.4428198 -0.028874803 0 31
5.7838497 -2.4427493 0.028873967 0 32
5.7941318 -2.4470918 0.086780794 0 33
5.7694483 -2.436667 0.14403474 0 34
5.7873793 -2.4442399 0.20230958 0 35
5.7825742 -2.4422104 0.25995502 0 36
5.7655993 -2.4350412 0.31687957 0 37
5.7842593 -2.4429221 0.37583339 0 38
5.7856088 -2.4434919 0.43392667 0 39
5.7740378 -2.4386051 0.49102208 0 40
5.7781053 -2.4403231 0.5494557 0 41
5.7946148 -2.4472957 0.60937327 0 42
5.7816191 -2.441807 0.66632724 0 43
5.7751055 -2.4390562 0.72394538 0 44
5.7815685 -2.4417856 0.78331393 0 45
5.7877798 -2.4444089 0.84291148 0 46
5.782455 -2.4421601 0.9009831 0 47
5.8005614 -2.4498072 0.96299165 0 48
5.7814846 -2.4417503 1.0189835 0 49
5.7798753 -2.4410706 1.0780193 0 50
5.7777729 -2.4401827 1.1371126 0 51
5.7756915 -2.4393036 1.1963658 0 52
5.7769809 -2.4398482 1.2565188 0 53
5.7731571 -2.4382334 1.3157544 0 54
5.7874122 -2.4442537 1.3794519 0 55
5.7832851 -2.4425106 1.4391181 0 56
5.7822747 -2.4420838 1.4997623 0 57
5.7914796 -2.4459715 1.5634111 0 58
5.7887673 -2.4448259 1.6241922 0 59
5.7909784 -2.4457598 1.6866428 0 60
5.779952 -2.441103 1.7454491 0 61
0 0 0 0 62
0 0 0 0 63
2.2797673 -0.92997348 -0.73400015 0 0
2.3775029 -0.9698422 -0.73982131 0 1
2.4392846 -0.99504447 -0.73287284 0 2
2.5489647 -1.0397857 -0.73861516 0 3
2.6400878 -1.0769571 -0.73697537 0 4
2.7389429 -1.1172825 -0.73561388 0 5
2.836026 -1.1568851 -0.73184174 0 6
2.9789734 -1.215197 -0.73751646 0 7
3.1009142 -1.2649397 -0.7353518 0 8
3.2442265 -1.3234001 -0.73562396 0 9
3.4065545 -1.3896178 -0.73716825 0 10
3.5576041 -1.4512347 -0.73316354 0 11
3.7451496 -1.5277392 -0.73332328 0 12
3.9514339 -1.6118876 -0.73323977 0 13
4.1828518 -1.7062887 -0.73347199 0 14
4.4376073 -1.8102096 -0.73296732 0 15
4.7196274 -1.9252527 -0.7316364 0 16
5.05586 -2.0624104 -0.73256856 0 17
5.4316907 -2.2157211 -0.73216414 0 18
5.8108773 -2.3704004 -0.72472095 0 19
5.818326 -2.3734391 -0.6671437 0 20
5.8076553 -2.3690863 -0.6076352 0 21
5.816577 -2.3727255 -0.55029804 0 22
5.8113647 -2.3705993 -0.49168026 0 23
5.8138981 -2.3716328 -0.43382838 0 24
5.8105812 -2.3702798 -0.3756215 0 25
5.8086972 -2.3695114 -0.31762287 0 26
5.8139338 -2.3716474 -0.26003411 0 27
5.8272285 -2.3770707 -0.20266549 0 28
5.8077397 -2.3691206 -0.14425249 0 29
5.8207173 -2.3744144 -0.086735114 0 30
5.8248763 -2.376111 -0.028930733 0 31
5.8170614 -2.3729231 0.028891917 0 32
5.8131518 -2.3713284 0.086622387 0 33
5.8212261 -2.3746221 0.14458749 0 34
5.8051591 -2.368068 0.20189793 0 35
5.8017216 -2.3666656 0.25948793 0 36
5.8239107 -2.3757174 0.31845477 0 37
5.8183064 -2.373431 0.3761209 0 38
5.8169837 -2.3728914 0.43405864 0 39
5.8110323 -2.3704638 0.49165216 0 40
5.8100395 -2.3700588 0.54967952 0 41
5.816134 -2.3725448 0.6085223 0 42
5.8214564 -2.374716 0.66750264 0 43
5.8301387 -2.3782578 0.72712314 0 44
5.8151431 -2.3721406 0.78385156 0 45
5.8085809 -2.3694637 0.84163398 0 46
5.8245807 -2.3759904 0.90292621 0 47
5.8177848 -2.3732183 0.96093369 0 48
5.8174596 -2.3730855 1.0201039 0 49
5.8150568 -2.3721056 1.0790592 0 50
5.8185625 -2.3735356 1.1393102 0 51
5.8210201 -2.3745382 1.1996163 0 52
5.8134809 -2.3714626 1.25802 0 53
5.8014178 -2.3665416 1.3154635 0 54
5.8225627 -2.3751671 1.3807642 0 55
5.812489 -2.371058 1.4390213 0 56
5.8189483 -2.3736928 1.5015904 0 57
5.8248925 -2.3761177 1.5644252 0 58
5.8125367 -2.3710775 1.6225582 0 59
5.8093042 -2.3697588 1.6833659 0 60
5.821806 -2.3748586 1.7491373 0 61
0 0 0 0 62
0 0 0 0 63
2.2928417 -0.90258557 -0.73458076 0 0
2.3751287 -0.93497813 -0.73544931 0 1
2.4636748 -0.96983469 -0.73656219 0 2
2.5574532 -1.0067508 -0.73743188 0 3
2.6518173 -1.0438976 -0.73661071 0 4
2.7551448 -1.0845729 -0.73632777 0 5
2.8475373 -1.1209435 -0.7312001 0 6
2.9715531 -1.1697628 -0.732063 0 7
3.1041794 -1.2219716 -0.73250741 0 8
3.2769253 -1.2899736 -0.73938572 0 9
3.4230483 -1.3474956 -0.73709625 0 10
3.5842052 -1.4109355 -0.73501456 0 11
3.7838783 -1.4895376 -0.73726445 0 12
3.9852917 -1.5688248 -0.73588723 0 13
4.2102613 -1.6573848 -0.73464906 0 14
4.4718738 -1.7603695 -0.73499626 0 15
4.7744894 -1.8794954 -0.73650283 0 16
5.1056409 -2.0098543 -0.73614496 0 17
5.5017571 -2.165787 -0.7379632 0 18
5.8554735 -2.3050287 -0.72669297 0 19
5.8460798 -2.3013308 -0.66703087 0 20
5.8528471 -2.3039947 -0.60935318 0 21
5.8487172 -2.3023691 -0.55061871 0 22
5.8412113 -2.2994144 -0.49177608 0 23
5.8357787 -2.2972758 -0.43332046 0 24
5.8487968 -2.3024004 -0.37623331 0 25
5.8508196 -2.3031967 -0.31835344 0 26
5.8399267 -2.2989087 -0.2599127 0 27
5.861063 -2.307229 -0.20284018 0 28
5.8520789 -2.3036923 -0.14463927 0 29
5.8543515 -2.3045869 -0.086807474 0 30
5.8357391 -2.29726 -0.028842203 0 31
5.842741 -2.3000166 0.028876809 0 32
5.8444366 -2.300684 0.086660452 0 33
5.8550968 -2.3048804 0.14471386 0 34
5.8390651 -2.2985694 0.20207886 0 35
5.8354855 -2.2971604 0.25971505 0 36
5.8532367 -2.3041482 0.31848499 0 37
5.8507934 -2.3031864 0.37636176 0 38
5.8477211 -2.3019769 0.43420723 0 39
5.8435836 -2.300348 0.49197581 0 40
5.8413563 -2.2994714 0.54992568 0 41
5.8560061 -2.3052382 0.60968208 0 42
5.834177 -2.2966452 0.66567278 0 43
5.8560333 -2.305249 0.72676247 0 44
5.8405628 -2.299159 0.78340793 0 45
5.8473759 -2.301841 0.8430903 0 46
5.8581867 -2.3060968 0.90367168 0 47
5.8582635 -2.3061271 0.96286303 0 48
5.853775 -2.3043602 1.021426 0 49
5.8501987 -2.3029523 1.0802438 0 50
5.850915 -2.3032343 1.1400133 0 51
5.8554239 -2.3050091 1.2007744 0 52
5.845871 -2.3012486 1.2588106 0 53
5.8614044 -2.3073633 1.3225321 0 54
5.8680162 -2.3099663 1.3847027 0 55
5.8392644 -2.2986479 1.4385437 0 56
5.8556418 -2.305095 1.5036312 0 57
5.8401461 -2.298995 1.5608115 0 58
5.8414788 -2.2995198 1.6226217 0 59
5.8512707 -2.3033743 1.6871917 0 60
5.8523016 -2.3037801 1.7496562 0 61
0 0 0 0 62
0 0 0 0 63
2.3023314 -0.87378109 -0.73412323 0 0
2.3904331 -0.9072175 -0.73667836 0 1
2.4604218 -0.9337796 -0.7321015 0 2
2.5545285 -0.96949494 -0.73309571 0 3
2.6613545 -1.0100377 -0.73575437 0 4
2.7662544 -1.0498492 -0.73579109 0 5
2.8828132 -1.0940857 -0.7367481 0 6
3.0032022 -1.1397756 -0.73635149 0 7
3.1329479 -1.1890167 -0.73579031 0 8
3.2791033 -1.2444856 -0.73636866 0 9
3.4184346 -1.2973647 -0.73261213 0 10
3.5897915 -1.3623981 -0.73266929 0 11
3.7821431 -1.4353994 -0.73343188 0 12
3.9756591 -1.5088426 -0.73062742 0 13
4.2179742 -1.6008061 -0.73250484 0 14
4.4739928 -1.6979704 -0.7318576 0 15
4.7747774 -1.8121241 -0.73305452 0 16
5.1136923 -1.940749 -0.73380953 0 17
5.5033832 -2.0886445 -0.73468077 0 18
5.8775043 -2.2306311 -0.72596818 0 19
5.8835926 -2.2329416 -0.66812766 0 20
5.8794847 -2.2313828 -0.60922384 0 21
5.878191 -2.2308917 -0.55076927 0 22
5.8753433 -2.229811 -0.49230406 0 23
5.8835187 -2.2329137 -0.43479368 0 24
5.8878899 -2.2345726 -0.37695199 0 25
5.8782234 -2.2309039 -0.31832784 0 26
5.8777661 -2.2307305 -0.26035631 0 27
5.8807096 -2.2318475 -0.20255502 0 28
5.8785944 -2.2310448 -0.14460564 0 29
5.8773646 -2.2305782 -0.08673545 0 30
5.8978138 -2.2383389 -0.029010771 0 31
5.886271 -2.2339582 0.028953996 0 32
5.8761044 -2.2300999 0.086716846 0 33
5.8993759 -2.2389317 0.14511684 0 34
5.8939886 -2.2368872 0.20301241 0 35
5.8828259 -2.2326508 0.26058042 0 36
5.8836317 -2.2329566 0.31862071 0 37
5.8806319 -2.2318182 0.37648734 0 38
5.8925643 -2.2363467 0.43546212 0 39
5.8944006 -2.2370436 0.4939009 0 40
5.8769083 -2.2304051 0.55064911 0 41
5.8942027 -2.2369685 0.61074889 0 42
5.8772025 -2.2305167 0.66740203 0 43
5.8819466 -2.232317 0.72651684 0 44
5.8801069 -2.2316189 0.78497201 0 45
5.8902192 -2.2354567 0.84524035 0 46
5.8934574 -2.2366858 0.90480143 0 47
5.8783236 -2.230942 0.96157855 0 48
5.8862252 -2.2339408 1.0222178 0 49
5.8904309 -2.2355371 1.082515 0 50
5.8810458 -2.2319753 1.1404504 0 51
5.8689189 -2.2273729 1.1978346 0 52
5.8718076 -2.2284691 1.2583998 0 53
5.8775005 -2.2306297 1.3198752 0 54
5.8792567 -2.2312961 1.3807763 0 55
5.8692265 -2.2274895 1.4390686 0 56
5.8708305 -2.2280982 1.5003827 0 57
5.8885927 -2.2348394 1.5662965 0 58
5.8818483 -2.2322798 1.6260875 0 59
5.8810487 -2.2319763 1.6877367 0 60
5.876451 -2.2302315 1.7485451 0 61
0 0 0 0 62
0 0 0 0 63
2.3163679 -0.84667385 -0.73522365 0 0
2.4056888 -0.87932217 -0.73799181 0 1
2.482358 -0.90734619 -0.73525316 0 2
2.5801034 -0.94307387 -0.73705149 0 3
2.6588333 -0.97185105 -0.73169822 0 4
2.7655642 -1.0108631 -0.73224592 0 5
2.8952575 -1.0582683 -0.73654699 0 6
3.0376027 -1.110298 -0.7413826 0 7
3.1483259 -1.1507694 -0.73602301 0 8
3.2919502 -1.2032666 -0.73587537 0 9
3.4447443 -1.2591156 -0.73487693 0 10
3.6342227 -1.3283733 -0.73834801 0 11
3.8230526 -1.3973939 -0.73797709 0 12
4.0199389 -1.4693595 -0.73538893 0 13
4.2586956 -1.5566293 -0.73619682 0 14
4.5213671 -1.6526405 -0.73622721 0 15
4.8238158 -1.7631909 -0.73719883 0 16
5.1705146 -1.8899155 -0.73857284 0 17
5.5021844 -2.0111468 -0.73116416 0 18
5.9099641 -2.1601975 -0.72664165 0 19
5.904985 -2.1583776 -0.66749263 0 20
5.9155884 -2.1622531 -0.61016369 0 21
5.9185433 -2.1633332 -0.55201596 0 22
5.9035387 -2.1578488 -0.49240607 0 23
5.9183874 -2.1632764 -0.43537176 0 24
5.9098501 -2.1601558 -0.37662888 0 25
5.9126897 -2.1611938 -0.3187311 0 26
5.9220319 -2.1646085 -0.26111829 0 27
5.9181142 -2.1631765 -0.20291185 0 28
5.9103007 -2.1603205 -0.14472118 0 29
5.9214044 -2.1643791 -0.086986035 0 30
5.9090819 -2.1598749 -0.02893337 0 31
5.9179878 -2.1631303 0.028976979 0 32
5.9033046 -2.1577632 0.086720139 0 33
5.9329424 -2.1685965 0.14527559 0 34
5.9024663 -2.1574569 0.20237534 0 35
5.9250422 -2.1657088 0.26125103 0 36
5.9202528 -2.1639581 0.3191388 0 37
5.9188132 -2.1634319 0.3772001 0 38
5.9221969 -2.1646688 0.43565199 0 39
5.9143291 -2.1617928 0.49330604 0 40
5.91821 -2.1632113 0.55198485 0 41
5.9156804 -2.162287 0.61017317 0 42
5.9174795 -2.1629443 0.66890496 0 43
5.9135489 -2.1615078 0.72708237 0 44
5.9039874 -2.1580129 0.78455818 0 45
5.9201136 -2.1639073 0.84564793 0 46
5.9117489 -2.1608498 0.90346205 0 47
5.9251189 -2.1657367 0.96480411 0 48
5.9172378 -2.1628561 1.0229075 0 49
5.9245844 -2.1655414 1.0838159 0 50
5.9079452 -2.1594596 1.1404312 0 51
5.9133697 -2.1614423 1.2013916 0 52
5.9224114 -2.1647472 1.2634447 0 53
5.9229283 -2.1649361 1.3239985 0 54
5.916028 -2.1624141 1.3830628 0 55
5.9099445 -2.1601903 1.4424301 0 56
5.9094677 -2.1600161 1.5033554 0 57
5.9056668 -2.1586268 1.5636595 0 58
5.9273915 -2.1665676 1.6311899 0 59
5.9046741 -2.1582639 1.6867731 0 60
5.9233809 -2.1651015 1.7544546 0 61
0 0 0 0 62
0 0 0 0 63
2.313735 -0.81360388 -0.73115724 0 0
2.3712375 -0.83382416 -0.72422314 0 1
2.490875 -0.87589359 -0.73453021 0 2
2.5850272 -0.90900135 -0.73520947 0 3
2.6775169 -0.94152451 -0.73359841 0 4
2.7879434 -0.98035491 -0.73492396 0 5
2.8959174 -1.0183231 -0.73347396 0 6
3.0342669 -1.0669725 -0.73731053 0 7
3.1448691 -1.1058646 -0.7319805 0 8
3.2890606 -1.1565683 -0.73199499 0 9
3.4464462 -1.2119114 -0.73200554 0 10
3.611923 -1.2700999 -0.73058921 0 11
3.8063638 -1.3384732 -0.73152322 0 12
4.0258422 -1.4156508 -0.73322898 0 13
4.2672644 -1.5005448 -0.734433 0 14
4.5170631 -1.5883842 -0.73229057 0 15
4.8208089 -1.6951936 -0.73349828 0 16
5.168365 -1.8174087 -0.73501801 0 17
5.5779619 -1.9614396 -0.73797309 0 18
5.9564471 -2.0945303 -0.72913498 0 19
5.954164 -2.0937276 -0.67009085 0 20
5.9449477 -2.090487 -0.61049438 0 21
5.9476833 -2.0914488 -0.55229342 0 22
5.9461384 -2.0909057 -0.49377742 0 23
5.9661717 -2.09795 -0.43695614 0 24
5.9486675 -2.0917947 -0.37743494 0 25
5.9511185 -2.0926566 -0.31939134 0 26
5.9714398 -2.0998025 -0.26213852 0 27
5.9486456 -2.0917871 -0.2030614 0 28
5.9543672 -2.0937991 -0.1451588 0 29
5.9455638 -2.0907035 -0.086956702 0 30
5.9414334 -2.089251 -0.028963799 0 31
5.9389286 -2.0883703 0.028951587 0 32
5.9451151 -2.0905457 0.086950138 0 33
5.9512849 -2.0927153 0.14508367 0 34
5.9462862 -2.0909574 0.20298086 0 35
5.9544649 -2.0938334 0.26139337 0 36
5.950048 -2.0922804 0.31933391 0 37
5.9636064 -2.097048 0.3783828 0 38
5.950614 -2.0924795 0.43581674 0 39
5.9516168 -2.0928319 0.49423233 0 40
5.9427171 -2.0897024 0.55183226 0 41
5.9353437 -2.0871098 0.60950816 0 42
5.9582567 -2.0951669 0.67055142 0 43
5.9422598 -2.0895417 0.72739828 0 44
5.9644289 -2.0973372 0.78910327 0 45
5.9455762 -2.0907078 0.84554893 0 46
5.9565716 -2.0945742 0.9063074 0 47
5.9436684 -2.0900369 0.9635669 0 48
5.9601183 -2.0958216 1.0257877 0 49
5.9625325 -2.0966704 1.0859594 0 50
5.9512057 -2.0926874 1.1437281 0 51
5.9544563 -2.0938306 1.2044171 0 52
5.9719987 -2.0999992 1.2684186 0 53
5.9531426 -2.0933685 1.3248982 0 54
5.9621391 -2.0965321 1.387711 0 55
5.9479537 -2.0915439 1.4453207 0 56
5.9592061 -2.0955007 1.5093395 0 57
5.9633493 -2.0969577 1.5719862 0 58
5.9308496 -2.0855293 1.6249614 0 59
5.9591436 -2.0954788 1.6948444 0 60
5.9534874 -2.0934896 1.7556145 0 61
0 0 0 0 62
0 0 0 0 63
2.3277841 -0.78651971 -0.73248523 0 0
2.4088395 -0.81390703 -0.73259544 0 1
2.5071046 -0.8471092 -0.73618883 0 2
2.6100225 -0.8818835 -0.73917836 0 3
2.6955156 -0.91077018 -0.73540574 0 4
2.8025322 -0.94692928 -0.7356447 0 5
2.9242427 -0.98805326 -0.73751521 0 6
3.0403459 -1.0272826 -0.73566258 0 7
