# .PCD v0.7 - Point Cloud Data file format
VERSION 0.7
FIELDS x y z intensity ring
SIZE 4 4 4 4 2
TYPE F F F F U
COUNT 1 1 1 1 1
WIDTH 1244
HEIGHT 1
VIEWPOINT 0 0 0 1 0 0 0
POINTS 1244
DATA ascii
0.1455377 2.2513595 -0.031127525 0 30
0.14560658 2.2524247 -0.010380167 0 31
0.1446168 2.2371137 0.010309606 0 32
0.14482996 2.240411 0.030976154 0 33
0.14470793 2.2385235 0.051589243 0 34
0.14638972 2.2645395 0.073076703 0 35
0.14416106 2.2300637 0.092546254 0 36
0.14359696 2.2213376 0.11270129 0 37
0.14506565 2.2440569 0.13460031 0 38
0.14493212 2.2419915 0.15522648 0 39
0.14448157 2.2350218 0.17545579 0 40
0.14467719 2.2380481 0.19646318 0 41
0.14471912 2.2386966 0.21732947 0 42
0.14438729 2.2335634 0.23762982 0 43
0.14626724 2.2626445 0.26183444 0 44
0.14435901 2.2331257 0.27929804 0 45
0.14481983 2.2402544 0.30118397 0 46
0.14472599 2.2388027 0.32202142 0 47
0.14460309 2.2369015 0.34281826 0 48
0.14463963 2.2374668 0.36403987 0 49
0.14482844 2.2403877 0.38574097 0 50
0.1453706 2.2487745 0.40855777 0 51
0.14471854 2.2386875 0.4280732 0 52
0.14459653 2.2368002 0.44911733 0 53
0.1447065 2.2385013 0.47095928 0 54
0.14474884 2.2391562 0.49268699 0 55
0.1449261 2.2418985 0.5149942 0 56
0.14443712 2.2343342 0.53497857 0 57
0.14514616 2.2453024 0.5595296 0 58
0.14364763 2.2221212 0.57555079 0 59
0.14431186 2.2323964 0.60021526 0 60
0.14502627 2.2434478 0.62540805 0 61
0.14507699 2.2442324 0.64797008 0 62
0.1451223 2.2449334 0.67064142 0 63
0.1159846 2.2174108 -0.66194338 0 0
0.11591426 2.2160661 -0.63937783 0 1
0.11532668 2.2048326 -0.61420149 0 2
0.1156499 2.2110121 -0.59403849 0 3
0.11471101 2.1930621 -0.56761593 0 4
0.11601233 2.217941 -0.55231392 0 5
0.11590663 2.2159202 -0.53018832 0 6
0.11603997 2.2184694 -0.50924599 0 7
0.11575704 2.2130604 -0.48659506 0 8
0.11517795 2.2019892 -0.46294451 0 9
0.11563104 2.2106516 -0.44354802 0 10
0.11578113 2.213521 -0.42295673 0 11
0.11600191 2.2177417 -0.40263018 0 12
0.11596236 2.2169855 -0.38143736 0 13
0.11583298 2.2145123 -0.36004618 0 14
0.11565877 2.2111816 -0.33863294 0 15
0.11560037 2.2100651 -0.31765944 0 16
0.11587076 2.2152345 -0.2976062 0 17
0.11629224 2.2232924 -0.27786833 0 18
0.11635243 2.2244432 -0.25722873 0 19
0.11544318 2.2070601 -0.23464134 0 20
0.1157459 2.2128475 -0.21466568 0 21
0.11588484 2.2155037 -0.19434439 0 22
0.11573784 2.2126932 -0.1735781 0 23
0.11571503 2.2122571 -0.15305771 0 24
0.11625583 2.2225962 -0.13321726 0 25
0.11586466 2.2151177 -0.11230495 0 26
0.11478712 2.1945174 -0.091005646 0 27
0.11505497 2.1996379 -0.070931315 0 28
0.11571912 2.2123353 -0.050949067 0 29
0.11595841 2.2169101 -0.030629195 0 30
0.1159078 2.2159426 -0.010204701 0 31
0.11570954 2.2121522 0.010187246 0 32
0.11599158 2.2175443 0.030637959 0 33
0.11611975 2.2199945 0.051125456 0 34
0.11639797 2.2253137 0.071759276 0 35
0.11606773 2.2190001 0.092020936 0 36
0.11570745 2.2121122 0.11215258 0 37
0.11631217 2.2236733 0.13328181 0 38
0.11599806 2.2176681 0.15343207 0 39
0.11528491 2.2040341 0.17289881 0 40
0.11635204 2.2244358 0.19512792 0 41
0.11606926 2.2190294 0.21526539 0 42
0.11539899 2.2062151 0.23455152 0 43
0.11527393 2.203824 0.2548444 0 44
0.11585672 2.2149661 0.27682772 0 45
0.11593343 2.2164323 0.29776716 0 46
0.11502196 2.1990068 0.31606999 0 47
0.11618531 2.2212479 0.34017459 0 48
0.11599242 2.2175603 0.36054173 0 49
0.115646 2.2109375 0.38039678 0 50
0.11468484 2.1925619 0.39805877 0 51
0.11604438 2.2185538 0.4239184 0 52
0.11592187 2.2162116 0.44466358 0 53
0.11588079 2.2154262 0.4657695 0 54
0.11620273 2.2215812 0.48846856 0 55
0.11550232 2.2081904 0.50688648 0 56
0.11577077 2.2133229 0.52956688 0 57
0.11560312 2.2101178 0.55036575 0 58
0.1161323 2.2202344 0.5746488 0 59
0.11549795 2.208107 0.59325796 0 60
0.11489558 2.1965909 0.61190557 0 61
0.11576745 2.2132592 0.63856798 0 62
0.11645884 2.2264776 0.66464996 0 63
0.087174423 2.1802256 -0.65047365 0 0
0.087956145 2.1997764 -0.63431787 0 1
0.087810539 2.1961348 -0.61143154 0 2
0.087670043 2.192621 -0.58876312 0 3
0.086822093 2.1714139 -0.56169409 0 4
0.087958537 2.1998363 -0.54749471 0 5
0.087129988 2.1791143 -0.52108628 0 6
0.087935187 2.1992521 -0.50454831 0 7
0.087518036 2.1888194 -0.48099211 0 8
0.087495089 2.1882453 -0.45979404 0 9
0.087064855 2.1774852 -0.43664569 0 10
0.087141015 2.17939 -0.41619882 0 11
0.087440856 2.1868892 -0.39680368 0 12
0.087342314 2.1844246 -0.37562197 0 13
0.087819494 2.1963587 -0.35689211 0 14
0.087323628 2.1839571 -0.33427393 0 15
0.087295808 2.1832614 -0.31362882 0 16
0.087626033 2.1915202 -0.29425332 0 17
0.087032788 2.1766832 -0.27188879 0 18
0.086832158 2.1716657 -0.25098324 0 19
0.087413929 2.1862156 -0.23229346 0 20
0.087138563 2.1793287 -0.21129414 0 21
0.087580644 2.1903851 -0.19203199 0 22
0.087048575 2.1770782 -0.17068735 0 23
0.087063313 2.1774466 -0.15056385 0 24
0.087153763 2.1797087 -0.13057257 0 25
0.087512828 2.188689 -0.11090209 0 26
0.087478839 2.1878388 -0.090677232 0 27
0.08736676 2.1850359 -0.070420481 0 28
0.086824365 2.1714706 -0.049979605 0 29
0.087238893 2.181838 -0.030127535 0 30
0.087057114 2.1772916 -0.010021022 0 31
0.087641828 2.1919153 0.010088326 0 32
0.087709315 2.193603 0.030289993 0 33
0.087095253 2.1782455 0.050135538 0 34
0.087179236 2.180346 0.070269331 0 35
0.087313645 2.1837075 0.090506002 0 36
0.086659372 2.1673441 0.10982053 0 37
0.086855575 2.1722512 0.13012584 0 38
0.087441958 2.1869166 0.15121867 0 39
0.087297142 2.1832948 0.17117473 0 40
0.087283611 2.1829562 0.19138071 0 41
0.087179892 2.1803625 0.21139437 0 42
0.087018795 2.1763332 0.23124342 0 43
0.087023407 2.1764486 0.25153601 0 44
0.088090792 2.2031438 0.27519399 0 45
0.087402798 2.1859372 0.2935037 0 46
0.087223575 2.1814547 0.31336933 0 47
0.08770103 2.1933959 0.3357186 0 48
0.08765202 2.1921701 0.35621151 0 49
0.086981952 2.1754119 0.37407222 0 50
0.087670147 2.1926236 0.39784417 0 51
0.087266818 2.1825361 0.41679966 0 52
0.087718323 2.1938286 0.43992296 0 53
0.086866185 2.1725166 0.45648915 0 54
0.087861046 2.1973979 0.48287722 0 55
0.087938055 2.1993239 0.50456482 0 56
0.087230697 2.181633 0.52168852 0 57
0.087697044 2.1932962 0.54586703 0 58
0.087994561 2.200737 0.56927931 0 59
0.087603301 2.1909518 0.58831495 0 60
0.086888596 2.1730771 0.60501194 0 61
0.087236598 2.1817806 0.62912869 0 62
0.087918721 2.1988404 0.65602738 0 63
0.060029063 2.1691461 -0.64689893 0 0
0.059875932 2.1636126 -0.6236304 0 1
0.059593894 2.1534212 -0.59929019 0 2
0.059592653 2.1533763 -0.57798469 0 3
0.059755519 2.1592615 -0.55831826 0 4
0.060122166 2.1725104 -0.54046899 0 5
0.05954878 2.1517911 -0.51433855 0 6
0.059722368 2.1580637 -0.49489304 0 7
0.059609178 2.1539736 -0.47313792 0 8
0.059489358 2.1496439 -0.45149526 0 9
0.059794649 2.1606755 -0.43309471 0 10
0.060061727 2.1703262 -0.41429555 0 11
0.059603855 2.1537812 -0.39063385 0 12
0.060048208 2.1698377 -0.37295857 0 13
0.059470925 2.1489778 -0.34904784 0 14
0.059828009 2.161881 -0.33075738 0 15
0.059706446 2.1574883 -0.30979761 0 16
0.059981972 2.1674445 -0.29089963 0 17
0.05950604 2.1502466 -0.26847491 0 18
0.060181051 2.174638 -0.25122225 0 19
0.059483249 2.1494231 -0.22828913 0 20
0.059289526 2.1424229 -0.20762962 0 21
0.06021281 2.1757855 -0.19067273 0 22
0.060244288 2.1769233 -0.17060421 0 23
0.060001757 2.1681592 -0.14985931 0 24
0.060106538 2.1719456 -0.13005343 0 25
0.059679613 2.1565187 -0.10922655 0 26
0.059850462 2.1626923 -0.089597724 0 27
0.05974628 2.1589277 -0.069550112 0 28
0.059648614 2.1553986 -0.049589053 0 29
0.059670996 2.1562073 -0.029761236 0 30
0.059706286 2.1574824 -0.0099257194 0 31
0.060185172 2.174787 0.010005331 0 32
0.059678927 2.1564939 0.029765192 0 33
0.059616249 2.1542289 0.049562141 0 34
0.060107596 2.1719837 0.06997072 0 35
0.059780486 2.1601636 0.089492969 0 36
0.059934244 2.1657197 0.10969259 0 37
0.059499886 2.1500242 0.1287408 0 38
0.060114082 2.1722181 0.15013985 0 39
0.059786413 2.1603777 0.16930757 0 40
0.059978247 2.1673098 0.18992996 0 41
0.059739791 2.1586931 0.20920642 0 42
0.05980517 2.1610556 0.22952463 0 43
0.059685651 2.1567369 0.24915424 0 44
0.059758503 2.1593692 0.26961395 0 45
0.059995584 2.1679361 0.29096565 0 46
0.059801701 2.1609304 0.31029186 0 47
0.059910335 2.1648557 0.33121252 0 48
0.05992702 2.1654587 0.35172477 0 49
0.059983194 2.1674886 0.37255475 0 50
0.059700254 2.1572645 0.39126563 0 51
0.059787091 2.1604023 0.41240117 0 52
0.059749089 2.1590292 0.43276471 0 53
0.059885979 2.1639757 0.45450541 0 54
0.059659336 2.155786 0.47353604 0 55
0.059770763 2.1598125 0.49529406 0 56
0.060122687 2.1725292 0.51929551 0 57
0.05990104 2.16452 0.53848118 0 58
0.059721805 2.1580431 0.55800325 0 59
0.059951141 2.1663303 0.58146167 0 60
0.059717815 2.1578991 0.60053641 0 61
0.059549809 2.1518283 0.62023371 0 62
0.059774723 2.1599555 0.64415801 0 63
0.032717008 2.1283021 -0.63455021 0 0
0.032834496 2.1359448 -0.6154927 0 1
0.032938816 2.1427312 -0.59615737 0 2
0.03285303 2.1371505 -0.57347775 0 3
0.032739688 2.1297774 -0.55054891 0 4
0.032934867 2.1424742 -0.53285563 0 5
0.032972742 2.144938 -0.51256484 0 6
0.032693163 2.1267509 -0.48758325 0 7
0.032859907 2.1375978 -0.46941662 0 8
0.032909639 2.1408329 -0.44952574 0 9
0.03286906 2.1381931 -0.42847484 0 10
0.032757457 2.1309333 -0.40666816 0 11
0.032816648 2.134784 -0.38708583 0 12
0.032750443 2.130477 -0.36609623 0 13
0.032838903 2.1362314 -0.34688574 0 14
0.032826774 2.1354427 -0.326626 0 15
0.032878671 2.1388185 -0.30703554 0 16
0.032768894 2.1316774 -0.28602356 0 17
0.032707747 2.1276996 -0.26558945 0 18
0.03264229 2.1234417 -0.24524294 0 19
0.032570515 2.1187725 -0.22497422 0 20
0.032729369 2.1291063 -0.20628443 0 21
0.032880425 2.1389327 -0.18739356 0 22
0.033082709 2.1520915 -0.16861355 0 23
0.032812826 2.1345353 -0.14749624 0 24
0.032995868 2.1464424 -0.12849233 0 25
0.032942522 2.1429722 -0.10851172 0 26
0.03268126 2.1259766 -0.088053338 0 27
0.032686997 2.1263497 -0.068482488 0 28
0.032854922 2.1372738 -0.049159043 0 29
0.032805815 2.1340792 -0.029448019 0 30
0.032727838 2.1290066 -0.0097921221 0 31
0.032757044 2.1309063 0.0098008597 0 32
0.033180211 2.1584344 0.029784093 0 33
0.032865781 2.13798 0.049175292 0 34
0.032918777 2.1414275 0.068968087 0 35
0.032748103 2.1303248 0.088233426 0 36
0.032697666 2.127044 0.10770517 0 37
0.032699972 2.1271939 0.12734005 0 38
0.032652289 2.1240921 0.14677462 0 39
0.03263846 2.1231923 0.16634934 0 40
0.032833349 2.1358702 0.18712527 0 41
0.032870609 2.1382942 0.20717466 0 42
0.032646425 2.1237106 0.22549854 0 43
0.032857005 2.1374092 0.24685611 0 44
0.032759398 2.1310596 0.26600888 0 45
0.032782335 2.1325517 0.28614086 0 46
0.032819461 2.1349669 0.30648261 0 47
0.032859065 2.1375432 0.32694727 0 48
0.032879058 2.1388438 0.34730992 0 49
0.032585453 2.1197443 0.36425194 0 50
0.032892261 2.1397026 0.38797769 0 51
0.032834977 2.1359761 0.40763056 0 52
0.032638997 2.1232274 0.42547584 0 53
0.032759327 2.1310551 0.4474726 0 54
0.033046216 2.1497178 0.47207814 0 55
0.032527484 2.1159732 0.48511234 0 56
0.032760218 2.1311128 0.50926107 0 57
0.033025995 2.1484025 0.53433007 0 58
0.032796539 2.1334758 0.55150491 0 59
0.032886408 2.1393218 0.57406038 0 60
0.032849643 2.1369302 0.59454346 0 61
0.032938097 2.1426842 0.61743468 0 62
0.032767367 2.131578 0.63552684 0 63
0.0064889165 2.1100113 -0.62902546 0 0
0.0065099965 2.1168659 -0.60992575 0 1
0.0064944676 2.1118164 -0.58748955 0 2
0.0065264832 2.122227 -0.56940866 0 3
0.0064798202 2.1070535 -0.54461294 0 4
0.006502213 2.1143351 -0.52579749 0 5
0.0064879344 2.1096921 -0.50408506 0 6
0.0065493374 2.1296585 -0.4881945 0 7
0.0064716344 2.1043916 -0.46207213 0 8
0.0064578857 2.099921 -0.44088516 0 9
0.0064974157 2.1127751 -0.42333326 0 10
0.0065257191 2.1219785 -0.40491331 0 11
0.0065190825 2.1198206 -0.38432905 0 12
0.0064925114 2.1111803 -0.36273918 0 13
0.0065274988 2.1225574 -0.34462619 0 14
0.0065139756 2.11816 -0.32394576 0 15
0.0065151551 2.1185434 -0.30409047 0 16
0.0064967945 2.1125731 -0.28342804 0 17
0.0065019485 2.114249 -0.26388055 0 18
0.0064861933 2.1091259 -0.24356194 0 19
0.0064674607 2.1030345 -0.22327781 0 20
0.0064761168 2.1058493 -0.20400798 0 21
0.0065146722 2.1183863 -0.18557243 0 22
0.0064566359 2.0995147 -0.16447556 0 23
0.0064815283 2.107609 -0.14561912 0 24
0.0064905188 2.1105323 -0.12632832 0 25
0.0065007801 2.113869 -0.10702591 0 26
0.0064765359 2.1059856 -0.087215461 0 27
0.006530765 2.1236193 -0.068386793 0 28
0.0065060109 2.1155698 -0.048654322 0 29
0.0064946292 2.1118691 -0.029138237 0 30
0.0064475187 2.09655 -0.0096417479 0 31
0.0064805485 2.1072905 0.0096911415 0 32
0.0065084631 2.1163673 0.029200302 0 33
0.0064936862 2.1115623 0.048562154 0 34
0.0064998567 2.1135688 0.068063132 0 35
0.0064845774 2.1086004 0.087323748 0 36
0.0065017948 2.1141989 0.10704261 0 37
0.0065124622 2.1176677 0.1267554 0 38
0.0065030372 2.114603 0.14610235 0 39
0.0064782551 2.1065447 0.16502629 0 40
0.0064547136 2.0988896 0.1838645 0 41
0.0064700199 2.1038668 0.20381592 0 42
0.006498666 2.1131816 0.22435512 0 43
0.0065102973 2.1169639 0.24446708 0 44
0.0064217187 2.0881605 0.26062444 0 45
0.0064898296 2.1103084 0.28312418 0 46
0.0065405378 2.1267972 0.30527517 0 47
0.0064794021 2.1069176 0.32222641 0 48
0.0064832396 2.1081655 0.34228948 0 49
0.0065142522 2.1182499 0.36395386 0 50
0.0064643971 2.1020384 0.38110507 0 51
0.0065088021 2.1164777 0.40386364 0 52
0.0064972765 2.1127298 0.4233242 0 53
0.0064884331 2.1098542 0.44297066 0 54
0.0064545353 2.0988317 0.46085128 0 55
0.0064870995 2.1094205 0.4835552 0 56
0.0064862957 2.1091592 0.50395781 0 57
0.006500666 2.113832 0.52567244 0 58
0.0064832605 2.1081722 0.54490209 0 59
0.0064773927 2.1062641 0.5651257 0 60
0.0065197069 2.1200235 0.5897727 0 61
0.0064879251 2.109689 0.60785788 0 62
0.006475091 2.1055157 0.62768525 0 63
-0.019290814 2.0920923 -0.62370712 0 0
-0.019287007 2.0916796 -0.60269165 0 1
-0.01929253 2.0922785 -0.58207625 0 2
-0.019177927 2.0798497 -0.55805963 0 3
-0.019257953 2.0885286 -0.53984523 0 4
-0.019285284 2.0914927 -0.52013671 0 5
-0.019344946 2.0979631 -0.50130159 0 6
-0.019212924 2.0836451 -0.47766462 0 7
-0.019235583 2.0861027 -0.45807365 0 8
-0.019257288 2.0884566 -0.43849471 0 9
-0.019085122 2.0697851 -0.41473511 0 10
-0.019333577 2.0967302 -0.40011057 0 11
-0.019247919 2.0874405 -0.37847278 0 12
-0.019254966 2.0882046 -0.35880512 0 13
-0.019084578 2.0697262 -0.33606106 0 14
-0.019142887 2.0760498 -0.31751755 0 15
-0.019317754 2.0950141 -0.30072448 0 16
-0.019236233 2.0861731 -0.27989671 0 17
-0.019247679 2.0874145 -0.26054117 0 18
-0.019308696 2.0940316 -0.24182799 0 19
-0.019202678 2.0825341 -0.22110964 0 20
-0.019245863 2.0872176 -0.20221063 0 21
-0.019339167 2.0973363 -0.18373537 0 22
-0.019413171 2.1053619 -0.16493988 0 23
-0.019350477 2.0985627 -0.14499958 0 24
-0.019192485 2.0814288 -0.12459099 0 25
-0.019259967 2.088747 -0.10575797 0 26
-0.019154783 2.0773399 -0.086032398 0 27
-0.019246656 2.0873034 -0.067219853 0 28
-0.019373113 2.101018 -0.048321474 0 29
-0.019220743 2.0844932 -0.028761609 0 30
-0.019182835 2.0803819 -0.0095677543 0 31
-0.019207299 2.0830352 0.0095799565 0 32
-0.019223852 2.0848303 0.028766261 0 33
-0.019188002 2.0809424 0.047859758 0 34
-0.019362045 2.0998175 0.067622855 0 35
-0.019296102 2.0926659 0.08666712 0 36
-0.019311314 2.0943158 0.10603993 0 37
-0.019242786 2.0868838 0.12491752 0 38
-0.019227006 2.0851724 0.14407437 0 39
-0.019215891 2.0839672 0.16326374 0 40
-0.019275581 2.0904405 0.18313128 0 41
-0.019212991 2.0836525 0.20186527 0 42
-0.019285154 2.0914786 0.22205932 0 43
-0.01929659 2.0927188 0.24167641 0 44
-0.019229902 2.0854864 0.26030052 0 45
-0.019171432 2.0791454 0.27895382 0 46
-0.019196352 2.0818481 0.29883459 0 47
-0.019264365 2.0892239 0.31953245 0 48
-0.019197173 2.0819373 0.33804375 0 49
-0.019203195 2.0825901 0.35784039 0 50
-0.019353053 2.0988421 0.38053998 0 51
-0.019343587 2.0978155 0.4003177 0 52
-0.01922852 2.0853367 0.41785127 0 53
-0.019287512 2.0917342 0.43918291 0 54
-0.019133808 2.0750651 0.45564997 0 55
-0.019228034 2.085284 0.47804031 0 56
-0.019201832 2.0824423 0.49759293 0 57
-0.019218544 2.0842547 0.51833665 0 58
-0.019133994 2.0750854 0.53637034 0 59
-0.019357175 2.0992894 0.56327558 0 60
-0.01917701 2.0797503 0.57859093 0 61
-0.019216295 2.0840108 0.60048199 0 62
-0.019320643 2.0953274 0.62467158 0 63
-0.044158902 2.0520189 -0.61187577 0 0
-0.044331003 2.0600164 -0.59368044 0 1
-0.044318505 2.0594354 -0.57304758 0 2
-0.044646237 2.0746651 -0.55677366 0 3
-0.044501197 2.067925 -0.53462058 0 4
-0.044347201 2.0607691 -0.51259285 0 5
-0.044424478 2.0643599 -0.49336544 0 6
-0.044269864 2.0571752 -0.47168565 0 7
-0.044145577 2.0513997 -0.45053858 0 8
-0.044492491 2.0675204 -0.434181 0 9
-0.044499297 2.0678368 -0.41442302 0 10
-0.044562664 2.0707815 -0.39523354 0 11
-0.044472925 2.0666113 -0.37476704 0 12
-0.044252593 2.0563726 -0.35340235 0 13
-0.044738274 2.0789418 -0.33762118 0 14
-0.044437055 2.0649445 -0.31587875 0 15
-0.044601902 2.0726047 -0.297564 0 16
-0.044559747 2.0706458 -0.27786598 0 17
-0.04434149 2.0605037 -0.25723088 0 18
-0.044228848 2.0552692 -0.23739642 0 19
-0.044473015 2.0666153 -0.21946098 0 20
-0.044431079 2.0646667 -0.20006374 0 21
-0.044309303 2.0590079 -0.18041174 0 22
-0.044651456 2.0749075 -0.16258471 0 23
-0.044482078 2.0670366 -0.14284828 0 24
-0.044039462 2.0464687 -0.12252149 0 25
-0.044192921 2.0535998 -0.10399804 0 26
-0.044358321 2.0612857 -0.085383661 0 27
-0.044277884 2.057548 -0.066274129 0 28
-0.044282209 2.057749 -0.047335275 0 29
-0.044160768 2.0521057 -0.028320082 0 30
-0.044436429 2.0649152 -0.0094984174 0 31
-0.044421766 2.064234 0.0094952835 0 32
-0.044394627 2.0629728 0.028470054 0 33
-0.044456098 2.0658295 0.047521155 0 34
-0.044378135 2.0622065 0.066424184 0 35
-0.044402674 2.0633469 0.085469037 0 36
-0.044417854 2.0640521 0.10452736 0 37
-0.04443581 2.0648866 0.12362416 0 38
-0.04430832 2.0589623 0.14229028 0 39
-0.044458676 2.0659492 0.16188276 0 40
-0.044427156 2.0644844 0.1808916 0 41
-0.044238195 2.0557036 0.19919521 0 42
-0.044638924 2.0743251 0.22027969 0 43
-0.044423018 2.0642922 0.23843861 0 44
-0.044304013 2.0587621 0.25701347 0 45
-0.044373661 2.0619986 0.27670556 0 46
-0.044599686 2.0725017 0.29754922 0 47
-0.044591554 2.0721238 0.31697699 0 48
-0.044202141 2.0540283 0.33357522 0 49
-0.044758078 2.0798621 0.35743919 0 50
-0.044712916 2.0777633 0.37678942 0 51
-0.044253618 2.0564203 0.39249256 0 52
-0.044411108 2.0637388 0.4136017 0 53
-0.044265769 2.0569849 0.43196854 0 54
-0.044177443 2.0528805 0.45086381 0 55
-0.044499848 2.0678623 0.47413611 0 56
-0.044548452 2.070121 0.49474224 0 57
-0.044435337 2.0648646 0.51361156 0 58
-0.044248827 2.0561976 0.53158867 0 59
-0.044363849 2.0615425 0.55325204 0 60
-0.043978531 2.0436373 0.56865168 0 61
-0.044435535 2.0648737 0.59508032 0 62
-0.044295277 2.0583563 0.61376548 0 63
-0.069362983 2.050633 -0.61167067 0 0
-0.069025442 2.0406539 -0.58830053 0 1
-0.069525808 2.0554469 -0.57213235 0 2
-0.068956919 2.0386283 -0.54728878 0 3
-0.069239199 2.0469735 -0.52938408 0 4
-0.069579437 2.0570323 -0.51183748 0 5
-0.069029935 2.0407867 -0.4878976 0 6
-0.068958797 2.0386839 -0.46760488 0 7
-0.069302231 2.0488369 -0.45012885 0 8
-0.069242246 2.0470636 -0.43003133 0 9
-0.068791032 2.0337241 -0.40772504 0 10
-0.068942726 2.0382085 -0.38914904 0 11
-0.069304951 2.0489173 -0.37168479 0 12
-0.069443688 2.053019 -0.35294607 0 13
-0.069077894 2.0422049 -0.33176795 0 14
-0.069239736 2.0469894 -0.31323871 0 15
-0.069143787 2.044153 -0.29357904 0 16
-0.069061063 2.0417073 -0.27407587 0 17
-0.068753645 2.0326188 -0.25383613 0 18
-0.069030091 2.0407915 -0.23580436 0 19
-0.068835773 2.0350468 -0.21618214 0 20
-0.068863034 2.0358527 -0.1973388 0 21
-0.06898737 2.0395286 -0.17876576 0 22
-0.069071323 2.0420105 -0.16006143 0 23
-0.069281548 2.0482254 -0.14159645 0 24
-0.069296151 2.0486574 -0.12269426 0 25
-0.069112152 2.0432174 -0.10350747 0 26
-0.069136158 2.0439272 -0.084693439 0 27
-0.06924247 2.0470703 -0.065959081 0 28
-0.069174856 2.0450714 -0.047059655 0 29
-0.068996295 2.0397925 -0.028159732 0 30
-0.069511332 2.0550187 -0.0094561111 0 31
-0.06870608 2.0312123 0.0093465671 0 32
-0.068681873 2.0304968 0.028031405 0 33
-0.068831675 2.0349257 0.046826191 0 34
-0.069377437 2.0510604 0.066087641 0 35
-0.069096103 2.0427432 0.08464437 0 36
-0.069343917 2.0500696 0.10385458 0 37
-0.069134109 2.0438666 0.12240735 0 38
-0.06885428 2.0355937 0.14072321 0 39
-0.068750776 2.0325339 0.15931861 0 40
-0.069311112 2.0490994 0.17960466 0 41
-0.069160059 2.0446339 0.19818999 0 42
-0.069117554 2.0433772 0.21706708 0 43
-0.068970047 2.0390165 0.23559925 0 44
-0.068988688 2.0395675 0.25470388 0 45
-0.069101587 2.0429051 0.27423665 0 46
-0.06878604 2.0335765 0.29206008 0 47
-0.069144532 2.0441749 0.31280801 0 48
-0.069049247 2.0413578 0.33163032 0 49
-0.068718471 2.0315788 0.34926018 0 50
-0.069035016 2.0409372 0.37023714 0 51
-0.069177143 2.0451391 0.39047223 0 52
-0.069069639 2.0419607 0.40937635 0 53
-0.069341063 2.0499852 0.43064505 0 54
-0.068965144 2.0388715 0.44793946 0 55
-0.068835765 2.0350466 0.46677062 0 56
-0.068812497 2.0343587 0.48636079 0 57
-0.068753421 2.0326121 0.50576121 0 58
-0.068682134 2.0305045 0.52512491 0 59
-0.068968952 2.0389841 0.54738426 0 60
-0.069213465 2.0462129 0.56956208 0 61
-0.06916295 2.0447195 0.58947253 0 62
-0.069171607 2.0449753 0.60998303 0 63
-0.092918187 2.0137959 -0.60097808 0 0
-0.093266726 2.0213497 -0.58302176 0 1
-0.092784025 2.0108881 -0.56000471 0 2
-0.093145005 2.0187116 -0.54220843 0 3
-0.092990801 2.0153697 -0.52146709 0 4
-0.093153507 2.0188959 -0.50259531 0 5
-0.093224615 2.020437 -0.48327005 0 6
-0.092641309 2.0077951 -0.46074653 0 7
-0.093301319 2.0220995 -0.44447306 0 8
-0.093710735 2.0309727 -0.42686087 0 9
-0.092719905 2.0094986 -0.40306637 0 10
-0.093468472 2.025722 -0.3869552 0 11
-0.092810079 2.0114527 -0.36506796 0 12
-0.09365502 2.0297651 -0.34911996 0 13
-0.092975423 2.0150363 -0.32751524 0 14
-0.093158953 2.0190139 -0.30910972 0 15
-0.092588499 2.0066504 -0.28833473 0 16
-0.092441425 2.003463 -0.26907426 0 17
-0.093231514 2.0205865 -0.25245759 0 18
-0.092901714 2.0134387 -0.23275827 0 19
-0.092768632 2.0105546 -0.21368536 0 20
-0.092355184 2.0015941 -0.19411346 0 21
-0.092572726 2.0063088 -0.1759405 0 22
-0.093428932 2.0248652 -0.15879555 0 23
-0.09290155 2.0134354 -0.13925982 0 24
-0.092857592 2.0124824 -0.12058701 0 25
-0.093124337 2.0182638 -0.10229361 0 26
-0.092708439 2.0092502 -0.083297476 0 27
-0.092791498 2.0110502 -0.064830333 0 28
-0.093274079 2.0215089 -0.046540331 0 29
-0.09277384 2.0106676 -0.027771305 0 30
-0.092243567 1.999175 -0.0092036715 0 31
-0.093274832 2.0215254 0.0093065659 0 32
-0.093603969 2.0286586 0.028019799 0 33
-0.092627458 2.0074949 0.046217691 0 34
-0.093530424 2.0270648 0.065346591 0 35
-0.092361636 2.0017338 0.082985871 0 36
-0.092768103 2.0105431 0.1019023 0 37
-0.093042389 2.0164876 0.120827 0 38
-0.092758805 2.0103416 0.13904583 0 39
-0.092938863 2.0142438 0.15796261 0 40
-0.09399347 2.0371003 0.17864072 0 41
-0.09285906 2.0125144 0.1951725 0 42
-0.093216993 2.0202718 0.21471813 0 43
-0.092867821 2.0127041 0.23267335 0 44
-0.093344487 2.023035 0.25276351 0 45
-0.092669591 2.0084081 0.26973838 0 46
-0.092968345 2.0148828 0.28951761 0 47
-0.092662282 2.0082498 0.30746171 0 48
-0.092903651 2.0134809 0.3272624 0 49
-0.093036607 2.0163622 0.34681466 0 50
-0.09279485 2.0111227 0.36500806 0 51
-0.092929021 2.0140307 0.38472188 0 52
-0.093446478 2.0252454 0.40622491 0 53
-0.092140928 1.9969505 0.41971025 0 54
-0.093179762 2.019465 0.443894 0 55
-0.093187951 2.0196424 0.46346521 0 56
-0.093228966 2.0205314 0.48329258 0 57
-0.092643589 2.0078447 0.4998441 0 58
-0.093333453 2.0227957 0.5233885 0 59
-0.093016103 2.0159178 0.54145807 0 60
-0.093327254 2.0226614 0.56328344 0 61
-0.093140624 2.0186167 0.58223355 0 62
-0.092507266 2.00489 0.59832031 0 63
-0.11640535 1.9908402 -0.59450966 0 0
-0.11736576 2.0072658 -0.57933205 0 1
-0.11693008 1.9998145 -0.55727917 0 2
-0.11610519 1.9857067 -0.5336867 0 3
-0.11620791 1.9874634 -0.51457727 0 4
-0.11679277 1.9974661 -0.49758032 0 5
-0.11642235 1.9911309 -0.47656667 0 6
-0.11601796 1.9842148 -0.45562825 0 7
-0.11627101 1.9885427 -0.43737826 0 8
-0.11640457 1.990827 -0.41869241 0 9
-0.11725173 2.0053155 -0.40248612 0 10
-0.11716105 2.0037646 -0.38300714 0 11
-0.11675406 1.9968041 -0.36264244 0 12
-0.11666842 1.9953394 -0.34341952 0 13
-0.11627168 1.9885541 -0.32341886 0 14
-0.11740485 2.0079343 -0.3076112 0 15
-0.11657535 1.9937476 -0.28666499 0 16
-0.11640676 1.9908643 -0.26755419 0 17
-0.11708099 2.0023954 -0.25034571 0 18
-0.11623724 1.9879651 -0.22996129 0 19
-0.11691682 1.9995878 -0.21265651 0 20
-0.11642702 1.9912108 -0.19323073 0 21
-0.11661348 1.9943998 -0.17500867 0 22
-0.1168318 1.9981337 -0.1568 0 23
-0.11624978 1.9881796 -0.13760145 0 24
-0.11699916 2.0009959 -0.11997588 0 25
-0.11683547 1.9981965 -0.10134168 0 26
-0.11621887 1.987651 -0.082455054 0 27
-0.11716931 2.003906 -0.06464158 0 28
-0.11601597 1.9841808 -0.045710329 0 29
-0.11622568 1.9877675 -0.027472673 0 30
-0.11607189 1.9851371 -0.0091449246 0 31
-0.11657799 1.9937929 0.0091847982 0 32
-0.11675136 1.9967579 0.027596928 0 33
-0.11702768 2.0014837 0.046108942 0 34
-0.11716706 2.0038676 0.064640343 0 35
-0.11694685 2.0001013 0.082971536 0 36
-0.1168567 1.9985596 0.10136009 0 37
-0.11686968 1.9987816 0.11984311 0 38
-0.11676883 1.9970567 0.13821584 0 39
-0.11658476 1.9939085 0.15646845 0 40
-0.11655501 1.9933999 0.17492093 0 41
-0.11692847 1.9997869 0.19406298 0 42
-0.11723521 2.005033 0.21323562 0 43
-0.11709784 2.0026836 0.2316639 0 44
-0.11614338 1.98636 0.2483409 0 45
-0.11718706 2.0042095 0.26934767 0 46
-0.11494517 1.9658673 0.28265631 0 47
-0.11701617 2.001287 0.30659282 0 48
-0.11667236 1.9954069 0.32453337 0 49
-0.11694738 2.0001104 0.34424064 0 50
-0.11627243 1.9885669 0.36114645 0 51
-0.11807472 2.0193908 0.38599399 0 52
-0.11644857 1.9915793 0.39972913 0 53
-0.1168828 1.9990059 0.42041254 0 54
-0.11716594 2.0038483 0.4407447 0 55
-0.11635379 1.9899584 0.45694715 0 56
-0.11644051 1.9914416 0.47664103 0 57
-0.1172513 2.0053082 0.49953383 0 58
-0.11600675 1.984023 0.51368654 0 59
-0.11674267 1.9966093 0.53661692 0 60
-0.1155276 1.9758284 0.55059505 0 61
-0.11687613 1.9988918 0.5769152 0 62
-0.1167457 1.9966611 0.59624791 0 63
-0.13941911 1.9687002 -0.58836561 0 0
-0.13951439 1.9700454 -0.56904173 0 1
-0.13941361 1.9686224 -0.54902321 0 2
-0.13819629 1.9514331 -0.52489221 0 3
-0.13945757 1.9692433 -0.51026529 0 4
-0.13995443 1.9762592 -0.49268901 0 5
-0.1393587 1.967847 -0.47136831 0 6
-0.14013427 1.9787987 -0.45474592 0 7
-0.13808972 1.949928 -0.42922604 0 8
-0.13928704 1.9668351 -0.41397557 0 9
-0.13936517 1.9679384 -0.39529824 0 10
-0.1393632 1.9679106 -0.37645295 0 11
-0.13979881 1.9740617 -0.35879725 0 12
-0.1393829 1.9681888 -0.33901593 0 13
-0.13940218 1.9684609 -0.32040548 0 14
-0.13931309 1.967203 -0.30161089 0 15
-0.13830878 1.9530214 -0.28103259 0 16
-0.13879268 1.9598544 -0.26359618 0 17
-0.13987598 1.9751514 -0.24713592 0 18
-0.14033766 1.9816707 -0.22941546 0 19
-0.13961849 1.9715154 -0.20983773 0 20
-0.13938853 1.9682683 -0.19115622 0 21
-0.13961971 1.9715327 -0.17313965 0 22
-0.14053477 1.984454 -0.15585035 0 23
-0.13948905 1.9696877 -0.13643004 0 24
-0.1394027 1.9684683 -0.11811943 0 25
-0.14045329 1.9833037 -0.10066634 0 26
-0.13997975 1.9766169 -0.082062513 0 27
-0.13939627 1.9683776 -0.063546002 0 28
-0.13909981 1.9641912 -0.045285802 0 29
-0.14027524 1.9807893 -0.027397998 0 30
-0.14031442 1.9813424 -0.0091347005 0 31
-0.13889265 1.9612662 0.009042142 0 32
-0.13923869 1.9661524 0.027195541 0 33
-0.13986196 1.9749534 0.045533929 0 34
-0.13900083 1.9627937 0.063365735 0 35
-0.14088883 1.9894537 0.082595453 0 36
-0.13988958 1.9753436 0.10026231 0 37
-0.13957919 1.9709606 0.11826899 0 38
-0.14039263 1.9824469 0.1373138 0 39
-0.13956851 1.9708096 0.15477878 0 40
-0.13977155 1.9736768 0.17332795 0 41
-0.14001319 1.9770888 0.19201288 0 42
-0.13925715 1.966413 0.20929466 0 43
-0.13943879 1.9689779 0.22794603 0 44
-0.13971849 1.9729275 0.24685766 0 45
-0.13995029 1.9762008 0.26579475 0 46
-0.13943483 1.968922 0.28332064 0 47
-0.13932547 1.9673779 0.30163771 0 48
-0.13865444 1.9579024 0.31868687 0 49
-0.13916159 1.9650638 0.33847767 0 50
-0.13953342 1.9703141 0.35811609 0 51
-0.14029817 1.9811132 0.37897852 0 52
-0.1396008 1.9712658 0.39596659 0 53
-0.13906537 1.9637051 0.41331679 0 54
-0.13992968 1.9759096 0.4349452 0 55
-0.13876107 1.959408 0.45028976 0 56
-0.13890362 1.9614209 0.46982905 0 57
-0.13920881 1.9657304 0.49006417 0 58
-0.13983138 1.9745216 0.51163304 0 59
-0.13961849 1.9715155 0.53029394 0 60
-0.13985234 1.9748178 0.55075097 0 61
-0.13980895 1.9742049 0.57024318 0 62
-0.13918248 1.9653586 0.58736694 0 63
-0.16157937 1.9423689 -0.5810461 0 0
-0.162365 1.9518131 -0.56430936 0 1
-0.16270515 1.955902 -0.54599231 0 2
-0.16264755 1.9552094 -0.52640617 0 3
-0.16270202 1.9558643 -0.50727862 0 4
-0.16264172 1.9551395 -0.4878855 0 5
-0.16246414 1.9530047 -0.46825621 0 6
-0.16122162 1.9380683 -0.44580755 0 7
-0.16126002 1.93853 -0.42712122 0 8
-0.16160646 1.9426944 -0.40928182 0 9
-0.16256528 1.9542205 -0.39291456 0 10
-0.16204013 1.9479077 -0.37297943 0 11
-0.16269092 1.9557309 -0.35580221 0 12
-0.16154592 1.9419667 -0.3348161 0 13
-0.16282815 1.9573805 -0.31890371 0 14
-0.16317491 1.961549 -0.30102888 0 15
-0.16303889 1.9599138 -0.28229153 0 16
-0.16235477 1.95169 -0.26274672 0 17
-0.16134582 1.9395614 -0.24291269 0 18
-0.16299246 1.9593558 -0.22704695 0 19
-0.16201532 1.9476094 -0.20748967 0 20
-0.16259246 1.9545472 -0.19000345 0 21
-0.16375583 1.9685324 -0.17303991 0 22
-0.16246051 1.9529611 -0.15352231 0 23
-0.1615285 1.9417572 -0.13462283 0 24
-0.16242494 1.9525334 -0.11727423 0 25
-0.16239986 1.9522319 -0.099183105 0 26
-0.16279586 1.9569924 -0.081324734 0 27
-0.16220887 1.949936 -0.063010275 0 28
-0.16216603 1.949421 -0.044987839 0 29
-0.16154428 1.9419469 -0.026886178 0 30
-0.16156383 1.9421821 -0.0089626387 0 31
-0.16188085 1.9459929 0.0089802258 0 32
-0.16247146 1.9530928 0.027040493 0 33
-0.16253823 1.9538954 0.045091096 0 34
-0.16282076 1.9572917 0.063247964 0 35
-0.16158685 1.9424587 0.080720775 0 36
-0.16223316 1.9502281 0.0990813 0 37
-0.16158088 1.942387 0.1166648 0 38
-0.16271272 1.9559931 0.13560981 0 39
-0.16162632 1.9429332 0.15273403 0 40
-0.16093053 1.934569 0.17005444 0 41
-0.16295218 1.9588716 0.19042383 0 42
-0.16305152 1.9600656 0.20881669 0 43
-0.16353694 1.965901 0.22780541 0 44
-0.16168252 1.9436088 0.24341959 0 45
-0.16230251 1.9510617 0.26266214 0 46
-0.16213833 1.9490882 0.28073227 0 47
-0.1621397 1.9491045 0.29911911 0 48
-0.16338402 1.9640627 0.31999239 0 49
-0.16256374 1.9542021 0.33692563 0 50
-0.16110133 1.9366221 0.3523258 0 51
-0.16313723 1.961096 0.3755047 0 52
-0.16257289 1.9543121 0.39293298 0 53
-0.16214456 1.949163 0.41064459 0 54
-0.16212504 1.9489284 0.42941234 0 55
-0.16323127 1.9622264 0.45136458 0 56
-0.16287412 1.9579331 0.46943781 0 57
-0.1621743 1.9495205 0.48648334 0 58
-0.16267851 1.9555818 0.50720537 0 59
-0.16259438 1.9545703 0.52623409 0 60
-0.16180798 1.945117 0.54298168 0 61
-0.16212228 1.9488952 0.56346577 0 62
-0.16275334 1.9564813 0.58526772 0 63
-0.18611033 1.9471477 -0.58311617 0 0
-0.18683828 1.9547638 -0.56578392 0 1
-0.18482375 1.9336871 -0.54038459 0 2
-0.18371607 1.9220982 -0.51806056 0 3
-0.1839252 1.9242861 -0.49963725 0 4
-0.18355687 1.9204324 -0.47975168 0 5
-0.18396252 1.9246765 -0.46197161 0 6
-0.18336053 1.9183784 -0.44176361 0 7
-0.18427885 1.927986 -0.42526519 0 8
-0.18490256 1.9345117 -0.40800604 0 9
-0.18473953 1.9328059 -0.3890363 0 10
-0.18354529 1.9203115 -0.36809972 0 11
-0.18388836 1.9239007 -0.35039631 0 12
-0.1846199 1.9315544 -0.33338711 0 13
-0.18453355 1.9306509 -0.31489471 0 14
-0.18542749 1.9400036 -0.29804981 0 15
-0.18464293 1.9317952 -0.2785475 0 16
-0.18360281 1.9209131 -0.25888777 0 17
-0.18320052 1.9167044 -0.24031402 0 18
-0.18411942 1.9263182 -0.22346406 0 19
-0.18403441 1.9254287 -0.2053522 0 20
-0.18460919 1.9314424 -0.18796387 0 21
-0.18512915 1.9368823 -0.170445 0 22
-0.18586853 1.944618 -0.15303455 0 23
-0.18348739 1.9197056 -0.13324034 0 24
-0.18482849 1.9337366 -0.11627296 0 25
-0.1836073 1.9209602 -0.097701661 0 26
-0.18433037 1.9285252 -0.080229878 0 27
-0.18494171 1.9349211 -0.06259384 0 28
-0.18475442 1.9329617 -0.044657048 0 29
-0.1853082 1.9387556 -0.026871512 0 30
-0.18410884 1.9262075 -0.008898695 0 31
-0.18345985 1.9194175 0.0088673271 0 32
-0.18426278 1.9278181 0.026719915 0 33
-0.1848772 1.9342463 0.044686727 0 34
-0.18416142 1.9267577 0.062329754 0 35
-0.18358444 1.9207209 0.079905212 0 36
-0.18527099 1.9383663 0.098586947 0 37
-0.18399163 1.9249811 0.11574651 0 38
-0.18556574 1.94145 0.13474955 0 39
-0.18403918 1.9254786 0.15152836 0 40
-0.18276535 1.9121515 0.1682687 0 41
-0.1849647 1.9351618 0.18832584 0 42
-0.18526398 1.9382929 0.20672418 0 43
-0.18510911 1.9366726 0.22466522 0 44
-0.18460335 1.9313811 0.24215418 0 45
-0.18416445 1.9267892 0.2596797 0 46
-0.18424565 1.9276388 0.27794817 0 47
-0.1837994 1.9229701 0.2954329 0 48
-0.18397067 1.9247619 0.31393418 0 49
-0.18360297 1.9209149 0.33155072 0 50
-0.1854998 1.9407601 0.35346687 0 51
-0.18354373 1.920295 0.36809656 0 52
-0.18440016 1.9292554 0.38832161 0 53
-0.1854835 1.9405897 0.40928796 0 54
-0.18402578 1.9253385 0.42468119 0 55
-0.18362065 1.9210998 0.44239029 0 56
-0.18479754 1.9334129 0.46406856 0 57
-0.18529801 1.9386491 0.48430243 0 58
-0.18458386 1.9311774 0.50142652 0 59
-0.18591417 1.9450954 0.52425897 0 60
-0.18489064 1.9343868 0.54058015 0 61
-0.18570754 1.9429336 0.56235981 0 62
-0.18523113 1.9379493 0.58036149 0 63
-0.20654167 1.9123448 -0.57341087 0 0
-0.20739891 1.9202818 -0.5564996 0 1
-0.20604971 1.9077897 -0.53381503 0 2
-0.20654346 1.9123613 -0.51608169 0 3
-0.20698752 1.9164728 -0.49823171 0 4
-0.20562357 1.9038442 -0.47620332 0 5
-0.20675465 1.9143168 -0.46006045 0 6
-0.20636728 1.9107302 -0.44055343 0 7
-0.20676768 1.9144374 -0.42280552 0 8
-0.2075008 1.9212253 -0.40571129 0 9
-0.20627204 1.9098482 -0.38489679 0 10
-0.20778222 1.923831 -0.3692362 0 11
-0.20587236 1.9061477 -0.34759775 0 12
-0.20486999 1.8968668 -0.32781005 0 13
-0.2060402 1.9077017 -0.31154132 0 14
-0.20721084 1.9185405 -0.29512149 0 15
-0.20664696 1.9133196 -0.27622899 0 16
-0.20515548 1.8995101 -0.25632381 0 17
-0.20732965 1.9196405 -0.24098358 0 18
-0.20683299 1.915042 -0.22243419 0 19
-0.20694752 1.9161025 -0.20461346 0 20
-0.20580623 1.9055353 -0.18567491 0 21
-0.20613301 1.908561 -0.16816308 0 22
-0.20610201 1.9082741 -0.15036249 0 23
-0.20595191 1.9068843 -0.13251621 0 24
-0.20727244 1.9191109 -0.11553805 0 25
-0.20663571 1.9132155 -0.097429626 0 26
-0.20787202 1.9246624 -0.080169454 0 27
-0.20625518 1.9096923 -0.061855063 0 28
-0.20718981 1.9183458 -0.044374883 0 29
-0.20648287 1.9118004 -0.026531093 0 30
-0.20721643 1.9185923 -0.0088746147 0 31
-0.20592538 1.9066385 0.0088193221 0 32
-0.20709595 1.9174768 0.026609866 0 33
-0.20760326 1.9221739 0.044463433 0 34
-0.20669413 1.9137564 0.0619867 0 35
-0.20605907 1.9078764 0.079470254 0 36
-0.20619966 1.9091781 0.097224027 0 37
-0.20593296 1.9067087 0.11479139 0 38
-0.20785862 1.9245383 0.13374305 0 39
-0.20631285 1.9102261 0.1505163 0 40
-0.20637804 1.9108297 0.16836298 0 41
-0.20731632 1.9195172 0.18703729 0 42
-0.20752469 1.9214464 0.20518412 0 43
-0.20688495 1.9155232 0.22249007 0 44
-0.20585738 1.906009 0.23927233 0 45
-0.20583473 1.9057993 0.2571725 0 46
-0.20660162 1.9128999 0.27616838 0 47
-0.20594683 1.9068372 0.29332122 0 48
-0.20761415 1.9222747 0.31392118 0 49
-0.20603119 1.9076183 0.32966807 0 50
-0.20501073 1.8981699 0.34614295 0 51
-0.20630603 1.9101629 0.36661294 0 52
-0.20472811 1.8955532 0.38201588 0 53
-0.20660377 1.9129198 0.4039574 0 54
-0.20626883 1.9098185 0.42178547 0 55
-0.20623294 1.9094862 0.44026658 0 56
-0.20590986 1.9064949 0.45818064 0 57
-0.20657213 1.9126267 0.47840008 0 58
-0.20660076 1.9128919 0.49730077 0 59
-0.20428877 1.8914853 0.51044798 0 60
-0.20522372 1.9001421 0.53167516 0 61
-0.20646486 1.9116336 0.55399334 0 62
-0.20606589 1.9079397 0.57209003 0 63
-0.22777015 1.8908228 -0.56775445 0 0
-0.22692542 1.8838103 -0.54669744 0 1
-0.2270125 1.8845333 -0.52804887 0 2
-0.2277073 1.890301 -0.51084542 0 3
-0.22828425 1.8950906 -0.49336538 0 4
-0.22748144 1.8884262 -0.47301075 0 5
-0.23001379 1.9094483 -0.45953539 0 6
-0.22789089 1.8918251 -0.4368076 0 7
-0.22796109 1.8924079 -0.41852772 0 8
-0.22774036 1.8905755 -0.39980006 0 9
-0.2281937 1.8943388 -0.38230774 0 10
-0.22873509 1.8988332 -0.36495069 0 11
-0.22653995 1.8806103 -0.34342289 0 12
-0.22826298 1.894914 -0.32793283 0 13
-0.22716001 1.8857578 -0.30839056 0 14
-0.22738509 1.8876262 -0.2907742 0 15
-0.22754106 1.888921 -0.27308983 0 16
-0.2263369 1.8789247 -0.25390235 0 17
-0.22792408 1.8921006 -0.23786019 0 18
-0.22759894 1.8894014 -0.21976446 0 19
-0.22764869 1.8898145 -0.20208991 0 20
-0.22765338 1.8898535 -0.1844057 0 21
-0.22918358 1.9025563 -0.16786963 0 22
-0.22701298 1.8845372 -0.14870086 0 23
-0.2283532 1.895663 -0.13192156 0 24
-0.22758806 1.8893111 -0.11390386 0 25
-0.22808337 1.893423 -0.096557222 0 26
-0.22817327 1.8941693 -0.079010196 0 27
-0.22656897 1.8808513 -0.061006531 0 28
-0.22708113 1.885103 -0.043667205 0 29
-0.23004837 1.9097353 -0.026539685 0 30
-0.22962193 1.9061953 -0.0088296644 0 31
-0.22908817 1.9017643 0.00880914 0 32
-0.22863482 1.8980008 0.026376611 0 33
-0.22784032 1.8914052 0.043813195 0 34
-0.22668169 1.8817871 0.061036881 0 35
-0.22593497 1.8755881 0.078235134 0 36
-0.22707781 1.8850753 0.096131526 0 37
-0.22909655 1.9018339 0.11465884 0 38
-0.22806959 1.8933085 0.13175772 0 39
-0.22760734 1.8894712 0.14909019 0 40
-0.22830105 1.8952299 0.16722319 0 41
-0.22612108 1.8771331 0.18316448 0 42
-0.22609502 1.8769169 0.20071068 0 43
-0.22660401 1.8811423 0.21880379 0 44
-0.22797775 1.8925462 0.2379162 0 45
-0.22904748 1.9014266 0.25694305 0 46
-0.22742482 1.887956 0.27295032 0 47
-0.22914235 1.9022142 0.29302135 0 48
-0.22844642 1.8964369 0.31013697 0 49
-0.22785963 1.8915657 0.32735339 0 50
-0.22876291 1.8990642 0.34679276 0 51
-0.22837234 1.8958218 0.3643719 0 52
-0.22859922 1.8977053 0.38298714 0 53
-0.22765097 1.8898335 0.39964309 0 54
-0.22803247 1.8930005 0.41865879 0 55
-0.22761571 1.8895408 0.43628016 0 56
-0.22751591 1.8887123 0.45454499 0 57
-0.2290913 1.9017903 0.47635821 0 58
-0.22643663 1.8797526 0.48937231 0 59
-0.22810443 1.8935978 0.51173633 0 60
-0.22692992 1.8838476 0.52785671 0 61
-0.22584462 1.8748382 0.54409367 0 62
-0.22885193 1.8998032 0.57045096 0 63
-0.24915595 1.8739973 -0.56357962 0 0
-0.24684107 1.8565862 -0.53963685 0 1
-0.24840897 1.868379 -0.52433866 0 2
-0.24767652 1.86287 -0.50421721 0 3
-0.24979874 1.878832 -0.48989528 0 4
-0.24782687 1.8640008 -0.46762067 0 5
-0.2483018 1.8675729 -0.4501583 0 6
-0.24909136 1.8735114 -0.43325359 0 7
-0.24966583 1.8778323 -0.4159517 0 8
-0.24777566 1.8636156 -0.39471331 0 9
-0.24828462 1.8674438 -0.37746748 0 10
-0.24782404 1.8639796 -0.35881048 0 11
-0.24849294 1.8690106 -0.34183675 0 12
-0.25065693 1.8852867 -0.32677546 0 13
-0.24856129 1.8695247 -0.30621254 0 14
-0.24700694 1.8578337 -0.28663111 0 15
-0.24808711 1.8659581 -0.2701906 0 16
-0.25123796 1.8896569 -0.25575075 0 17
-0.24836932 1.8680809 -0.23520675 0 18
-0.24770249 1.8630654 -0.21703906 0 19
-0.24934879 1.8754478 -0.20086627 0 20
-0.24935851 1.8755208 -0.18329249 0 21
-0.25053346 1.884358 -0.16652316 0 22
-0.24885675 1.8717469 -0.1479219 0 23
-0.2493075 1.8751371 -0.13069661 0 24
-0.24778107 1.8636563 -0.11253235 0 25
-0.24840069 1.8683167 -0.095425449 0 26
-0.24887389 1.8718759 -0.078202032 0 27
-0.24963962 1.8776352 -0.060997169 0 28
-0.2482416 1.8671201 -0.043318078 0 29
-0.25009361 1.8810499 -0.026181798 0 30
-0.24820825 1.8668693 -0.0086609861 0 31
-0.24907635 1.8733987 0.0086912774 0 32
-0.24821383 1.8669112 0.025985008 0 33
-0.24983177 1.8790804 0.043595564 0 34
-0.24919504 1.8742913 0.06088854 0 35
-0.24807435 1.8658623 0.077950791 0 36
-0.25095201 1.8875061 0.096405566 0 37
-0.24904323 1.8731494 0.11310557 0 38
-0.24725349 1.8596883 0.12961982 0 39
-0.24860691 1.8698678 0.1477734 0 40
-0.24870189 1.8705822 0.16530576 0 41
-0.2500416 1.8806586 0.18379462 0 42
-0.24831633 1.8676822 0.20003456 0 43
-0.24818388 1.866686 0.21746086 0 44
-0.25080487 1.8863996 0.23751324 0 45
-0.24908251 1.8734449 0.25355658 0 46
-0.24969828 1.8780764 0.27194533 0 47
-0.24894115 1.8723817 0.28887561 0 48
-0.24961005 1.8774128 0.30750453 0 49
-0.24925946 1.8747759 0.32495362 0 50
-0.24731371 1.8601412 0.34021455 0 51
-0.24799319 1.8652518 0.35905537 0 52
-0.24941398 1.8759381 0.37918445 0 53
-0.25000587 1.88039 0.39826611 0 54
-0.24936382 1.8755609 0.41544855 0 55
-0.24768248 1.8629148 0.43080309 0 56
-0.2484684 1.8688259 0.45046031 0 57
-0.24880488 1.8713567 0.46946606 0 58
-0.24880005 1.8713205 0.48793671 0 59
-0.24727421 1.859844 0.50339818 0 60
-0.24962161 1.8774998 0.52689826 0 61
-0.24807531 1.8658694 0.54233515 0 62
-0.25032023 1.8827542 0.56621313 0 63
-0.26856917 1.8459809 -0.5561052 0 0
-0.26906264 1.8493727 -0.53846115 0 1
-0.26865685 1.8465836 -0.5191099 0 2
-0.2694478 1.8520201 -0.50213933 0 3
-0.26837835 1.8446693 -0.48181158 0 4
-0.27061424 1.8600374 -0.46742585 0 5
-0.26862305 1.8463513 -0.44580552 0 6
-0.26956937 1.8528557 -0.42921096 0 7
-0.27136645 1.8652077 -0.41386309 0 8
-0.26869631 1.8468547 -0.39183348 0 9
-0.26948041 1.8522441 -0.37503663 0 10
-0.26955017 1.8527236 -0.35725477 0 11
-0.27003607 1.8560634 -0.34005037 0 12
-0.27077049 1.8611115 -0.32313785 0 13
-0.26862675 1.8463767 -0.30293921 0 14
-0.26857924 1.84605 -0.28530103 0 15
-0.26975432 1.8541269 -0.26893741 0 16
-0.27048001 1.8591148 -0.25204819 0 17
-0.26822156 1.8435916 -0.23252106 0 18
-0.2684513 1.8451706 -0.21532269 0 19
-0.26923433 1.8505527 -0.1985395 0 20
-0.26786286 1.8411262 -0.18023942 0 21
-0.26944029 1.8519684 -0.16394123 0 22
-0.26989385 1.8550858 -0.14685638 0 23
-0.2699011 1.8551357 -0.12952404 0 24
-0.27007651 1.8563414 -0.11228269 0 25
-0.26803231 1.8422909 -0.094257377 0 26
-0.27050224 1.8592677 -0.077808365 0 27
-0.26833943 1.8444018 -0.060020201 0 28
-0.26743695 1.8381988 -0.042720154 0 29
-0.26787403 1.841203 -0.025671087 0 30
-0.26924676 1.8506383 -0.0086003952 0 31
-0.26871261 1.8469669 0.0085833324 0 32
-0.27054742 1.8595781 0.025927285 0 33
-0.26867837 1.8467314 0.042918455 0 34
-0.26927483 1.8508312 0.060229421 0 35
-0.26866567 1.846644 0.077280082 0 36
-0.26860836 1.8462503 0.094459951 0 37
-0.26851532 1.8456107 0.11163364 0 38
-0.26981708 1.8545583 0.12948373 0 39
-0.26888916 1.8481804 0.1463097 0 40
-0.26962289 1.8532236 0.16405234 0 41
-0.27124763 1.864391 0.18251695 0 42
-0.2708528 1.8616772 0.199733 0 43
-0.26807448 1.8425807 0.21502045 0 44
-0.26776561 1.8404577 0.23212579 0 45
-0.26953551 1.8526229 0.25116804 0 46
-0.26846159 1.8452414 0.26764858 0 47
-0.27062929 1.8601408 0.28747872 0 48
-0.26914749 1.8499558 0.30352646 0 49
-0.27072686 1.8608115 0.32308576 0 50
-0.27214083 1.8705302 0.34270084 0 51
-0.26993608 1.8553762 0.35776627 0 52
-0.26858267 1.8460737 0.37378725 0 53
-0.26888007 1.8481178 0.3921015 0 54
-0.26809573 1.8427267 0.4088749 0 55
-0.26928535 1.8509035 0.42875877 0 56
-0.26832572 1.8443075 0.44531205 0 57
-0.27098638 1.8625953 0.46806866 0 58
-0.26875564 1.8472625 0.4824889 0 59
-0.27045116 1.8589165 0.50400913 0 60
-0.26739427 1.8379053 0.51667023 0 61
-0.27146116 1.8658587 0.54326117 0 62
-0.26893348 1.848485 0.55685955 0 63
-0.28915191 1.8292897 -0.55210632 0 0
-0.28962618 1.8322903 -0.53448397 0 1
-0.29050818 1.8378701 -0.51762545 0 2
-0.28909418 1.8289245 -0.49680367 0 3
-0.29333055 1.8557255 -0.48560476 0 4
-0.28932506 1.8303852 -0.46083349 0 5
-0.2900193 1.8347774 -0.44383848 0 6
-0.2917155 1.8455081 -0.4283075 0 7
-0.28878349 1.8269591 -0.4061335 0 8
-0.28926116 1.8299809 -0.38897875 0 9
-0.28994784 1.8343252 -0.37210223 0 10
-0.29120961 1.8423077 -0.35590985 0 11
-0.28729376 1.8175343 -0.33361343 0 12
-0.29004404 1.8349338 -0.31918782 0 13
-0.28829691 1.8238807 -0.29980722 0 14
-0.2892881 1.8301514 -0.28337231 0 15
-0.28947857 1.8313563 -0.26613078 0 16
-0.28851342 1.8252504 -0.24791928 0 17
-0.29097641 1.8408322 -0.23260672 0 18
-0.28902563 1.828491 -0.21377483 0 19
-0.28772053 1.8202343 -0.19565153 0 20
-0.29067647 1.8389349 -0.18036117 0 21
-0.28971672 1.832863 -0.16255304 0 22
-0.28968239 1.8326458 -0.14535093 0 23
-0.28937337 1.8306909 -0.12805606 0 24
-0.28929269 1.8301804 -0.1109071 0 25
-0.2894958 1.8314652 -0.093878537 0 26
-0.29105386 1.8413223 -0.077201314 0 27
-0.29036281 1.8369504 -0.05988938 0 28
-0.28933895 1.8304731 -0.04262007 0 29
-0.29114908 1.8419248 -0.025729122 0 30
-0.28849778 1.8251514 -0.0084977951 0 31
-0.29005319 1.8349917 0.0085436106 0 32
-0.29149896 1.8441383 0.025760042 0 33
-0.29163229 1.8449817 0.042957887 0 34
-0.29029882 1.8365456 0.059876181 0 35
-0.29053053 1.8380116 0.077062503 0 36
-0.28955409 1.8318341 0.093897447 0 37
-0.29210278 1.8479582 0.11198442 0 38
-0.29093012 1.8405396 0.12874499 0 39
-0.28851783 1.8252784 0.1447666 0 40
-0.28824076 1.8235255 0.16172493 0 41
-0.29035363 1.8368924 0.18016084 0 42
-0.28920612 1.8296328 0.19666174 0 43
-0.28834635 1.8241936 0.21327239 0 44
-0.28951001 1.8315552 0.23143448 0 45
-0.2887823 1.8269516 0.24815035 0 46
-0.28848895 1.8250955 0.26522097 0 47
-0.29036817 1.8369843 0.28443027 0 48
-0.29100737 1.8410282 0.30262589 0 49
-0.28978181 1.8332748 0.31889924 0 50
-0.28698188 1.8155614 0.3332513 0 51
-0.29323983 1.8551517 0.35839114 0 52
-0.29020581 1.8359572 0.37243327 0 53
-0.28946105 1.8312455 0.38924757 0 54
-0.28717676 1.8167942 0.40387383 0 55
-0.28704256 1.8159453 0.4214465 0 56
-0.28981188 1.833465 0.44352102 0 57
-0.28856897 1.8256019 0.45962921 0 58
-0.289197 1.8295751 0.47876173 0 59
-0.28779966 1.820735 0.49457911 0 60
-0.29001668 1.8347608 0.51674968 0 61
-0.2881532 1.8229715 0.53176564 0 62
-0.29229212 1.849156 0.55810231 0 63
-0.30812809 1.8051268 -0.54591584 0 0
-0.30894288 1.8099 -0.52902085 0 1
-0.31038031 1.818321 -0.5131557 0 2
-0.30960199 1.8137614 -0.49368161 0 3
-0.31192601 1.8273762 -0.47915381 0 4
-0.31017226 1.8171022 -0.45841482 0 5
-0.31118599 1.823041 -0.44189164 0 6
-0.30814505 1.805226 -0.41980642 0 7
-0.30800718 1.8044184 -0.40193427 0 8
-0.31097806 1.8218228 -0.38802814 0 9
-0.31324786 1.8351202 -0.37301666 0 10
-0.3101739 1.8171117 -0.35175258 0 11
-0.3105931 1.8195677 -0.33466238 0 12
-0.30983472 1.8151248 -0.31638083 0 13
-0.3111921 1.8230767 -0.30028138 0 14
-0.30996963 1.8159151 -0.28173688 0 15
-0.30963629 1.8139622 -0.2641364 0 16
-0.3085646 1.8076839 -0.24603003 0 17
-0.30875203 1.808782 -0.22901928 0 18
-0.31064007 1.8198428 -0.21319421 0 19
-0.31149036 1.8248241 -0.19654171 0 20
-0.30904257 1.8104841 -0.17793001 0 21
-0.30889052 1.8095932 -0.16081399 0 22
-0.30719009 1.7996315 -0.14302127 0 23
-0.30927426 1.8118412 -0.12699397 0 24
-0.31107226 1.8223747 -0.11065752 0 25
-0.30964243 1.8139982 -0.093171328 0 26
-0.30948454 1.8130733 -0.076170713 0 27
-0.31163996 1.8257005 -0.059643026 0 28
-0.30803132 1.8045597 -0.042101722 0 29
-0.31421521 1.8407872 -0.025765255 0 30
-0.308182 1.8054426 -0.0084230388 0 31
-0.31035912 1.8181969 0.0084825419 0 32
-0.30887333 1.8094925 0.025327228 0 33
-0.31149316 1.8248404 0.042574886 0 34
-0.30769455 1.8025869 0.05888794 0 35
-0.30962729 1.8139096 0.07620585 0 36
-0.31074116 1.8204349 0.093501933 0 37
-0.3084541 1.8070366 0.10972617 0 38
-0.30757815 1.8019049 0.12629752 0 39
-0.30937383 1.8124247 0.14403798 0 40
-0.30805644 1.8047071 0.16037977 0 41
-0.3093347 1.8121954 0.17809819 0 42
-0.30962223 1.8138798 0.19536297 0 43
-0.31019527 1.8172369 0.21288893 0 44
-0.30931884 1.8121026 0.22943971 0 45
-0.30873534 1.8086842 0.24616617 0 46
-0.30770805 1.8026661 0.26249152 0 47
-0.30984908 1.8152089 0.2816273 0 48
-0.30835965 1.8064834 0.29754826 0 49
-0.30718088 1.7995776 0.31367093 0 50
-0.31057057 1.8194356 0.33463809 0 51
-0.30815604 1.8052906 0.34946424 0 52
-0.30987123 1.8153387 0.36899576 0 53
-0.30936226 1.8123569 0.38601202 0 54
-0.30973104 1.8145174 0.4041838 0 55
-0.30940491 1.8126067 0.4215228 0 56
-0.31138554 1.82421 0.44217503 0 57
