# .PCD v0.7 - Point Cloud Data file format
VERSION 0.7
FIELDS x y z intensity ring
SIZE 4 4 4 4 2
TYPE F F F F U
COUNT 1 1 1 1 1
WIDTH 1309
HEIGHT 1
VIEWPOINT 0 0 0 1 0 0 0
POINTS 1309
DATA ascii
4.3382039 -3.7995861 0.93632686 0 49
4.3283563 -3.790961 0.98860043 0 50
4.3322291 -3.7943528 1.0441049 0 51
4.3304443 -3.7927899 1.0984548 0 52
4.324677 -3.7877383 1.1518911 0 53
4.3286934 -3.791256 1.2081141 0 54
4.3327684 -3.7948253 1.2646703 0 55
4.3300676 -3.7924597 1.3194904 0 56
4.3269153 -3.7896991 1.3743327 0 57
4.3238335 -3.7869999 1.4293624 0 58
4.328506 -3.7910922 1.4872333 0 59
4.3305779 -3.7929068 1.5445669 0 60
4.3294315 -3.7919025 1.6010449 0 61
4.3207526 -3.7843013 1.6548996 0 62
4.3245368 -3.7876158 1.7137667 0 63
1.8880851 -1.613077 -0.74031109 0 0
1.932543 -1.6510594 -0.73235559 0 1
2.0144014 -1.7209948 -0.73705393 0 2
2.0847824 -1.7811245 -0.73570246 0 3
2.157182 -1.8429787 -0.73334515 0 4
2.2573264 -1.9285365 -0.73832625 0 5
2.3281903 -1.989079 -0.73166537 0 6
2.4399266 -2.0845404 -0.73564607 0 7
2.540421 -2.1703973 -0.73366559 0 8
2.678201 -2.2881091 -0.73956257 0 9
2.7883286 -2.3821959 -0.73482227 0 10
2.9377086 -2.5098181 -0.73729116 0 11
3.0658844 -2.6193247 -0.73108709 0 12
3.2517059 -2.7780805 -0.73483467 0 13
3.4502339 -2.9476919 -0.73679495 0 14
3.6568954 -3.1242521 -0.73558921 0 15
3.8817515 -3.3163569 -0.73282856 0 16
4.1794038 -3.5706549 -0.73748744 0 17
4.3795428 -3.7416427 -0.71893436 0 18
4.3719044 -3.735117 -0.6640287 0 19
4.3847556 -3.7460964 -0.61228526 0 20
4.3766208 -3.7391465 -0.55765814 0 21
4.3717661 -3.7349987 -0.50370288 0 22
4.3817396 -3.7435193 -0.45147973 0 23
4.3845215 -3.7458961 -0.39843711 0 24
4.373374 -3.7363725 -0.34429803 0 25
4.3808684 -3.7427754 -0.29172945 0 26
4.3869829 -3.7479992 -0.23895343 0 27
4.3750744 -3.7378252 -0.18530633 0 28
4.3699508 -3.7334478 -0.13218428 0 29
4.3814111 -3.7432387 -0.079509586 0 30
4.3718224 -3.7350466 -0.026443701 0 31
4.3811507 -3.7430162 0.026500126 0 32
4.3805308 -3.742487 0.07949362 0 33
4.3868799 -3.7479112 0.13269636 0 34
4.3845315 -3.7459049 0.18570688 0 35
4.3828425 -3.7444618 0.23872788 0 36
4.3795762 -3.7416713 0.29164341 0 37
4.3729734 -3.7360303 0.3442665 0 38
4.3833055 -3.7448575 0.39832667 0 39
4.3813844 -3.743216 0.45144317 0 40
4.3776026 -3.739985 0.50437534 0 41
4.3695402 -3.7330968 0.55675596 0 42
4.3738804 -3.736805 0.61076659 0 43
4.3653021 -3.7294762 0.66302586 0 44
4.3635468 -3.7279768 0.71630853 0 45
4.3731928 -3.7362175 0.77168298 0 46
4.3869734 -3.7479911 0.82820851 0 47
4.3783407 -3.7406156 0.88070881 0 48
4.3791742 -3.741328 0.93516952 0 49
4.3809943 -3.7428827 0.99003613 0 50
4.376009 -3.7386236 1.0434978 0 51
4.3914037 -3.7517757 1.1021321 0 52
4.377985 -3.7403119 1.1537524 0 53
4.3862276 -3.7473538 1.2112197 0 54
4.382935 -3.7445407 1.2657777 0 55
4.375083 -3.7378323 1.3191022 0 56
4.37117 -3.7344894 1.3736994 0 57
4.3723354 -3.7354851 1.4301033 0 58
4.3911147 -3.7515292 1.4927821 0 59
4.3906026 -3.7510915 1.5494072 0 60
4.3745317 -3.7373614 1.6006073 0 61
4.3789616 -3.7411461 1.6594492 0 62
4.3765054 -3.7390475 1.7160112 0 63
1.8910656 -1.5758153 -0.73382658 0 0
1.9582001 -1.6317582 -0.73441929 0 1
2.0310829 -1.6924911 -0.7354871 0 2
2.1112349 -1.7592813 -0.73734748 0 3
2.1832767 -1.8193133 -0.73455542 0 4
2.2733476 -1.894369 -0.73589182 0 5
2.3586009 -1.96541 -0.73357183 0 6
2.4722042 -2.0600753 -0.73768455 0 7
2.5585458 -2.1320231 -0.73127341 0 8
2.6861262 -2.2383354 -0.73409516 0 9
2.8134668 -2.3444476 -0.73379433 0 10
2.9565837 -2.4637063 -0.73436958 0 11
3.1063747 -2.5885262 -0.73309684 0 12
3.2924106 -2.7435489 -0.73635381 0 13
3.4696388 -2.8912323 -0.73329127 0 14
3.6846387 -3.0703907 -0.73351991 0 15
3.9612405 -3.3008816 -0.74011648 0 16
4.2236233 -3.5195236 -0.73759782 0 17
4.4336395 -3.6945291 -0.72030264 0 18
4.4324174 -3.6935108 -0.66627109 0 19
4.4305696 -3.6919711 -0.612297 0 20
4.4404244 -3.7001832 -0.55994815 0 21
4.4350286 -3.6956868 -0.50571769 0 22
4.4445777 -3.7036438 -0.45322761 0 23
4.4275241 -3.6894331 -0.39819214 0 24
4.4302258 -3.6916847 -0.34517393 0 25
4.4381332 -3.6982737 -0.29249239 0 26
4.436955 -3.6972919 -0.23918091 0 27
4.4172258 -3.6808517 -0.18516059 0 28
4.4269037 -3.6889162 -0.13252491 0 29
4.4356356 -3.6961923 -0.079662792 0 30
4.4364109 -3.6968386 -0.02655741 0 31
4.4450879 -3.7040691 0.026609352 0 32
4.4365797 -3.6969795 0.079679757 0 33
4.4277668 -3.6896355 0.13255075 0 34
4.4352021 -3.6958313 0.18591413 0 35
4.4346814 -3.6953974 0.23905835 0 36
4.4342518 -3.6950395 0.2922366 0 37
4.4351501 -3.6957881 0.34555757 0 38
4.4294271 -3.6910188 0.39836329 0 39
4.4324861 -3.6935678 0.4519946 0 40
4.4345613 -3.695297 0.50566435 0 41
4.4308915 -3.6922395 0.55874598 0 42
4.4341359 -3.6949427 0.61278981 0 43
4.4371638 -3.6974659 0.66698462 0 44
4.4384837 -3.698566 0.72108966 0 45
4.4265924 -3.6886568 0.77304357 0 46
4.4308391 -3.6921957 0.82785606 0 47
4.4287896 -3.6904879 0.88166177 0 48
4.4244523 -3.6868737 0.93508655 0 49
4.438519 -3.6985953 0.99268311 0 50
4.4279213 -3.6897643 1.0449786 0 51
4.4312177 -3.6925108 1.1006457 0 52
4.4344168 -3.6951771 1.1565624 0 53
4.4314837 -3.692733 1.2110863 0 54
4.4347367 -3.6954436 1.2675189 0 55
4.4447722 -3.7038059 1.3262818 0 56
4.4440203 -3.7031796 1.3821789 0 57
4.4359469 -3.6964521 1.4359341 0 58
4.4340153 -3.6948421 1.4918082 0 59
4.4223542 -3.6851254 1.5445045 0 60
4.4284902 -3.6902385 1.603626 0 61
4.4315948 -3.6928253 1.6620613 0 62
4.4331565 -3.6941266 1.7202829 0 63
1.9185122 -1.5591198 -0.73698193 0 0
1.9741825 -1.6043614 -0.73295909 0 1
2.0395913 -1.6575174 -0.73113239 0 2
2.1339662 -1.7342132 -0.73778296 0 3
2.2013736 -1.7889931 -0.73318738 0 4
2.2982218 -1.8676989 -0.73645383 0 5
2.3873038 -1.9400934 -0.73502368 0 6
2.4836822 -2.0184174 -0.73364806 0 7
2.6089559 -2.1202235 -0.73817402 0 8
2.7162542 -2.207422 -0.73485523 0 9
2.8465412 -2.3133025 -0.73494601 0 10
2.9914615 -2.4310751 -0.73555195 0 11
3.1407371 -2.552387 -0.73374397 0 12
3.3167443 -2.6954231 -0.73432779 0 13
3.5048277 -2.848273 -0.73327082 0 14
3.7088675 -3.0140903 -0.73090971 0 15
3.9866202 -3.2398119 -0.73735929 0 16
4.2612414 -3.4629886 -0.73667514 0 17
4.4798245 -3.640625 -0.72047865 0 18
4.4838877 -3.6439269 -0.6672222 0 19
4.4794784 -3.6403437 -0.61282355 0 20
4.4820118 -3.6424024 -0.55950212 0 21
4.4772668 -3.6385465 -0.50539404 0 22
4.4836574 -3.6437397 -0.45260954 0 23
4.481936 -3.6423407 -0.39902753 0 24
4.4859676 -3.6456175 -0.34599808 0 25
4.4731116 -3.6351695 -0.29182965 0 26
4.4747438 -3.6364961 -0.23878944 0 27
4.4849529 -3.6447928 -0.18610683 0 28
4.4802032 -3.6409326 -0.1327702 0 29
4.5004454 -3.657383 -0.080013014 0 30
4.4977875 -3.6552231 -0.02665375 0 31
4.4733925 -3.6353977 0.026509184 0 32
4.4875908 -3.6469364 0.079784475 0 33
4.4708233 -3.6333098 0.13249221 0 34
4.4787292 -3.6397347 0.18584856 0 35
4.4879751 -3.6472487 0.23949552 0 36
4.4816523 -3.6421103 0.29238686 0 37
4.4912753 -3.6499305 0.34640741 0 38
4.4951425 -3.6530733 0.40020329 0 39
4.4861536 -3.6457684 0.45286155 0 40
4.4819608 -3.6423612 0.50592393 0 41
4.4887795 -3.6479025 0.56034696 0 42
4.474659 -3.6364272 0.61216426 0 43
4.4861431 -3.6457598 0.66755784 0 44
4.480288 -3.6410015 0.72055316 0 45
4.4863987 -3.6459677 0.77559996 0 46
4.492311 -3.6507721 0.83089107 0 47
4.4757781 -3.6373367 0.88204551 0 48
4.4815865 -3.6420569 0.93762571 0 49
4.4745817 -3.6363645 0.99067324 0 50
4.4873781 -3.6467633 1.0483483 0 51
4.4758363 -3.6373839 1.1005356 0 52
4.4936876 -3.651891 1.1602213 0 53
4.4817672 -3.6422038 1.212497 0 54
4.4995313 -3.6566401 1.2730906 0 55
4.4967737 -3.6543992 1.3282897 0 56
4.4794278 -3.6403027 1.3791649 0 57
4.4730749 -3.6351397 1.4333748 0 58
4.4801202 -3.6408653 1.4921447 0 59
4.4755335 -3.6371379 1.5473405 0 60
4.4847269 -3.644609 1.6076401 0 61
4.4794831 -3.6403475 1.6631076 0 62
4.4815145 -3.6419981 1.7215399 0 63
1.9329773 -1.5317992 -0.73524743 0 0
2.013346 -1.5954878 -0.74015951 0 1
2.0754273 -1.6446844 -0.73667312 0 2
2.1522393 -1.7055547 -0.73679405 0 3
2.234354 -1.770627 -0.73686469 0 4
2.315203 -1.8346962 -0.7346105 0 5
2.4152586 -1.913986 -0.73632878 0 6
2.5098622 -1.988955 -0.73410153 0 7
2.6121299 -2.0699975 -0.73181498 0 8
2.7506809 -2.1797931 -0.73686182 0 9
2.8665407 -2.2716069 -0.73284239 0 10
3.0084128 -2.3840344 -0.73245651 0 11
3.1631272 -2.5066385 -0.73171854 0 12
3.3362176 -2.6438053 -0.7313863 0 13
3.564466 -2.824682 -0.73842549 0 14
3.7699265 -2.9875004 -0.73564756 0 15
4.011097 -3.1786172 -0.73460162 0 16
4.2940822 -3.4028707 -0.73506331 0 17
4.528069 -3.5882945 -0.72108686 0 18
4.5358529 -3.5944633 -0.66832733 0 19
4.5430202 -3.600143 -0.61541367 0 20
4.5402761 -3.5979683 -0.5612101 0 21
4.5368004 -3.5952141 -0.50708562 0 22
4.5300055 -3.5898294 -0.45279804 0 23
4.5357904 -3.5944138 -0.39985698 0 24
4.5333133 -3.5924506 -0.34621647 0 25
4.5380921 -3.5962377 -0.29316187 0 26
4.5411196 -3.5986366 -0.23995197 0 27
4.5261073 -3.5867403 -0.18597037 0 28
4.5424428 -3.5996852 -0.13329284 0 29
4.5403242 -3.5980062 -0.079929382 0 30
4.5316319 -3.5911183 -0.026590621 0 31
4.5447483 -3.6015124 0.026667586 0 32
4.5334053 -3.5925238 0.079807587 0 33
4.5396209 -3.5974491 0.13321003 0 34
4.5477171 -3.6038649 0.18685827 0 35
4.5465169 -3.6029141 0.24023718 0 36
4.5380468 -3.5962017 0.29315892 0 37
4.5342155 -3.5931656 0.34628537 0 38
4.5412254 -3.5987206 0.40033609 0 39
4.538682 -3.596705 0.45366526 0 40
4.5267615 -3.5872586 0.50596356 0 41
4.5530758 -3.6081116 0.56279224 0 42
4.5384936 -3.5965557 0.61480045 0 43
4.542964 -3.6000984 0.66937506 0 44
4.5437107 -3.6006901 0.7235778 0 45
4.5354304 -3.5941284 0.77637738 0 46
4.5458422 -3.6023793 0.83253616 0 47
4.5398564 -3.5976357 0.8858884 0 48
4.5319157 -3.5913432 0.93884522 0 49
4.5353947 -3.5941002 0.99427736 0 50
4.5288801 -3.5889378 1.047655 0 51
4.5339055 -3.5929201 1.1038673 0 52
4.5324049 -3.5917306 1.158727 0 53
4.531249 -3.5908146 1.2138464 0 54
4.5364032 -3.5948992 1.2709198 0 55
4.5326791 -3.5919483 1.3257487 0 56
4.5339313 -3.5929406 1.3822387 0 57
4.5368738 -3.5952723 1.4395434 0 58
4.5387363 -3.5967481 1.4968238 0 59
4.5448532 -3.6015954 1.5558774 0 60
4.5368977 -3.5952909 1.6103723 0 61
4.5372157 -3.5955431 1.6680012 0 62
4.5282311 -3.5884233 1.7224053 0 63
1.9545152 -1.5101182 -0.73632103 0 0
2.0166395 -1.5581173 -0.73427135 0 1
2.0881147 -1.6133412 -0.73407942 0 2
2.1685493 -1.6754875 -0.73526895 0 3
2.2517436 -1.7397659 -0.73548877 0 4
2.3347127 -1.8038704 -0.73370737 0 5
2.4370601 -1.8829471 -0.73586088 0 6
2.5440762 -1.965631 -0.73698342 0 7
2.6473663 -2.0454361 -0.73458481 0 8
2.7636776 -2.1353018 -0.73325425 0 9
2.8899558 -2.2328682 -0.73175383 0 10
3.0432222 -2.3512864 -0.73383671 0 11
3.2085018 -2.4789865 -0.7351079 0 12
3.4034762 -2.6296296 -0.73898655 0 13
3.5831752 -2.7684705 -0.73519337 0 14
3.8158886 -2.9482722 -0.7374863 0 15
4.0513334 -3.1301839 -0.7348659 0 16
4.3493676 -3.3604543 -0.73739785 0 17
4.5859895 -3.5432758 -0.72331756 0 18
4.5899754 -3.5463552 -0.66982597 0 19
4.5967107 -3.551559 -0.61672425 0 20
4.5857673 -3.5431039 -0.56140542 0 21
4.5910053 -3.5471509 -0.50823057 0 22
4.5840931 -3.5418103 -0.45381683 0 23
4.5988569 -3.5532174 -0.40153459 0 24
4.5907717 -3.5469704 -0.34724742 0 25
4.5841303 -3.5418391 -0.29330027 0 26
4.592412 -3.5482378 -0.24033864 0 27
4.5921702 -3.5480509 -0.18687803 0 28
4.5867634 -3.5438735 -0.13330458 0 29
4.5806613 -3.5391588 -0.079867326 0 30
4.5894408 -3.5459423 -0.026671965 0 31
4.5927854 -3.5485263 0.026691401 0 32
4.5844903 -3.5421174 0.07993409 0 33
4.5953083 -3.5504756 0.13355291 0 34
4.5933266 -3.5489445 0.18692508 0 35
4.5893559 -3.5458765 0.2401787 0 36
4.5932255 -3.5488663 0.29388222 0 37
4.5862722 -3.5434942 0.34690711 0 38
4.5829906 -3.5409586 0.40014929 0 39
4.5819073 -3.5401216 0.45360044 0 40
4.5926919 -3.548454 0.50841725 0 41
4.5926375 -3.5484121 0.5622465 0 42
4.5846138 -3.542213 0.61510128 0 43
4.5880384 -3.5448587 0.66954327 0 44
4.5813665 -3.5397038 0.72258842 0 45
4.5738297 -3.5338805 0.77545339 0 46
4.6009312 -3.5548201 0.83455676 0 47
4.5925694 -3.5483596 0.88759327 0 48
4.5928516 -3.5485775 0.94235814 0 49
4.590445 -3.5467179 0.99670953 0 50
4.5900002 -3.5463743 1.0516264 0 51
4.5976057 -3.5522506 1.1086577 0 52
4.5892649 -3.5458064 1.1620289 0 53
4.5941262 -3.5495625 1.2189058 0 54
4.586678 -3.5438075 1.2727003 0 55
4.5873036 -3.5442908 1.3288779 0 56
4.5853558 -3.5427861 1.3845305 0 57
4.5914788 -3.5475166 1.4429191 0 58
4.5897222 -3.5461595 1.4991444 0 59
4.5931945 -3.5488424 1.5573698 0 60
4.5934873 -3.5490685 1.6148463 0 61
4.5900249 -3.5463936 1.6712574 0 62
4.5940027 -3.5494671 1.7306905 0 63
1.9750859 -1.487592 -0.73712367 0 0
2.0467618 -1.5415767 -0.73828119 0 1
2.1004386 -1.582005 -0.73151785 0 2
2.1850019 -1.6456963 -0.73393053 0 3
2.2719603 -1.7111914 -0.73516369 0 4
2.3674071 -1.7830799 -0.73703581 0 5
2.4583545 -1.8515795 -0.73536038 0 6
2.5613673 -1.9291666 -0.73506492 0 7
2.6699262 -2.0109308 -0.73392785 0 8
2.7980082 -2.1073995 -0.73543185 0 9
2.9275076 -2.2049356 -0.7343415 0 10
3.0918939 -2.3287477 -0.73861241 0 11
3.2411196 -2.4411414 -0.73564804 0 12
3.4238214 -2.5787485 -0.73646343 0 13
3.6140845 -2.7220504 -0.73461211 0 14
3.8324134 -2.8864911 -0.73376477 0 15
4.0942268 -3.0836833 -0.73571271 0 16
4.3952322 -3.310394 -0.73821664 0 17
4.6431193 -3.4970975 -0.72549099 0 18
4.6382012 -3.4933929 -0.67054427 0 19
4.6350384 -3.4910107 -0.61606055 0 20
4.647387 -3.5003119 -0.56363726 0 21
4.6509089 -3.5029645 -0.51005507 0 22
4.6419559 -3.4962208 -0.45525467 0 23
4.6340899 -3.4902964 -0.40083325 0 24
4.629528 -3.4868608 -0.34690961 0 25
4.6416731 -3.4960082 -0.29420927 0 26
4.6424265 -3.4965756 -0.24068779 0 27
4.6346111 -3.4906893 -0.18684429 0 28
4.6521387 -3.5038903 -0.13394225 0 29
4.6314669 -3.4883208 -0.079999223 0 30
4.6465201 -3.4996588 -0.026751572 0 31
4.6459255 -3.4992108 0.026748147 0 32
4.6418715 -3.4961572 0.080178939 0 33
4.6485734 -3.5012052 0.13383961 0 34
4.6321888 -3.4888644 0.18674661 0 35
4.6430945 -3.4970784 0.2407224 0 36
4.6325221 -3.4891155 0.2936292 0 37
4.6411419 -3.4956076 0.34777987 0 38
4.650528 -3.5026774 0.40225512 0 39
4.6388693 -3.4938962 0.45495197 0 40
4.6367331 -3.4922872 0.5085004 0 41
4.6388397 -3.4938738 0.56260055 0 42
4.6468234 -3.499887 0.61762697 0 43
4.6444817 -3.4981234 0.67145222 0 44
4.6549244 -3.5059886 0.72733551 0 45
4.6365738 -3.4921672 0.77875197 0 46
4.6438627 -3.4976573 0.83447963 0 47
4.6439929 -3.4977551 0.88915205 0 48
4.6410818 -3.4955628 0.94336337 0 49
4.6436028 -3.4974613 0.99883819 0 50
4.6494446 -3.5018613 1.0553004 0 51
4.6396866 -3.4945116 1.1083595 0 52
4.6455107 -3.4988983 1.1652886 0 53
4.6371059 -3.4925683 1.2188225 0 54
4.640069 -3.4947999 1.2754945 0 55
4.6395345 -3.4943972 1.3314604 0 56
4.6387429 -3.4938011 1.3875736 0 57
4.639205 -3.494149 1.444306 0 58
4.6428294 -3.4968789 1.5023324 0 59
4.6377268 -3.4930356 1.5577879 0 60
4.6425819 -3.4966924 1.6168677 0 61
4.6355929 -3.4914286 1.6720906 0 62
4.6449409 -3.4984691 1.7335427 0 63
1.9852359 -1.4573284 -0.73416829 0 0
2.0617435 -1.5134915 -0.7369166 0 1
2.1292155 -1.5630214 -0.73479074 0 2
2.2054255 -1.6189659 -0.73404837 0 3
2.2826467 -1.6756527 -0.73189902 0 4
2.3870809 -1.7523161 -0.73639691 0 5
2.4799867 -1.8205167 -0.73507935 0 6
2.5837085 -1.8966573 -0.73472786 0 7
2.6871922 -1.9726229 -0.731951 0 8
2.8213904 -2.0711355 -0.73482817 0 9
2.9512479 -2.1664617 -0.73355877 0 10
3.0830183 -2.2631922 -0.7297889 0 11
3.2672148 -2.3984077 -0.7348215 0 12
3.4420283 -2.5267355 -0.73364109 0 13
3.6526721 -2.6813655 -0.7356981 0 14
3.8815873 -2.8494081 -0.73641562 0 15
4.1340413 -3.0347307 -0.73610598 0 16
4.4473767 -3.264745 -0.74017614 0 17
4.7067008 -3.4551103 -0.72873211 0 18
4.6936102 -3.4455006 -0.67237884 0 19
4.691175 -3.4437129 -0.61784685 0 20
4.6972947 -3.4482055 -0.56450498 0 21
4.6865382 -3.440309 -0.50928456 0 22
4.6937776 -3.4456234 -0.45614722 0 23
4.6971035 -3.448065 -0.40258592 0 24
4.6982594 -3.4489136 -0.34885564 0 25
4.6990113 -3.4494655 -0.29513276 0 26
4.6988654 -3.4493587 -0.24139662 0 27
4.6950769 -3.4465773 -0.18755919 0 28
4.6973758 -3.4482648 -0.13401376 0 29
4.6925101 -3.4446933 -0.08031591 0 30
4.7061291 -3.4546905 -0.026848154 0 31
4.6983795 -3.4490018 0.026803944 0 32
4.6986208 -3.4491789 0.080420502 0 33
4.6939554 -3.4457541 0.13391618 0 34
4.691206 -3.4437358 0.18740456 0 35
4.6869907 -3.4406416 0.24078657 0 36
4.6970344 -3.4480143 0.29500857 0 37
4.6746006 -3.431546 0.34709892 0 38
4.7031813 -3.4525266 0.40310684 0 39
4.6900873 -3.4429147 0.45578864 0 40
4.6942091 -3.4459403 0.51011819 0 41
4.6860833 -3.4399755 0.56315768 0 42
4.7028937 -3.4523158 0.61939031 0 43
4.6875386 -3.4410439 0.67150909 0 44
4.7064648 -3.454937 0.72869551 0 45
4.6957431 -3.4470665 0.78151166 0 46
4.6950054 -3.4465251 0.83599102 0 47
4.697536 -3.4483826 0.89121765 0 48
4.692481 -3.4446719 0.94512981 0 49
4.6885052 -3.4417534 0.99931777 0 50
4.6995387 -3.4498527 1.0569621 0 51
4.687933 -3.4413331 1.1096922 0 52
4.6994848 -3.4498131 1.1680984 0 53
4.6968117 -3.4478509 1.2232796 0 54
4.6876917 -3.4411559 1.2768571 0 55
4.7018476 -3.4515476 1.3370619 0 56
4.6985636 -3.449137 1.3926756 0 57
4.6982403 -3.4488997 1.4493725 0 58
4.6936965 -3.4455643 1.5049689 0 59
4.702631 -3.4521227 1.565212 0 60
4.6908107 -3.4434454 1.6187954 0 61
4.68964 -3.4425864 1.6761898 0 62
4.6844821 -3.4387999 1.7323878 0 63
2.0092361 -1.4372665 -0.73645246 0 0
2.0803239 -1.4881176 -0.73696154 0 1
2.1465361 -1.5354813 -0.73419684 0 2
2.225363 -1.5918684 -0.73411375 0 3
2.2985783 -1.6442415 -0.73046929 0 4
2.4014106 -1.7178006 -0.73424578 0 5
2.497551 -1.7865725 -0.7337184 0 6
2.5905597 -1.8531046 -0.7301411 0 7
2.7161443 -1.9429389 -0.73327404 0 8
2.8354995 -2.0283172 -0.73195159 0 9
2.9889405 -2.1380782 -0.73633707 0 10
3.121881 -2.2331746 -0.73243266 0 11
3.2812812 -2.3471982 -0.73143852 0 12
3.4731739 -2.4844646 -0.73371255 0 13
3.6859899 -2.6366985 -0.73582286 0 14
3.9120433 -2.7984011 -0.73560977 0 15
4.1768465 -2.9878225 -0.73713022 0 16
4.4296584 -3.1686666 -0.73068732 0 17
4.7438526 -3.3934193 -0.72796875 0 18
4.7393146 -3.3901727 -0.67290342 0 19
4.7564936 -3.4024613 -0.62089241 0 20
4.7554021 -3.4016807 -0.56641847 0 21
4.7461591 -3.3950689 -0.51118821 0 22
4.7491031 -3.3971746 -0.45742968 0 23
4.750948 -3.3984947 -0.40358865 0 24
4.7453308 -3.3944767 -0.3492251 0 25
4.7513056 -3.3987503 -0.29576996 0 26
4.7521372 -3.3993452 -0.24196766 0 27
4.750947 -3.398494 -0.18810748 0 28
4.7562461 -3.4022844 -0.13448958 0 29
4.7481799 -3.3965144 -0.08054781 0 30
4.7528629 -3.3998647 -0.026874237 0 31
4.7344403 -3.3866861 0.026770066 0 32
4.744153 -3.3936338 0.080479495 0 33
4.7570353 -3.402849 0.13451189 0 34
4.7472043 -3.3958166 0.18795927 0 35
4.7485647 -3.3967898 0.24178575 0 36
4.7519045 -3.3991787 0.29580724 0 37
4.7541685 -3.4007983 0.34987548 0 38
4.7505188 -3.3981874 0.40355214 0 39
4.7528052 -3.399823 0.45778626 0 40
4.7458572 -3.3948531 0.51115578 0 41
4.7490287 -3.3971217 0.56565934 0 42
4.7444606 -3.3938539 0.6193217 0 43
4.7501984 -3.3979585 0.67444879 0 44
4.7537193 -3.4004772 0.72948283 0 45
4.7511663 -3.3986509 0.78372115 0 46
4.746881 -3.3955853 0.83772999 0 47
4.7496991 -3.3976014 0.89312029 0 48
4.7476768 -3.3961549 0.94776422 0 49
4.7505045 -3.3981771 1.0035503 0 50
4.7539363 -3.4006324 1.0597117 0 51
4.736742 -3.3883328 1.1112994 0 52
4.7544432 -3.4009945 1.1712755 0 53
4.745965 -3.3949301 1.2251163 0 54
4.7471938 -3.3958089 1.2815939 0 55
4.7574115 -3.4031184 1.3408616 0 56
4.7429814 -3.3927958 1.39337 0 57
4.7514601 -3.3988609 1.4527875 0 58
4.7510147 -3.3985424 1.5098336 0 59
4.746243 -3.395129 1.5657141 0 60
4.7470002 -3.3956707 1.6236541 0 61
4.7530389 -3.3999901 1.6837796 0 62
4.7485437 -3.3967748 1.7405005 0 63
2.0218096 -1.4090058 -0.73465496 0 0
2.0884185 -1.4554259 -0.73343372 0 1
2.1778793 -1.5177712 -0.73847795 0 2
2.2532408 -1.570291 -0.73688477 0 3
2.3368604 -1.6285658 -0.73621541 0 4
2.4325995 -1.6952868 -0.73735237 0 5
2.5194027 -1.7557801 -0.73373985 0 6
2.6397333 -1.8396389 -0.73756909 0 7
2.744709 -1.912797 -0.73458028 0 8
2.8794992 -2.0067325 -0.73688418 0 9
3.0268137 -2.1093965 -0.73922145 0 10
3.1517925 -2.1964948 -0.73305821 0 11
3.319885 -2.3136389 -0.73364657 0 12
3.5073016 -2.4442501 -0.73451722 0 13
3.7128882 -2.5875242 -0.73478532 0 14
3.9424255 -2.7474895 -0.73491448 0 15
4.204546 -2.9301622 -0.73560435 0 16
4.4786496 -3.1211858 -0.73238236 0 17
4.8093133 -3.3516266 -0.73163432 0 18
4.8069296 -3.3499651 -0.67660379 0 19
4.7989097 -3.3443761 -0.62101412 0 20
4.8009801 -3.3458192 -0.56690407 0 21
4.7981749 -3.343864 -0.51232332 0 22
4.795176 -3.341774 -0.45787483 0 23
4.8026958 -3.3470147 -0.40445778 0 24
4.8122501 -3.353673 -0.35108849 0 25
4.8034372 -3.3475313 -0.29643035 0 26
4.7868443 -3.3359675 -0.24162792 0 27
4.7973237 -3.343271 -0.18830174 0 28
4.7957482 -3.3421731 -0.13443433 0 29
4.8039093 -3.3478603 -0.080788739 0 30
4.8133898 -3.3544674 -0.026981205 0 31
4.804811 -3.3484888 0.026933115 0 32
4.8068466 -3.3499074 0.080838136 0 33
4.8046379 -3.3483682 0.13468352 0 34
4.7991996 -3.3445783 0.18837537 0 35
4.8060112 -3.3493252 0.24259542 0 36
4.7966967 -3.3428338 0.2960144 0 37
4.7979155 -3.3436832 0.3500427 0 38
4.8063254 -3.349544 0.40476343 0 39
4.8066359 -3.3497605 0.45896909 0 40
4.7985878 -3.3441517 0.51236743 0 41
4.803123 -3.3473125 0.56715709 0 42
4.8021903 -3.3466623 0.62143868 0 43
4.7937727 -3.340796 0.67475188 0 44
4.793467 -3.3405833 0.72922367 0 45
4.795279 -3.341846 0.78416002 0 46
4.8061051 -3.3493907 0.84084988 0 47
4.8063807 -3.3495827 0.89596593 0 48
4.7988753 -3.344352 0.94970357 0 49
4.8140717 -3.3549428 1.0081878 0 50
4.7894678 -3.337796 1.0584031 0 51
4.8037329 -3.3477373 1.1172739 0 52
4.802927 -3.3471761 1.1729915 0 53
4.797627 -3.3434823 1.2277466 0 54
4.789216 -3.3376207 1.281762 0 55
4.8077598 -3.3505437 1.3433384 0 56
4.7963223 -3.3425732 1.3968601 0 57
4.7999511 -3.3451021 1.4549273 0 58
4.7904482 -3.3384793 1.5092052 0 59
4.7934117 -3.3405445 1.5676053 0 60
4.8007245 -3.3456411 1.6278356 0 61
4.8008447 -3.3457248 1.6860133 0 62
4.8005118 -3.3454928 1.7443384 0 63
2.0499997 -1.3915193 -0.73862499 0 0
2.1062977 -1.4297338 -0.73348308 0 1
2.1684916 -1.4719504 -0.72910237 0 2
2.265213 -1.5376039 -0.73456126 0 3
2.351352 -1.5960742 -0.73454237 0 4
2.4393296 -1.6557925 -0.73316544 0 5
2.5491409 -1.7303314 -0.73614848 0 6
2.652859 -1.8007342 -0.73499405 0 7
2.7663951 -1.8778013 -0.73414892 0 8
2.9047756 -1.9717326 -0.73709232 0 9
3.0329177 -2.0587142 -0.73447418 0 10
3.1867299 -2.1631205 -0.73494208 0 11
3.3324161 -2.2620108 -0.73021394 0 12
3.5242968 -2.3922575 -0.73186064 0 13
3.743144 -2.5408087 -0.73453444 0 14
3.9976878 -2.7135906 -0.73894006 0 15
4.2092443 -2.857193 -0.73022437 0 16
4.5144167 -3.0643408 -0.73201412 0 17
4.8556271 -3.2959509 -0.73245901 0 18
4.8474336 -3.2903895 -0.67655885 0 19
4.8539786 -3.2948322 -0.62285048 0 20
4.8428283 -3.2872634 -0.5670296 0 21
4.8629842 -3.300945 -0.51487041 0 22
4.8510423 -3.2928391 -0.45930833 0 23
4.8543901 -3.2951117 -0.40536833 0 24
4.8610845 -3.2996554 -0.35166454 0 25
4.8575625 -3.2972648 -0.29724598 0 26
4.8534546 -3.2944765 -0.24292701 0 27
4.8511639 -3.2929215 -0.18881144 0 28
4.8681374 -3.3044429 -0.13531427 0 29
4.859015 -3.2982509 -0.081027292 0 30
4.8527789 -3.2940178 -0.02697291 0 31
4.8580976 -3.2976282 0.027002474 0 32
4.8537526 -3.2946787 0.080939531 0 33
4.8568482 -3.2967801 0.13500048 0 34
4.8561397 -3.296299 0.18900509 0 35
4.8504543 -3.2924399 0.24277684 0 36
4.8595672 -3.2986257 0.29736868 0 37
4.8654022 -3.3025863 0.35197693 0 38
4.8578658 -3.2974706 0.40565854 0 39
4.8493271 -3.2916749 0.45914593 0 40
4.8599157 -3.2988622 0.51454556 0 41
4.8652458 -3.3024805 0.56965441 0 42
4.8512111 -3.2929537 0.62249535 0 43
4.8606582 -3.299366 0.67840457 0 44
4.8525991 -3.293896 0.73200226 0 45
4.8427711 -3.2872248 0.78525692 0 46
4.8666081 -3.3034048 0.84426457 0 47
4.8604345 -3.2992141 0.89841175 0 48
4.8606949 -3.299391 0.95383662 0 49
4.8647499 -3.3021436 1.010221 0 50
4.8534675 -3.2944851 1.0635134 0 51
4.8560371 -3.2962296 1.1199273 0 52
4.8481288 -3.2908614 1.1740593 0 53
4.8564982 -3.2965424 1.2323456 0 54
4.8459749 -3.2893994 1.2860301 0 55
4.8647962 -3.302175 1.3478276 0 56
4.8485007 -3.2911139 1.4001644 0 57
4.8538451 -3.2947416 1.4588728 0 58
4.8468761 -3.2900112 1.5141228 0 59
4.8517895 -3.2933462 1.5733341 0 60
4.8458405 -3.2893081 1.6292956 0 61
4.844172 -3.2881756 1.6869023 0 62
4.8594418 -3.2985404 1.7508807 0 63
2.0666878 -1.3660321 -0.7385298 0 0
2.1247587 -1.4044156 -0.73384261 0 1
2.2069938 -1.4587711 -0.73596108 0 2
2.2909274 -1.5142493 -0.73680621 0 3
2.3778107 -1.5716771 -0.73671484 0 4
2.4621863 -1.6274474 -0.73396498 0 5
2.5747192 -1.701829 -0.73743606 0 6
2.684067 -1.7741054 -0.73754072 0 7
2.7821815 -1.8389567 -0.73228198 0 8
2.9196246 -1.9298034 -0.73478323 0 9
3.0562344 -2.0200992 -0.73404974 0 10
3.2231927 -2.1304548 -0.73725384 0 11
3.3979423 -2.24596 -0.73846477 0 12
3.5537255 -2.3489292 -0.73191851 0 13
3.7866209 -2.5028675 -0.73697102 0 14
4.0180235 -2.6558194 -0.73660684 0 15
4.2667747 -2.8202379 -0.73413318 0 16
4.5805459 -3.0276334 -0.73664457 0 17
4.8971314 -3.2368889 -0.73266035 0 18
4.914062 -3.2480795 -0.68023229 0 19
4.909493 -3.2450597 -0.62480646 0 20
4.9111638 -3.2461641 -0.57031399 0 21
4.9139485 -3.2480047 -0.51599872 0 22
4.9030194 -3.2407808 -0.46042171 0 23
4.9115458 -3.2464166 -0.40677688 0 24
4.9096761 -3.2451806 -0.35226637 0 25
4.9176173 -3.2504296 -0.29845256 0 26
4.91434 -3.2482636 -0.24395683 0 27
4.9126091 -3.2471192 -0.18963455 0 28
4.913775 -3.2478902 -0.13546248 0 29
4.9102087 -3.2455328 -0.081209332 0 30
4.9128013 -3.2472463 -0.027082542 0 31
4.9103694 -3.2456391 0.027069138 0 32
4.9126296 -3.247133 0.081249371 0 33
4.9143362 -3.248261 0.13547795 0 34
4.9094453 -3.245028 0.18951243 0 35
4.9138823 -3.2479608 0.24393411 0 36
4.9020414 -3.2401345 0.29750723 0 37
4.9064488 -3.2430475 0.35203484 0 38
4.9018464 -3.2400053 0.40597355 0 39
4.903564 -3.2411408 0.46047285 0 40
4.9123311 -3.2469356 0.51582885 0 41
4.9101834 -3.2455161 0.57020015 0 42
4.9049234 -3.2420392 0.6242249 0 43
4.9134469 -3.247673 0.68014717 0 44
4.9137568 -3.2478781 0.73514771 0 45
4.9090676 -3.2447786 0.78947759 0 46
4.9254684 -3.255619 0.84746677 0 47
4.914063 -3.2480803 0.9008739 0 48
4.8938332 -3.2347088 0.95246214 0 49
4.9125485 -3.2470794 1.0117791 0 50
4.9041319 -3.2415161 1.0658007 0 51
4.9185572 -3.2510509 1.1250414 0 52
4.9159446 -3.2493238 1.180717 0 53
4.9121656 -3.2468262 1.2362468 0 54
4.907196 -3.2435415 1.2915949 0 55
4.9090815 -3.2447877 1.3489407 0 56
4.9035368 -3.2411227 1.4044424 0 57
4.9094067 -3.2450027 1.4634688 0 58
4.911077 -3.2461069 1.5215943 0 59
4.9003549 -3.2390196 1.5760481 0 60
4.9021754 -3.2402229 1.6347169 0 61
4.9030437 -3.2407968 1.6933981 0 62
4.9105506 -3.2457588 1.7547827 0 63
2.0611453 -1.3262446 -0.73066628 0 0
2.1483192 -1.3823366 -0.73605353 0 1
2.2254224 -1.4319488 -0.73617905 0 2
2.2972991 -1.4781978 -0.73295408 0 3
2.3863575 -1.5355026 -0.73345745 0 4
2.4902549 -1.6023554 -0.73640299 0 5
2.5838828 -1.6626002 -0.73414969 0 6
2.689851 -1.7307855 -0.73322648 0 7
2.8188608 -1.8137969 -0.73601019 0 8
2.9376774 -1.8902495 -0.7334215 0 9
3.0816572 -1.9828932 -0.73424405 0 10
3.24035 -2.0850041 -0.7352584 0 11
3.4101791 -2.1942809 -0.73520476 0 12
3.5853648 -2.307004 -0.73253685 0 13
3.8142793 -2.4542992 -0.73642474 0 14
4.0333438 -2.5952563 -0.73350966 0 15
4.2937818 -2.7628353 -0.73287922 0 16
4.6137323 -2.9687076 -0.73605531 0 17
4.9457994 -3.1823764 -0.73403156 0 18
4.9613299 -3.1923695 -0.68129003 0 19
4.9581585 -3.1903286 -0.62595993 0 20
4.9537196 -3.1874723 -0.57066113 0 21
4.9628096 -3.1933212 -0.51696712 0 22
4.9724045 -3.1994953 -0.46320787 0 23
4.9717093 -3.1990478 -0.40847087 0 24
4.9619012 -3.1927369 -0.35316998 0 25
4.964488 -3.1944015 -0.29889065 0 26
4.9677343 -3.1964903 -0.24463773 0 27
4.9627528 -3.1932847 -0.19004008 0 28
4.9563651 -3.1891749 -0.13554525 0 29
4.9591646 -3.1909761 -0.081363909 0 30
4.9582953 -3.1904168 -0.027115021 0 31
4.9738855 -3.200448 0.027200276 0 32
4.9551997 -3.1884248 0.081298858 0 33
4.965024 -3.1947463 0.13578205 0 34
4.9584761 -3.1905329 0.1898763 0 35
4.9680176 -3.1966724 0.24465168 0 36
4.9627919 -3.19331 0.29878852 0 37
4.9664063 -3.1956358 0.35349065 0 38
4.9593449 -3.191092 0.40745503 0 39
4.9685173 -3.1969941 0.46284574 0 40
4.9689841 -3.1972945 0.51761031 0 41
4.9605432 -3.1918631 0.57144725 0 42
4.974484 -3.2008333 0.62802106 0 43
4.956821 -3.1894681 0.68067092 0 44
4.9654603 -3.1950271 0.73694956 0 45
4.955821 -3.1888247 0.7906307 0 46
4.9581375 -3.1903152 0.84627402 0 47
4.9572849 -3.1897664 0.90153885 0 48
4.9682345 -3.1968122 0.9592194 0 49
4.9595332 -3.1912134 1.0132974 0 50
4.9553657 -3.1885314 1.0683334 0 51
4.9564681 -3.1892409 1.1246578 0 52
4.9593806 -3.1911149 1.1816356 0 53
4.9701715 -3.1980586 1.2408546 0 54
4.9615417 -3.1925056 1.2954684 0 55
4.9527855 -3.1868715 1.3500798 0 56
4.9592476 -3.1910293 1.4090538 0 57
4.9620013 -3.1928012 1.4673327 0 58
4.9623389 -3.1930184 1.5251966 0 59
4.9537473 -3.1874902 1.5804949 0 60
4.950994 -3.1857188 1.6378096 0 61
4.9601536 -3.1916122 1.6994395 0 62
4.9666443 -3.1957886 1.7606518 0 63
2.0803359 -1.3027048 -0.73173535 0 0
2.1752622 -1.3621476 -0.73949009 0 1
2.2294233 -1.3960631 -0.73176843 0 2
2.3220522 -1.4540673 -0.73509145 0 3
2.4118767 -1.5103154 -0.73553723 0 4
2.5076303 -1.5702763 -0.73577559 0 5
2.61146 -1.6352943 -0.73621607 0 6
2.7074604 -1.6954098 -0.73228842 0 7
2.8479874 -1.7834076 -0.73783356 0 8
2.9839149 -1.8685253 -0.739173 0 9
3.1083446 -1.9464431 -0.73484451 0 10
3.2750089 -2.0508082 -0.73734492 0 11
3.4392576 -2.1536605 -0.73570883 0 12
3.6199441 -2.2668064 -0.73385143 0 13
3.8275375 -2.396801 -0.73323882 0 14
4.0634885 -2.5445533 -0.73324603 0 15
4.3316278 -2.7124619 -0.73359048 0 16
4.622561 -2.8946443 -0.73172992 0 17
4.985043 -3.1216302 -0.7341035 0 18
5.0185766 -3.1426289 -0.68379295 0 19
5.0189238 -3.1428463 -0.62870497 0 20
5.0178852 -3.1421959 -0.57355851 0 21
5.0130386 -3.1391611 -0.51813924 0 22
5.0133686 -3.1393676 -0.46339276 0 23
5.0270886 -3.1479592 -0.40980956 0 24
5.0222769 -3.1449461 -0.35468799 0 25
5.0188789 -3.1428185 -0.29981595 0 26
5.0068541 -3.1352882 -0.24464715 0 27
5.0183024 -3.1424572 -0.19067316 0 28
5.0130806 -3.1391873 -0.13603038 0 29
5.0284801 -3.1488304 -0.0818597 0 30
5.014071 -3.1398075 -0.027206844 0 31
5.025784 -3.1471422 0.027270399 0 32
5.0114121 -3.1381426 0.081581846 0 33
5.0132594 -3.1392992 0.1360352 0 34
5.0131512 -3.1392314 0.19047743 0 35
5.0137095 -3.139581 0.24498211 0 36
5.020412 -3.1437783 0.29990751 0 37
5.0161223 -3.1410921 0.35425332 0 38
5.0167847 -3.1415069 0.40896955 0 39
5.0235629 -3.1457515 0.46433505 0 40
5.0121245 -3.1385884 0.51804477 0 41
5.0037866 -3.1333675 0.57194704 0 42
5.0093069 -3.1368244 0.6275003 0 43
5.0171819 -3.1417556 0.68360293 0 44
5.0086288 -3.1363995 0.73757678 0 45
5.0219784 -3.1447592 0.79495591 0 46
5.0174809 -3.1419427 0.84974438 0 47
5.0095491 -3.136976 0.90396035 0 48
5.0191393 -3.1429811 0.96151316 0 49
5.0070033 -3.1353817 1.0150423 0 50
5.0253029 -3.1468408 1.0749876 0 51
5.0144954 -3.1400731 1.1289779 0 52
5.0200644 -3.1435604 1.1867945 0 53
5.0156102 -3.1407712 1.2424629 0 54
5.0092607 -3.136795 1.2977587 0 55
5.0108171 -3.1377699 1.3552787 0 56
5.0077019 -3.1358192 1.4117584 0 57
5.0100589 -3.1372952 1.4700249 0 58
5.0037074 -3.1333179 1.5259541 0 59
5.0046897 -3.1339328 1.5843332 0 60
5.0245724 -3.1463833 1.6492263 0 61
5.0238562 -3.1459351 1.7078823 0 62
5.0076027 -3.135757 1.7613693 0 63
2.1108398 -1.2859486 -0.73684716 0 0
2.1912401 -1.3349293 -0.73928565 0 1
2.2589443 -1.3761756 -0.73584819 0 2
2.32636 -1.4172461 -0.730883 0 3
2.4401278 -1.4865547 -0.73852241 0 4
2.533941 -1.5437068 -0.7378701 0 5
2.6236629 -1.5983665 -0.73405993 0 6
2.731777 -1.6642308 -0.73327494 0 7
2.8709762 -1.7490327 -0.73816168 0 8
2.9893024 -1.8211184 -0.73490477 0 9
3.1222432 -1.9021075 -0.73254544 0 10
3.2879283 -2.0030448 -0.73465276 0 11
3.4536352 -2.1039953 -0.73319465 0 12
3.652154 -2.2249353 -0.7347793 0 13
3.8713934 -2.3584988 -0.73602891 0 14
4.0991507 -2.4972513 -0.73408473 0 15
4.381948 -2.6695344 -0.73649764 0 16
4.6675739 -2.8435411 -0.73326498 0 17
5.0559459 -3.080142 -0.73891139 0 18
5.0694065 -3.0883424 -0.68549258 0 19
5.0758843 -3.0922887 -0.63102937 0 20
5.0779848 -3.0935683 -0.57603645 0 21
5.0751529 -3.0918431 -0.52059036 0 22
5.0738401 -3.0910435 -0.46543384 0 23
5.0845966 -3.0975962 -0.41136143 0 24
5.0595436 -3.0823336 -0.35461631 0 25
5.0823126 -3.096205 -0.30130818 0 26
5.0741973 -3.0912609 -0.24606176 0 27
5.0727811 -3.0903983 -0.19128476 0 28
5.0825381 -3.0963421 -0.13687161 0 29
5.0755496 -3.0920849 -0.082000792 0 30
5.0697351 -3.0885425 -0.027300743 0 31
5.0645928 -3.0854099 0.027273053 0 32
5.0689182 -3.0880449 0.08189366 0 33
5.0788598 -3.0941014 0.13677256 0 34
5.0861073 -3.0985167 0.19178729 0 35
5.0701699 -3.0888073 0.24586646 0 36
5.0621448 -3.0839186 0.30011252 0 37
5.0773234 -3.0931656 0.3558625 0 38
5.0800986 -3.094856 0.41099754 0 39
5.0588298 -3.0818989 0.46405691 0 40
5.0643287 -3.0852487 0.51948005 0 41
5.0662909 -3.0864444 0.57470995 0 42
5.0643234 -3.0852456 0.62959212 0 43
5.075738 -3.0921996 0.68634874 0 44
5.0761933 -3.0924771 0.74187052 0 45
5.082098 -3.0960743 0.7983858 0 46
5.0680776 -3.0875328 0.85181916 0 47
5.078156 -3.0936725 0.90940702 0 48
5.0821071 -3.0960798 0.96620965 0 49
5.0707011 -3.0891311 1.0201777 0 50
5.0684896 -3.0877836 1.0760225 0 51
5.0728488 -3.0904393 1.1334742 0 52
5.0628557 -3.0843515 1.1878548 0 53
5.068697 -3.0879102 1.2461134 0 54
5.0655756 -3.0860085 1.3024188 0 55
5.0814438 -3.0956757 1.3639823 0 56
5.0733223 -3.090728 1.4194365 0 57
5.0646982 -3.085474 1.4748131 0 58
5.081522 -3.0957232 1.5379596 0 59
5.0741391 -3.0912254 1.5941651 0 60
5.0749998 -3.0917499 1.6531746 0 61
5.0736356 -3.0909188 1.7117549 0 62
0 0 0 0 63
2.123009 -1.2578341 -0.73564035 0 0
2.1891546 -1.2970238 -0.73314571 0 1
2.2643275 -1.341562 -0.73217273 0 2
2.3668671 -1.4023143 -0.73813599 0 3
2.4380801 -1.4445064 -0.73247135 0 4
2.546382 -1.5086728 -0.73603517 0 5
2.6549761 -1.5730124 -0.73735344 0 6
2.7435808 -1.6255085 -0.73102283 0 7
2.8735256 -1.702498 -0.73337919 0 8
3.0122311 -1.7846777 -0.73509097 0 9
3.1486065 -1.8654771 -0.73329347 0 10
3.323976 -1.9693794 -0.73724061 0 11
3.4707856 -2.0563607 -0.73141217 0 12
3.6677098 -2.1730337 -0.73247766 0 13
3.8859737 -2.30235 -0.73336303 0 14
4.1462107 -2.4565346 -0.73704708 0 15
4.384954 -2.5979843 -0.73157817 0 16
4.7243376 -2.7990613 -0.73671967 0 17
5.0611095 -2.9985909 -0.73422176 0 18
5.1304064 -3.0396478 -0.68863481 0 19
5.1324558 -3.0408621 -0.63336587 0 20
5.1305304 -3.0397215 -0.57771343 0 21
5.1270156 -3.0376389 -0.52203929 0 22
5.1302586 -3.0395603 -0.46714532 0 23
5.1295624 -3.0391479 -0.41194475 0 24
5.1300378 -3.0394294 -0.35691068 0 25
5.1283736 -3.0384436 -0.30180109 0 26
5.1123838 -3.02897 -0.24608879 0 27
5.1335168 -3.0414908 -0.19215021 0 28
5.1257286 -3.0368764 -0.13701873 0 29
5.1451726 -3.0483963 -0.082513787 0 30
5.1333003 -3.0413623 -0.027439581 0 31
5.1209631 -3.0340528 0.027373634 0 32
5.1132526 -3.0294845 0.08200188 0 33
5.1232066 -3.035382 0.1369513 0 34
5.1206245 -3.0338523 0.19166763 0 35
5.1312952 -3.0401745 0.2469991 0 36
5.1204166 -3.0337291 0.3013328 0 37
5.124352 -3.0360608 0.35651508 0 38
5.1337872 -3.041651 0.41228405 0 39
5.1310325 -3.0400188 0.46721581 0 40
5.1155448 -3.0308428 0.5208714 0 41
5.127892 -3.0381582 0.57741636 0 42
5.1290679 -3.0388548 0.6329478 0 43
5.1350679 -3.0424097 0.68926054 0 44
5.1208634 -3.0339937 0.74289036 0 45
5.1289344 -3.0387757 0.79981297 0 46
5.1202288 -3.0336177 0.85425019 0 47
5.1212573 -3.0342271 0.9103753 0 48
5.1287265 -3.0386527 0.96789598 0 49
5.1251636 -3.0365417 1.0235455 0 50
5.1312962 -3.0401752 1.081338 0 51
5.1332717 -3.0413454 1.1385329 0 52
5.134234 -3.0419157 1.1957353 0 53
5.1220522 -3.0346982 1.249962 0 54
5.1285706 -3.0385604 1.3089101 0 55
5.1310158 -3.040009 1.3671513 0 56
5.1191049 -3.0329521 1.4217037 0 57
5.1208301 -3.0339742 1.4801829 0 58
5.1345921 -3.0421278 1.5425833 0 59
5.1305413 -3.0397279 1.6000211 0 60
5.1277556 -3.0380774 1.6580652 0 61
5.1330256 -3.0411997 1.7190452 0 62
0 0 0 0 63
2.1338799 -1.2290813 -0.73411483 0 0
2.2138858 -1.2751633 -0.7361213 0 1
2.2863646 -1.3169101 -0.73400682 0 2
2.3643026 -1.3618011 -0.73205864 0 3
2.47138 -1.4234761 -0.73716134 0 4
2.553421 -1.4707304 -0.73278701 0 5
2.6559644 -1.5297937 -0.7323482 0 6
2.7930198 -1.6087356 -0.73886913 0 7
2.8945754 -1.66723 -0.73346376 0 8
3.0377483 -1.7496953 -0.73601198 0 9
3.184314 -1.8341148 -0.73630136 0 10
3.3287919 -1.9173318 -0.73302418 0 11
3.4952254 -2.0131948 -0.7312904 0 12
3.7080405 -2.1357732 -0.73523164 0 13
3.9070876 -2.250421 -0.73206997 0 14
4.1775389 -2.4061966 -0.73730069 0 15
4.4351034 -2.5545499 -0.73464882 0 16
4.7245355 -2.7212582 -0.73147714 0 17
5.1113429 -2.9440532 -0.7362017 0 18
5.179225 -2.9831522 -0.69021165 0 19
5.1877351 -2.988054 -0.63560534 0 20
5.1786957 -2.9828475 -0.5789631 0 21
5.1890473 -2.9888098 -0.52457368 0 22
5.175499 -2.9810059 -0.46789163 0 23
5.188695 -2.9886067 -0.41371101 0 24
5.1849689 -2.9864607 -0.35815039 0 25
5.1872334 -2.9877651 -0.30307996 0 26
5.1916442 -2.9903057 -0.24811533 0 27
5.1912165 -2.9900589 -0.19291912 0 28
5.1891699 -2.9888804 -0.13772175 0 29
5.17872 -2.9828613 -0.082457334 0 30
5.1807828 -2.9840493 -0.027495176 0 31
5.183887 -2.9858375 0.027511653 0 32
5.1787624 -2.9828858 0.082458012 0 33
5.1856689 -2.9868639 0.13762882 0 34
5.191185 -2.990041 0.19291796 0 35
5.1819997 -2.9847503 0.24765439 0 36
5.189199 -2.9888971 0.30319479 0 37
5.1851773 -2.9865806 0.35816476 0 38
5.1816659 -2.9845581 0.41315058 0 39
5.1752038 -2.9808359 0.46786493 0 40
5.1998754 -2.9950466 0.52566832 0 41
5.1791325 -2.983099 0.57901192 0 42
5.1942244 -2.9917917 0.6364004 0 43
5.192626 -2.9908707 0.69199753 0 44
5.1827874 -2.985204 0.74649209 0 45
5.1875196 -2.9879298 0.80315876 0 46
5.1746883 -2.9805391 0.85715669 0 47
5.1762033 -2.9814117 0.91355664 0 48
5.183567 -2.9856532 0.97124356 0 49
5.1904898 -2.9896407 1.0291723 0 50
5.1894555 -2.9890449 1.0857667 0 51
5.1789193 -2.9829762 1.1404357 0 52
5.1829982 -2.9853256 1.1984524 0 53
5.1779675 -2.9824278 1.2545629 0 54
5.1854115 -2.9867156 1.3139445 0 55
5.1842403 -2.9860411 1.3714458 0 56
5.1856613 -2.9868593 1.4298798 0 57
5.1976228 -2.9937489 1.4916264 0 58
5.1708698 -2.9783397 1.5423629 0 59
5.188067 -2.988245 1.6063803 0 60
5.1989851 -2.9945335 1.6690646 0 61
5.1878624 -2.988127 1.7249743 0 62
0 0 0 0 63
2.1448643 -1.2005311 -0.73275977 0 0
2.2264225 -1.2461811 -0.73513913 0 1
2.3013587 -1.2881246 -0.73367995 0 2
2.3922989 -1.339026 -0.73557335 0 3
2.4946582 -1.3963189 -0.73892748 0 4
2.5816884 -1.4450318 -0.7357443 0 5
2.6794446 -1.4997481 -0.7336821 0 6
2.7937641 -1.5637355 -0.73392379 0 7
2.9145601 -1.6313478 -0.73338926 0 8
3.0598867 -1.7126906 -0.73621762 0 9
3.2008147 -1.7915713 -0.73496723 0 10
3.3729882 -1.8879409 -0.73758864 0 11
3.5290067 -1.9752681 -0.73322105 0 12
3.739866 -2.093291 -0.7363826 0 13
3.9430797 -2.2070343 -0.73367339 0 14
4.1612034 -2.3291235 -0.72930783 0 15
4.4798408 -2.5074723 -0.73689628 0 16
4.7700596 -2.6699147 -0.73338699 0 17
5.1153259 -2.8631682 -0.73164916 0 18
5.2325792 -2.9287977 -0.69247019 0 19
5.2588048 -2.9434767 -0.63982993 0 20
5.2381582 -2.9319205 -0.58153635 0 21
5.2359667 -2.9306936 -0.52563405 0 22
5.2317867 -2.9283543 -0.46968952 0 23
5.2439814 -2.9351797 -0.41521004 0 24
5.2468953 -2.9368107 -0.35990626 0 25
5.2422056 -2.9341857 -0.3041608 0 26
5.2442279 -2.9353178 -0.24888457 0 27
5.242538 -2.9343719 -0.19347084 0 28
5.236526 -2.9310069 -0.13801162 0 29
5.2356944 -2.9305415 -0.082784481 0 30
5.2269325 -2.9256372 -0.027547093 0 31
5.2441664 -2.9352832 0.027637918 0 32
5.2448545 -2.9356685 0.082929313 0 33
5.2382975 -2.9319985 0.1380583 0 34
5.2403555 -2.9331503 0.19339028 0 35
5.2421708 -2.9341662 0.24878694 0 36
5.2393651 -2.932596 0.303996 0 37
5.2394652 -2.9326518 0.35939661 0 38
5.2323747 -2.9286833 0.41429102 0 39
5.2401934 -2.9330595 0.4704442 0 40
5.2360439 -2.9307368 0.5256418 0 41
5.2389221 -2.932348 0.58162117 0 42
5.2424779 -2.9343383 0.63784349 0 43
5.2454753 -2.9360158 0.69417685 0 44
5.2328954 -2.9289746 0.74846518 0 45
5.2334614 -2.9292915 0.80463403 0 46
5.2614398 -2.9449515 0.86546272 0 47
5.2483687 -2.9376354 0.91984838 0 48
5.2557664 -2.941776 0.97791988 0 49
5.2335277 -2.9293284 1.0304857 0 50
5.2371359 -2.9313483 1.0881188 0 51
5.2429438 -2.9345989 1.1465014 0 52
5.2481198 -2.9374962 1.205067 0 53
5.2384238 -2.9320691 1.2603799 0 54
5.2369552 -2.931247 1.3177724 0 55
5.2351518 -2.9302378 1.3752781 0 56
5.250536 -2.9388487 1.437695 0 57
5.2423387 -2.9342601 1.4939915 0 58
5.2448168 -2.9356472 1.5535351 0 59
5.2411661 -2.933604 1.6115304 0 60
5.2408161 -2.933408 1.6707877 0 61
5.2362132 -2.9308317 1.7289373 0 62
0 0 0 0 63
2.1546521 -1.1714523 -0.7311272 0 0
2.2279661 -1.2113118 -0.7306754 0 1
2.3391204 -1.2717448 -0.74067706 0 2
2.387989 -1.2983141 -0.72928435 0 3
2.4837453 -1.3503753 -0.73072135 0 4
2.6101499 -1.4190995 -0.73882651 0 5
2.6951654 -1.4653212 -0.73299754 0 6
2.8253846 -1.5361193 -0.73721266 0 7
2.94505 -1.6011798 -0.7360515 0 8
3.0664327 -1.6671737 -0.73280478 0 9
3.2212198 -1.7513292 -0.73465222 0 10
3.3871052 -1.8415186 -0.73566836 0 11
3.5725188 -1.9423252 -0.73724353 0 12
3.749229 -2.0383997 -0.73323536 0 13
3.9902115 -2.1694183 -0.73742372 0 14
4.2298651 -2.2997146 -0.73632991 0 15
4.4763999 -2.4337518 -0.73135227 0 16
4.8184462 -2.6197174 -0.73581797 0 17
5.1647925 -2.8080206 -0.73373032 0 18
5.2788377 -2.8700254 -0.69386911 0 19
5.2908916 -2.8765788 -0.63938195 0 20
5.3052516 -2.8843861 -0.58500314 0 21
5.2974253 -2.880131 -0.52820855 0 22
5.312861 -2.8885231 -0.47374347 0 23
5.3012137 -2.8821909 -0.41690397 0 24
5.2984638 -2.8806956 -0.3609865 0 25
5.3104615 -2.8872187 -0.30603805 0 26
5.2942715 -2.8784163 -0.24956094 0 27
5.2878881 -2.8749459 -0.19382516 0 28
5.2890325 -2.8755682 -0.13845307 0 29
5.2918892 -2.8771212 -0.083107337 0 30
5.2941589 -2.8783553 -0.027712762 0 31
5.3016152 -2.8824091 0.027751794 0 32
5.3006682 -2.8818944 0.08324521 0 33
5.3002672 -2.8816762 0.13874716 0 34
5.3006449 -2.8818817 0.19429275 0 35
5.3046026 -2.8840332 0.25004792 0 36
5.3009663 -2.8820562 0.30549085 0 37
5.3090243 -2.8864374 0.36170602 0 38
5.2820449 -2.871769 0.41539645 0 39
5.2817574 -2.8716125 0.47096997 0 40
5.2991347 -2.8810604 0.52837902 0 41
5.290174 -2.8761885 0.58334053 0 42
5.2928252 -2.87763 0.6396156 0 43
5.3085675 -2.886189 0.69777691 0 44
5.3045263 -2.8839917 0.7535814 0 45
5.3011541 -2.8821583 0.80953157 0 46
5.3054867 -2.8845139 0.86680818 0 47
5.3004651 -2.8817837 0.92269862 0 48
5.2837095 -2.872674 0.97647274 0 49
5.293848 -2.8781862 1.035316 0 50
5.3059058 -2.8847418 1.0949543 0 51
5.2987404 -2.880846 1.1508694 0 52
5.2807107 -2.8710434 1.2043531 0 53
5.3084569 -2.8861287 1.2685953 0 54
5.2989969 -2.8809855 1.3243695 0 55
5.2900157 -2.8761024 1.3802959 0 56
5.2964616 -2.8796072 1.4404658 0 57
5.2983704 -2.880645 1.4997518 0 58
5.299304 -2.8811524 1.5590626 0 59
5.2982578 -2.8805838 1.6180713 0 60
5.2984095 -2.8806663 1.6777291 0 61
5.3121519 -2.8881376 1.7421534 0 62
0 0 0 0 63
2.1696484 -1.1452699 -0.73138189 0 0
2.2597513 -1.1928316 -0.73623365 0 1
2.3372347 -1.2337319 -0.73522067 0 2
2.4158437 -1.2752264 -0.73294675 0 3
2.5263088 -1.3335365 -0.7383635 0 4
2.6196785 -1.3828226 -0.73665494 0 5
2.709981 -1.4304897 -0.73218769 0 6
2.8444037 -1.5014459 -0.73730218 0 7
2.9504886 -1.5574439 -0.73256892 0 8
3.1173358 -1.6455158 -0.74007797 0 9
3.2498446 -1.7154617 -0.73631406 0 10
3.3848331 -1.7867168 -0.73034775 0 11
3.6016054 -1.9011421 -0.73836583 0 12
3.7757044 -1.993042 -0.73356479 0 13
3.9868195 -2.104481 -0.7319591 0 14
4.2700715 -2.2539983 -0.73844826 0 15
4.5228343 -2.3874216 -0.73408687 0 16
4.835412 -2.5524187 -0.73356044 0 17
5.2411928 -2.7666142 -0.73969513 0 18
5.347177 -2.8225591 -0.69823706 0 19
5.3455553 -2.821703 -0.64174628 0 20
5.3512282 -2.8246975 -0.58619857 0 21
5.3690276 -2.8340931 -0.53183305 0 22
5.3595619 -2.8290966 -0.47476986 0 23
5.3536291 -2.8259647 -0.41826162 0 24
5.3446708 -2.8212361 -0.36174375 0 25
5.3492556 -2.8236561 -0.30624962 0 26
5.3473854 -2.822669 -0.25040957 0 27
5.3545198 -2.8264351 -0.19497885 0 28
5.3531942 -2.8257353 -0.13921256 0 29
5.3731012 -2.8362434 -0.083828688 0 30
5.3542233 -2.8262784 -0.027843151 0 31
5.3489804 -2.8235109 0.027815888 0 32
5.3504148 -2.8242681 0.083474748 0 33
5.3611693 -2.8299448 0.13941994 0 34
5.3505588 -2.8243442 0.1948346 0 35
5.3499322 -2.8240132 0.25052884 0 36
5.3521466 -2.8251822 0.30641514 0 37
5.3572526 -2.8278775 0.36259532 0 38
5.3460255 -2.8219509 0.41766757 0 39
5.3486691 -2.8233466 0.47380495 0 40
5.3517985 -2.8249986 0.53012645 0 41
5.3528781 -2.8255682 0.58637929 0 42
5.3529773 -2.8256207 0.64263731 0 43
5.3532767 -2.8257787 0.6990335 0 44
5.360662 -2.8296771 0.75655591 0 45
5.354485 -2.8264167 0.81230688 0 46
5.3403282 -2.8189437 0.86677176 0 47
5.3415623 -2.8195953 0.92374748 0 48
5.350142 -2.8241241 0.98225796 0 49
5.3527961 -2.825525 1.0399709 0 50
5.3570223 -2.8277559 1.0982442 0 51
5.3605723 -2.8296299 1.1566544 0 52
5.3511634 -2.8246632 1.2124078 0 53
5.3393674 -2.8184364 1.2676042 0 54
5.3503714 -2.824245 1.3284295 0 55
5.3596716 -2.8291543 1.3892885 0 56
5.3533697 -2.8258278 1.4463834 0 57
5.3580694 -2.8283088 1.5066919 0 58
5.3449368 -2.8213766 1.5621631 0 59
5.3578358 -2.8281853 1.6255226 0 60
5.3443632 -2.8210738 1.6811689 0 61
5.350419 -2.8242705 1.7431822 0 62
0 0 0 0 63
2.2000101 -1.1269295 -0.73688972 0 0
2.2743325 -1.1650003 -0.73626125 0 1
2.346911 -1.2021778 -0.73355889 0 2
2.4466004 -1.2532425 -0.73754692 0 3
2.523345 -1.292554 -0.73279655 0 4
2.6422451 -1.3534592 -0.73826492 0 5
2.735924 -1.4014452 -0.73448551 0 6
2.8471286 -1.4584085 -0.73330456 0 7
2.9728513 -1.5228084 -0.73341668 0 8
3.1198659 -1.5981148 -0.73595762 0 9
3.268259 -1.6741276 -0.73576653 0 10
3.4275396 -1.7557172 -0.73484874 0 11
3.6072197 -1.8477561 -0.73480326 0 12
3.8186121 -1.9560395 -0.73717242 0 13
4.014183 -2.0562184 -0.7322855 0 14
4.2539754 -2.1790495 -0.73097575 0 15
4.5620136 -2.3368382 -0.73572648 0 16
4.8821554 -2.5008271 -0.73593092 0 17
5.2377601 -2.6829815 -0.73449904 0 18
5.6440458 -2.8910966 -0.73230475 0 19
6.1221104 -3.1359794 -0.73028886 0 20
6.7842646 -3.4751604 -0.73844314 0 21
7.4853578 -3.8342872 -0.73674172 0 22
8.341279 -4.2727227 -0.73419178 0 23
9.048872 -4.635179 -0.7024529 0 24
9.0345669 -4.6278515 -0.60758966 0 25
9.0514965 -4.6365237 -0.51490325 0 26
9.0386152 -4.6299248 -0.42056617 0 27
9.0454359 -4.633419 -0.32728001 0 28
9.0526524 -4.6371155 -0.23391832 0 29
9.0522766 -4.6369233 -0.14032935 0 30
9.0332851 -4.6271949 -0.046675678 0 31
9.0358305 -4.6284986 0.046688829 0 32
9.0297861 -4.6254029 0.1399807 0 33
9.0502615 -4.635891 0.23385656 0 34
9.0490761 -4.6352839 0.32741171 0 35
9.0308867 -4.6259661 0.42020658 0 36
9.0352621 -4.6282077 0.51397973 0 37
9.0456076 -4.6335073 0.60833222 0 38
9.0423079 -4.6318164 0.70194328 0 39
9.045476 -4.6334395 0.79617459 0 40
9.0440006 -4.6326838 0.89015019 0 41
9.0226393 -4.6217418 0.98208231 0 42
9.0414867 -4.6313963 1.0785329 0 43
9.0315619 -4.6263123 1.1718289 0 44
9.035881 -4.6285243 1.2671152 0 45
9.0477524 -4.6346054 1.3638486 0 46
9.0426197 -4.6319761 1.4583242 0 47
9.0450249 -4.6332088 1.5542388 0 48
9.0452423 -4.6333199 1.6500741 0 49
9.0516119 -4.6365829 1.7473885 0 50
0 0 0 0 51
0 0 0 0 52
0 0 0 0 53
0 0 0 0 54
0 0 0 0 55
0 0 0 0 56
0 0 0 0 57
0 0 0 0 58
0 0 0 0 59
0 0 0 0 60
0 0 0 0 61
0 0 0 0 62
0 0 0 0 63
2.2038007 -1.0948759 -0.73359448 0 0
2.2997189 -1.1425292 -0.7398755 0 1
2.3619421 -1.1734426 -0.73369163 0 2
2.4606247 -1.2224693 -0.73718745 0 3
2.5399623 -1.2618853 -0.73306084 0 4
2.6353469 -1.3092735 -0.73178381 0 5
2.734725 -1.3586457 -0.72962338 0 6
2.8817708 -1.4317 -0.73763692 0 7
2.9923632 -1.4866437 -0.73366505 0 8
3.1174018 -1.5487645 -0.7308287 0 9
3.2923563 -1.635684 -0.73660773 0 10
3.453198 -1.7155921 -0.7357713 0 11
3.6122141 -1.7945933 -0.73127019 0 12
3.8396466 -1.9075848 -0.73664916 0 13
