# .PCD v0.7 - Point Cloud Data file format
VERSION 0.7
FIELDS x y z intensity ring
SIZE 4 4 4 4 2
TYPE F F F F U
COUNT 1 1 1 1 1
WIDTH 1326
HEIGHT 1
VIEWPOINT 0 0 0 1 0 0 0
POINTS 1326
DATA ascii
3.9694302 1.4508977 -0.058311332 0 30
3.9785275 1.4542229 -0.019480558 0 31
3.9956212 1.4604709 0.019564256 0 32
3.9888275 1.4579877 0.058596279 0 33
3.9920723 1.4591737 0.097750932 0 34
3.981797 1.4554179 0.13652217 0 35
4.0054555 1.4640656 0.1766113 0 36
3.9880877 1.4577173 0.21498296 0 37
3.9840734 1.4562501 0.25390106 0 38
3.9990463 1.4617229 0.2941801 0 39
3.9908788 1.4587375 0.33287373 0 40
3.9845073 1.4564086 0.37163055 0 41
3.9782696 1.4541286 0.41033882 0 42
3.9777527 1.4539397 0.44964051 0 43
3.9817586 1.4554038 0.48956499 0 44
3.9945841 1.4600918 0.5308249 0 45
3.9993644 1.4618392 0.57128197 0 46
3.9905808 1.4586285 0.60985988 0 47
3.9892583 1.4581453 0.64958239 0 48
3.9823062 1.4556041 0.68841767 0 49
3.9780927 1.4540639 0.72773373 0 50
3.9836583 1.4560982 0.76897937 0 51
3.9758835 1.4532565 0.80776167 0 52
3.980912 1.4550945 0.84925908 0 53
3.9810021 1.4551274 0.8899045 0 54
3.9915144 1.4589698 0.93314558 0 55
3.9783978 1.4541755 0.97100091 0 56
3.9900098 1.4584198 1.0150496 0 57
4.0030293 1.4631786 1.0598929 0 58
3.9923494 1.459275 1.0986755 0 59
3.9939599 1.4598637 1.1409442 0 60
3.9821661 1.4555528 1.1794835 0 61
3.9818189 1.455426 1.2215004 0 62
3.9925189 1.459337 1.2672402 0 63
2.2941134 0.87066215 -0.73150283 0 0
2.3929908 0.90818816 -0.73746657 0 1
2.4647524 0.93542314 -0.73339003 0 2
2.5570393 0.9704479 -0.73381627 0 3
2.6716726 1.0139534 -0.73860687 0 4
2.7744992 1.0529783 -0.73798418 0 5
2.8880298 1.0960654 -0.73808128 0 6
3.0098319 1.1422918 -0.73797703 0 7
3.1160309 1.1825964 -0.73181731 0 8
3.2522049 1.2342772 -0.73032826 0 9
3.4179695 1.2971882 -0.73251241 0 10
3.599457 1.3660663 -0.73464203 0 11
3.7746193 1.432544 -0.73197287 0 12
3.9417727 1.4959821 -0.72439992 0 13
3.9498742 1.4990567 -0.68594587 0 14
3.9455719 1.4974239 -0.64541823 0 15
3.9436824 1.4967068 -0.60545945 0 16
3.9425344 1.4962711 -0.56574959 0 17
3.9491577 1.4987848 -0.5271976 0 18
3.953665 1.5004954 -0.48834246 0 19
3.947324 1.498089 -0.44824934 0 20
3.9424872 1.4962531 -0.40851489 0 21
3.9483697 1.4984858 -0.36995068 0 22
3.9368417 1.4941106 -0.32987404 0 23
3.9431427 1.4965019 -0.29139933 0 24
3.9491942 1.4987986 -0.25283363 0 25
3.9302833 1.4916216 -0.21283959 0 26
3.9494102 1.4988806 -0.17493956 0 27
3.9422903 1.4961785 -0.13578816 0 28
3.9449444 1.4971858 -0.097040407 0 29
3.9524708 1.5000422 -0.058328748 0 30
3.9515357 1.4996873 -0.01943722 0 31
3.949053 1.4987451 0.019425008 0 32
3.9442198 1.4969108 0.058206983 0 33
3.9492447 1.4988178 0.097146191 0 34
3.941139 1.4957415 0.13574849 0 35
3.9382682 1.494652 0.17444602 0 36
3.9404268 1.4954712 0.21338889 0 37
3.9518499 1.4998065 0.25300369 0 38
3.9360058 1.4937934 0.29087192 0 39
3.948962 1.4987105 0.33088961 0 40
3.9440389 1.496842 0.36954486 0 41
3.9475994 1.4981934 0.40904459 0 42
3.9307487 1.4917982 0.44636706 0 43
3.9362011 1.4938675 0.4861854 0 44
3.9604912 1.5030861 0.52871054 0 45
3.9414079 1.4958436 0.56558794 0 46
3.9606395 1.5031424 0.6080628 0 47
3.9462154 1.4976681 0.64552349 0 48
3.9515927 1.4997089 0.68624425 0 49
3.9461563 1.4976457 0.72520554 0 50
3.9428337 1.4963846 0.76459289 0 51
3.9575071 1.5019536 0.80771935 0 52
3.9468179 1.4978968 0.84585112 0 53
3.9651911 1.5048698 0.89043933 0 54
3.9464989 1.4977758 0.92685735 0 55
3.9469614 1.4979513 0.96775067 0 56
3.9544187 1.5007814 1.0106136 0 57
3.9414353 1.495854 1.0483755 0 58
3.9529648 1.5002296 1.0928311 0 59
3.9376066 1.494401 1.1300099 0 60
3.9480238 1.4983544 1.1747392 0 61
3.9586315 1.5023804 1.2199622 0 62
3.9513729 1.4996254 1.2599379 0 63
2.2991631 0.905074 -0.736606 0 0
2.3673356 0.93191034 -0.73303628 0 1
2.4542332 0.96611792 -0.73373938 0 2
2.5814974 1.016216 -0.74436504 0 3
2.6512959 1.0436924 -0.73646587 0 4
2.7536232 1.0839739 -0.73592114 0 5
2.8717563 1.1304774 -0.73741913 0 6
2.9684956 1.1685592 -0.73130971 0 7
3.1014454 1.2208954 -0.73186231 0 8
3.2723591 1.2881763 -0.73835552 0 9
3.4208245 1.3466202 -0.73661739 0 10
3.5699148 1.4053102 -0.73208404 0 11
3.7843671 1.48973 -0.73735964 0 12
3.9014621 1.5358249 -0.72040802 0 13
3.9106262 1.5394323 -0.68236572 0 14
3.9046843 1.5370934 -0.64177316 0 15
3.9180713 1.5423632 -0.60439354 0 16
3.9062397 1.5377057 -0.5632121 0 17
3.9072747 1.538113 -0.5240916 0 18
3.898252 1.5345612 -0.48379219 0 19
3.9219215 1.5438788 -0.44748664 0 20
3.9111161 1.5396253 -0.40719518 0 21
3.9067366 1.5379013 -0.36779386 0 22
3.9013453 1.5357789 -0.32845727 0 23
3.9170945 1.5419786 -0.29085359 0 24
3.906846 1.5379443 -0.25131419 0 25
3.9056845 1.537487 -0.21251521 0 26
3.9218209 1.5438392 -0.17454518 0 27
3.901535 1.5358536 -0.13502467 0 28
3.9028783 1.5363823 -0.096463062 0 29
3.9060757 1.537641 -0.05791872 0 30
3.9215529 1.5437337 -0.019381646 0 31
3.900948 1.5356226 0.01927981 0 32
3.9185162 1.5425383 0.058103185 0 33
3.9072497 1.5381032 0.09657111 0 34
3.9154549 1.5413332 0.13550641 0 35
3.9150314 1.5411664 0.174243 0 36
3.8967969 1.5339884 0.21203162 0 37
3.9048479 1.5371577 0.25118563 0 38
3.9223657 1.5440537 0.29124498 0 39
3.9092908 1.5389067 0.32912621 0 40
3.9131725 1.5404347 0.36839974 0 41
3.9139652 1.5407468 0.4074918 0 42
3.9219911 1.5439062 0.4474946 0 43
3.9155576 1.5413736 0.48593989 0 44
3.9167333 1.5418365 0.52536029 0 45
3.8959017 1.5336361 0.56172156 0 46
3.8967335 1.5339634 0.60110199 0 47
3.9065652 1.5378338 0.64208227 0 48
3.8994327 1.5350261 0.68041253 0 49
3.9180584 1.5423582 0.72347254 0 50
3.9182642 1.5424391 0.76344866 0 51
3.9051006 1.5372572 0.80082077 0 52
3.9028332 1.5363646 0.84040987 0 53
3.9109654 1.5395659 0.88244683 0 54
3.9058707 1.5375603 0.92168617 0 55
3.917587 1.5421726 0.96512502 0 56
3.9133024 1.5404859 1.0048708 0 57
3.9142311 1.5408515 1.0461 0 58
3.9109929 1.5395766 1.0863793 0 59
3.9073238 1.5381324 1.126662 0 60
3.9186661 1.5425973 1.1715593 0 61
3.9046519 1.5370806 1.2090603 0 62
3.9053469 1.5373541 1.2511952 0 63
2.3010693 0.93866307 -0.74085861 0 0
2.3492565 0.95831978 -0.73103172 0 1
2.4386568 0.99478841 -0.73268425 0 2
2.5407302 1.0364267 -0.73622912 0 3
2.6396 1.0767581 -0.73683923 0 4
2.7305615 1.1138635 -0.73336279 0 5
2.8380527 1.1577119 -0.73236477 0 6
2.9736366 1.2130198 -0.73619521 0 7
3.1069534 1.2674031 -0.73678392 0 8
3.2419665 1.3224783 -0.73511153 0 9
3.3930247 1.3840986 -0.73424047 0 10
3.5638895 1.4537987 -0.73445886 0 11
3.7418339 1.5263866 -0.73267406 0 12
3.8673067 1.5775701 -0.7176289 0 13
3.8557982 1.5728755 -0.67612243 0 14
3.8704965 1.5788713 -0.63929671 0 15
3.8661699 1.5771064 -0.59933352 0 16
3.8664913 1.5772374 -0.56023502 0 17
3.8709111 1.5790404 -0.52177906 0 18
3.8846469 1.5846435 -0.48448536 0 19
3.8667405 1.5773391 -0.44337007 0 20
3.8639922 1.576218 -0.40427634 0 21
3.8688014 1.5781797 -0.36602178 0 22
3.8677716 1.5777596 -0.3272393 0 23
3.8716261 1.5793321 -0.28889763 0 24
3.8776205 1.5817772 -0.25066641 0 25
3.8781343 1.5819868 -0.21205859 0 26
3.8722367 1.579581 -0.17318973 0 27
3.8676126 1.5776948 -0.1345119 0 28
3.87148 1.5792725 -0.096159734 0 29
3.8695951 1.5785035 -0.057661243 0 30
3.8577359 1.5736659 -0.019160427 0 31
3.8680489 1.5778728 0.01921165 0 32
3.8989825 1.5904914 0.058099147 0 33
3.8720565 1.5795076 0.096174054 0 34
3.8612664 1.575106 0.13429119 0 35
3.8618598 1.5753481 0.17272563 0 36
3.8693419 1.5784001 0.2115778 0 37
3.8639004 1.5761806 0.24977951 0 38
3.8736482 1.5801569 0.28904852 0 39
3.8721559 1.5795481 0.32761025 0 40
3.869091 1.578298 0.3660492 0 41
3.8598335 1.5745215 0.40384123 0 42
3.8746588 1.5805691 0.444278 0 43
3.8799796 1.5827396 0.48390326 0 44
3.8631239 1.5758637 0.52072936 0 45
3.8675017 1.5776496 0.56038147 0 46
3.8829293 1.5839429 0.60193157 0 47
3.8781095 1.5819768 0.64055413 0 48
3.8692172 1.5783494 0.6784755 0 49
3.8828785 1.5839221 0.72051847 0 50
3.8663218 1.5771682 0.7570495 0 51
3.8651607 1.5766946 0.79654592 0 52
3.8726106 1.5797336 0.83802146 0 53
3.8657916 1.576952 0.87656301 0 54
3.8674705 1.5776368 0.91713315 0 55
3.869905 1.57863 0.95808798 0 56
3.8736279 1.5801486 0.99959683 0 57
3.8651764 1.576701 1.038093 0 58
3.8672462 1.5775454 1.0795343 0 59
3.8649576 1.5766118 1.1199512 0 60
3.8700666 1.5786959 1.1627454 0 61
3.8699923 1.5786655 1.2042478 0 62
3.8622296 1.5754989 1.243494 0 63
2.282572 0.96402067 -0.73866385 0 0
2.342819 0.98946542 -0.73275918 0 1
2.4213862 1.0226475 -0.73121822 0 2
2.5137925 1.0616742 -0.73215085 0 3
2.6200047 1.106532 -0.73511183 0 4
2.707454 1.1434652 -0.7308777 0 5
2.8323579 1.1962171 -0.73463535 0 6
2.9416301 1.242367 -0.73199803 0 7
3.0916629 1.3057319 -0.73690969 0 8
3.2093246 1.355425 -0.73143387 0 9
3.3791566 1.4271518 -0.73498142 0 10
3.556021 1.5018488 -0.73658746 0 11
3.7342937 1.5771405 -0.7349394 0 12
3.8325739 1.6186479 -0.71482313 0 13
3.8381832 1.621017 -0.67647773 0 14
3.8396437 1.6216338 -0.63744605 0 15
3.8292904 1.6172613 -0.59665418 0 16
3.8334844 1.6190325 -0.55829495 0 17
3.8402047 1.6218708 -0.52028888 0 18
3.8336678 1.61911 -0.48057407 0 19
3.8318064 1.6183239 -0.44161281 0 20
3.8347964 1.6195866 -0.40327486 0 21
3.8351343 1.6197294 -0.36469331 0 22
3.8471859 1.6248192 -0.32716328 0 23
3.8278971 1.6166728 -0.28709626 0 24
3.8406036 1.6220393 -0.24954398 0 25
3.8413808 1.6223675 -0.21112378 0 26
3.8358698 1.6200399 -0.17244112 0 27
3.8276672 1.6165757 -0.13380387 0 28
3.8483996 1.6253319 -0.096075609 0 29
3.8341031 1.6192938 -0.057424735 0 30
3.8483691 1.625319 -0.019211717 0 31
3.8382092 1.6210281 0.019160997 0 32
3.8275166 1.6165121 0.057326086 0 33
3.8388364 1.6212928 0.095836855 0 34
3.8350391 1.6196892 0.13406157 0 35
3.8258543 1.61581 0.17199089 0 36
3.8404095 1.6219573 0.21107039 0 37
3.8354516 1.6198634 0.24920923 0 38
3.8344703 1.6194489 0.28758928 0 39
3.8226945 1.6144755 0.32508054 0 40
3.8302827 1.6176803 0.36423197 0 41
3.8401694 1.6218559 0.40383989 0 42
3.8384266 1.6211199 0.44237578 0 43
3.8280678 1.6167449 0.47987208 0 44
3.8323202 1.6185409 0.51922065 0 45
3.8435228 1.6232722 0.55975688 0 46
3.8220613 1.6142081 0.59552777 0 47
3.8287485 1.6170323 0.63563722 0 48
3.8189924 1.6129119 0.67309535 0 49
3.8428316 1.6229802 0.71673632 0 50
3.8239651 1.6150122 0.75258744 0 51
3.8390031 1.6213633 0.7952038 0 52
3.8390024 1.621363 0.83499998 0 53
3.8284311 1.6168984 0.87253386 0 54
3.8444104 1.623647 0.91632992 0 55
3.8162255 1.6117435 0.94963318 0 56
3.827373 1.6164515 0.99271488 0 57
3.836621 1.6203573 1.0356966 0 58
3.8430123 1.6230565 1.0782591 0 59
3.8323154 1.6185389 1.1161753 0 60
3.8354764 1.6198738 1.1582499 0 61
3.8229463 1.6145818 1.1956959 0 62
3.8379683 1.6209263 1.2420062 0 63
2.2627382 0.98860186 -0.73612368 0 0
2.3306987 1.0182941 -0.73282921 0 1
2.4302299 1.0617799 -0.73777586 0 2
2.5095291 1.096426 -0.73478031 0 3
2.5990746 1.1355489 -0.73310167 0 4
2.7121334 1.184945 -0.73601872 0 5
2.8228698 1.2333262 -0.73605233 0 6
2.9421966 1.2854607 -0.73601669 0 7
3.0556524 1.3350301 -0.73218393 0 8
3.2253542 1.4091737 -0.73898053 0 9
3.3751624 1.4746257 -0.73800087 0 10
3.5298445 1.5422071 -0.73503786 0 11
3.7180085 1.6244169 -0.73560989 0 12
3.7892323 1.655535 -0.71048254 0 13
3.7931075 1.6572281 -0.67207396 0 14
3.794029 1.6576307 -0.63320929 0 15
3.792937 1.6571536 -0.59411991 0 16
3.8116038 1.6653092 -0.55804837 0 17
3.8071575 1.6633666 -0.51854342 0 18
3.7986095 1.659632 -0.47870135 0 19
3.7912638 1.6564226 -0.43925452 0 20
3.7919137 1.6567066 -0.40087727 0 21
3.7859318 1.6540929 -0.36192128 0 22
3.8040826 1.6620231 -0.32521117 0 23
3.7993758 1.6599667 -0.28646639 0 24
3.7938077 1.657534 -0.24780899 0 25
3.8091483 1.6642364 -0.21046108 0 26
3.7943647 1.6577773 -0.1714787 0 27
3.7798765 1.6514474 -0.13283308 0 28
3.7962847 1.6586162 -0.095276512 0 29
3.7902706 1.6559886 -0.057068907 0 30
3.8033211 1.6616905 -0.019087391 0 31
3.7910752 1.6563401 0.019025935 0 32
3.7980294 1.6593784 0.057185728 0 33
3.7889268 1.6554016 0.09509185 0 34
3.801626 1.6609498 0.1335974 0 35
3.7986386 1.6596446 0.17167185 0 36
3.7946248 1.6578909 0.20965862 0 37
3.7983749 1.6595293 0.2481073 0 38
3.7838266 1.6531732 0.28529403 0 39
3.7996759 1.6600978 0.32483447 0 40
3.7944009 1.6577932 0.36273092 0 41
3.7893651 1.6555929 0.40060779 0 42
3.7998385 1.6601689 0.44024795 0 43
3.7815418 1.6521749 0.47655046 0 44
3.7982752 1.6594858 0.51733363 0 45
3.7944334 1.6578074 0.55553448 0 46
3.796067 1.6585211 0.59461021 0 47
3.7958617 1.6584313 0.63351512 0 48
3.791822 1.6566664 0.67184621 0 49
3.8066278 1.6631351 0.71374416 0 50
3.7979336 1.6593367 0.75142306 0 51
3.7825172 1.6526011 0.78765321 0 52
3.7956727 1.6583488 0.82994807 0 53
3.7931004 1.657225 0.86906028 0 54
3.8060195 1.6628695 0.91198415 0 55
3.7983582 1.6595222 0.95019317 0 56
3.8078041 1.6636491 0.99287015 0 57
3.7972445 1.6590356 1.0304961 0 58
3.8082676 1.6638516 1.0741698 0 59
3.8063598 1.6630181 1.1144873 0 60
3.7949145 1.6580175 1.1520705 0 61
3.7883422 1.6551461 1.1911484 0 62
3.7756267 1.6495905 1.2283031 0 63
2.2545762 1.0182296 -0.73748595 0 0
2.3230348 1.0491472 -0.7344203 0 1
2.4135399 1.090022 -0.73672235 0 2
2.5017042 1.1298394 -0.73650134 0 3
2.5846884 1.1673174 -0.73303711 0 4
2.7005618 1.2196491 -0.73689264 0 5
2.8048429 1.2667453 -0.73535782 0 6
2.9209542 1.3191844 -0.73470503 0 7
3.0738955 1.388257 -0.74058974 0 8
3.1974826 1.4440724 -0.73660743 0 9
3.3480058 1.5120528 -0.73607266 0 10
3.5095394 1.5850059 -0.73481256 0 11
3.6647301 1.6550944 -0.72904021 0 12
3.7468085 1.6921633 -0.70637614 0 13
3.7551081 1.6959115 -0.66898549 0 14
3.7538931 1.6953629 -0.62994242 0 15
3.7661736 1.700909 -0.59315902 0 16
3.7711616 1.7031617 -0.55515158 0 17
3.7656336 1.7006652 -0.51569706 0 18
3.7584987 1.6974429 -0.47624093 0 19
3.7533407 1.6951134 -0.43724266 0 20
3.7594104 1.6978546 -0.39961797 0 21
3.7570791 1.6968018 -0.36113036 0 22
3.7568095 1.6966799 -0.32292897 0 23
3.7710423 1.703108 -0.28588748 0 24
3.7652714 1.7005017 -0.24729216 0 25
3.7566209 1.6965948 -0.20869574 0 26
3.7596631 1.6979688 -0.17084111 0 27
3.7580662 1.6972476 -0.13279 0 28
3.7654808 1.7005961 -0.095021047 0 29
3.7572749 1.6968902 -0.056881972 0 30
3.7534914 1.6951815 -0.018940495 0 31
3.7610164 1.6985799 0.018978467 0 32
3.7551818 1.6959449 0.056850281 0 33
3.7527001 1.6948241 0.094698533 0 34
3.7674587 1.7014896 0.13312188 0 35
3.7714798 1.7033056 0.17137808 0 36
3.7653129 1.7005204 0.20917861 0 37
3.7527499 1.6948466 0.24646978 0 38
3.7506838 1.6939135 0.28434408 0 39
3.763252 1.6995897 0.32348278 0 40
3.758395 1.697396 0.36125684 0 41
3.7510922 1.694098 0.39873376 0 42
3.7456183 1.6916258 0.43634304 0 43
3.7542398 1.6955194 0.47570127 0 44
3.7588077 1.6975825 0.51476228 0 45
3.7584693 1.6974297 0.55328315 0 46
3.761905 1.6989813 0.59248674 0 47
3.7384052 1.6883681 0.62734336 0 48
3.7584236 1.6974089 0.66957611 0 49
3.7592304 1.6977733 0.70871794 0 50
3.7621751 1.6991032 0.74842536 0 51
3.7719135 1.7035015 0.78974736 0 52
3.7566562 1.6966107 0.82591611 0 53
3.7477374 1.6925828 0.86337018 0 54
3.7562759 1.696439 0.90499479 0 55
3.7536314 1.6952447 0.94414765 0 56
3.7573538 1.6969258 0.98508167 0 57
3.7612424 1.698682 1.0263168 0 58
3.7537978 1.6953198 1.0646054 0 59
3.7537134 1.6952817 1.1050928 0 60
3.7539272 1.6953783 1.1458696 0 61
3.7542932 1.6955435 1.1869082 0 62
3.7531476 1.6950262 1.2276779 0 63
2.2310429 1.0408152 -0.73391896 0 0
2.3194392 1.0820534 -0.73743433 0 1
2.4036546 1.1213412 -0.73785806 0 2
2.4734123 1.1538843 -0.73229402 0 3
2.5788159 1.2030567 -0.7355116 0 4
2.6663682 1.2439011 -0.73168069 0 5
2.7895412 1.3013632 -0.73548585 0 6
2.8812361 1.3441403 -0.72881705 0 7
3.0447187 1.4204074 -0.7377125 0 8
3.1669779 1.4774431 -0.73370981 0 9
3.2953613 1.537336 -0.72859961 0 10
3.5017483 1.6336186 -0.73733145 0 11
3.6786585 1.7161498 -0.73595345 0 12
3.7127438 1.7320511 -0.70391601 0 13
3.7339113 1.7419262 -0.66897458 0 14
3.7111058 1.731287 -0.6262874 0 15
3.7128887 1.7321187 -0.58807689 0 16
3.7260373 1.7382528 -0.55161363 0 17
3.7183027 1.7346445 -0.5120976 0 18
3.7280607 1.7391968 -0.47505802 0 19
3.7177942 1.7344073 -0.43555325 0 20
3.7121282 1.731764 -0.39682555 0 21
3.7178493 1.7344329 -0.35938242 0 22
3.7255857 1.7380421 -0.32205778 0 23
3.71456 1.7328985 -0.28319952 0 24
3.7185547 1.7347621 -0.24560636 0 25
3.714169 1.7327161 -0.20750533 0 26
3.7398272 1.7446859 -0.17090169 0 27
3.7047105 1.7283034 -0.13164568 0 28
3.7184584 1.7347171 -0.094365604 0 29
3.7163744 1.7337449 -0.056581244 0 30
3.7226629 1.7366786 -0.018891264 0 31
3.7271349 1.7387649 0.018913956 0 32
3.7285354 1.7394181 0.056766395 0 33
3.7275372 1.7389525 0.094595999 0 34
3.7178922 1.734453 0.13211408 0 35
3.7313147 1.7407148 0.17051269 0 36
3.7349229 1.742398 0.20866482 0 37
3.7321784 1.7411178 0.2465062 0 38
3.7202849 1.7355692 0.283636 0 39
3.7208846 1.7358489 0.32165137 0 40
3.7128508 1.7321011 0.35889924 0 41
3.7361677 1.7429787 0.39939535 0 42
3.7290311 1.7396494 0.43686968 0 43
3.7284441 1.7393757 0.47510689 0 44
3.7319636 1.7410176 0.51397902 0 45
3.7262428 1.7383486 0.55164403 0 46
3.7287712 1.7395282 0.5905925 0 47
3.7246196 1.7375914 0.62856793 0 48
3.7251012 1.7378161 0.66739613 0 49
3.7101843 1.7308571 0.70343077 0 50
3.7217264 1.7362417 0.7445696 0 51
3.7257159 1.7381028 0.78449029 0 52
3.7269199 1.7386646 0.82401657 0 53
3.7274125 1.7388943 0.86354846 0 54
3.720504 1.7356715 0.90145022 0 55
3.7216938 1.7362264 0.94141322 0 56
3.7245543 1.7375609 0.98200983 0 57
3.7188694 1.7349089 1.0204986 0 58
3.7223492 1.7365322 1.061662 0 59
3.7199068 1.7353928 1.1013391 0 60
3.7114046 1.7314264 1.1393025 0 61
3.7311988 1.7406607 1.1862842 0 62
3.7287848 1.7395345 1.2266128 0 63
2.2207687 1.0694648 -0.73480964 0 0
2.2840989 1.0999631 -0.73044348 0 1
2.3764994 1.1444607 -0.73378664 0 2
2.4704912 1.1897247 -0.73570484 0 3
2.5619264 1.2337575 -0.7349658 0 4
2.6538525 1.2780267 -0.73250329 0 5
2.7692821 1.3336147 -0.73441249 0 6
2.8997252 1.3964326 -0.73778158 0 7
3.0112128 1.4501222 -0.73385918 0 8
3.1476526 1.5158281 -0.73349541 0 9
3.3101566 1.5940858 -0.73614901 0 10
3.4818528 1.6767703 -0.73742789 0 11
3.6628382 1.7639282 -0.73707199 0 12
3.6780844 1.7712704 -0.7014212 0 13
3.6895919 1.7768121 -0.66489834 0 14
3.6954181 1.7796179 -0.62728548 0 15
3.6696789 1.7672225 -0.58463067 0 16
3.6864023 1.7752761 -0.54893619 0 17
3.6767251 1.7706157 -0.50933141 0 18
3.6882827 1.7761817 -0.4727366 0 19
3.6927464 1.7783313 -0.43514773 0 20
3.6796415 1.7720203 -0.39565212 0 21
3.689888 1.7769547 -0.35876459 0 22
3.6819727 1.7731428 -0.32014823 0 23
3.6856151 1.7748969 -0.2826353 0 24
3.6925809 1.7782515 -0.24531652 0 25
3.6875913 1.7758486 -0.20722479 0 26
3.6900635 1.7770392 -0.16961333 0 27
3.6766484 1.7705789 -0.13141222 0 28
3.692724 1.7783204 -0.094260328 0 29
3.6972995 1.7805238 -0.056619886 0 30
3.6865687 1.7753562 -0.018817458 0 31
3.6786201 1.7715284 0.018776886 0 32
3.6861758 1.775167 0.05644954 0 33
3.6881661 1.7761254 0.094143987 0 34
3.6788676 1.7716476 0.13149154 0 35
3.6967487 1.7802587 0.16992062 0 36
3.6994946 1.7815809 0.2078937 0 37
3.6851161 1.7746565 0.24482058 0 38
3.6752453 1.7699031 0.28184009 0 39
3.6878402 1.7759684 0.32065842 0 40
3.6945274 1.7791889 0.35921568 0 41
3.6818743 1.7730955 0.3958922 0 42
3.6896181 1.7768247 0.43477911 0 43
3.6813676 1.7728515 0.47185025 0 44
3.6874065 1.7757597 0.51081109 0 45
3.6958764 1.7798386 0.55034697 0 46
3.6779048 1.7711838 0.58594114 0 47
3.6959472 1.7798727 0.6273753 0 48
3.6853852 1.7747862 0.66414028 0 49
3.6973562 1.7805512 0.70509642 0 50
3.690032 1.777024 0.74254423 0 51
3.6921847 1.7780607 0.78197449 0 52
3.6712122 1.7679609 0.81644458 0 53
3.6825051 1.7733992 0.85813171 0 54
3.6762261 1.7703755 0.8959288 0 55
3.6745737 1.7695796 0.93492752 0 56
3.6836488 1.7739501 0.97690225 0 57
3.6817408 1.7730312 1.016216 0 58
3.6790555 1.7717381 1.0554479 0 59
3.6832581 1.7737619 1.0968632 0 60
3.6947858 1.7793133 1.1408311 0 61
3.6809182 1.7726351 1.1771393 0 62
3.6834316 1.7738454 1.2187767 0 63
2.2124765 1.0991862 -0.73648244 0 0
2.2823658 1.133908 -0.73429263 0 1
2.3599422 1.1724489 -0.73307037 0 2
2.4497478 1.2170655 -0.73392874 0 3
2.536797 1.2603127 -0.73214728 0 4
2.6419892 1.3125734 -0.73362827 0 5
2.7445009 1.3635025 -0.73223156 0 6
2.8757911 1.4287292 -0.73610628 0 7
2.9906321 1.4857836 -0.73324054 0 8
3.1185846 1.549352 -0.73110598 0 9
3.2917137 1.6353648 -0.73646396 0 10
3.447767 1.712894 -0.73461413 0 11
3.620939 1.798928 -0.73303652 0 12
3.6496692 1.8132015 -0.70020133 0 13
3.6502283 1.8134793 -0.6617732 0 14
3.6612632 1.8189616 -0.62523723 0 15
3.6522298 1.8144736 -0.58536106 0 16
3.6530342 1.8148733 -0.54724914 0 17
3.6539226 1.8153147 -0.50922638 0 18
3.6415269 1.8091564 -0.46955964 0 19
3.6472294 1.8119894 -0.43237695 0 20
3.6495786 1.8131566 -0.39478707 0 21
3.6518927 1.8143063 -0.35721248 0 22
3.6505525 1.8136404 -0.31933123 0 23
3.6426051 1.809692 -0.28102228 0 24
3.6436367 1.8102045 -0.24352527 0 25
3.6497161 1.8132249 -0.20633373 0 26
3.6636014 1.8201233 -0.16941296 0 27
3.6565852 1.8166375 -0.1314836 0 28
3.6555166 1.8161067 -0.093873516 0 29
3.6540003 1.8153534 -0.056294397 0 30
3.6462457 1.8115007 -0.01872392 0 31
3.6387155 1.8077596 0.018685251 0 32
3.6563056 1.8164986 0.056329913 0 33
3.658134 1.817407 0.093940735 0 34
3.6522267 1.8144722 0.13132687 0 35
3.643461 1.8101172 0.16848162 0 36
3.6475952 1.8121712 0.20621383 0 37
3.6589994 1.817837 0.24455206 0 38
3.651669 1.8141952 0.28172156 0 39
3.6433032 1.8100389 0.31869709 0 40
3.6608517 1.8187572 0.35808879 0 41
3.6494403 1.8130878 0.39477211 0 42
3.6431708 1.8099731 0.43189582 0 43
3.6583083 1.8174936 0.47172353 0 44
3.6482379 1.8124906 0.50843412 0 45
3.6492972 1.8130168 0.54668933 0 46
3.6508124 1.8137695 0.58513391 0 47
3.648324 1.8125333 0.62302762 0 48
3.6403978 1.8085954 0.65999097 0 49
3.6591079 1.8178909 0.70201218 0 50
3.6567702 1.8167294 0.74029034 0 51
3.6443532 1.8105605 0.77650064 0 52
3.6568558 1.816772 0.81815815 0 53
3.657419 1.8170518 0.85742772 0 54
3.6564162 1.8165536 0.89647698 0 55
3.654206 1.8154556 0.93535453 0 56
3.6454132 1.8110871 0.97259462 0 57
3.6459882 1.8113728 1.012419 0 58
3.6448414 1.8108031 1.0519409 0 59
3.6618235 1.81924 1.0970589 0 60
3.6528604 1.814787 1.1346904 0 61
3.6534536 1.8150817 1.1754049 0 62
3.6419811 1.8093821 1.2123317 0 63
2.1950412 1.1243842 -0.73522538 0 0
2.2735014 1.1645745 -0.73599219 0 1
2.3444924 1.2009389 -0.73280305 0 2
2.4367874 1.2482159 -0.73458874 0 3
2.5157235 1.28865 -0.73058325 0 4
2.6302278 1.3473035 -0.73490715 0 5
2.7426293 1.4048798 -0.73628557 0 6
2.8574433 1.4636921 -0.7359612 0 7
2.9777892 1.5253377 -0.73463488 0 8
3.1393056 1.6080728 -0.74054343 0 9
3.263859 1.6718737 -0.7347759 0 10
3.4138157 1.7486873 -0.73190641 0 11
3.6126111 1.8505179 -0.73590153 0 12
3.6123662 1.8503925 -0.69735724 0 13
3.6290987 1.8589635 -0.66203666 0 14
3.6104877 1.8494302 -0.62040293 0 15
3.613224 1.8508319 -0.58271301 0 16
3.6026466 1.8454137 -0.54305911 0 17
3.6254954 1.8571177 -0.50840873 0 18
3.6121571 1.8502853 -0.46867087 0 19
3.6176238 1.8530856 -0.43153593 0 20
3.609328 1.8488362 -0.39286256 0 21
3.627203 1.8579924 -0.35700521 0 22
3.6235454 1.8561188 -0.31894115 0 23
3.6113985 1.8498967 -0.28034845 0 24
3.6347132 1.8618394 -0.24444053 0 25
3.6030641 1.8456275 -0.20496383 0 26
3.6239734 1.8563381 -0.16862325 0 27
3.6192911 1.8539397 -0.1309524 0 28
3.624974 1.8568506 -0.093668446 0 29
3.6160061 1.8522569 -0.056055706 0 30
3.6139257 1.8511913 -0.018673433 0 31
3.6109483 1.8496661 0.018658048 0 32
3.6222939 1.8554778 0.056153182 0 33
3.6174943 1.8530192 0.09347517 0 34
3.6207769 1.8547008 0.13100617 0 35
3.6241741 1.8564409 0.1686326 0 36
3.6100569 1.8492095 0.20536162 0 37
3.6169624 1.8527468 0.24324676 0 38
3.6182809 1.8534222 0.28088275 0 39
3.6121354 1.8502743 0.31793687 0 40
3.6160529 1.852281 0.35590777 0 41
3.6083655 1.8483431 0.3927578 0 42
3.6193175 1.8539532 0.43173799 0 43
3.6196692 1.8541334 0.46964556 0 44
3.6143415 1.8514043 0.50684458 0 45
3.6070573 1.8476731 0.543724 0 46
3.6291592 1.8589945 0.58528292 0 47
3.6142094 1.8513366 0.62104243 0 48
3.6031384 1.8456656 0.65730089 0 49
3.6214597 1.8550504 0.69911265 0 50
3.6223314 1.855497 0.7378816 0 51
3.6182806 1.853422 0.77574277 0 52
3.6179898 1.853273 0.81449956 0 53
3.6157172 1.852109 0.85292602 0 54
3.6140954 1.8512783 0.89161468 0 55
3.6120436 1.8502272 0.93031561 0 56
3.6208727 1.8547498 0.97205859 0 57
3.6123042 1.8503608 1.0093074 0 58
3.6177657 1.8531582 1.0506238 0 59
3.6201327 1.8543708 1.0913175 0 60
3.6191251 1.8538545 1.1312068 0 61
3.6075902 1.8479459 1.1678718 0 62
3.6123741 1.8503965 1.2099587 0 63
2.1847963 1.1532658 -0.73648822 0 0
2.2503619 1.1878753 -0.7331745 0 1
2.3205621 1.2249311 -0.72997606 0 2
2.435343 1.2855192 -0.73886269 0 3
2.5189512 1.3296528 -0.73621315 0 4
2.6162171 1.3809955 -0.73568165 0 5
2.7060564 1.4284179 -0.73112726 0 6
2.8465869 1.5025984 -0.73786813 0 7
2.9584074 1.5616239 -0.7345351 0 8
3.1092317 1.641238 -0.73815399 0 9
3.2355194 1.7079002 -0.73306847 0 10
3.4088371 1.7993876 -0.73552716 0 11
3.5713313 1.8851618 -0.73215938 0 12
3.583931 1.8918124 -0.69630599 0 13
3.5718935 1.8854585 -0.65578085 0 14
3.584923 1.8923361 -0.61996156 0 15
3.5744729 1.8868201 -0.58016139 0 16
3.5836353 1.8916565 -0.54365855 0 17
3.581672 1.8906201 -0.50548518 0 18
3.5738752 1.8865045 -0.46667841 0 19
3.5755305 1.8873783 -0.42925072 0 20
3.5894716 1.8947371 -0.39320749 0 21
3.5761337 1.8876967 -0.3542366 0 22
3.5866268 1.8932356 -0.31771672 0 23
3.5710518 1.8850141 -0.27899465 0 24
3.5832913 1.8914748 -0.24252816 0 25
3.5785499 1.888972 -0.20487516 0 26
3.5763376 1.8878044 -0.16747423 0 27
3.5685494 1.8836932 -0.12994473 0 28
3.5678337 1.8833154 -0.092783339 0 29
3.5786355 1.8890173 -0.055832252 0 30
3.5849488 1.8923498 -0.018642532 0 31
3.5806839 1.8900986 0.018620353 0 32
3.5817971 1.8906863 0.055881578 0 33
3.5721889 1.8856144 0.092896603 0 34
3.5852053 1.8924853 0.13055123 0 35
3.5690618 1.8839637 0.1671335 0 36
3.5874884 1.8936905 0.20538689 0 37
3.5670168 1.8828843 0.24142666 0 38
3.578367 1.8888755 0.27956617 0 39
3.5768957 1.888099 0.31685469 0 40
3.5768089 1.8880532 0.35430348 0 41
3.5697107 1.8843063 0.39104283 0 42
3.5832913 1.8914748 0.43018243 0 43
3.5661752 1.88244 0.46567294 0 44
3.580622 1.8900659 0.505337 0 45
3.5935085 1.8968681 0.54515636 0 46
3.5770118 1.8881601 0.58057344 0 47
3.5881186 1.8940231 0.62051421 0 48
3.5706198 1.8847861 0.65554702 0 49
3.5795212 1.8894848 0.69544923 0 50
3.5862963 1.8930612 0.73522735 0 51
3.5763419 1.8878065 0.77166975 0 52
3.5663638 1.8825395 0.80802751 0 53
3.5899549 1.8949922 0.85228109 0 54
3.5884011 1.8941721 0.89095455 0 55
3.5829458 1.8912925 0.9287408 0 56
3.5798094 1.889637 0.96719956 0 57
3.577992 1.8886776 1.0061332 0 58
3.5576394 1.8779342 1.0397902 0 59
3.5701876 1.884558 1.083165 0 60
3.5803051 1.8898987 1.1262516 0 61
3.5883818 1.8941618 1.1691053 0 62
3.5694523 1.8841698 1.2032515 0 63
2.1640425 1.1765575 -0.73431349 0 0
2.2406585 1.2182125 -0.73483795 0 1
2.317193 1.2598232 -0.73373383 0 2
2.4050303 1.307579 -0.73448867 0 3
2.5075707 1.3633288 -0.7377308 0 4
2.601599 1.4144505 -0.73640615 0 5
2.7000525 1.4679782 -0.73432672 0 6
2.8198974 1.5331361 -0.73578095 0 7
2.9377849 1.5972297 -0.7342357 0 8
3.0788484 1.6739239 -0.73577178 0 9
3.2235568 1.7525997 -0.73518521 0 10
3.3945353 1.8455582 -0.73728216 0 11
3.5372229 1.9231353 -0.72995967 0 12
3.5275192 1.9178596 -0.68987572 0 13
3.5363188 1.9226438 -0.65354061 0 14
3.533529 1.9211271 -0.61511254 0 15
3.5555384 1.9330932 -0.58090234 0 16
3.5460296 1.9279234 -0.54150909 0 17
3.544801 1.9272555 -0.50358808 0 18
3.5385587 1.9238616 -0.4651207 0 19
3.5375259 1.9233 -0.42749506 0 20
3.5481465 1.9290743 -0.39124948 0 21
3.5555029 1.9330739 -0.35452074 0 22
3.545562 1.9276692 -0.31615487 0 23
3.5436635 1.9266369 -0.27868474 0 24
3.5411012 1.925244 -0.24125668 0 25
3.5384369 1.9237953 -0.20391755 0 26
3.5515566 1.9309282 -0.16741298 0 27
3.531178 1.9198488 -0.12943375 0 28
3.545053 1.9273925 -0.092800237 0 29
3.5437713 1.9266956 -0.055653732 0 30
3.5450025 1.9273649 -0.018556643 0 31
3.5464294 1.9281406 0.018564111 0 32
3.5486836 1.9293664 0.055730879 0 33
3.5463498 1.9280975 0.092834182 0 34
3.5456307 1.9277065 0.1299635 0 35
3.5285628 1.918427 0.16632912 0 36
3.5380814 1.9236021 0.20389707 0 37
3.5507083 1.9304671 0.24191122 0 38
3.5357111 1.9223133 0.27805933 0 39
3.5462992 1.9280699 0.31622061 0 40
3.5325892 1.920616 0.352236 0 41
3.5399432 1.9246142 0.39034489 0 42
3.548384 1.9292035 0.42880723 0 43
3.5401175 1.924709 0.46532556 0 44
3.5472224 1.9285719 0.50393206 0 45
3.5571444 1.9339663 0.54320639 0 46
3.5502589 1.9302227 0.5800398 0 47
3.5416567 1.9255459 0.61652738 0 48
3.5592339 1.9351025 0.65777558 0 49
3.5473068 1.9286178 0.69374555 0 50
3.5418932 1.9256744 0.73092341 0 51
3.5320094 1.9203008 0.7671411 0 52
3.5434372 1.9265139 0.8081392 0 53
3.5486972 1.9293737 0.84805453 0 54
3.5322821 1.9204491 0.88281745 0 55
3.5374095 1.9232367 0.92299759 0 56
3.5594513 1.9352206 0.96805537 0 57
3.5427065 1.9261166 1.0027951 0 58
3.5461476 1.9279876 1.0432816 0 59
3.5427806 1.926157 1.081954 0 60
3.5533042 1.9318786 1.1251456 0 61
3.5406973 1.9250243 1.1611938 0 62
3.5412726 1.9253371 1.201642 0 63
2.1649442 1.2117702 -0.73961967 0 0
2.2265913 1.2462755 -0.73519486 0 1
2.3096869 1.2927861 -0.73633504 0 2
2.3937256 1.3398246 -0.7360121 0 3
2.4892349 1.3932834 -0.73732108 0 4
2.5864139 1.4476767 -0.73709095 0 5
2.6920631 1.506811 -0.73713726 0 6
2.7902575 1.5617728 -0.7330026 0 7
2.9119182 1.6298691 -0.73272449 0 8
3.0554471 1.7102057 -0.73514944 0 9
3.1934953 1.7874744 -0.73328656 0 10
3.3746202 1.8888544 -0.73794556 0 11
3.5093687 1.9642762 -0.72914082 0 12
3.4991395 1.9585507 -0.68898338 0 13
3.5169487 1.9685189 -0.65438485 0 14
3.5054443 1.9620796 -0.61437702 0 15
3.5065873 1.9627193 -0.57680422 0 16
3.5069366 1.9629149 -0.53918439 0 17
3.5055439 1.9621353 -0.50140077 0 18
3.5049536 1.961805 -0.46383929 0 19
3.5001194 1.9590992 -0.42585364 0 20
3.5035801 1.9610363 -0.3889648 0 21
3.5010302 1.9596089 -0.35146534 0 22
3.512079 1.9657933 -0.31530079 0 23
3.5046825 1.9616532 -0.27749515 0 24
3.5061476 1.9624733 -0.24050118 0 25
3.505002 1.961832 -0.20336558 0 26
3.5036964 1.9611013 -0.16628109 0 27
3.5046933 1.9616593 -0.12933734 0 28
3.5085075 1.9637942 -0.092468709 0 29
3.5090129 1.9640771 -0.055482958 0 30
3.4970703 1.9573925 -0.018430335 0 31
3.5231006 1.9719622 0.018567521 0 32
3.5072994 1.9631181 0.055455863 0 33
3.5179102 1.9690572 0.092716523 0 34
3.5077145 1.9633504 0.12944883 0 35
3.5141096 1.9669298 0.16677529 0 36
3.515599 1.9677634 0.20398043 0 37
3.4989061 1.9584202 0.24000446 0 38
3.5155339 1.9677271 0.27835435 0 39
3.5083091 1.9636832 0.31496239 0 40
3.5143983 1.9670914 0.35280734 0 41
3.4997511 1.9588929 0.3885397 0 42
3.5023375 1.9603406 0.4261235 0 43
3.4942174 1.9557956 0.4624185 0 44
3.5059743 1.9623762 0.50146228 0 45
3.4972074 1.9574692 0.53768855 0 46
3.5013447 1.959785 0.57594186 0 47
3.5033562 1.9609109 0.61401111 0 48
3.510406 1.9648567 0.65316743 0 49
3.5069666 1.9629318 0.69052452 0 50
3.505538 1.962132 0.72834492 0 51
3.5195761 1.9699897 0.76964378 0 52
3.5034165 1.9609447 0.80445033 0 53
3.5115781 1.9655129 0.8448959 0 54
3.5019825 1.9601419 0.88120204 0 55
3.5101998 1.9647415 0.92213196 0 56
3.5108106 1.9650834 0.96132565 0 57
3.5125029 1.9660305 1.001013 0 58
3.506495 1.9626677 1.0386374 0 59
3.5155711 1.9677479 1.0809522 0 60
3.5144522 1.9671216 1.1204178 0 61
3.5022187 1.9602742 1.1563923 0 62
3.5205042 1.9705091 1.2027259 0 63
2.1407037 1.2330117 -0.73646241 0 0
2.2060187 1.270632 -0.73350549 0 1
2.2803226 1.3134298 -0.73206705 0 2
2.3740711 1.3674277 -0.73508328 0 3
2.4566905 1.4150151 -0.73277974 0 4
2.5517893 1.4697905 -0.73231864 0 5
2.671104 1.5385139 -0.73652273 0 6
2.774534 1.598088 -0.73397887 0 7
2.902483 1.6717846 -0.73546749 0 8
3.0376837 1.7496581 -0.73599637 0 9
3.1704495 1.8261291 -0.73309553 0 10
3.3351104 1.9209713 -0.73441559 0 11
3.4753413 2.0017419 -0.72713017 0 12
3.4770386 2.0027196 -0.68942851 0 13
3.4706874 1.9990615 -0.65030181 0 14
3.4705067 1.9989573 -0.61251545 0 15
3.4810746 2.0050442 -0.57661951 0 16
3.4695885 1.9984285 -0.53717971 0 17
3.4654205 1.9960277 -0.49913472 0 18
3.4710653 1.999279 -0.46257302 0 19
3.4698999 1.9986079 -0.42513484 0 20
3.4621961 1.9941705 -0.38706344 0 21
3.4664168 1.9966016 -0.3504287 0 22
3.4727745 2.0002635 -0.31395662 0 23
3.4819615 2.0055552 -0.2776278 0 24
3.4703796 1.9988842 -0.23971558 0 25
3.4812765 2.0051606 -0.20340422 0 26
3.475615 2.0018995 -0.16610409 0 27
3.4684479 1.9977715 -0.12889656 0 28
3.4846041 2.0070772 -0.092482179 0 29
3.4598541 1.9928216 -0.055088971 0 30
3.4685466 1.9978284 -0.018408088 0 31
3.4781549 2.0033624 0.01845908 0 32
3.4839301 2.0066891 0.055472318 0 33
3.4776106 2.0030491 0.092296571 0 34
3.4790163 2.0038588 0.12928931 0 35
3.4750669 2.0015838 0.1660779 0 36
3.47386 2.0008888 0.20297088 0 37
3.4727423 2.0002451 0.23987877 0 38
3.4731631 2.0004873 0.27692628 0 39
3.4670241 1.9969513 0.31343675 0 40
3.4762554 2.0022686 0.35142332 0 41
3.480191 2.0045352 0.38907522 0 42
3.4837813 2.0066032 0.4268356 0 43
3.4634407 1.9948874 0.46155691 0 44
3.4612153 1.9936056 0.49852902 0 45
3.4733968 2.000622 0.53776932 0 46
3.4603131 1.993086 0.5731805 0 47
3.4647574 1.9956459 0.61150074 0 48
3.4672971 1.9971086 0.64966655 0 49
3.4799688 2.0044072 0.69000947 0 50
3.4720106 1.9998236 0.72643328 0 51
3.471231 1.9993744 0.76439029 0 52
3.4794009 2.0040801 0.80453354 0 53
3.4597523 1.9927629 0.8382588 0 54
3.472981 2.0003824 0.88002735 0 55
3.4629886 1.9946271 0.91610354 0 56
3.4697356 1.9985132 0.95673525 0 57
3.4820111 2.0055838 0.99927604 0 58
3.4764154 2.0023606 1.0369425 0 59
3.4706659 1.9990491 1.0746218 0 60
3.4630351 1.9946538 1.1117612 0 61
3.467068 1.9969767 1.1528069 0 62
3.4575129 1.9914731 1.1894819 0 63
2.1150625 1.2531259 -0.73288679 0 0
2.1835935 1.2937289 -0.73128331 0 1
2.2753756 1.3481077 -0.73574507 0 2
2.3551216 1.3953553 -0.73447299 0 3
2.4416912 1.446646 -0.73355627 0 4
2.5421734 1.5061792 -0.73481864 0 5
2.6470675 1.5683267 -0.73515701 0 6
2.7516677 1.6302998 -0.7331776 0 7
2.8774304 1.7048113 -0.73437572 0 8
3.0066159 1.7813509 -0.73372066 0 9
3.1515946 1.8672473 -0.73398936 0 10
3.3157496 1.9645054 -0.73541605 0 11
3.4321094 2.0334458 -0.72326171 0 12
3.4370553 2.0363762 -0.68641371 0 13
3.4403472 2.0383265 -0.64926416 0 14
3.4311719 2.0328906 -0.60993892 0 15
3.4415505 2.0390396 -0.57418239 0 16
3.4586051 2.049144 -0.5393396 0 17
3.4386854 2.0373421 -0.49885458 0 18
3.4451365 2.0411642 -0.46242753 0 19
3.4411039 2.038775 -0.42464617 0 20
3.4385853 2.0372827 -0.38719523 0 21
3.4380343 2.0369563 -0.35006508 0 22
3.4340041 2.0345685 -0.31268969 0 23
3.4541278 2.0464914 -0.277394 0 24
3.43981 2.0380085 -0.23931694 0 25
3.4421179 2.0393758 -0.20256615 0 26
3.4349864 2.0351505 -0.16534588 0 27
3.4405961 2.0384741 -0.1287833 0 28
3.4377759 2.0368032 -0.091897115 0 29
3.4435601 2.0402303 -0.055224814 0 30
3.450464 2.0443206 -0.018444136 0 31
3.4390328 2.0375478 0.018383032 0 32
3.4381804 2.0370429 0.055138536 0 33
3.4367564 2.0361991 0.091869861 0 34
3.4454556 2.0413532 0.1289652 0 35
3.4397407 2.0379674 0.16557473 0 36
3.4455349 2.0414002 0.20276724 0 37
3.4431348 2.0399783 0.23954824 0 38
3.4484463 2.0431252 0.27693772 0 39
3.4441931 2.0406053 0.31361747 0 40
3.4414234 2.0389643 0.35041016 0 41
3.4466465 2.0420589 0.38810295 0 42
3.4521565 2.0453234 0.42601013 0 43
3.4431908 2.0400114 0.46216634 0 44
3.4382124 2.0370619 0.49878597 0 45
3.4459159 2.041626 0.53736085 0 46
3.4301126 2.0322628 0.57227409 0 47
3.4424651 2.0395815 0.61194646 0 48
3.4417083 2.0391331 0.64952099 0 49
3.4346662 2.0349607 0.68593657 0 50
3.4399061 2.0380652 0.72490478 0 51
3.4262156 2.0299542 0.75991684 0 52
3.4450984 2.0411415 0.8023448 0 53
3.4337878 2.0344403 0.83796573 0 54
3.4471927 2.0423825 0.87979007 0 55
3.4447041 2.0409079 0.91783601 0 56
3.4438696 2.0404136 0.95644885 0 57
3.4406314 2.0384951 0.99451917 0 58
3.4287975 2.0314837 1.0301121 0 59
3.4382436 2.0370803 1.0722576 0 60
3.4388072 2.0374143 1.1119419 0 61
3.4436781 2.0403001 1.1532844 0 62
3.4373832 2.0365705 1.191082 0 63
2.1110342 1.286067 -0.73691505 0 0
2.1883242 1.333153 -0.73830181 0 1
2.2445006 1.3673762 -0.73114312 0 2
2.3327742 1.4211535 -0.73289812 0 3
2.4179323 1.473033 -0.73180479 0 4
2.5340462 1.5437709 -0.73790073 0 5
2.6321023 1.6035078 -0.73642111 0 6
2.7300749 1.6631939 -0.73281807 0 7
2.8541732 1.738796 -0.73384142 0 8
2.9946411 1.8243707 -0.7362172 0 9
3.1257482 1.9042428 -0.7333678 0 10
3.2824712 1.9997203 -0.73343343 0 11
3.406245 2.0751247 -0.72313386 0 12
3.4104066 2.0776601 -0.68614197 0 13
3.3947098 2.0680974 -0.64540184 0 14
3.402858 2.0730612 -0.60939109 0 15
3.3956804 2.0686886 -0.57073033 0 16
3.3990839 2.0707622 -0.53398818 0 17
3.4192324 2.0830369 -0.49971059 0 18
3.4039688 2.0737381 -0.46028963 0 19
3.4042633 2.0739174 -0.42321494 0 20
3.404207 2.0738831 -0.38616645 0 21
3.4065452 2.0753076 -0.34943077 0 22
3.4034858 2.0734437 -0.31220877 0 23
3.3984203 2.0703578 -0.27494395 0 24
3.4115348 2.0783474 -0.23910969 0 25
3.4041553 2.0738516 -0.20181753 0 26
3.4028986 2.073086 -0.16501589 0 27
3.4047766 2.0742302 -0.12838754 0 28
3.4019301 2.0724962 -0.091613218 0 29
3.4001298 2.0713992 -0.054932639 0 30
3.4207971 2.0839901 -0.018421143 0 31
3.4044049 2.0740037 0.018332869 0 32
3.410049 2.0774422 0.055092894 0 33
3.4019375 2.0725005 0.091613412 0 34
3.4174993 2.0819809 0.1288673 0 35
3.3989921 2.0707061 0.16482645 0 36
3.3937683 2.067524 0.20120174 0 37
3.4091613 2.0769014 0.23894334 0 38
3.4121623 2.0787296 0.27605572 0 39
3.4007134 2.0717549 0.31195447 0 40
3.4153895 2.0806956 0.35033798 0 41
3.4062185 2.0751085 0.38639465 0 42
3.4002688 2.0714839 0.42271835 0 43
3.4043734 2.0739846 0.46034434 0 44
3.4042912 2.0739343 0.49752697 0 45
3.4037116 2.0735812 0.53471518 0 46
3.4010916 2.0719852 0.57163978 0 47
3.399003 2.0707128 0.60870075 0 48
3.4086125 2.0765669 0.64804506 0 49
3.4010534 2.0719619 0.68426019 0 50
3.404146 2.0738459 0.7226882 0 51
3.3875148 2.063714 0.7569043 0 52
3.4000363 2.0713422 0.79772162 0 53
3.4105916 2.0777726 0.83847654 0 54
3.4024751 2.0728281 0.8748163 0 55
3.4096346 2.0771897 0.91522831 0 56
3.4147277 2.0802925 0.95538753 0 57
3.4090848 2.0768547 0.99270731 0 58
3.4004579 2.071599 1.0291733 0 59
3.4134679 2.079525 1.0724245 0 60
3.4123325 2.0788333 1.111563 0 61
3.403924 2.0737107 1.1484237 0 62
3.4029367 2.0731091 1.1878893 0 63
2.0908003 1.3092576 -0.73541611 0 0
2.1590087 1.3519697 -0.73396468 0 1
2.2369385 1.4007691 -0.73423517 0 2
2.3287988 1.4582921 -0.7372272 0 3
2.4059522 1.5066055 -0.73373044 0 4
2.509505 1.5714501 -0.73632562 0 5
2.6109397 1.6349685 -0.73606944 0 6
2.7338464 1.7119327 -0.73942506 0 7
2.8394608 1.7780683 -0.73562455 0 8
2.9642696 1.8562233 -0.73430645 0 9
3.0918474 1.9361125 -0.73094434 0 10
3.2568457 2.0394344 -0.73325562 0 11
3.3689575 2.1096387 -0.72067058 0 12
3.3659408 2.1077497 -0.68235874 0 13
3.3701069 2.1103585 -0.64560914 0 14
3.3650906 2.1072173 -0.60722196 0 15
3.3779304 2.1152575 -0.57207543 0 16
3.3694828 2.1099675 -0.53337348 0 17
3.3647337 2.1069937 -0.49549478 0 18
3.3731527 2.1122658 -0.45960006 0 19
3.3665621 2.1081386 -0.42171878 0 20
3.3755376 2.1137593 -0.38583356 0 21
3.3642073 2.1066642 -0.34771881 0 22
3.3604381 2.1043038 -0.31061006 0 23
3.371985 2.1115344 -0.27488506 0 24
3.3814802 2.1174803 -0.23881009 0 25
3.3641043 2.1065996 -0.2009636 0 26
3.3741579 2.1128953 -0.16486962 0 27
3.3808827 2.1171062 -0.12845849 0 28
3.3700969 2.110352 -0.09144786 0 29
3.3763185 2.114248 -0.054963812 0 30
3.3684275 2.1093068 -0.01827742 0 31
3.3691063 2.1097319 0.018281102 0 32
3.3716731 2.1113391 0.054888189 0 33
3.3763068 2.1142406 0.091616362 0 34
3.3758307 2.1139426 0.12826654 0 35
3.3715289 2.1112487 0.16474116 0 36
3.3574183 2.1024127 0.20056421 0 37
3.3701389 2.1103785 0.23800912 0 38
3.3539042 2.1002123 0.27341112 0 39
3.3682065 2.1091683 0.31132808 0 40
3.3771715 2.1147821 0.34905878 0 41
3.3740366 2.1128192 0.38566199 0 42
3.3783867 2.1155434 0.42320001 0 43
3.3714352 2.1111901 0.45936605 0 44
3.3774638 2.1149652 0.49736941 0 45
3.3709631 2.1108944 0.53360784 0 46
3.3718605 2.1114566 0.57104743 0 47
3.3706405 2.1106925 0.60822344 0 48
3.3793695 2.1161587 0.64738357 0 49
3.3715053 2.1112342 0.68348676 0 50
3.3655546 2.1075077 0.71994263 0 51
3.3729804 2.1121578 0.75940251 0 52
3.3720961 2.111604 0.797198 0 53
3.3732839 2.1123478 0.8356272 0 54
3.3792984 2.1161141 0.87548137 0 55
3.3729804 2.1121578 0.912292 0 56
3.3630767 2.1059561 0.94810992 0 57
3.3690219 2.109679 0.98852056 0 58
3.3636801 2.106334 1.0258036 0 59
3.3750761 2.1134701 1.0684469 0 60
3.3752837 2.1136003 1.1078768 0 61
3.3520923 2.0990777 1.1395588 0 62
3.3814242 2.1174452 1.189379 0 63
2.0638328 1.327974 -0.731619 0 0
2.1444952 1.3798761 -0.73474342 0 1
2.219707 1.4282712 -0.73428833 0 2
2.3000593 1.4799739 -0.73383474 0 3
2.3954027 1.5413227 -0.73623753 0 4
2.4843628 1.598564 -0.73466063 0 5
2.5854485 1.6636077 -0.73459452 0 6
2.6966903 1.7351862 -0.73509079 0 7
2.8304222 1.821236 -0.73902887 0 8
2.9358041 1.889044 -0.73295379 0 9
3.069232 1.9748983 -0.73128361 0 10
3.2449036 2.0879343 -0.73629165 0 11
3.3434932 2.1513717 -0.72082782 0 12
3.3366108 2.1469433 -0.68171316 0 13
3.3305399 2.1430368 -0.64302891 0 14
3.347023 2.1536429 -0.60869431 0 15
3.334363 2.1454968 -0.56912196 0 16
3.3484583 2.1545665 -0.53419888 0 17
3.3438911 2.1516278 -0.4962841 0 18
3.3500314 2.1555789 -0.46002647 0 19
3.3509421 2.1561646 -0.42305136 0 20
3.3358452 2.1464505 -0.38428444 0 21
3.3359635 2.1465268 -0.34750143 0 22
3.33495 2.1458745 -0.31066963 0 23
3.343096 2.1511161 -0.27466556 0 24
3.334475 2.1455691 -0.23733574 0 25
3.32811 2.1414735 -0.2003713 0 26
3.3343027 2.1454582 -0.16419885 0 27
3.3399427 2.1490872 -0.12789737 0 28
3.3340867 2.1453192 -0.091179647 0 29
3.3425219 2.1507468 -0.054840013 0 30
3.3295858 2.1424232 -0.01820823 0 31
3.3288352 2.1419401 0.018204127 0 32
3.3462472 2.1531439 0.05490113 0 33
3.3292632 2.1422155 0.091047734 0 34
3.333576 2.1449904 0.12765355 0 35
3.3392081 2.1486144 0.16444041 0 36
3.3378565 2.1477449 0.20095809 0 37
3.3355372 2.1462524 0.23741135 0 38
3.3442664 2.1518693 0.27476171 0 39
3.3330803 2.1446717 0.31049547 0 40
3.3397677 2.1489747 0.34789771 0 41
3.3370521 2.1472273 0.38442346 0 42
3.3324387 2.1442587 0.42071533 0 43
3.3339167 2.1452096 0.45781356 0 44
3.3352859 2.1460907 0.49500695 0 45
3.3356566 2.1463294 0.53215653 0 46
3.3398046 2.1489985 0.57005072 0 47
3.3397188 2.1489432 0.60736603 0 48
3.3376498 2.1476119 0.64440161 0 49
3.3416605 2.1501925 0.68274486 0 50
3.342474 2.1507158 0.72060806 0 51
3.3322439 2.1441333 0.75610977 0 52
3.3369834 2.1471832 0.79507881 0 53
3.3506937 2.1560049 0.83653527 0 54
3.3384864 2.1481502 0.8716855 0 55
3.336565 2.1469138 0.90951425 0 56
3.3357959 2.1464188 0.94778806 0 57
3.3203926 2.1365075 0.98188621 0 58
3.3396108 2.1488736 1.0264441 0 59
3.3474667 2.1539285 1.0680104 0 60
3.3352656 2.1460779 1.1033199 0 61
3.3286221 2.1418028 1.1404469 0 62
3.3389754 2.1484647 1.183651 0 63
2.0564218 1.3592466 -0.73486125 0 0
2.1309426 1.4085031 -0.73597836 0 1
2.19801 1.4528331 -0.73296523 0 2
2.283767 1.5095165 -0.73450327 0 3
2.3761563 1.5705836 -0.73620218 0 4
2.4750729 1.6359651 -0.73780644 0 5
2.5703168 1.6989191 -0.73617512 0 6
2.6779904 1.7700888 -0.7358709 0 7
2.7771792 1.8356503 -0.73096538 0 8
2.9184184 1.9290061 -0.73447967 0 9
3.0471203 2.014075 -0.73186076 0 10
3.2130885 2.1237762 -0.73494267 0 11
3.2958214 2.1784606 -0.71627116 0 12
3.2850463 2.1713386 -0.67658186 0 13
3.3027563 2.1830444 -0.6427989 0 14
3.2933218 2.1768084 -0.60375041 0 15
3.3002479 2.1813865 -0.56783438 0 16
3.3088264 2.1870565 -0.53212631 0 17
3.3024895 2.1828682 -0.49408585 0 18
3.3012166 2.1820266 -0.45697314 0 19
3.3054392 2.1848178 -0.42066661 0 20
3.3017755 2.1823962 -0.38342208 0 21
3.2973523 2.1794727 -0.3462449 0 22
3.3115973 2.1888883 -0.31097803 0 23
3.298526 2.1802483 -0.27318573 0 24
3.2862551 2.1721377 -0.2357869 0 25
3.3104644 2.1881392 -0.20091367 0 26
3.2989287 2.1805146 -0.16376486 0 27
3.3010297 2.1819031 -0.12742501 0 28
3.3010345 2.1819065 -0.091002598 0 29
3.2954483 2.1782141 -0.054503012 0 30
3.3126454 2.1895809 -0.018261448 0 31
3.3046126 2.1842716 0.018217165 0 32
3.3024216 2.1828232 0.054618344 0 33
3.3001165 2.1812997 0.090977296 0 34
3.2988491 2.1804619 0.12734085 0 35
3.3093867 2.187427 0.16428401 0 36
3.314378 2.190726 0.20115118 0 37
3.3071213 2.1859298 0.23728403 0 38
3.3062851 2.1853769 0.27382833 0 39
3.3021097 2.1826169 0.31008708 0 40
3.3136244 2.190228 0.34795356 0 41
3.3062549 2.1853569 0.38394228 0 42
3.297848 2.1798 0.4197005 0 43
3.3072135 2.1859906 0.45780328 0 44
3.3111851 2.1886156 0.49538675 0 45
3.2951212 2.1779978 0.52992225 0 46
3.3026896 2.1830003 0.56825447 0 47
3.3111057 2.1885633 0.60701066 0 48
3.3186095 2.1935232 0.64588428 0 49
3.2925806 2.1763186 0.67813361 0 50
3.2933717 2.1768415 0.71573877 0 51
3.2980807 2.1799541 0.75438327 0 52
3.2975821 2.1796246 0.79201692 0 53
3.310617 2.1882403 0.83318448 0 54
3.2999775 2.1812077 0.86856812 0 55
3.2976201 2.1796496 0.90613568 0 56
3.294657 2.177691 0.94363642 0 57
3.3115153 2.188834 0.9871456 0 58
3.3140309 2.1904967 1.026783 0 59
3.2991421 2.1806555 1.0610673 0 60
3.2971373 2.1793303 1.0994886 0 61
3.3145022 2.1908081 1.1447525 0 62
3.2965698 2.1789553 1.1780275 0 63
2.0353181 1.3815535 -0.73333514 0 0
2.1052094 1.4289951 -0.73310417 0 1
2.1917939 1.4877678 -0.73693722 0 2
2.2655935 1.5378623 -0.73468471 0 3
2.3573396 1.6001387 -0.73641282 0 4
2.44118 1.6570486 -0.73372161 0 5
2.5312614 1.718195 -0.73098516 0 6
2.6607206 1.8060706 -0.73717219 0 7
2.7647545 1.8766878 -0.73371357 0 8
2.8984663 1.96745 -0.73549134 0 9
3.0344715 2.0597689 -0.73485047 0 10
3.1968985 2.1700227 -0.73728716 0 11
3.266072 2.2169771 -0.71567631 0 12
3.2651942 2.2163811 -0.67805493 0 13
3.2727237 2.2214921 -0.64222169 0 14
3.2651629 2.2163599 -0.60353881 0 15
3.2663207 2.2171457 -0.56664497 0 16
3.2729757 2.2216632 -0.53071404 0 17
3.2585192 2.2118502 -0.49153933 0 18
3.2662382 2.2170899 -0.45587057 0 19
3.2736075 2.2220919 -0.42006117 0 20
3.2702036 2.2197814 -0.38289654 0 21
3.2650063 2.2162538 -0.34568387 0 22
3.2662506 2.2170982 -0.30925643 0 23
3.2723684 2.221251 -0.2732608 0 24
3.2758532 2.2236164 -0.23698446 0 25
3.2681596 2.218394 -0.19998658 0 26
3.2791359 2.2258446 -0.1641286 0 27
3.2731235 2.2217634 -0.12739275 0 28
3.26124 2.2136972 -0.090649113 0 29
3.268899 2.2188959 -0.054511052 0 30
3.2710054 2.2203259 -0.018181033 0 31
3.2631443 2.2149897 0.01813734 0 32
3.2707469 2.2201502 0.054541867 0 33
3.2754683 2.2233551 0.091044605 0 34
3.2709525 2.2202897 0.12730825 0 35
3.2680998 2.2183535 0.16357622 0 36
3.2623668 2.2144618 0.19963211 0 37
3.2719672 2.2209787 0.23670335 0 38
3.2679422 2.2182465 0.27289119 0 39
3.2680652 2.2183301 0.30942824 0 40
3.2711134 2.2203989 0.34633043 0 41
3.2692792 2.2191541 0.38278833 0 42
3.280292 2.2266295 0.42091891 0 43
3.265455 2.2165582 0.45576125 0 44
3.271445 2.2206242 0.49348918 0 45
3.2691555 2.21907 0.53009462 0 46
3.2634776 2.2152159 0.56615174 0 47
3.2647352 2.2160697 0.60345972 0 48
3.2782853 2.2252674 0.64331305 0 49
3.2682667 2.2184668 0.67869306 0 50
3.2661855 2.2170541 0.71570116 0 51
3.2644894 2.2159028 0.75287539 0 52
3.263813 2.2154436 0.79038948 0 53
3.2614837 2.2138624 0.82760763 0 54
3.277674 2.2248523 0.86983269 0 55
3.2734931 2.2220144 0.90694529 0 56
3.2699924 2.2196381 0.94431806 0 57
3.2669907 2.2176006 0.98192739 0 58
3.2723312 2.2212257 1.0222484 0 59
3.2702053 2.2197826 1.0604594 0 60
3.2658048 2.2167954 1.0980471 0 61
3.264322 2.2157891 1.1367458 0 62
3.2686496 2.2187266 1.1777105 0 63
2.0191243 1.4071344 -0.73367923 0 0
2.0849428 1.4530036 -0.73221308 0 1
2.1848025 1.5225962 -0.74082559 0 2
2.2464631 1.5655676 -0.73466825 0 3
2.327044 1.6217247 -0.73312283 0 4
2.4358833 1.6975752 -0.73834777 0 5
2.5258682 1.760286 -0.73562288 0 6
2.6324778 1.8345826 -0.73554182 0 7
2.7535818 1.9189804 -0.73695493 0 8
2.8736811 2.0026779 -0.73539525 0 9
3.0169246 2.1025047 -0.73680627 0 10
3.1593568 2.2017665 -0.73481756 0 11
