# .PCD v0.7 - Point Cloud Data file format
VERSION 0.7
FIELDS x y z intensity ring
SIZE 4 4 4 4 2
TYPE F F F F U
COUNT 1 1 1 1 1
WIDTH 1290
HEIGHT 1
VIEWPOINT 0 0 0 1 0 0 0
POINTS 1290
DATA ascii
-2.6969626 2.5127306 -0.322905 0 22
-2.7045186 2.5197704 -0.28957695 0 23
-2.6844637 2.5010855 -0.25349972 0 24
-2.6863592 2.5028515 -0.21976791 0 25
-2.694838 2.510751 -0.18648119 0 26
-2.6912422 2.507401 -0.15232894 0 27
-2.6852911 2.5018563 -0.11818939 0 28
-2.689862 2.506115 -0.084550388 0 29
-2.6878035 2.5041971 -0.050685689 0 30
-2.6820617 2.4988475 -0.016858187 0 31
-2.697746 2.5134606 0.016956771 0 32
-2.6879263 2.5043116 0.050688006 0 33
-2.6999161 2.5154822 0.084866412 0 34
-2.6998873 2.5154555 0.11883183 0 35
-2.6948082 2.5107234 0.15253077 0 36
-2.6854722 2.5020251 0.1858331 0 37
-2.6870599 2.5035045 0.21982525 0 38
-2.7000723 2.5156279 0.25497368 0 39
-2.6921816 2.5082762 0.28825602 0 40
-2.6989114 2.5145464 0.32313836 0 41
-2.6915421 2.5076804 0.35637945 0 42
-2.69259 2.5086565 0.39071578 0 43
-2.6897883 2.5060465 0.42453805 0 44
-2.69889 2.5145261 0.46039221 0 45
-2.6924887 2.5085623 0.4937152 0 46
-2.696275 2.51209 0.52895802 0 47
-2.6954753 2.5113449 0.56343067 0 48
-2.6897995 2.5060568 0.59689826 0 49
-2.6988225 2.5144637 0.63377488 0 50
-2.6954679 2.511338 0.66792828 0 51
-2.6942661 2.5102181 0.70267272 0 52
-2.6880951 2.5044687 0.7361483 0 53
-2.7009165 2.5164144 0.775042 0 54
-2.6870527 2.5034976 0.80640078 0 55
-2.6971312 2.5128877 0.84503859 0 56
-2.6863623 2.5028543 0.87728542 0 57
-2.7016971 2.5171418 0.91827542 0 58
-2.6958227 2.5116684 0.95234716 0 59
-2.6882505 2.5046136 0.9858107 0 60
-2.6764679 2.4936359 1.017648 0 61
-2.6810489 2.4979041 1.0557958 0 62
-2.6965725 2.5123672 1.0987202 0 63
-1.8183784 1.6528677 -0.73256284 0 0
-1.8804767 1.7093136 -0.73219836 0 1
-1.953054 1.7752848 -0.73423558 0 2
-2.019136 1.8353521 -0.73210776 0 3
-2.1045156 1.9129602 -0.73509204 0 4
-2.2010887 2.0007432 -0.73970652 0 5
-2.2768745 2.0696309 -0.73519248 0 6
-2.3760028 2.1597364 -0.73604953 0 7
-2.4841194 2.2580123 -0.73711097 0 8
-2.598938 2.3623798 -0.73738724 0 9
-2.7215762 2.4738553 -0.73693097 0 10
-2.7243054 2.4763362 -0.7025125 0 11
-2.7376404 2.4884574 -0.67074537 0 12
-2.7259738 2.4778528 -0.63294798 0 13
-2.7241435 2.4761889 -0.59771758 0 14
-2.7352724 2.486305 -0.56531608 0 15
-2.7195754 2.4720368 -0.52752584 0 16
-2.7303085 2.4817929 -0.49501681 0 17
-2.718411 2.4709783 -0.45850444 0 18
-2.7298143 2.4813437 -0.42600748 0 19
-2.725539 2.4774575 -0.39104679 0 20
-2.7157762 2.4685831 -0.35554212 0 21
-2.7230167 2.4751647 -0.32235605 0 22
-2.7305489 2.4820113 -0.28907439 0 23
-2.7205629 2.4729342 -0.25401792 0 24
-2.725076 2.4770365 -0.22042683 0 25
-2.733006 2.4842448 -0.18699442 0 26
-2.7208521 2.4731972 -0.15227206 0 27
-2.7242754 2.4763088 -0.11855605 0 28
-2.7232983 2.4754207 -0.084638201 0 29
-2.7341282 2.485265 -0.050979123 0 30
-2.7187195 2.4712586 -0.016896319 0 31
-2.7311814 2.4825864 0.016973769 0 32
-2.7312686 2.4826655 0.050925802 0 33
-2.7331946 2.484416 0.084945768 0 34
-2.7184842 2.4710448 0.11830404 0 35
-2.7215569 2.4738376 0.15231149 0 36
-2.7277806 2.4794948 0.18663687 0 37
-2.7161174 2.4688935 0.2197022 0 38
-2.7218988 2.4741485 0.25414264 0 39
-2.7344391 2.4855475 0.28948623 0 40
-2.7252114 2.4771595 0.32261583 0 41
-2.7197711 2.4722145 0.35606512 0 42
-2.739656 2.4902894 0.39307225 0 43
-2.7262254 2.4780812 0.4254474 0 44
-2.7241282 2.4761753 0.45946875 0 45
-2.7219698 2.4742131 0.493505 0 46
-2.7179284 2.4705396 0.52720636 0 47
-2.7288115 2.480432 0.56398076 0 48
-2.7325258 2.4838083 0.5995568 0 49
-2.7267499 2.4785581 0.63312811 0 50
-2.7207026 2.4730613 0.66659546 0 51
-2.7265558 2.4783816 0.70309281 0 52
-2.7216611 2.4739325 0.73695397 0 53
-2.7289927 2.4805968 0.77428722 0 54
-2.7371628 2.4880233 0.81219631 0 55
-2.7353821 2.4864044 0.84737974 0 56
-2.7314091 2.4827933 0.88195968 0 57
-2.7219784 2.474221 0.9147588 0 58
-2.7259979 2.4778745 0.95217133 0 59
-2.7286117 2.4802504 0.9893527 0 60
-2.7284472 2.4801009 1.0257387 0 61
-2.7264998 2.4783309 1.0616131 0 62
-2.7214725 2.4737611 1.0963887 0 63
-1.8560486 1.6458896 -0.73952955 0 0
-1.9114105 1.6949829 -0.73607194 0 1
-1.9801993 1.7559829 -0.73626751 0 2
-2.0572722 1.8243289 -0.73774576 0 3
-2.1275902 1.8866848 -0.73499286 0 4
-2.2121527 1.9616724 -0.73526275 0 5
-2.2941861 2.0344172 -0.73264939 0 6
-2.394577 2.123441 -0.73365933 0 7
-2.4996095 2.2165806 -0.73356414 0 8
-2.6092429 2.3138003 -0.73218322 0 9
-2.7396121 2.4294078 -0.73367029 0 10
-2.7608819 2.4482694 -0.70412803 0 11
-2.7559886 2.4439301 -0.66782743 0 12
-2.7529783 2.4412608 -0.63220024 0 13
-2.7587008 2.4463353 -0.59865439 0 14
-2.7634256 2.450525 -0.56486428 0 15
-2.7625315 2.4497321 -0.529975 0 16
-2.7565777 2.4444525 -0.4942925 0 17
-2.7554448 2.4434478 -0.45964831 0 18
-2.7599063 2.4474041 -0.42597488 0 19
-2.760772 2.4481719 -0.39175308 0 20
-2.7648602 2.4517972 -0.35799405 0 21
-2.7569795 2.4448087 -0.32279333 0 22
-2.7520862 2.4404695 -0.2881557 0 23
-2.7592373 2.446811 -0.25480044 0 24
-2.7482226 2.4370437 -0.21985854 0 25
-2.7712123 2.4574301 -0.18752681 0 26
-2.7565589 2.4444361 -0.15257666 0 27
-2.7644203 2.451407 -0.1189823 0 28
-2.7427104 2.4321554 -0.084305651 0 29
-2.758378 2.446049 -0.050866611 0 30
-2.751909 2.4403124 -0.016914818 0 31
-2.7561064 2.4440348 0.016940618 0 32
-2.7477748 2.4366465 0.050671078 0 33
-2.7581666 2.4458616 0.084780753 0 34
-2.7518299 2.4402423 0.1184404 0 35
-2.761622 2.4489257 0.1528569 0 36
-2.7578552 2.4455855 0.18662295 0 37
-2.7682147 2.454772 0.22145791 0 38
-2.7676642 2.4542837 0.25557861 0 39
-2.7546575 2.4427497 0.28842494 0 40
-2.7642519 2.4512579 0.32364482 0 41
-2.7610874 2.4484518 0.35750556 0 42
-2.7640917 2.4511158 0.39222416 0 43
-2.7485728 2.4373541 0.42422563 0 44
-2.7626357 2.4498246 0.46084788 0 45
-2.7653997 2.4522758 0.4958744 0 46
-2.7657313 2.45257 0.53058892 0 47
-2.7533009 2.4415469 0.56279469 0 48
-2.7567341 2.4445913 0.59822768 0 49
-2.7692022 2.4556477 0.63592595 0 50
-2.7615614 2.4488719 0.66917783 0 51
-2.74441 2.4336627 0.69992709 0 52
-2.7567604 2.4446146 0.73826259 0 53
-2.7652895 2.452178 0.77597165 0 54
-2.755296 2.443316 0.80860084 0 55
-2.7600412 2.4475241 0.84563166 0 56
-2.7695007 2.4559124 0.88444132 0 57
-2.7588704 2.4464855 0.91697764 0 58
-2.7671111 2.4537933 0.95592046 0 59
-2.7584941 2.446152 0.98920667 0 60
-2.7578893 2.4456158 1.0254242 0 61
-2.7580652 2.4457717 1.0621134 0 62
-2.7556474 2.4436276 1.0979683 0 63
-1.8561705 1.605665 -0.7316559 0 0
-1.9344336 1.6733658 -0.73695844 0 1
-1.9935522 1.7245059 -0.7332924 0 2
-2.0671055 1.7881325 -0.73333168 0 3
-2.1366436 1.848286 -0.73021388 0 4
-2.2288654 1.9280616 -0.73288214 0 5
-2.3221416 2.0087495 -0.7336334 0 6
-2.4427936 2.1131184 -0.7404151 0 7
-2.5389872 2.1963298 -0.73713881 0 8
-2.6645949 2.3049858 -0.73970622 0 9
-2.7820385 2.4065795 -0.73705155 0 10
-2.7904527 2.4138582 -0.70404649 0 11
-2.8098035 2.4305973 -0.67357451 0 12
-2.7947276 2.417556 -0.63491297 0 13
-2.7852547 2.4093616 -0.59794241 0 14
-2.800755 2.4227703 -0.56636226 0 15
-2.8094459 2.4302881 -0.53320193 0 16
-2.7895792 2.4131024 -0.49485198 0 17
-2.7921112 2.4152927 -0.46077567 0 18
-2.7897193 2.4132237 -0.42596412 0 19
-2.8006785 2.4227037 -0.39315879 0 20
-2.7992039 2.4214282 -0.35855851 0 21
-2.7810137 2.4056931 -0.3221195 0 22
-2.8051634 2.4265835 -0.29056695 0 23
-2.793272 2.416297 -0.2551803 0 24
-2.7908626 2.4142127 -0.22087812 0 25
-2.7994606 2.4216504 -0.18740915 0 26
-2.7886889 2.4123323 -0.15270165 0 27
-2.7901475 2.4135942 -0.11880325 0 28
-2.7845736 2.4087725 -0.08467561 0 29
-2.7862549 2.4102268 -0.050830305 0 30
-2.7884715 2.4121444 -0.016955959 0 31
-2.7869616 2.4108381 0.016946776 0 32
-2.793385 2.4163947 0.050960384 0 33
-2.8026838 2.4244385 0.085226312 0 34
-2.7894878 2.4130235 0.11877517 0 35
-2.7907491 2.4141147 0.15281446 0 36
-2.8002903 2.422368 0.1874647 0 37
-2.7876015 2.4113917 0.22062004 0 38
-2.7813311 2.4059675 0.25408944 0 39
-2.7970498 2.419565 0.28972653 0 40
-2.7928247 2.41591 0.32348755 0 41
-2.7988875 2.4211545 0.35851794 0 42
-2.7955704 2.4182851 0.39244172 0 43
-2.79842 2.4207501 0.42729262 0 44
-2.7968006 2.4193494 0.46154955 0 45
-2.7973282 2.4198058 0.49622661 0 46
-2.7917254 2.414959 0.52983874 0 47
-2.7987463 2.4210324 0.565956 0 48
-2.7874129 2.4112287 0.59840578 0 49
-2.7818539 2.4064198 0.63198829 0 50
-2.8021486 2.4239757 0.67173946 0 51
-2.7866192 2.410542 0.70307922 0 52
-2.7896006 2.413121 0.73905498 0 53
-2.7927926 2.4158823 0.77529466 0 54
-2.7898839 2.4133661 0.80998111 0 55
-2.7974966 2.4199512 0.8479262 0 56
-2.7948129 2.41763 0.88296431 0 57
-2.7872179 2.4110599 0.91647625 0 58
-2.7945566 2.4174082 0.9550606 0 59
-2.7961264 2.418766 0.99196106 0 60
-2.801554 2.4234612 1.0305014 0 61
-2.7907231 2.4140921 1.0631779 0 62
-2.786881 2.4107685 1.0985187 0 63
-1.8905622 1.5951999 -0.73742461 0 0
-1.9355187 1.6331329 -0.72966617 0 1
-2.0247977 1.7084639 -0.73700237 0 2
-2.0945916 1.7673539 -0.73531735 0 3
-2.1787639 1.8383759 -0.73682749 0 4
-2.2563295 1.9038235 -0.73415959 0 5
-2.3593423 1.9907426 -0.73759675 0 6
-2.44732 2.0649755 -0.73403519 0 7
-2.5591321 2.1593194 -0.73522311 0 8
-2.6685557 2.2516475 -0.73306423 0 9
-2.8015096 2.3638303 -0.7344538 0 10
-2.828968 2.3869987 -0.70630509 0 11
-2.830688 2.3884499 -0.67148966 0 12
-2.813648 2.3740723 -0.63253146 0 13
-2.8149955 2.3752091 -0.59801185 0 14
-2.8227887 2.3817849 -0.56485265 0 15
-2.8315206 2.3891525 -0.53177559 0 16
-2.8081315 2.3694174 -0.49293733 0 17
-2.8152425 2.3754177 -0.4597379 0 18
-2.8207078 2.3800292 -0.42619494 0 19
-2.8224032 2.3814595 -0.39206803 0 20
-2.8300469 2.3879092 -0.35872099 0 21
-2.8218939 2.3810298 -0.32343888 0 22
-2.8269322 2.3852808 -0.28976178 0 23
-2.8213258 2.3805506 -0.25504974 0 24
-2.8241673 2.3829482 -0.2211782 0 25
-2.8274989 2.3857591 -0.18730809 0 26
-2.8342619 2.3914657 -0.15357527 0 27
-2.8131375 2.3736415 -0.11853041 0 28
-2.8205302 2.379879 -0.0848727 0 29
-2.8249969 2.3836482 -0.050998513 0 30
-2.8245704 2.3832881 -0.016995979 0 31
-2.836381 2.3932536 0.017067045 0 32
-2.8264582 2.384881 0.051024891 0 33
-2.8274188 2.3856916 0.08507999 0 34
-2.8280795 2.3862491 0.11915997 0 35
-2.8272061 2.3855121 0.15319295 0 36
-2.8237245 2.3825746 0.18705805 0 37
-2.8290493 2.3870673 0.22156055 0 38
-2.8184292 2.3781064 0.25478786 0 39
-2.8295832 2.3875177 0.29003352 0 40
-2.82868 2.3867557 0.32421669 0 41
-2.8395627 2.3959382 0.35992715 0 42
-2.8267992 2.3851688 0.39267871 0 43
-2.8245494 2.3832705 0.42677537 0 44
-2.8184886 2.3781564 0.46026796 0 45
-2.8188834 2.3784897 0.49482477 0 46
-2.8258958 2.3844066 0.53071922 0 47
-2.8209186 2.3802068 0.56447846 0 48
-2.8258741 2.3843882 0.6003229 0 49
-2.8269451 2.3852918 0.63552076 0 50
-2.8250751 2.3837142 0.67015821 0 51
-2.8240082 2.3828139 0.7050668 0 52
-2.8230236 2.381983 0.74009395 0 53
-2.8324962 2.3899755 0.77809936 0 54
-2.8324082 2.3899016 0.8137337 0 55
-2.827333 2.3856192 0.84801418 0 56
-2.8272636 2.3855605 0.88388205 0 57
-2.8216035 2.3807847 0.91808724 0 58
-2.8170469 2.3769403 0.95268589 0 59
-2.8221178 2.3812187 0.99071926 0 60
-2.8223228 2.3813918 1.027292 0 61
-2.8143532 2.3746672 1.0609757 0 62
-2.8153028 2.3754685 1.098125 0 63
-1.910851 1.5725069 -0.7377404 0 0
-1.9744828 1.6248717 -0.73676717 0 1
-2.0361581 1.6756265 -0.73358226 0 2
-2.1225019 1.7466819 -0.73751968 0 3
-2.196203 1.8073332 -0.73515379 0 4
-2.2867692 1.8818632 -0.73647898 0 5
-2.3748384 1.9543387 -0.73487282 0 6
-2.4741971 2.0361044 -0.73453164 0 7
-2.571377 2.1160772 -0.73121023 0 8
-2.6892838 2.2131069 -0.73122746 0 9
-2.8236477 2.3236797 -0.73271143 0 10
-2.8610404 2.3544514 -0.70703083 0 11
-2.8503966 2.3456924 -0.66927207 0 12
-2.8495102 2.3449628 -0.6340633 0 13
-2.8484416 2.3440835 -0.59894854 0 14
-2.8392928 2.3365545 -0.56236339 0 15
-2.8534172 2.3481779 -0.53042501 0 16
-2.852524 2.3474431 -0.49562553 0 17
-2.8540835 2.3487263 -0.46132949 0 18
-2.8620708 2.3552992 -0.4280363 0 19
-2.8606105 2.3540976 -0.39332467 0 20
-2.8650045 2.3577137 -0.35945004 0 21
-2.8596148 2.3532784 -0.32442117 0 22
-2.8548095 2.3493237 -0.28963625 0 23
-2.8513341 2.3464637 -0.25513485 0 24
-2.8439059 2.3403509 -0.22045362 0 25
-2.8634846 2.356463 -0.18775824 0 26
-2.8545573 2.3491161 -0.15309821 0 27
-2.8539324 2.3486021 -0.11902346 0 28
-2.8476925 2.3434668 -0.084816515 0 29
-2.8697839 2.3616469 -0.051278912 0 30
-2.8516948 2.3467607 -0.016984271 0 31
-2.8517201 2.3467815 0.01698442 0 32
-2.8679588 2.3601449 0.0512463 0 33
-2.8591864 2.3529255 0.085158855 0 34
-2.8490441 2.3445792 0.11881959 0 35
-2.8577387 2.3517344 0.15326886 0 36
-2.8664713 2.3589208 0.18795408 0 37
-2.8619955 2.3552372 0.22185586 0 38
-2.8585906 2.3524354 0.25578415 0 39
-2.8546689 2.3492079 0.28962198 0 40
-2.8673921 2.3596783 0.32530347 0 41
-2.8542943 2.3488998 0.35810629 0 42
-2.8617272 2.3550165 0.39347821 0 43
-2.863399 2.3563924 0.42823496 0 44
-2.8523383 2.3472903 0.46104741 0 45
-2.8563812 2.3506172 0.49629572 0 46
-2.846489 2.3424764 0.52913713 0 47
-2.8500686 2.3454223 0.56449771 0 48
-2.8659484 2.3584905 0.60262972 0 49
-2.856503 2.3507175 0.6356194 0 50
-2.8632252 2.3562493 0.67228425 0 51
-2.8711662 2.3627844 0.70953321 0 52
-2.849395 2.3448679 0.73939258 0 53
-2.8505092 2.3457849 0.77506524 0 54
-2.8684642 2.3605609 0.81569153 0 55
-2.8509347 2.3461351 0.8463763 0 56
-2.8579664 2.3519216 0.88437247 0 57
-2.854522 2.3490872 0.91933 0 58
-2.8540528 2.348701 0.95536143 0 59
-2.8646741 2.3574419 0.99540716 0 60
-2.8547566 2.3492801 1.028505 0 61
-2.8631434 2.3561821 1.0683658 0 62
-2.8558154 2.3501515 1.1025717 0 63
-1.9140675 1.5360738 -0.73163456 0 0
-1.9822416 1.5907848 -0.73230791 0 1
-2.0756423 1.6657405 -0.74037206 0 2
-2.1392505 1.7167872 -0.73594844 0 3
-2.1993604 1.7650265 -0.72889054 0 4
-2.303534 1.8486277 -0.73450178 0 5
-2.388149 1.9165329 -0.73164386 0 6
-2.494936 2.0022314 -0.73332387 0 7
-2.6274891 2.1086075 -0.73973751 0 8
-2.7412543 2.1999061 -0.73794734 0 9
-2.8577669 2.2934096 -0.73419166 0 10
-2.8911185 2.3201749 -0.70735997 0 11
-2.8908184 2.3199341 -0.67201418 0 12
-2.8950133 2.3233006 -0.63778341 0 13
-2.8842766 2.3146842 -0.60045338 0 14
-2.8886871 2.3182237 -0.56645787 0 15
-2.895504 2.3236945 -0.53289682 0 16
-2.8939197 2.322423 -0.4978185 0 17
-2.8971374 2.3250053 -0.46363249 0 18
-2.889441 2.3188286 -0.42783299 0 19
-2.8969665 2.324868 -0.39436299 0 20
-2.8961158 2.3241851 -0.3597405 0 21
-2.8866818 2.3166144 -0.32423562 0 22
-2.8943031 2.3227305 -0.29072341 0 23
-2.889683 2.3190229 -0.25599533 0 24
-2.891752 2.3206832 -0.22193369 0 25
-2.8893511 2.3187566 -0.18757057 0 26
-2.8848698 2.3151603 -0.15318556 0 27
-2.8915212 2.3204982 -0.11939207 0 28
-2.8951817 2.3234355 -0.085373551 0 29
-2.8899624 2.3192472 -0.051126022 0 30
-2.9024322 2.3292544 -0.017114576 0 31
-2.8971307 2.3249998 0.017083315 0 32
-2.8991923 2.3266542 0.051289305 0 33
-2.877305 2.3090894 0.084846407 0 34
-2.8917897 2.3207135 0.11940315 0 35
-2.8860495 2.316107 0.15324821 0 36
-2.893414 2.322017 0.18783431 0 37
-2.8983359 2.3259671 0.22243899 0 38
-2.8915007 2.3204815 0.25615638 0 39
-2.9029746 2.3296895 0.29159442 0 40
-2.8946533 2.3230116 0.325131 0 41
-2.8836911 2.3142142 0.35819715 0 42
-2.8974369 2.3252456 0.39442703 0 43
-2.8912716 2.3202977 0.42810404 0 44
-2.889601 2.3189571 0.46242642 0 45
-2.8959634 2.3240628 0.49817005 0 46
-2.8938532 2.3223693 0.53259295 0 47
-2.8836076 2.3141472 0.56546175 0 48
-2.9047482 2.3311129 0.60471517 0 49
-2.8955779 2.3237536 0.6379078 0 50
-2.8910816 2.3201451 0.67207533 0 51
-2.8880394 2.3177037 0.70660657 0 52
-2.8938267 2.3223484 0.74345583 0 53
-2.9003851 2.3276117 0.78078544 0 54
-2.8862393 2.3162594 0.81258547 0 55
-2.8879693 2.3176477 0.8488462 0 56
-2.894547 2.3229263 0.88678616 0 57
-2.8948975 2.3232076 0.92306316 0 58
-2.8833368 2.3139298 0.95556736 0 59
-2.8946857 2.3230376 0.99583447 0 60
-2.9016171 2.3286002 1.0349935 0 61
-2.8891938 2.3186302 1.0673671 0 62
-2.8846664 2.314997 1.1026369 0 63
-1.9451036 1.5220432 -0.73628825 0 0
-1.9979597 1.563403 -0.73095727 0 1
-2.0828435 1.6298246 -0.73573655 0 2
-2.1616905 1.6915224 -0.73645699 0 3
-2.2372911 1.7506799 -0.73427135 0 4
-2.33372 1.8261354 -0.73691118 0 5
-2.4196479 1.893374 -0.73410577 0 6
-2.5350523 1.983678 -0.73788983 0 7
-2.6406949 2.0663431 -0.73624623 0 8
-2.7645288 2.1632431 -0.73699629 0 9
-2.8790541 2.2528591 -0.73248816 0 10
-2.929322 2.2921939 -0.70975733 0 11
-2.9264617 2.2899556 -0.67370319 0 12
-2.9394703 2.3001349 -0.641298 0 13
-2.9268336 2.2902467 -0.60340452 0 14
-2.9294918 2.2923267 -0.56888896 0 15
-2.9256089 2.2892883 -0.53321624 0 16
-2.9276216 2.2908633 -0.49873248 0 17
-2.9174082 2.2828712 -0.46234921 0 18
-2.9256792 2.2893434 -0.42899805 0 19
-2.9290605 2.2919893 -0.39486548 0 20
-2.9312088 2.2936704 -0.36056897 0 21
-2.9306421 2.293227 -0.32598138 0 22
-2.9264185 2.2899218 -0.29109892 0 23
-2.92751 2.290776 -0.25683159 0 24
-2.9259357 2.2895441 -0.2223797 0 25
-2.919805 2.2847469 -0.18770956 0 26
-2.9258094 2.2894452 -0.15385294 0 27
-2.9371498 2.2983191 -0.1201001 0 28
-2.9194992 2.2845075 -0.085255824 0 29
-2.9152505 2.281183 -0.051073294 0 30
-2.9207325 2.2854726 -0.017055482 0 31
-2.9321401 2.294399 0.017122095 0 32
-2.9228885 2.2871597 0.051207107 0 33
-2.9209726 2.2856605 0.085298851 0 34
-2.9124522 2.2789931 0.11909021 0 35
-2.9245965 2.2884963 0.15378915 0 36
-2.9322941 2.2945197 0.18851246 0 37
-2.922735 2.2870395 0.22213642 0 38
-2.9249635 2.2887833 0.25660819 0 39
-2.9266992 2.2901413 0.29112682 0 40
-2.9314942 2.2938938 0.32607615 0 41
-2.9179165 2.2832692 0.35893387 0 42
-2.9185681 2.2837789 0.39345101 0 43
-2.9183915 2.2836409 0.42792943 0 44
-2.9154561 2.2813437 0.46203983 0 45
-2.9131901 2.2795706 0.49627402 0 46
-2.9174683 2.2829185 0.53173256 0 47
-2.921608 2.2861576 0.56735802 0 48
-2.9300175 2.2927382 0.60406095 0 49
-2.9242823 2.2882504 0.63798445 0 50
-2.9171159 2.2826426 0.6715517 0 51
-2.9247615 2.2886252 0.70865226 0 52
-2.9255886 2.2892725 0.74432749 0 53
-2.9126704 2.2791638 0.77648938 0 54
-2.9244866 2.2884102 0.81536961 0 55
-2.9171464 2.2826664 0.84910774 0 56
-2.9208255 2.2855453 0.8861599 0 57
-2.9294844 2.2923207 0.92503375 0 58
-2.9273725 2.2906682 0.96075368 0 59
-2.9305556 2.293159 0.99839836 0 60
-2.9265687 2.2900393 1.0337712 0 61
-2.9330142 2.295083 1.0730487 0 62
-2.9329062 2.2949984 1.1102053 0 63
-1.9628117 1.4973565 -0.73596603 0 0
-2.0239363 1.5439861 -0.73345947 0 1
-2.1068001 1.6072 -0.73716217 0 2
-2.1847334 1.6666523 -0.73726964 0 3
-2.2558177 1.7208799 -0.73335135 0 4
-2.3612516 1.8013116 -0.73855478 0 5
-2.4428539 1.8635631 -0.73413849 0 6
-2.5394242 1.9372329 -0.73217326 0 7
-2.6526463 2.0236058 -0.73258537 0 8
-2.7562127 2.1026127 -0.72783166 0 9
-2.9302211 2.2353573 -0.73845702 0 10
-2.9634531 2.2607088 -0.71123779 0 11
-2.9555247 2.2546606 -0.67396045 0 12
-2.9578485 2.2564332 -0.63920587 0 13
-2.9650495 2.2619267 -0.60550332 0 14
-2.9569428 2.2557423 -0.56879032 0 15
-2.9604728 2.2584352 -0.53446859 0 16
-2.9472265 2.2483301 -0.49732497 0 17
-2.9543407 2.2537575 -0.46377519 0 18
-2.9636312 2.2608447 -0.43045405 0 19
-2.972362 2.2675052 -0.39691415 0 20
-2.9558451 2.254905 -0.36016148 0 21
-2.9523354 2.2522275 -0.32528925 0 22
-2.9606082 2.2585387 -0.29171523 0 23
-2.9647248 2.2616792 -0.25763714 0 24
-2.9653668 2.2621689 -0.22324555 0 25
-2.9598792 2.2579825 -0.18848662 0 26
-2.9608927 2.2587557 -0.15422559 0 27
-2.9641633 2.2612507 -0.12005863 0 28
-2.9619741 2.2595806 -0.085678332 0 29
-2.9570119 2.2557952 -0.051315088 0 30
-2.9637134 2.2609076 -0.017142829 0 31
-2.9493496 2.2499499 0.017059743 0 32
-2.9571118 2.2558715 0.05131682 0 33
-2.9561567 2.2551427 0.085510053 0 34
-2.9701831 2.2658429 0.12030245 0 35
-2.9670253 2.2634339 0.15454502 0 36
-2.9598839 2.2579863 0.18848693 0 37
-2.9539387 2.2534506 0.22238518 0 38
-2.9627473 2.2601705 0.25746527 0 39
-2.9555316 2.2546659 0.29121503 0 40
-2.9566562 2.2555239 0.32576531 0 41
-2.9547801 2.2540927 0.36003172 0 42
-2.9649041 2.2618158 0.39591825 0 43
-2.9640343 2.2611523 0.43051261 0 44
-2.9522412 2.2521558 0.46344563 0 45
-2.9659762 2.2626338 0.50048888 0 46
-2.9569819 2.2557724 0.53383839 0 47
-2.9514506 2.2515528 0.56773388 0 48
-2.9587965 2.2571564 0.60422635 0 49
-2.9597406 2.2578769 0.63961476 0 50
-2.9528983 2.2526569 0.67336154 0 51
-2.9554839 2.2546296 0.70932519 0 52
-2.952852 2.2526219 0.74416035 0 53
-2.9728904 2.2679083 0.78504968 0 54
-2.9555957 2.254715 0.8162514 0 55
-2.9689476 2.2649004 0.85601455 0 56
-2.9589174 2.2572486 0.8892284 0 57
-2.9588294 2.2571816 0.92546576 0 58
-2.9591086 2.2573948 0.9619866 0 59
-2.9578152 2.256408 0.9981572 0 60
-2.9545784 2.2539387 1.0337969 0 61
-2.9694128 2.2652552 1.0760932 0 62
-2.9538672 2.2533963 1.1075673 0 63
-1.9846635 1.4757786 -0.7372995 0 0
-2.0273361 1.5075096 -0.72791892 0 1
-2.1144214 1.5722654 -0.73300874 0 2
-2.1914203 1.6295211 -0.73270905 0 3
-2.3013148 1.7112378 -0.74124551 0 4
-2.3832157 1.7721386 -0.73855305 0 5
-2.4686666 1.8356791 -0.7350567 0 6
-2.5721624 1.9126376 -0.7347759 0 7
-2.6938422 2.0031178 -0.73710436 0 8
-2.8156521 2.0936944 -0.73667365 0 9
-2.9439645 2.1891065 -0.7350812 0 10
-2.9959002 2.2277253 -0.71239692 0 11
-3.0025873 2.2326977 -0.67838049 0 12
-2.9865835 2.2207975 -0.63946593 0 13
-2.9981482 2.2293971 -0.6066184 0 14
-2.990607 2.2237895 -0.5699628 0 15
-3.0020158 2.2322729 -0.53697246 0 16
-2.9840453 2.2189102 -0.49889606 0 17
-3.000921 2.2314589 -0.46674472 0 18
-2.9895179 2.2229795 -0.43021119 0 19
-2.9953184 2.2272928 -0.39629242 0 20
-2.9951715 2.2271836 -0.36158901 0 21
-2.9951754 2.2271864 -0.32696718 0 22
-2.992265 2.2250223 -0.29211655 0 23
-2.9923077 2.225054 -0.25763699 0 24
-2.9918284 2.2246978 -0.22316135 0 25
-2.9883018 2.2220752 -0.18854235 0 26
-2.9843807 2.2191596 -0.15401603 0 27
-2.9903886 2.2236271 -0.1200043 0 28
-2.994853 2.2269466 -0.0858308 0 29
-3.0002544 2.230963 -0.05158554 0 30
-2.9924369 2.2251501 -0.017149407 0 31
-3.000699 2.2312939 0.01719676 0 32
-2.9831872 2.218272 0.051292092 0 33
-2.9969318 2.2284925 0.085890375 0 34
-2.9964983 2.2281702 0.12024948 0 35
-2.9935665 2.2259901 0.15449008 0 36
-2.996376 2.2280793 0.18905178 0 37
-2.9906259 2.2238035 0.22307165 0 38
-2.9926333 2.2252963 0.25766504 0 39
-2.9873822 2.2213914 0.29163986 0 40
-2.9923909 2.2251158 0.32666323 0 41
-2.9930971 2.225641 0.36133856 0 42
-2.9918895 2.2247431 0.39583877 0 43
-2.9875996 2.2215531 0.42993513 0 44
-2.9896798 2.2230999 0.46499634 0 45
-2.9880726 2.221905 0.49956939 0 46
-2.9841068 2.218956 0.53376907 0 47
-2.9814334 2.2169681 0.56821448 0 48
-3.0066941 2.2357516 0.60834748 0 49
-2.9939613 2.2262838 0.64104563 0 50
-2.9903407 2.2235916 0.67561364 0 51
-2.975955 2.2128944 0.70765412 0 52
-3.0026162 2.2327192 0.749726 0 53
-2.9931526 2.2256823 0.78311402 0 54
-3.0005252 2.2311645 0.82102066 0 55
-2.993752 2.2261281 0.85520917 0 56
-2.9965141 2.2281818 0.89222568 0 57
-2.9946427 2.2267904 0.92803288 0 58
-2.9893141 2.2228279 0.96284765 0 59
-2.9868109 2.2209666 0.99865061 0 60
-3.0007463 2.231329 1.040272 0 61
-2.990865 2.2239814 1.0738758 0 62
-3.0019081 2.2321928 1.1152043 0 63
-1.9835809 1.4374393 -0.73027575 0 0
-2.0456097 1.4823896 -0.72788012 0 1
-2.1437542 1.5535117 -0.73649955 0 2
-2.2146063 1.6048561 -0.73380768 0 3
-2.3109243 1.6746547 -0.73765212 0 4
-2.3956852 1.7360783 -0.73574609 0 5
-2.4872642 1.8024428 -0.73393941 0 6
-2.6125793 1.8932548 -0.73961532 0 7
-2.7158794 1.9681131 -0.73645663 0 8
-2.8460636 2.0624535 -0.7379393 0 9
-2.9704676 2.1526051 -0.73503399 0 10
-3.0332761 2.1981206 -0.71480322 0 11
-3.0354238 2.199677 -0.6796369 0 12
-3.0299428 2.1957049 -0.64292014 0 13
-3.0296338 2.1954811 -0.6074807 0 14
-3.0198069 2.1883597 -0.57035625 0 15
-3.0307543 2.1962931 -0.53724164 0 16
-3.0183284 2.1872883 -0.50009328 0 17
-3.036696 2.200599 -0.46806487 0 18
-3.0247669 2.1919541 -0.43137237 0 19
-3.0293 2.1952393 -0.39718693 0 20
-3.0251558 2.1922359 -0.36192712 0 21
-3.0295701 2.195435 -0.32775009 0 22
-3.0322549 2.1973805 -0.29336053 0 23
-3.0268087 2.193434 -0.25826576 0 24
-3.0188746 2.1876843 -0.22315532 0 25
-3.0360954 2.2001636 -0.1898365 0 26
-3.0214376 2.1895416 -0.15452729 0 27
-3.0295844 2.1954453 -0.12048476 0 28
-3.0244863 2.1917508 -0.085901186 0 29
-3.0350411 2.1993997 -0.051714744 0 30
-3.0453992 2.2069058 -0.017296104 0 31
-3.0299296 2.1956956 0.017208245 0 32
-3.0350251 2.199388 0.051714472 0 33
-3.0200665 2.1885478 0.085775651 0 34
-3.0281889 2.1944342 0.12042927 0 35
-3.0318885 2.1971149 0.15506178 0 36
-3.0424647 2.2047794 0.19023477 0 37
-3.0226595 2.1904271 0.22343512 0 38
-3.0177717 2.1868849 0.25749466 0 39
-3.0248361 2.1920044 0.29264277 0 40
-3.0419123 2.2043788 0.32908529 0 41
-3.0215759 2.189642 0.36149883 0 42
-3.0313971 2.196759 0.39746189 0 43
-3.020468 2.188839 0.43075931 0 44
-3.0336168 2.1983676 0.46759027 0 45
-3.0193431 2.1880238 0.50026143 0 46
-3.0252898 2.192333 0.53627294 0 47
-3.0235593 2.1910791 0.57106501 0 48
-3.0325854 2.1976199 0.60807252 0 49
-3.0285771 2.1947153 0.6426304 0 50
-3.0255127 2.1924946 0.67741781 0 51
-3.0325639 2.1976044 0.71463543 0 52
-3.0215306 2.1896088 0.7476694 0 53
-3.0190153 2.1877863 0.78278291 0 54
-3.0282276 2.1944621 0.82115507 0 55
-3.0312083 2.1966221 0.85812819 0 56
-3.0363755 2.2003665 0.89597064 0 57
-3.0366325 2.2005529 0.93258941 0 58
-3.0339193 2.1985867 0.9684338 0 59
-3.0249331 2.1920745 1.0023087 0 60
-3.0322053 2.1973445 1.0417323 0 61
-3.0228906 2.1905944 1.0756216 0 62
-3.0332544 2.1981049 1.1167238 0 63
-2.0281813 1.4320594 -0.74015683 0 0
-2.0975876 1.4810658 -0.73983902 0 1
-2.1601956 1.525272 -0.73564887 0 2
-2.2296844 1.5743368 -0.7323339 0 3
-2.3239496 1.6408956 -0.73531365 0 4
-2.4203484 1.7089609 -0.73681104 0 5
-2.5182159 1.7780632 -0.73656535 0 6
-2.6307616 1.8575295 -0.7382406 0 7
-2.7118721 1.9148 -0.72893018 0 8
-2.8429086 2.0073225 -0.7306661 0 9
-3.006618 2.1229146 -0.73746419 0 10
-3.0654209 2.1644342 -0.71605223 0 11
-3.063832 2.1633122 -0.67999011 0 12
-3.0721211 2.1691649 -0.64616138 0 13
-3.0581052 2.1592686 -0.60781974 0 14
-3.060492 2.1609538 -0.57297856 0 15
-3.0660579 2.1648839 -0.5387401 0 16
-3.0579698 2.159173 -0.50222433 0 17
-3.0640535 2.1634686 -0.46814579 0 18
-3.0567043 2.1582794 -0.43210956 0 19
-3.0574415 2.1587999 -0.39736614 0 20
-3.0640781 2.1634858 -0.36337349 0 21
-3.0660818 2.1649005 -0.32879525 0 22
-3.0575714 2.1588917 -0.29321933 0 23
-3.0634789 2.1630628 -0.25910559 0 24
-3.0577211 2.1589973 -0.22404748 0 25
-3.0760345 2.1719282 -0.19064946 0 26
-3.0676425 2.1660028 -0.15551646 0 27
-3.0608535 2.1612091 -0.12066231 0 28
-3.0386026 2.145498 -0.085546345 0 29
-3.069577 2.1673687 -0.051845174 0 30
-3.070981 2.16836 -0.017288655 0 31
-3.0626853 2.1625025 0.017241953 0 32
-3.0617104 2.161814 0.051712304 0 33
-3.0627697 2.1625619 0.086226724 0 34
-3.0594883 2.1602452 0.12060849 0 35
-3.0596118 2.1603322 0.15510933 0 36
-3.066725 2.1653547 0.19007246 0 37
-3.0536532 2.1561253 0.22374943 0 38
-3.0653303 2.1643701 0.25926217 0 39
-3.0708632 2.1682768 0.29449403 0 40
-3.0591006 2.1599715 0.32804662 0 41
-3.0781648 2.1734324 0.36504406 0 42
-3.0684462 2.1665702 0.39879635 0 43
-3.0613921 2.1615894 0.43277225 0 44
-3.0611334 2.1614068 0.46769962 0 45
-3.0493033 2.1530538 0.50080103 0 46
-3.0678453 2.166146 0.53905421 0 47
-3.0680733 2.166307 0.57439786 0 48
-3.0609674 2.1612895 0.6083886 0 49
-3.056113 2.1578619 0.64279437 0 50
-3.0610852 2.1613727 0.67938048 0 51
-3.0556536 2.1575375 0.71377069 0 52
-3.0662687 2.1650326 0.75209528 0 53
-3.0793967 2.1743021 0.79144675 0 54
-3.0597432 2.1604252 0.8224352 0 55
-3.062798 2.1625822 0.85947806 0 56
-3.0677733 2.166095 0.89730805 0 57
-3.0621974 2.162158 0.93220502 0 58
-3.0603068 2.1608231 0.96830219 0 59
-3.0597599 2.1604369 1.0049701 0 60
-3.0612757 2.1615074 1.0425094 0 61
-3.0594971 2.1602514 1.0791136 0 62
-3.0695691 2.1673629 1.1201969 0 63
-2.0342531 1.3991842 -0.73603827 0 0
-2.0945823 1.4406793 -0.73247528 0 1
-2.1750877 1.496052 -0.73440009 0 2
-2.2570624 1.5524352 -0.73500067 0 3
-2.3474824 1.6146272 -0.73642194 0 4
-2.4425297 1.680002 -0.73721904 0 5
-2.5285721 1.7391828 -0.73328376 0 6
-2.6483285 1.8215528 -0.73682898 0 7
-2.7543528 1.8944776 -0.7340315 0 8
-2.8829622 1.9829367 -0.73463804 0 9
-3.0292175 2.083533 -0.73666757 0 10
-3.0918908 2.1266403 -0.7160728 0 11
-3.0956366 2.1292169 -0.68118656 0 12
-3.0978079 2.1307104 -0.6460045 0 13
-3.1036549 2.1347318 -0.61160952 0 14
-3.0844827 2.1215451 -0.57254267 0 15
-3.0872059 2.1234181 -0.53782749 0 16
-3.1056912 2.1361325 -0.50570965 0 17
-3.0940478 2.128124 -0.4686949 0 18
-3.1000402 2.1322458 -0.43449643 0 19
-3.0949047 2.1287134 -0.39880297 0 20
-3.0991831 2.1316562 -0.3644006 0 21
-3.1003885 2.1324854 -0.32963732 0 22
-3.1084485 2.1380291 -0.29555488 0 23
-3.0942822 2.1282852 -0.25947782 0 24
-3.0953326 2.1290078 -0.22486815 0 25
-3.0956345 2.1292155 -0.19022714 0 26
-3.0982606 2.1310217 -0.15572846 0 27
-3.0923328 2.1269445 -0.1208631 0 28
-3.0814786 2.1194789 -0.086013213 0 29
-3.0943589 2.1283381 -0.051817793 0 30
-3.0988238 2.1314092 -0.017296547 0 31
-3.0942378 2.1282549 0.017270949 0 32
-3.0955207 2.1291373 0.051837251 0 33
-3.095865 2.129374 0.086414777 0 34
-3.0956354 2.129216 0.12099218 0 35
-3.0942693 2.1282763 0.15552785 0 36
-3.0974827 2.1304867 0.19034071 0 37
-3.0907028 2.1258233 0.2245318 0 38
-3.1072431 2.1372001 0.26056468 0 39
-3.0969937 2.1301503 0.29446572 0 40
-3.0845952 2.1216223 0.32795814 0 41
-3.0994046 2.1318085 0.36442664 0 42
-3.0915773 2.1264248 0.39837423 0 43
-3.0920739 2.1267664 0.43337989 0 44
-3.0927024 2.1271987 0.46849108 0 45
-3.1014454 2.1332121 0.50501835 0 46
-3.0909214 2.1259737 0.53847474 0 47
-3.1038508 2.1348667 0.57613784 0 48
-3.0943246 2.1283145 0.60977089 0 49
-3.1025221 2.1339529 0.64698768 0 50
-3.0817306 2.1196523 0.67812657 0 51
-3.0876336 2.1237123 0.71508682 0 52
-3.0937221 2.1279001 0.75235426 0 53
-3.1041007 2.1350386 0.79098868 0 54
-3.0922396 2.1268804 0.82407796 0 55
-3.0943415 2.1283262 0.86092067 0 56
-3.0965075 2.1298158 0.89798456 0 57
-3.1039562 2.1349392 0.93685478 0 58
-3.1037045 2.1347659 0.97365415 0 59
-3.1045401 2.1353409 1.0109775 0 60
-3.1002731 2.132406 1.0467812 0 61
-3.0947912 2.1286354 1.0822483 0 62
-3.0943954 2.1283631 1.1196214 0 63
-2.0582497 1.3787194 -0.73853081 0 0
-2.109549 1.4130824 -0.73157752 0 1
-2.1923065 1.4685174 -0.73406142 0 2
-2.2786019 1.5263224 -0.73584741 0 3
-2.3747435 1.5907229 -0.73878187 0 4
-2.4397883 1.6342933 -0.73027092 0 5
-2.5583034 1.7136806 -0.73573929 0 6
-2.6640866 1.7845395 -0.73505247 0 7
-2.769069 1.8548621 -0.73181969 0 8
-2.9165978 1.9536842 -0.7370317 0 9
-3.044404 2.0392954 -0.73420703 0 10
-3.1401937 2.1034601 -0.72121483 0 11
-3.1351833 2.1001041 -0.68415451 0 12
-3.1237957 2.0924759 -0.64600945 0 13
-3.1259041 2.0938883 -0.610874 0 14
-3.1313066 2.097507 -0.57640308 0 15
-3.1231887 2.0920694 -0.53957373 0 16
-3.1285961 2.0956914 -0.50520504 0 17
-3.1158202 2.0871336 -0.46806994 0 18
-3.1294844 2.0962865 -0.43497753 0 19
-3.1308289 2.097187 -0.40007886 0 20
-3.1329436 2.0986035 -0.36530834 0 21
-3.1258535 2.0938544 -0.32958242 0 22
-3.1287632 2.0958033 -0.29501376 0 23
-3.118459 2.088901 -0.25933164 0 24
-3.1318049 2.097841 -0.22562671 0 25
-3.1367588 2.1011593 -0.19115211 0 26
-3.1342502 2.099479 -0.15622799 0 27
-3.1319265 2.0979223 -0.12139317 0 28
-3.126549 2.0943203 -0.086545877 0 29
-3.1230409 2.0919702 -0.05186341 0 30
-3.1417642 2.104512 -0.017390467 0 31
-3.1146667 2.0863609 0.017240476 0 32
-3.1374793 2.1016419 0.052103184 0 33
-3.1277971 2.0951562 0.086580426 0 34
-3.1299226 2.09658 0.1213155 0 35
-3.1329494 2.0986075 0.15616316 0 36
-3.1296809 2.0964181 0.19072078 0 37
-3.1278522 2.0951931 0.22534193 0 38
-3.1368363 2.1012111 0.26085991 0 39
-3.1325858 2.0983639 0.29537418 0 40
-3.1341152 2.0993886 0.33045352 0 41
-3.1293759 2.0962138 0.36489236 0 42
-3.1426432 2.1051009 0.40158856 0 43
-3.1237676 2.0924571 0.43418294 0 44
-3.1401744 2.1034472 0.4717285 0 45
-3.12135 2.0908377 0.50403494 0 46
-3.130229 2.0967851 0.54079002 0 47
-3.129576 2.0963478 0.57608449 0 48
-3.1333635 2.0988848 0.61233175 0 49
-3.1301186 2.0967114 0.64731705 0 50
-3.1201491 2.0900333 0.68087375 0 51
-3.1278796 2.0952115 0.71838659 0 52
-3.1294265 2.0962477 0.75471151 0 53
-3.1306281 2.0970526 0.79111773 0 54
-3.1272388 2.0947821 0.82647812 0 55
-3.1210871 2.0906615 0.8611443 0 56
-3.1265235 2.0943031 0.89915299 0 57
-3.1284482 2.0955925 0.9363988 0 58
-3.1185451 2.0889587 0.97017825 0 59
-3.1228037 2.0918114 1.0084724 0 60
-3.1219471 2.0912375 1.0453378 0 61
-3.1265755 2.0943379 1.0842755 0 62
-3.1273956 2.0948875 1.1221564 0 63
-2.0623622 1.3450356 -0.73401642 0 0
-2.1294234 1.3887718 -0.73249227 0 1
-2.2143183 1.4441386 -0.73543018 0 2
-2.2950597 1.4967968 -0.73516297 0 3
-2.384279 1.554984 -0.73574424 0 4
-2.4729879 1.6128384 -0.73421645 0 5
-2.5773053 1.6808724 -0.7352044 0 6
-2.6915634 1.7553893 -0.73662239 0 7
-2.7963293 1.8237158 -0.73304206 0 8
-2.9445584 1.9203881 -0.7380743 0 9
-3.0633092 1.9978353 -0.73278636 0 10
-3.1661608 2.0649133 -0.72129256 0 11
-3.167546 2.0658166 -0.6856215 0 12
-3.1626513 2.0626245 -0.64875072 0 13
-3.1565554 2.0586488 -0.61187077 0 14
-3.1733174 2.0695808 -0.57940799 0 15
-3.1663783 2.0650551 -0.54260731 0 16
-3.162394 2.0624566 -0.50652915 0 17
-3.1676512 2.0658853 -0.47200435 0 18
-3.1619141 2.0621436 -0.43592763 0 19
-3.1674664 2.0657647 -0.40148431 0 20
-3.1739175 2.069972 -0.36709034 0 21
-3.1571434 2.0590324 -0.33018702 0 22
-3.1518099 2.0555539 -0.29478127 0 23
-3.1604087 2.061162 -0.26069281 0 24
-3.1559141 2.0582306 -0.2255232 0 25
-3.168143 2.066206 -0.19150187 0 26
-3.1652045 2.0642896 -0.15649384 0 27
-3.1618888 2.0621271 -0.12156248 0 28
-3.1625338 2.0625477 -0.086833358 0 29
-3.1686313 2.0665245 -0.052194577 0 30
-3.1665316 2.065155 -0.017385682 0 31
-3.1674502 2.0657542 0.017390726 0 32
-3.1719809 2.0687091 0.052249756 0 33
-3.1820524 2.0752776 0.087369278 0 34
-3.1549492 2.0576012 0.12129568 0 35
-3.1583879 2.059844 0.15615682 0 36
-3.1655767 2.0645325 0.19134675 0 37
-3.1659856 2.0647991 0.22624291 0 38
-3.1526349 2.056092 0.26005155 0 39
-3.1545308 2.0573285 0.29503575 0 40
-3.1663103 2.0650108 0.33114576 0 41
-3.1610143 2.0615568 0.36559796 0 42
-3.1602829 2.0610797 0.40057379 0 43
-3.165134 2.0642436 0.43637156 0 44
-3.1678982 2.0660465 0.47204113 0 45
-3.1786842 2.0730808 0.50913841 0 46
-3.1628153 2.0627315 0.54199672 0 47
-3.1620934 2.0622606 0.57735866 0 48
-3.1716402 2.0684869 0.61479479 0 49
-3.1675818 2.06584 0.64976209 0 50
-3.1631079 2.0629222 0.68466091 0 51
-3.1650243 2.064172 0.72103363 0 52
-3.172713 2.0691867 0.75895733 0 53
-3.1573436 2.0591629 0.79141045 0 54
-3.167181 2.0655787 0.83025879 0 55
-3.155019 2.057647 0.86346018 0 56
-3.168941 2.0667267 0.90397489 0 57
-3.1779113 2.0725768 0.94350433 0 58
-3.1652064 2.064291 0.97672403 0 59
-3.1749427 2.0706408 1.0170107 0 60
-3.1600168 2.0609064 1.0495201 0 61
-3.1594799 2.0605559 1.0868174 0 62
-3.1671817 2.0655792 1.1272334 0 63
-2.0737965 1.3164353 -0.73226941 0 0
-2.1548252 1.367872 -0.7353887 0 1
-2.2145696 1.4057974 -0.72971725 0 2
-2.3085604 1.4654622 -0.73365986 0 3
-2.4003494 1.5237294 -0.73486602 0 4
-2.4935651 1.5829023 -0.73449141 0 5
-2.6143963 1.6596053 -0.73990762 0 6
-2.7031295 1.7159327 -0.73395771 0 7
-2.8339634 1.7989854 -0.73705304 0 8
-2.9428349 1.8680965 -0.73182917 0 9
-3.0771468 1.9533569 -0.73029548 0 10
-3.1944449 2.027817 -0.7220009 0 11
-3.2057359 2.0349846 -0.68841946 0 12
-3.1973937 2.0296891 -0.65070862 0 13
-3.204778 2.0343766 -0.61632264 0 14
-3.2030363 2.0332711 -0.58022541 0 15
-3.1926539 2.0266802 -0.5427984 0 16
-3.1951485 2.0282638 -0.50774235 0 17
-3.1966112 2.0291922 -0.47256583 0 18
-3.2072597 2.0359519 -0.43869466 0 19
-3.1949687 2.0281496 -0.40177885 0 20
-3.201184 2.0320952 -0.36732614 0 21
-3.1936553 2.0273159 -0.33137339 0 22
-3.2101233 2.0377696 -0.29786912 0 23
-3.1970348 2.0294614 -0.26163572 0 24
-3.2056193 2.0349107 -0.2272699 0 25
-3.2026362 2.0330169 -0.19206125 0 26
-3.1976361 2.0298429 -0.15685141 0 27
-3.1906581 2.0254133 -0.12170184 0 28
-3.1975281 2.0297742 -0.087102309 0 29
-3.1915698 2.0259922 -0.052158121 0 30
-3.2019792 2.0325997 -0.017441761 0 31
-3.2066772 2.0355821 0.017467352 0 32
-3.1977689 2.0299273 0.052259427 0 33
-3.1953909 2.0284178 0.087044097 0 34
-3.2085826 2.0367918 0.12238554 0 35
-3.2005346 2.0316827 0.15699358 0 36
-3.2005615 2.0316999 0.19193684 0 37
-3.2075522 2.0361376 0.22740692 0 38
-3.1999276 2.0312974 0.26187244 0 39
-3.205658 2.034935 0.29745477 0 40
-3.1988859 2.0306363 0.33191612 0 41
-3.2097352 2.0375235 0.36830735 0 42
-3.1925128 2.0265906 0.40147001 0 43
-3.1937799 2.027395 0.43685088 0 44
-3.2060487 2.0351832 0.47396103 0 45
-3.2145538 2.0405822 0.51082605 0 46
-3.2071571 2.0358868 0.54526418 0 47
-3.1838195 2.0210724 0.57674432 0 48
-3.1910152 2.02564 0.61367583 0 49
-3.1905799 2.0253637 0.64932191 0 50
-3.1929159 2.0268466 0.68566644 0 51
-3.1900351 2.025018 0.72100425 0 52
-3.1999626 2.0313199 0.75944322 0 53
-3.2056692 2.0349422 0.7971912 0 54
-3.1999815 2.0313318 0.83224648 0 55
-3.1919672 2.0262444 0.86668766 0 56
-3.1910231 2.025645 0.90310037 0 57
-3.2052596 2.0346823 0.94412434 0 58
-3.2016184 2.032371 0.98017424 0 59
-3.2087767 2.0369151 1.0197483 0 60
-3.1941066 2.0276024 1.052482 0 61
-3.1978304 2.0299664 1.0913407 0 62
-3.2056396 2.0349233 1.1319295 0 63
-2.1024387 1.2986279 -0.73668879 0 0
-2.1825998 1.3481416 -0.7391541 0 1
-2.2516305 1.3907803 -0.73623836 0 2
-2.338846 1.4446511 -0.7375834 0 3
-2.4188633 1.4940761 -0.73485398 0 4
-2.5167577 1.5545433 -0.73563677 0 5
-2.6228518 1.6200751 -0.73660702 0 6
-2.7355609 1.6896929 -0.73706633 0 7
-2.8400624 1.7542411 -0.73297369 0 8
-2.9694054 1.8341333 -0.73277271 0 9
-3.1045942 1.9176363 -0.73115802 0 10
-3.2335503 1.9972895 -0.72523373 0 11
-3.2444253 2.0040066 -0.69138378 0 12
-3.2438934 2.0036783 -0.65510815 0 13
-3.2255549 1.9923509 -0.61556029 0 14
-3.2492242 2.0069709 -0.5840776 0 15
-3.2284877 1.9941623 -0.54468054 0 16
-3.2392392 2.0008035 -0.51080054 0 17
-3.235116 1.9982566 -0.47458979 0 18
-3.2481155 2.0062861 -0.44087523 0 19
-3.2404394 2.0015447 -0.40437132 0 20
-3.223582 1.9911324 -0.36705905 0 21
-3.2315567 1.996058 -0.33273414 0 22
-3.2333465 1.9971637 -0.29772276 0 23
-3.236815 1.999306 -0.2628594 0 24
-3.2361727 1.9989094 -0.22767621 0 25
-3.238265 2.0002017 -0.19270834 0 26
-3.2363818 1.9990385 -0.1575343 0 27
-3.2407577 2.0017414 -0.12266465 0 28
-3.2363961 1.9990473 -0.087484881 0 29
-3.2419057 2.0024505 -0.052574355 0 30
-3.2415144 2.0022087 -0.017521681 0 31
-3.23751 1.9997352 0.017500035 0 32
-3.2440825 2.0037949 0.052609656 0 33
-3.233259 1.9971095 0.087400079 0 34
-3.2332835 1.9971248 0.12238175 0 35
-3.2426381 2.0029027 0.15783884 0 36
-3.2457988 2.0048552 0.19315667 0 37
-3.2405946 2.0016406 0.22798732 0 38
-3.2340729 1.9976124 0.26263672 0 39
-3.2532477 2.0094562 0.29955521 0 40
-3.2281361 1.9939452 0.33238193 0 41
-3.2307169 1.9955394 0.36787146 0 42
-3.2258701 1.9925456 0.40255323 0 43
-3.2299671 1.9950762 0.43841186 0 44
-3.2426481 2.0029089 0.47569475 0 45
-3.2263305 1.9928299 0.50876498 0 46
-3.2441504 2.0038369 0.54732299 0 47
-3.2325895 1.9966961 0.58108735 0 48
-3.2335503 1.9972895 0.61708611 0 49
-3.2378693 1.9999573 0.65389156 0 50
-3.2320225 1.9963458 0.68874073 0 51
-3.2318816 1.9962589 0.72485948 0 52
-3.2343838 1.9978044 0.76172459 0 53
-3.2262311 1.9927686 0.79615068 0 54
-3.2317708 1.9961903 0.83406723 0 55
-3.240849 2.0017977 0.87321061 0 56
-3.232724 1.9967791 0.90788472 0 57
-3.2347085 1.9980048 0.94549048 0 58
-3.2389007 2.0005944 0.98398238 0 59
-3.2312169 1.9958482 1.0190034 0 60
-3.2479639 2.0061924 1.0620195 0 61
-3.2318039 1.9962107 1.094475 0 62
-3.2333946 1.9971933 1.1329727 0 63
-2.1131015 1.2695876 -0.73489928 0 0
-2.1802497 1.3099314 -0.73284793 0 1
-2.257715 1.3564739 -0.73271847 0 2
-2.3507004 1.4123411 -0.73578942 0 3
-2.4329882 1.4617809 -0.73362887 0 4
-2.5329878 1.5218625 -0.73485535 0 5
-2.6225951 1.5757 -0.73103821 0 6
-2.7525048 1.653752 -0.73609692 0 7
-2.8675296 1.7228609 -0.73453945 0 8
-3.0080318 1.8072771 -0.73676497 0 9
-3.1554179 1.8958292 -0.73758155 0 10
-3.2602508 1.9588145 -0.72576511 0 11
-3.270829 1.9651701 -0.69180858 0 12
-3.2630527 1.9604979 -0.65405941 0 13
-3.2660384 1.9622918 -0.61863458 0 14
-3.269742 1.964517 -0.58337939 0 15
-3.2689221 1.9640244 -0.54738641 0 16
-3.2735763 1.9668207 -0.51236272 0 17
-3.2744038 1.9673178 -0.4767684 0 18
-3.2727158 1.9663037 -0.44089913 0 19
-3.2748806 1.9676044 -0.40561932 0 20
-3.2782032 1.9696007 -0.37049282 0 21
-3.2646117 1.9614346 -0.33362904 0 22
-3.275974 1.9682614 -0.29939666 0 23
-3.260025 1.9586788 -0.26276851 0 24
-3.2726657 1.9662737 -0.22852534 0 25
-3.2773628 1.9690957 -0.19357951 0 26
-3.2806695 1.9710824 -0.15849829 0 27
-3.2636833 1.9608768 -0.12261048 0 28
-3.2755015 1.9679774 -0.087881178 0 29
-3.252964 1.9544364 -0.052359991 0 30
-3.2718744 1.9657983 -0.017553803 0 31
-3.2655506 1.9619987 0.017519873 0 32
-3.2690725 1.9641148 0.052619275 0 33
-3.2710085 1.9652778 0.08776062 0 34
-3.2616737 1.9596694 0.12253498 0 35
-3.2622149 1.9599947 0.15760669 0 36
-3.2640593 1.9611027 0.19279373 0 37
-3.2603264 1.9588599 0.2276637 0 38
-3.2752414 1.9678211 0.26399499 0 39
-3.2686512 1.9638617 0.29872742 0 40
-3.2549303 1.9556178 0.33263963 0 41
-3.2682931 1.9636464 0.36937279 0 42
-3.2647297 1.9615055 0.40436205 0 43
-3.2719676 1.9658543 0.44079834 0 44
-3.2805126 1.9709882 0.47765791 0 45
-3.274972 1.9676592 0.51258117 0 46
-3.2668715 1.9627923 0.54704303 0 47
-3.2742298 1.9672133 0.58418006 0 48
-3.2743516 1.9672865 0.62020916 0 49
-3.2764988 1.9685767 0.65675467 0 50
-3.2650125 1.9616754 0.69057834 0 51
-3.2780256 1.9694939 0.72972196 0 52
-3.2583575 1.9576769 0.76164371 0 53
-3.2665572 1.9626036 0.80008626 0 54
-3.2692306 1.9642098 0.83743823 0 55
-3.2694881 1.9643645 0.87435275 0 56
-3.2776773 1.9692847 0.91363978 0 57
-3.2713137 1.9654613 0.949054 0 58
-3.2767591 1.9687331 0.98805463 0 59
-3.2767987 1.9687568 1.0256661 0 60
-3.2687869 1.9639432 1.0608516 0 61
-3.2757459 1.9681242 1.1010773 0 62
-3.2716806 1.9656818 1.1378325 0 63
-2.1305656 1.2446862 -0.73559445 0 0
-2.1948521 1.2822427 -0.73240107 0 1
-2.2836206 1.3341017 -0.73574626 0 2
-2.3508878 1.3733995 -0.73050672 0 3
-2.4484401 1.43039 -0.73292917 0 4
-2.5534091 1.4917133 -0.7354027 0 5
-2.6398435 1.5422087 -0.73050481 0 6
-2.7818401 1.6251638 -0.73854196 0 7
-2.8884168 1.6874262 -0.73451918 0 8
-3.0153556 1.7615846 -0.73319781 0 9
-3.1729677 1.8536623 -0.73630011 0 10
-3.2955625 1.9252827 -0.72830069 0 11
-3.3118057 1.934772 -0.695391 0 12
-3.3073337 1.9321594 -0.65812325 0 13
-3.309047 1.9331604 -0.62223136 0 14
-3.2990487 1.9273194 -0.58433568 0 15
-3.2902777 1.9221953 -0.54696316 0 16
-3.3256991 1.9428886 -0.51674241 0 17
-3.3056409 1.9311706 -0.47782296 0 18
-3.3165057 1.9375179 -0.4435553 0 19
-3.3051186 1.9308655 -0.40639308 0 20
-3.3126676 1.9352757 -0.37167031 0 21
-3.3033161 1.9298124 -0.33513406 0 22
-3.306607 1.9317349 -0.30000269 0 23
-3.3076377 1.9323372 -0.26467103 0 24
-3.2994444 1.9275507 -0.22872289 0 25
-3.3067718 1.9318312 -0.19389883 0 26
-3.3060327 1.9313995 -0.15856427 0 27
-3.3066075 1.9317353 -0.12332137 0 28
-3.3138771 1.9359822 -0.088265404 0 29
-3.3137503 1.9359081 -0.052951243 0 30
-3.297497 1.9264129 -0.017562853 0 31
-3.2990074 1.9272952 0.017570896 0 32
-3.3092113 1.9332564 0.052878711 0 33
-3.3060815 1.9314281 0.088057771 0 34
-3.3018808 1.928974 0.12314508 0 35
-3.3150516 1.9366683 0.15899684 0 36
-3.3156278 1.9370049 0.1944181 0 37
-3.3082323 1.9326845 0.22933206 0 38
-3.2998171 1.9277682 0.26404524 0 39
-3.302217 1.9291703 0.29960439 0 40
-3.3212247 1.9402747 0.33695093 0 41
-3.3134894 1.9357557 0.37176251 0 42
-3.3004625 1.9281453 0.40582058 0 43
-3.3106692 1.9341081 0.44277474 0 44
-3.3084412 1.9328065 0.47822773 0 45
-3.3080966 1.9326053 0.51400733 0 46
-3.3063157 1.9315647 0.54962927 0 47
-3.2997231 1.9277134 0.58445513 0 48
-3.3221791 1.9408323 0.62470073 0 49
-3.3113596 1.9345115 0.6589244 0 50
-3.2976778 1.9265186 0.69242448 0 51
-3.2992363 1.9274291 0.72911263 0 52
-3.3031101 1.929692 0.76650017 0 53
-3.3031189 1.9296973 0.80316883 0 54
-3.3120313 1.9349039 0.84224361 0 55
-3.2942142 1.9244951 0.87457061 0 56
-3.2991414 1.9273735 0.91294754 0 57
-3.2996495 1.9276704 0.95032609 0 58
-3.3069313 1.9319245 0.98991448 0 59
-3.2987757 1.9271599 1.0250502 0 60
-3.311584 1.9346426 1.0669397 0 61
-3.3172703 1.9379646 1.1069412 0 62
-3.2959375 1.9255018 1.1379482 0 63
-2.1463432 1.218756 -0.73581201 0 0
-2.2226133 1.2620643 -0.73643047 0 1
-2.2952793 1.3033262 -0.73428357 0 2
-2.3874283 1.355651 -0.73662561 0 3
-2.4753389 1.4055693 -0.73575181 0 4
-2.5747418 1.4620131 -0.73631334 0 5
-2.6746924 1.518768 -0.73492479 0 6
-2.7829814 1.5802577 -0.73363066 0 7
-2.8976324 1.6453599 -0.73166245 0 8
-3.0430343 1.7279232 -0.73470604 0 9
-3.2126646 1.8242443 -0.74025059 0 10
-3.3407509 1.8969753 -0.73307669 0 11
-3.3458953 1.8998965 -0.69759077 0 12
-3.3360808 1.8943236 -0.65915865 0 13
-3.337254 1.8949898 -0.62310666 0 14
-3.3343723 1.8933533 -0.58642423 0 15
-3.3371513 1.8949314 -0.55084014 0 16
-3.3493412 1.9018531 -0.51674312 0 17
-3.3413422 1.8973111 -0.47957489 0 18
-3.3421972 1.8977965 -0.44383675 0 19
-3.3468251 1.9004244 -0.40861699 0 20
-3.3400571 1.8965814 -0.37209862 0 21
-3.3251178 1.8880984 -0.33496511 0 22
-3.3406808 1.8969356 -0.30095512 0 23
-3.3402913 1.8967143 -0.26539758 0 24
-3.3435416 1.89856 -0.23014401 0 25
-3.350054 1.9022579 -0.19505043 0 26
-3.3471243 1.9005944 -0.15940215 0 27
-3.3412507 1.8972591 -0.12373396 0 28
-3.3394535 1.8962386 -0.088318907 0 29
-3.3299313 1.8908317 -0.052834284 0 30
-3.3558133 1.9055282 -0.017747313 0 31
-3.3314328 1.8916843 0.017618375 0 32
-3.3423457 1.8978809 0.053031258 0 33
-3.3413546 1.8973181 0.088369183 0 34
-3.3401794 1.8966509 0.12369429 0 35
-3.3495371 1.9019644 0.15951706 0 36
-3.3343925 1.8933649 0.19413857 0 37
-3.3339434 1.8931098 0.22948334 0 38
-3.3330197 1.8925854 0.26481983 0 39
-3.3407116 1.896953 0.30095789 0 40
-3.3469121 1.900474 0.33716065 0 41
-3.3485718 1.9014163 0.37304717 0 42
-3.3412228 1.8972433 0.40793303 0 43
-3.3381906 1.8955215 0.44330469 0 44
-3.358073 1.9068114 0.48197624 0 45
-3.3627279 1.9094545 0.51880842 0 46
-3.3467085 1.9003582 0.5524177 0 47
-3.3341134 1.8932064 0.58637869 0 48
-3.3316178 1.8917893 0.62205428 0 49
-3.3444195 1.8990586 0.66080624 0 50
-3.3513923 1.9030178 0.69873679 0 51
-3.3334005 1.8928016 0.73146379 0 52
-3.3363376 1.8944693 0.76874685 0 53
-3.3438115 1.8987132 0.8073253 0 54
-3.3329024 1.8925188 0.84156966 0 55
-3.3539462 1.9044681 0.88414454 0 56
-3.3372781 1.8950033 0.91698337 0 57
-3.332123 1.8920763 0.95290589 0 58
-3.3437393 1.8986722 0.99386883 0 59
-3.3564208 1.9058732 1.035602 0 60
-3.3470623 1.9005592 1.0707599 0 61
-3.32567 1.888412 1.1019123 0 62
-3.3291216 1.8903719 1.1412935 0 63
-2.1435368 1.1825477 -0.72980976 0 0
-2.2307847 1.2306805 -0.73406833 0 1
-2.3191833 1.2794484 -0.73684198 0 2
-2.4058931 1.3272845 -0.73723137 0 3
-2.4921277 1.3748584 -0.73566139 0 4
-2.580611 1.4236729 -0.73293006 0 5
-2.6869805 1.482355 -0.73323733 0 6
-2.8082924 1.5492803 -0.73522538 0 7
-2.916193 1.6088071 -0.73129857 0 8
-3.0513947 1.6833951 -0.73167151 0 9
-3.2292106 1.7814927 -0.73895967 0 10
-3.3600898 1.8536962 -0.73226321 0 11
-3.3780837 1.8636231 -0.69947112 0 12
-3.3868461 1.8684572 -0.6645993 0 13
-3.3723319 1.8604499 -0.62533742 0 14
-3.3814321 1.8654703 -0.59062183 0 15
-3.3765481 1.8627759 -0.55352038 0 16
-3.3696868 1.8589907 -0.51631629 0 17
-3.3698206 1.8590645 -0.48034498 0 18
-3.3853545 1.8676343 -0.44648445 0 19
-3.3894558 1.8698969 -0.4109835 0 20
-3.3695421 1.8589108 -0.37280869 0 21
-3.3837247 1.8667352 -0.33853111 0 22
-3.386698 1.8683754 -0.30300808 0 23
-3.3728995 1.8607632 -0.26615036 0 24
-3.3831038 1.8663926 -0.23126999 0 25
-3.3851578 1.8675257 -0.19574244 0 26
-3.3676422 1.8578628 -0.15927929 0 27
-3.3745997 1.8617011 -0.12411181 0 28
-3.3864548 1.8682413 -0.088947669 0 29
-3.3865619 1.8683004 -0.053364269 0 30
-3.3773017 1.8631917 -0.01773845 0 31
