# .PCD v0.7 - Point Cloud Data file format
VERSION 0.7
FIELDS x y z intensity ring
SIZE 4 4 4 4 2
TYPE F F F F U
COUNT 1 1 1 1 1
WIDTH 1339
HEIGHT 1
VIEWPOINT 0 0 0 1 0 0 0
POINTS 1339
DATA ascii
5.0508833 -3.0770578 -0.73817146 0 18
5.4299803 -3.3080082 -0.73424983 0 19
5.9537477 -3.6270933 -0.74016452 0 20
6.430943 -3.9178066 -0.72951341 0 21
6.4231391 -3.9130523 -0.65886182 0 22
6.4191909 -3.9106472 -0.58884567 0 23
6.4309206 -3.9177928 -0.5202837 0 24
6.4259124 -3.9147418 -0.45038319 0 25
6.4304104 -3.9174819 -0.38123101 0 26
6.4396172 -3.9230909 -0.31227472 0 27
6.4403405 -3.9235315 -0.24285279 0 28
6.4280758 -3.9160597 -0.17310663 0 29
6.4353166 -3.920471 -0.10396925 0 30
6.4362798 -3.9210577 -0.034659646 0 31
6.4302959 -3.9174125 0.034627426 0 32
6.4396448 -3.9231076 0.10403917 0 33
6.4322319 -3.9185917 0.17321856 0 34
6.4396882 -3.9231341 0.24282819 0 35
6.4378572 -3.9220188 0.31218937 0 36
6.4398022 -3.9232035 0.38178781 0 37
6.4321594 -3.9185476 0.45082104 0 38
6.4264469 -3.9150672 0.51992172 0 39
6.4224625 -3.9126401 0.58914578 0 40
6.4383569 -3.922323 0.66042274 0 41
6.4486842 -3.9286146 0.7315259 0 42
6.4304218 -3.9174891 0.79942423 0 43
6.431972 -3.9184334 0.86974066 0 44
6.4315238 -3.9181602 0.93994796 0 45
6.420845 -3.9116547 1.0086998 0 46
6.4356456 -3.9206712 1.0816736 0 47
6.4247446 -3.9140306 1.150557 0 48
6.4329586 -3.9190342 1.2230334 0 49
6.4423265 -3.9247415 1.296136 0 50
6.439733 -3.9231615 1.3671327 0 51
6.4451032 -3.9264331 1.4400901 0 52
6.4477797 -3.9280636 1.5127878 0 53
6.4288211 -3.9165139 1.580493 0 54
6.441226 -3.9240708 1.6561147 0 55
6.4352474 -3.9204288 1.7273759 0 56
0 0 0 0 57
0 0 0 0 58
0 0 0 0 59
0 0 0 0 60
0 0 0 0 61
0 0 0 0 62
0 0 0 0 63
2.115783 -1.2535528 -0.73313648 0 0
2.1885278 -1.2966524 -0.73293585 0 1
2.2779458 -1.3496305 -0.73657614 0 2
2.3673172 -1.4025811 -0.73827636 0 3
2.4374592 -1.4441386 -0.73228484 0 4
2.5437853 -1.5071343 -0.73528457 0 5
2.6379879 -1.5629472 -0.73263538 0 6
2.7537067 -1.6315079 -0.73372084 0 7
2.8687897 -1.6996919 -0.73217046 0 8
3.0185378 -1.7884142 -0.73663002 0 9
3.1374183 -1.8588482 -0.73068774 0 10
3.3200865 -1.967075 -0.73637795 0 11
3.4755433 -2.0591795 -0.73241472 0 12
3.6678438 -2.1731131 -0.73250443 0 13
3.8846169 -2.3015461 -0.73310697 0 14
4.138907 -2.4522073 -0.73574877 0 15
4.3848472 -2.5979211 -0.73156041 0 16
4.7134223 -2.7925944 -0.73501754 0 17
5.0573597 -2.9963694 -0.7336778 0 18
5.5079927 -3.2633591 -0.73931682 0 19
5.9496379 -3.5250237 -0.73420942 0 20
6.4864035 -3.843045 -0.73038888 0 21
6.5045485 -3.8537955 -0.66230154 0 22
6.5084524 -3.8561084 -0.59263939 0 23
6.5054722 -3.8543427 -0.52244127 0 24
6.5015073 -3.8519936 -0.45232752 0 25
6.4942074 -3.8476686 -0.38217941 0 26
6.4993072 -3.8506901 -0.31284946 0 27
6.506887 -3.855181 -0.24355616 0 28
6.488451 -3.8442581 -0.17344642 0 29
6.5094776 -3.8567159 -0.10439332 0 30
6.4968348 -3.8492253 -0.034728229 0 31
6.5023036 -3.8524654 0.034757461 0 32
6.5009432 -3.8516593 0.10425645 0 33
6.5052338 -3.8542016 0.17389505 0 34
6.5017982 -3.8521659 0.24336569 0 35
6.5060916 -3.8547099 0.31317607 0 36
6.5027781 -3.8527465 0.38268378 0 37
6.5057874 -3.8545296 0.4526253 0 38
6.4967647 -3.8491838 0.52174199 0 39
6.5109386 -3.8575816 0.59286577 0 40
6.5057387 -3.8545008 0.66242272 0 41
6.5043693 -3.8536892 0.73241186 0 42
6.4977813 -3.849786 0.80185258 0 43
6.4971776 -3.8494284 0.87209129 0 44
6.5032897 -3.8530498 0.94344074 0 45
6.5013885 -3.8519232 1.0138354 0 46
6.5086699 -3.8562374 1.0858953 0 47
6.4794888 -3.8389482 1.1518201 0 48
6.5003996 -3.8513372 1.2267588 0 49
6.507431 -3.8555033 1.2995979 0 50
6.5037804 -3.8533404 1.370567 0 51
6.519371 -3.8625777 1.4459627 0 52
6.5113993 -3.8578544 1.5164697 0 53
6.5048018 -3.8539455 1.5874017 0 54
6.4963484 -3.848937 1.6579934 0 55
6.5023589 -3.8524983 1.7325435 0 56
0 0 0 0 57
0 0 0 0 58
0 0 0 0 59
0 0 0 0 60
0 0 0 0 61
0 0 0 0 62
0 0 0 0 63
2.1299839 -1.2268373 -0.7327745 0 0
2.2091675 -1.2724457 -0.7345525 0 1
2.2778981 -1.3120334 -0.73128873 0 2
2.3662672 -1.3629328 -0.73266697 0 3
2.4730313 -1.4244272 -0.73765385 0 4
2.5476933 -1.4674313 -0.73114324 0 5
2.667347 -1.5363499 -0.73548681 0 6
2.7805972 -1.6015803 -0.73558283 0 7
2.885709 -1.6621231 -0.73121709 0 8
3.0265443 -1.7432419 -0.73329741 0 9
3.1752341 -1.828885 -0.73420185 0 10
3.3480577 -1.9284286 -0.73726666 0 11
3.5097711 -2.0215731 -0.73433375 0 12
3.7065735 -2.134928 -0.73494077 0 13
3.9117706 -2.2531185 -0.73294747 0 14
4.1770878 -2.4059367 -0.73722106 0 15
4.4432764 -2.5592573 -0.73600262 0 16
4.7130198 -2.7146254 -0.72969419 0 17
5.1154871 -2.9464402 -0.73679864 0 18
5.4990363 -3.1673584 -0.73283148 0 19
6.013628 -3.4637551 -0.73679435 0 20
6.5804009 -3.7902074 -0.73566961 0 21
6.5799046 -3.7899215 -0.66517889 0 22
6.5709457 -3.7847614 -0.59404719 0 23
6.5737982 -3.7864044 -0.52414966 0 24
6.5841851 -3.7923872 -0.4548009 0 25
6.5828652 -3.7916269 -0.384624 0 26
6.5820341 -3.7911482 -0.31456384 0 27
6.5722423 -3.7855082 -0.24424164 0 28
6.582696 -3.7915294 -0.17470624 0 29
6.5782614 -3.7889752 -0.10474131 0 30
6.5849838 -3.7928472 -0.034947477 0 31
6.5727286 -3.7857883 0.034882437 0 32
6.5785832 -3.7891607 0.10474644 0 33
6.5695434 -3.7839539 0.17435718 0 34
6.5646377 -3.7811282 0.24395904 0 35
6.5849838 -3.7928472 0.31470481 0 36
6.5704803 -3.7844934 0.3839004 0 37
6.5783691 -3.7890372 0.45439914 0 38
6.5969419 -3.7997351 0.52599502 0 39
6.5785646 -3.7891498 0.59473598 0 40
6.5718198 -3.7852647 0.6643616 0 41
6.5615468 -3.7793479 0.73356181 0 42
6.5743465 -3.78672 0.80549401 0 43
6.5810933 -3.7906063 0.87703222 0 44
6.5712209 -3.78492 0.94647229 0 45
6.5687051 -3.7834709 1.017001 0 46
6.5766988 -3.7880752 1.0893915 0 47
6.5694981 -3.7839277 1.1594615 0 48
6.5934248 -3.797709 1.2354083 0 49
6.5776119 -3.7886012 1.3042114 0 50
6.5827084 -3.7915363 1.3772707 0 51
6.5767155 -3.7880847 1.4482406 0 52
6.5679388 -3.7830296 1.5186889 0 53
6.5704913 -3.7844996 1.5919555 0 54
6.5759497 -3.7876437 1.6662964 0 55
6.5666375 -3.78228 1.7371469 0 56
0 0 0 0 57
0 0 0 0 58
0 0 0 0 59
0 0 0 0 60
0 0 0 0 61
0 0 0 0 62
0 0 0 0 63
2.1439738 -1.2000326 -0.73245549 0 0
2.2220383 -1.2437271 -0.73369145 0 1
2.3079431 -1.29181 -0.73577911 0 2
2.3831501 -1.3339052 -0.73276037 0 3
2.4781485 -1.387078 -0.73403722 0 4
2.5875599 -1.4483181 -0.73741752 0 5
2.6833665 -1.5019435 -0.73475599 0 6
2.8016131 -1.5681288 -0.73598576 0 7
2.9196928 -1.6342207 -0.73468083 0 8
3.061168 -1.7134078 -0.73652589 0 9
3.186208 -1.7833956 -0.73161328 0 10
3.3641107 -1.8829719 -0.73564732 0 11
3.5394809 -1.9811307 -0.73539728 0 12
3.7519641 -2.1000626 -0.7387647 0 13
3.9379089 -2.2041402 -0.73271126 0 14
4.1655293 -2.3315449 -0.73006594 0 15
4.4705791 -2.5022883 -0.73537284 0 16
4.7776694 -2.6741738 -0.73455697 0 17
5.1270909 -2.8697534 -0.73333192 0 18
5.5721297 -3.1188521 -0.73740572 0 19
6.0392466 -3.3803084 -0.73478496 0 20
6.5661864 -3.6752489 -0.72897297 0 21
6.6454239 -3.7196002 -0.66712826 0 22
6.6485929 -3.7213738 -0.59688485 0 23
6.6437874 -3.7186842 -0.52604443 0 24
6.6544585 -3.7246568 -0.45645684 0 25
6.6503797 -3.7223742 -0.38586521 0 26
6.6480584 -3.7210746 -0.31550863 0 27
6.6562667 -3.7256691 -0.24564312 0 28
6.647408 -3.7207108 -0.17519622 0 29
6.6449265 -3.7193217 -0.10506663 0 30
6.6491661 -3.7216947 -0.035042576 0 31
6.6304035 -3.7111928 0.034943696 0 32
6.6520905 -3.7233315 0.10517991 0 33
6.6400676 -3.7166021 0.17500275 0 34
6.6495709 -3.7219212 0.24539602 0 35
6.6544333 -3.7246428 0.31581116 0 36
6.640008 -3.7165687 0.38526341 0 37
6.6488991 -3.7215455 0.45607552 0 38
6.6439981 -3.718802 0.52606112 0 39
6.6521711 -3.7233765 0.59720606 0 40
6.6404839 -3.716835 0.66663235 0 41
6.642139 -3.7177615 0.73740518 0 42
6.6424546 -3.7179379 0.80817622 0 43
6.6565218 -3.725812 0.88091218 0 44
6.6476173 -3.7208278 0.95081407 0 45
6.6438856 -3.718739 1.0214839 0 46
6.6526089 -3.7236216 1.0942984 0 47
6.6481533 -3.7211277 1.1651797 0 48
6.6457715 -3.7197948 1.2365526 0 49
6.6508822 -3.7226553 1.309564 0 50
6.6411314 -3.7171974 1.3798265 0 51
6.6485009 -3.7213225 1.4538618 0 52
6.6471272 -3.7205536 1.5263054 0 53
6.6420202 -3.717695 1.5980893 0 54
6.6612291 -3.7284465 1.6761616 0 55
6.6437597 -3.7186687 1.7453203 0 56
0 0 0 0 57
0 0 0 0 58
0 0 0 0 59
0 0 0 0 60
0 0 0 0 61
0 0 0 0 62
0 0 0 0 63
2.1617 -1.175284 -0.73351866 0 0
2.2286596 -1.211689 -0.73090291 0 1
2.3233154 -1.2631519 -0.73567247 0 2
2.3990452 -1.3043251 -0.73266083 0 3
2.4998984 -1.3591574 -0.73547357 0 4
2.6116517 -1.419916 -0.73925161 0 5
2.6941912 -1.4647915 -0.73273265 0 6
2.8189974 -1.5326469 -0.73554611 0 7
2.9364281 -1.5964922 -0.73389661 0 8
3.0863397 -1.6779969 -0.73756206 0 9
3.2286901 -1.7553906 -0.73635602 0 10
3.375391 -1.8351498 -0.73312408 0 11
3.5666184 -1.9391172 -0.73602587 0 12
3.739769 -2.0332565 -0.73138529 0 13
3.9894755 -2.1690183 -0.7372877 0 14
4.2267408 -2.2980158 -0.73578596 0 15
4.4769034 -2.4340258 -0.73143458 0 16
4.8191733 -2.6201127 -0.73592901 0 17
5.168263 -2.8099074 -0.73422331 0 18
5.5816092 -3.0346377 -0.73366648 0 19
6.1059012 -3.3196874 -0.73787236 0 20
6.6829753 -3.6334341 -0.73692292 0 21
6.720449 -3.6538079 -0.6700989 0 22
6.7290974 -3.6585097 -0.6000281 0 23
6.7014012 -3.6434519 -0.52701908 0 24
6.7173362 -3.6521153 -0.45765486 0 25
6.7156277 -3.6511865 -0.38701677 0 26
6.7248755 -3.6562142 -0.31699663 0 27
6.7259641 -3.6568062 -0.24653719 0 28
6.7199235 -3.653522 -0.17591006 0 29
6.7073398 -3.6466806 -0.1053365 0 30
6.720818 -3.6540086 -0.035180744 0 31
6.738553 -3.6636508 0.035273578 0 32
6.7186213 -3.6528141 0.10551368 0 33
6.7284732 -3.6581705 0.17613387 0 34
6.7069902 -3.6464903 0.2458417 0 35
6.7204504 -3.6538086 0.31678805 0 36
6.7049694 -3.6453919 0.38640255 0 37
6.7281141 -3.6579752 0.45838916 0 38
6.7268887 -3.6573088 0.52902347 0 39
6.7257833 -3.656708 0.59973264 0 40
6.7250614 -3.6563156 0.67055881 0 41
6.7239251 -3.6556976 0.74143839 0 42
6.7169685 -3.6519156 0.81171727 0 43
6.7043891 -3.6450763 0.88124865 0 44
6.7072406 -3.6466265 0.95285636 0 45
6.7101488 -3.6482077 1.0246972 0 46
6.7265296 -3.6571138 1.0989776 0 47
6.7151222 -3.6509118 1.1689605 0 48
6.7290692 -3.6584945 1.243587 0 49
6.7102227 -3.648248 1.3123158 0 50
6.7267351 -3.6572254 1.3881639 0 51
6.7145529 -3.6506021 1.4583793 0 52
6.7207918 -3.6539941 1.5327873 0 53
6.7214236 -3.6543376 1.606261 0 54
6.7162828 -3.6515427 1.6785895 0 55
6.7179513 -3.6524498 1.7528795 0 56
0 0 0 0 57
0 0 0 0 58
0 0 0 0 59
0 0 0 0 60
0 0 0 0 61
0 0 0 0 62
0 0 0 0 63
2.1775303 -1.1494304 -0.73403883 0 0
2.2599452 -1.1929339 -0.73629677 0 1
2.3420177 -1.2362566 -0.73672521 0 2
2.4296396 -1.2825086 -0.73713231 0 3
2.5080044 -1.3238744 -0.73301369 0 4
2.6176436 -1.3817484 -0.73608273 0 5
2.7090051 -1.4299744 -0.731924 0 6
2.8338039 -1.4958508 -0.73455465 0 7
2.9580383 -1.561429 -0.73444343 0 8
3.1196229 -1.6467232 -0.74062097 0 9
3.2461691 -1.7135217 -0.73548132 0 10
3.4039326 -1.7967987 -0.73446888 0 11
3.5919023 -1.8960203 -0.73637664 0 12
3.7675443 -1.9887346 -0.73197943 0 13
3.9798927 -2.1008248 -0.73068738 0 14
4.2602153 -2.2487957 -0.73674381 0 15
4.5284629 -2.390393 -0.73500055 0 16
4.8387694 -2.5541911 -0.73406982 0 17
5.2311134 -2.7612936 -0.73827255 0 18
5.642045 -2.9782078 -0.73674101 0 19
6.1127386 -3.2266681 -0.73384845 0 20
6.6840515 -3.5282412 -0.73220223 0 21
6.7919464 -3.5851946 -0.67278135 0 22
6.7763333 -3.5769529 -0.60027272 0 23
6.7907729 -3.5845752 -0.530541 0 24
6.7887511 -3.5835078 -0.45948353 0 25
6.802763 -3.5909042 -0.38946423 0 26
6.8007145 -3.5898228 -0.31846666 0 27
6.7772408 -3.5774319 -0.24678563 0 28
6.7885971 -3.5834265 -0.17654094 0 29
6.7903152 -3.5843334 -0.10593942 0 30
6.7915306 -3.584975 -0.035317469 0 31
6.7845283 -3.5812788 0.035281058 0 32
6.7918239 -3.5851297 0.10596296 0 33
6.7894249 -3.5838633 0.17656247 0 34
6.7998276 -3.5893545 0.2476081 0 35
6.8037291 -3.591414 0.31860784 0 36
6.7945118 -3.5865486 0.3889918 0 37
6.7990894 -3.5889649 0.46018323 0 38
6.7800503 -3.5789149 0.52970326 0 39
6.8024306 -3.5907288 0.60258454 0 40
6.7898788 -3.5841031 0.67257655 0 41
6.7933774 -3.5859499 0.74417835 0 42
6.8007436 -3.589838 0.81644499 0 43
6.7898674 -3.5840969 0.88662422 0 44
6.7854786 -3.5817804 0.95764184 0 45
6.7901363 -3.584239 1.0301037 0 46
6.7928224 -3.5856566 1.1025215 0 47
6.7730503 -3.5752201 1.171303 0 48
6.7984509 -3.5886278 1.2481599 0 49
6.7832098 -3.5805829 1.3178797 0 50
6.7875128 -3.582854 1.3915094 0 51
6.7834249 -3.5806963 1.4636643 0 52
6.7845607 -3.581296 1.5371712 0 53
6.7813792 -3.5796165 1.6099483 0 54
6.7776651 -3.577656 1.6828085 0 55
6.7971282 -3.5879297 1.7618939 0 56
0 0 0 0 57
0 0 0 0 58
0 0 0 0 59
0 0 0 0 60
0 0 0 0 61
0 0 0 0 62
0 0 0 0 63
2.1967831 -1.1252764 -0.73580885 0 0
2.2705455 -1.1630604 -0.7350353 0 1
2.3461649 -1.2017957 -0.73332578 0 2
2.4379518 -1.2488123 -0.73493975 0 3
2.5316124 -1.2967889 -0.73519748 0 4
2.6196699 -1.3418953 -0.73195726 0 5
2.7312791 -1.3990659 -0.73323852 0 6
2.8555071 -1.4627002 -0.73546255 0 7
2.9800196 -1.5264803 -0.73518515 0 8
3.123003 -1.5997219 -0.73669767 0 9
3.2693584 -1.6746907 -0.73601395 0 10
3.4187229 -1.7512009 -0.7329585 0 11
3.6189311 -1.8537551 -0.73718894 0 12
3.8175542 -1.9554977 -0.73696822 0 13
4.0175443 -2.0579402 -0.73289865 0 14
4.2423754 -2.1731074 -0.72898245 0 15
4.5784249 -2.3452446 -0.73837316 0 16
4.8722563 -2.4957564 -0.73443872 0 17
5.2400298 -2.684144 -0.73481733 0 18
5.6424375 -2.8902726 -0.73209608 0 19
6.1237183 -3.1368034 -0.73048073 0 20
6.7955813 -3.4809573 -0.73967493 0 21
6.8500681 -3.5088675 -0.67421371 0 22
6.8600159 -3.513963 -0.60381234 0 23
6.8729501 -3.5205884 -0.5335387 0 24
6.8699918 -3.5190732 -0.46201843 0 25
6.8625526 -3.5152626 -0.39038303 0 26
6.8695879 -3.5188663 -0.3196415 0 27
6.8679934 -3.5180495 -0.24849625 0 28
6.8760662 -3.5221846 -0.17767587 0 29
6.8638716 -3.515938 -0.10640446 0 30
6.8743291 -3.5212951 -0.035520189 0 31
6.8523102 -3.510016 0.035406414 0 32
6.8662791 -3.5171714 0.10644178 0 33
6.8734593 -3.5208495 0.17760852 0 34
6.8640065 -3.5160072 0.24835199 0 35
6.8696594 -3.518903 0.31964484 0 36
6.8711019 -3.5196419 0.39086938 0 37
6.8739071 -3.5210786 0.4622817 0 38
6.8631043 -3.5155451 0.53277445 0 39
6.8682928 -3.5182028 0.60454088 0 40
6.8639889 -3.5159981 0.67558384 0 41
6.8590016 -3.5134437 0.74657804 0 42
6.8667531 -3.5174141 0.81911516 0 43
6.8706088 -3.5193892 0.89144909 0 44
6.8671412 -3.5176132 0.96298969 0 45
6.8541718 -3.5109694 1.0331905 0 46
6.8518224 -3.5097661 1.1050093 0 47
6.8655205 -3.5167828 1.1797268 0 48
6.853642 -3.5106981 1.2502725 0 49
6.8672576 -3.5176725 1.3257049 0 50
6.8628798 -3.5154302 1.3979926 0 51
6.8708582 -3.5195169 1.4730804 0 52
6.8715692 -3.519881 1.5469613 0 53
6.8608012 -3.5143654 1.6184219 0 54
6.8638721 -3.5159385 1.6933502 0 55
0 0 0 0 56
0 0 0 0 57
0 0 0 0 58
0 0 0 0 59
0 0 0 0 60
0 0 0 0 61
0 0 0 0 62
0 0 0 0 63
2.2052951 -1.0956184 -0.73409194 0 0
2.2727141 -1.129113 -0.7311874 0 1
2.3594432 -1.172201 -0.73291534 0 2
2.4513271 -1.2178502 -0.73440194 0 3
2.5498772 -1.266811 -0.73592234 0 4
2.6507983 -1.31695 -0.73607439 0 5
2.7478058 -1.3651445 -0.73311335 0 6
2.8745167 -1.4280961 -0.73578012 0 7
3.0001292 -1.4905019 -0.73556906 0 8
3.1307847 -1.5554132 -0.73396617 0 9
3.2831833 -1.6311268 -0.73455542 0 10
3.4280727 -1.7031096 -0.73041785 0 11
3.6119776 -1.7944759 -0.73122239 0 12
3.845665 -1.9105747 -0.73780376 0 13
4.059752 -2.0169358 -0.73601842 0 14
4.3071399 -2.1398411 -0.73553413 0 15
4.5748639 -2.27285 -0.73323625 0 16
4.8898015 -2.4293149 -0.73252523 0 17
5.3061714 -2.6361728 -0.73949087 0 18
5.709374 -2.8364887 -0.73619986 0 19
6.1880627 -3.0743074 -0.73359132 0 20
6.7398572 -3.3484459 -0.72907281 0 21
6.738615 -3.3478289 -0.65914243 0 22
6.7398005 -3.3484178 -0.58956248 0 23
6.7390895 -3.3480644 -0.51991206 0 24
6.7516274 -3.3542933 -0.45125026 0 25
6.7434254 -3.3502185 -0.38123405 0 26
6.7401724 -3.3486025 -0.31168032 0 27
6.746325 -3.3516591 -0.24258454 0 28
6.7560821 -3.3565066 -0.17349592 0 29
6.7595878 -3.3582482 -0.10413981 0 30
6.7477584 -3.3523712 -0.034650568 0 31
6.7434773 -3.3502443 0.034628585 0 32
6.760746 -3.3588238 0.10415766 0 33
6.7472658 -3.3521266 0.17326951 0 34
6.7376857 -3.347367 0.2422739 0 35
6.7573485 -3.3571355 0.31247458 0 36
6.7247882 -3.3409593 0.38018042 0 37
6.7552915 -3.3561139 0.45149514 0 38
6.7524042 -3.3546793 0.52093929 0 39
6.7424674 -3.3497424 0.58979571 0 40
6.7408085 -3.3489187 0.65935695 0 41
6.7601743 -3.3585396 0.73127055 0 42
6.7485766 -3.3527777 0.80003989 0 43
6.7414899 -3.349257 0.86928684 0 44
6.7332258 -3.3451512 0.9383713 0 45
6.7562838 -3.3566067 1.0121368 0 46
6.7486267 -3.3528025 1.0816361 0 47
6.7451282 -3.3510644 1.1518717 0 48
6.7596812 -3.3582947 1.2255058 0 49
6.7378025 -3.3474252 1.2926701 0 50
6.7457414 -3.3513694 1.3656334 0 51
6.7388139 -3.3479276 1.435836 0 52
6.7457757 -3.3513863 1.5092505 0 53
6.7474117 -3.3521991 1.5818307 0 54
6.7428703 -3.3499429 1.6532111 0 55
6.7471509 -3.3520694 1.7270448 0 56
0 0 0 0 57
0 0 0 0 58
0 0 0 0 59
0 0 0 0 60
0 0 0 0 61
0 0 0 0 62
0 0 0 0 63
2.2272129 -1.0725682 -0.73694193 0 0
2.29603 -1.1057087 -0.73425895 0 1
2.3676126 -1.1401809 -0.73104268 0 2
2.4760802 -1.1924162 -0.73736924 0 3
2.5530629 -1.2294892 -0.73242307 0 4
2.6600692 -1.2810206 -0.73421925 0 5
2.768111 -1.3330507 -0.73410195 0 6
2.8945153 -1.3939238 -0.7364561 0 7
3.0225565 -1.4555851 -0.73662376 0 8
3.1433012 -1.5137326 -0.73248142 0 9
3.3210227 -1.5993187 -0.73856562 0 10
3.4813061 -1.676507 -0.73731208 0 11
3.6611567 -1.7631184 -0.73673362 0 12
3.8372703 -1.8479302 -0.73177844 0 13
4.0682859 -1.9591814 -0.73314255 0 14
4.3365111 -2.0883517 -0.73610896 0 15
4.6204 -2.2250652 -0.7360937 0 16
4.9252763 -2.3718858 -0.73341489 0 17
5.2939248 -2.5494175 -0.73335981 0 18
5.7079959 -2.7488234 -0.73160839 0 19
6.2185202 -2.9946787 -0.73278117 0 20
6.5826473 -3.170033 -0.70779681 0 21
6.5729432 -3.1653595 -0.63908154 0 22
6.5653086 -3.1616828 -0.57085484 0 23
6.5564628 -3.157423 -0.50278932 0 24
6.5703955 -3.1641326 -0.43650404 0 25
6.5677261 -3.162847 -0.3690744 0 26
6.5638433 -3.1609774 -0.30170628 0 27
6.5804181 -3.1689591 -0.2351999 0 28
6.5627084 -3.1604309 -0.16751945 0 29
6.5698471 -3.1638684 -0.10060965 0 30
6.5819535 -3.1696987 -0.033596452 0 31
6.5474305 -3.1530733 0.033420239 0 32
6.5662603 -3.1621413 0.10055472 0 33
6.5713382 -3.1645865 0.16773973 0 34
6.5616083 -3.1599009 0.23452759 0 35
6.5651884 -3.1616251 0.30176812 0 36
6.5801082 -3.1688101 0.36977026 0 37
6.575232 -3.1664617 0.43682536 0 38
6.5734496 -3.1656034 0.50409198 0 39
6.574563 -3.1661396 0.57165951 0 40
6.5720062 -3.1649084 0.63899046 0 41
6.5790591 -3.1683049 0.70741093 0 42
6.5647964 -3.1614363 0.77358586 0 43
6.5584698 -3.1583896 0.84061575 0 44
6.5709105 -3.1643806 0.91025877 0 45
6.5701785 -3.1640282 0.97835463 0 46
6.5586748 -3.1584883 1.0448877 0 47
6.5653553 -3.1617055 1.1144482 0 48
6.5905681 -3.1738472 1.187681 0 49
6.5650554 -3.1615608 1.2519748 0 50
6.580092 -3.1688023 1.3241103 0 51
6.5697684 -3.1638305 1.3914231 0 52
6.5676513 -3.162811 1.4605865 0 53
6.5662541 -3.1621382 1.5301298 0 54
6.5703921 -3.1641312 1.6012627 0 55
6.5788207 -3.16819 1.6738597 0 56
6.5532579 -3.1558797 1.7379215 0 57
0 0 0 0 58
0 0 0 0 59
0 0 0 0 60
0 0 0 0 61
0 0 0 0 62
0 0 0 0 63
2.2384644 -1.0442775 -0.73636031 0 0
2.3134053 -1.0792385 -0.73551589 0 1
2.40115 -1.1201729 -0.73708922 0 2
2.4854181 -1.1594852 -0.73584855 0 3
2.5709481 -1.1993862 -0.73326755 0 4
2.6816094 -1.2510114 -0.73586309 0 5
2.7943528 -1.3036078 -0.73675442 0 6
2.8961384 -1.3510923 -0.73258656 0 7
3.0535913 -1.4245465 -0.7398622 0 8
3.1714516 -1.4795302 -0.73474622 0 9
3.3217833 -1.5496622 -0.73444146 0 10
3.4940598 -1.6300318 -0.73571253 0 11
3.6806934 -1.7170991 -0.73636049 0 12
3.8799081 -1.8100359 -0.73560947 0 13
4.0901017 -1.9080944 -0.73279035 0 14
4.3438511 -2.0264723 -0.73306966 0 15
4.6268167 -2.1584802 -0.73283213 0 16
4.9300232 -2.2999303 -0.7298553 0 17
5.3469386 -2.4944279 -0.73639899 0 18
5.7994413 -2.7055271 -0.7390092 0 19
6.3048472 -2.9413068 -0.73863602 0 20
6.4013314 -2.9863181 -0.68430066 0 21
6.4132557 -2.9918809 -0.61993134 0 22
6.4103341 -2.9905179 -0.55414051 0 23
6.4019318 -2.986598 -0.48808581 0 24
6.393816 -2.9828119 -0.42230436 0 25
6.4029198 -2.9870589 -0.35772198 0 26
6.4038167 -2.9874773 -0.29264003 0 27
6.4079328 -2.9893978 -0.22770379 0 28
6.4004998 -2.9859302 -0.16242942 0 29
6.4095583 -2.9901559 -0.097584568 0 30
6.4118843 -2.991241 -0.032538157 0 31
6.4061804 -2.98858 0.032509211 0 32
6.4087477 -2.9897778 0.097572222 0 33
6.4081073 -2.9894791 0.16262247 0 34
6.4047008 -2.98789 0.22758895 0 35
6.4026318 -2.9869246 0.29258588 0 36
6.4073906 -2.9891446 0.35797176 0 37
6.4034872 -2.9873238 0.42294315 0 38
6.3732719 -2.9732277 0.48590073 0 39
6.4016151 -2.9864502 0.55338675 0 40
6.4037657 -2.9874537 0.61901402 0 41
6.4090996 -2.9899421 0.68513113 0 42
6.397469 -2.9845161 0.74948698 0 43
6.3975496 -2.9845538 0.81522471 0 44
6.4018183 -2.9865451 0.88168067 0 45
6.3983793 -2.984941 0.94723517 0 46
6.3951693 -2.9834433 1.0129179 0 47
6.4013352 -2.9863198 1.0802914 0 48
6.3921814 -2.9820492 1.1452352 0 49
6.4049783 -2.9880192 1.214349 0 50
6.3932643 -2.9825544 1.2790382 0 51
6.4023881 -2.9868109 1.3480929 0 52
6.3951564 -2.9834373 1.4139597 0 53
6.3928604 -2.9823661 1.4810662 0 54
6.3910189 -2.9815071 1.5484959 0 55
6.407917 -2.9893901 1.6209012 0 56
6.4114027 -2.9910164 1.6904199 0 57
6.405159 -2.9881036 1.757646 0 58
0 0 0 0 59
0 0 0 0 60
0 0 0 0 61
0 0 0 0 62
0 0 0 0 63
2.2472038 -1.0149 -0.7350744 0 0
2.3217747 -1.0485783 -0.73402202 0 1
2.4179678 -1.0920217 -0.73807395 0 2
2.4980977 -1.1282105 -0.7354396 0 3
2.5789962 -1.1647466 -0.73142278 0 4
2.6892791 -1.2145535 -0.733814 0 5
2.8000653 -1.2645876 -0.73410523 0 6
2.9150214 -1.316505 -0.73321277 0 7
3.0671699 -1.3852195 -0.73896933 0 8
3.2004228 -1.4454002 -0.73728472 0 9
3.3440192 -1.5102524 -0.73519623 0 10
3.4976125 -1.5796194 -0.7323153 0 11
3.6804738 -1.6622046 -0.73217213 0 12
3.9203119 -1.7705222 -0.73908627 0 13
4.1485491 -1.8736006 -0.7390784 0 14
4.2411838 -1.9154369 -0.71171486 0 15
4.2331457 -1.9118067 -0.66670543 0 16
4.2206721 -1.9061733 -0.62132388 0 17
4.2349501 -1.9126216 -0.57996917 0 18
4.2434902 -1.9164786 -0.53769439 0 19
4.2212977 -1.9064559 -0.49175698 0 20
4.2292352 -1.9100406 -0.44955942 0 21
4.2280869 -1.9095222 -0.40640366 0 22
4.2297983 -1.9102949 -0.36358628 0 23
4.2236109 -1.9075004 -0.32019725 0 24
4.221704 -1.9066393 -0.27726933 0 25
4.239718 -1.9147749 -0.23553377 0 26
4.2397227 -1.9147772 -0.19265528 0 27
4.2205787 -1.9061311 -0.14913273 0 28
4.2233429 -1.9073796 -0.10657511 0 29
4.222147 -1.9068394 -0.063919738 0 30
4.2380924 -1.9140409 -0.021385843 0 31
4.2338967 -1.9121459 0.021364668 0 32
4.2359228 -1.913061 0.064128295 0 33
4.2276874 -1.9093416 0.10668473 0 34
4.2248697 -1.908069 0.14928435 0 35
4.2201381 -1.9059321 0.19176532 0 36
4.237617 -1.9138261 0.23541705 0 37
4.2140465 -1.903181 0.27676639 0 38
4.2240901 -1.907717 0.32023361 0 39
4.2312737 -1.9109614 0.36371315 0 40
4.2213078 -1.9064604 0.405752 0 41
4.2316222 -1.9111186 0.44981316 0 42
4.2334495 -1.911944 0.49317259 0 43
4.2338014 -1.9121028 0.53646672 0 44
4.2313981 -1.9110174 0.57948273 0 45
4.2224755 -1.9069879 0.62158936 0 46
4.2322421 -1.9113985 0.66656315 0 47
4.2249517 -1.9081061 0.70899099 0 48
4.232543 -1.9115344 0.75404215 0 49
4.241137 -1.9154158 0.79957056 0 50
4.2227354 -1.9071052 0.84004658 0 51
4.2372918 -1.9136792 0.88718629 0 52
4.229713 -1.9102564 0.9299196 0 53
4.2341585 -1.9122642 0.97542757 0 54
4.2207646 -1.9062152 1.0169035 0 55
4.224597 -1.9079459 1.0626092 0 56
4.2262259 -1.9086815 1.1080079 0 57
4.2268133 -1.9089469 1.1533555 0 58
4.2245193 -1.9079108 1.1981056 0 59
4.2182832 -1.9050945 1.2418621 0 60
4.2259521 -1.9085579 1.2899532 0 61
4.2342672 -1.9123132 1.3386506 0 62
4.2380733 -1.9140321 1.3863002 0 63
2.2598333 -0.98733276 -0.73517871 0 0
2.3490553 -1.0263143 -0.73860103 0 1
2.4176326 -1.0562761 -0.73395151 0 2
2.5208645 -1.1013786 -0.73809928 0 3
2.6068034 -1.1389257 -0.73528165 0 4
2.7199728 -1.1883701 -0.73814619 0 5
2.8252208 -1.2343534 -0.73666537 0 6
2.9328613 -1.2813821 -0.73368138 0 7
3.0579314 -1.3360258 -0.73273003 0 8
3.2123632 -1.4034979 -0.73600405 0 9
3.3629668 -1.4692974 -0.73533416 0 10
3.5461204 -1.5493182 -0.7384271 0 11
3.7145493 -1.6229056 -0.73492545 0 12
3.9128144 -1.7095287 -0.73365426 0 13
4.1308336 -1.8047824 -0.73191333 0 14
4.1223397 -1.8010713 -0.68800312 0 15
4.1396489 -1.8086338 -0.64842838 0 16
4.1195021 -1.7998315 -0.60312706 0 17
4.1328692 -1.8056718 -0.56290615 0 18
4.1328979 -1.8056843 -0.52082843 0 19
4.1230297 -1.8013729 -0.47769281 0 20
4.114686 -1.7977273 -0.43500039 0 21
4.122355 -1.8010781 -0.39408216 0 22
4.1292315 -1.8040823 -0.35300815 0 23
4.1250558 -1.8022579 -0.3110221 0 24
4.1226087 -1.8011888 -0.26928604 0 25
4.1258583 -1.8026085 -0.22795977 0 26
4.1247201 -1.8021113 -0.18640845 0 27
4.1354828 -1.8068136 -0.14532986 0 28
4.1235685 -1.8016081 -0.10349045 0 29
4.1271663 -1.80318 -0.062141437 0 30
4.1300879 -1.8044565 -0.020727307 0 31
4.1234317 -1.8015484 0.020693902 0 32
4.1271048 -1.803153 0.062140509 0 33
4.1217861 -1.8008293 0.10344572 0 34
4.1301622 -1.8044889 0.14514287 0 35
4.1334038 -1.8059053 0.18680091 0 36
4.1332831 -1.8058525 0.22837 0 37
4.1327171 -1.8056052 0.26994631 0 38
4.1209602 -1.8004686 0.31071329 0 39
4.1350584 -1.8066282 0.35350633 0 40
4.1174941 -1.7989542 0.39361745 0 41
4.1289396 -1.8039548 0.43650728 0 42
4.1292357 -1.8040842 0.47841179 0 43
4.1227021 -1.8012296 0.51954353 0 44
4.1258817 -1.8026187 0.56195438 0 45
4.124558 -1.8020405 0.60386729 0 46
4.1312304 -1.8049557 0.64710975 0 47
4.1207294 -1.8003677 0.68773437 0 48
4.1286683 -1.8038363 0.73152965 0 49
4.1241059 -1.8018429 0.7732715 0 50
4.1209822 -1.8004782 0.81533843 0 51
4.1332746 -1.8058487 0.86069322 0 52
4.1234117 -1.8015397 0.90161031 0 53
4.1411958 -1.8093097 0.94881457 0 54
4.1266074 -1.802936 0.98880225 0 55
4.1242533 -1.8019074 1.0317187 0 56
4.128274 -1.803664 1.0764314 0 57
4.1336436 -1.80601 1.121788 0 58
4.1280584 -1.8035699 1.1643709 0 59
4.1209083 -1.8004459 1.2065859 0 60
4.1190095 -1.7996163 1.2504601 0 61
4.1230602 -1.8013861 1.2963921 0 62
4.1178427 -1.7991065 1.3396342 0 63
2.2762179 -0.96133715 -0.73660767 0 0
2.3575072 -0.99566883 -0.73735321 0 1
2.4312437 -1.0268106 -0.73419499 0 2
2.5162179 -1.0626986 -0.73285729 0 3
2.6303289 -1.1108923 -0.73800856 0 4
2.7185006 -1.1481307 -0.73385978 0 5
2.8430262 -1.2007228 -0.7374025 0 6
2.9561465 -1.2484978 -0.73561025 0 7
3.0888822 -1.3045574 -0.73624688 0 8
3.2188144 -1.3594331 -0.73359674 0 9
3.389694 -1.4316022 -0.7372734 0 10
3.5571122 -1.5023096 -0.73681349 0 11
3.7389548 -1.579109 -0.73585671 0 12
3.9429231 -1.6652528 -0.73540461 0 13
4.0237098 -1.6993722 -0.70917666 0 14
4.0305977 -1.7022812 -0.66914767 0 15
4.0300426 -1.702047 -0.62793404 0 16
4.0308299 -1.7023793 -0.5870356 0 17
4.0101266 -1.6936355 -0.5433107 0 18
4.0385942 -1.7056586 -0.50626284 0 19
4.0339799 -1.7037097 -0.46491313 0 20
4.0316958 -1.7027451 -0.42398119 0 21
4.0314116 -1.7026249 -0.38335785 0 22
4.0504289 -1.7106568 -0.34444702 0 23
4.0325336 -1.7030989 -0.30244422 0 24
4.0332713 -1.7034105 -0.26206261 0 25
4.0293746 -1.7017648 -0.22145599 0 26
4.0209231 -1.6981953 -0.18076019 0 27
4.0281048 -1.7012284 -0.14081056 0 28
4.0325909 -1.7031231 -0.10067395 0 29
4.0189757 -1.6973728 -0.060193636 0 30
4.013073 -1.6948798 -0.020033946 0 31
4.0335922 -1.7035459 0.020136382 0 32
4.0212369 -1.6983278 0.060227502 0 33
4.0209813 -1.69822 0.10038412 0 34
4.0282865 -1.701305 0.14081691 0 35
4.0357046 -1.7044382 0.18142469 0 36
4.0130987 -1.6948907 0.22056144 0 37
4.0309081 -1.7024125 0.26190907 0 38
4.0245175 -1.6997135 0.30184302 0 39
4.0085001 -1.6929486 0.34088141 0 40
4.0359416 -1.7045382 0.38378865 0 41
4.0350752 -1.7041723 0.42433658 0 42
4.0207095 -1.6981052 0.46338376 0 43
4.0316038 -1.7027061 0.50538653 0 44
4.026648 -1.7006133 0.54554909 0 45
4.024754 -1.6998132 0.58615077 0 46
4.0273871 -1.7009255 0.62752026 0 47
4.0332041 -1.7033821 0.6695804 0 48
4.0304055 -1.7022002 0.71035683 0 49
4.0219579 -1.6986322 0.75014561 0 50
4.0313025 -1.702579 0.79339314 0 51
4.0247531 -1.6998128 0.83367968 0 52
4.0152574 -1.6958026 0.8733362 0 53
4.017992 -1.6969573 0.9157365 0 54
4.0191827 -1.6974602 0.95798755 0 55
4.0273943 -1.7009284 1.0021807 0 56
4.0174761 -1.6967396 1.0420223 0 57
4.0267897 -1.700673 1.0870327 0 58
4.0255432 -1.7001467 1.129473 0 59
4.0289354 -1.7015793 1.1734416 0 60
4.0244598 -1.6996891 1.2153198 0 61
4.0199876 -1.6978003 1.2573242 0 62
4.0329332 -1.7032677 1.3050989 0 63
2.279582 -0.92989784 -0.73394048 0 0
2.3604815 -0.96289879 -0.73452473 0 1
2.4412117 -0.99583066 -0.7334519 0 2
2.5482717 -1.0395031 -0.73841441 0 3
2.627872 -1.0719739 -0.73356533 0 4
2.7409718 -1.1181102 -0.73615873 0 5
2.830054 -1.154449 -0.73030066 0 6
2.9828494 -1.216778 -0.73847604 0 7
3.0950193 -1.2625349 -0.73395383 0 8
3.2475398 -1.3247517 -0.73637521 0 9
3.387228 -1.381734 -0.73298609 0 10
3.5667627 -1.4549707 -0.73505104 0 11
3.7416577 -1.5263147 -0.73263955 0 12
3.9409196 -1.6075985 -0.73128873 0 13
3.9458697 -1.6096178 -0.69191664 0 14
3.9416306 -1.6078886 -0.65104598 0 15
3.9450893 -1.6092995 -0.61156762 0 16
3.9466858 -1.6099507 -0.57185483 0 17
3.9401495 -1.6072844 -0.53111202 0 18
3.9579453 -1.6145438 -0.49362698 0 19
3.9224288 -1.6000557 -0.44975543 0 20
3.9561691 -1.6138192 -0.41392049 0 21
3.941601 -1.6078765 -0.37290925 0 22
3.9346509 -1.6050414 -0.33289775 0 23
3.949003 -1.610896 -0.29467142 0 24
3.9475598 -1.6103073 -0.2551876 0 25
3.9470422 -1.6100961 -0.21582651 0 26
3.9345617 -1.605005 -0.17597729 0 27
3.9505486 -1.6115265 -0.13739634 0 28
3.9437959 -1.6087718 -0.097955912 0 29
3.9530506 -1.612547 -0.058904819 0 30
3.9469359 -1.6100527 -0.019603463 0 31
3.9541197 -1.6129831 0.019639142 0 32
3.9578893 -1.6145209 0.058976926 0 33
3.9378881 -1.606362 0.097809173 0 34
3.9397101 -1.6071051 0.13701938 0 35
3.9479637 -1.610472 0.1765767 0 36
3.9543793 -1.6130891 0.21622771 0 37
3.9483786 -1.6106412 0.25524053 0 38
3.9413092 -1.6077576 0.29409733 0 39
3.9501178 -1.6113508 0.33420637 0 40
3.9379208 -1.6063753 0.37256107 0 41
3.9538667 -1.61288 0.4136796 0 42
3.948251 -1.6105891 0.45271626 0 43
3.9476581 -1.6103474 0.49234399 0 44
3.9516561 -1.6119782 0.53266305 0 45
3.9447758 -1.6091716 0.57157809 0 46
3.9442189 -1.6089444 0.61143267 0 47
3.947376 -1.6102322 0.65199494 0 48
3.9528916 -1.6124822 0.69314796 0 49
3.9390771 -1.606847 0.73094684 0 50
3.9328423 -1.6043036 0.77007461 0 51
3.9432342 -1.6085427 0.81263554 0 52
3.9517968 -1.6120356 0.85515708 0 53
3.9543889 -1.613093 0.89665234 0 54
3.9434695 -1.6086388 0.93515557 0 55
3.9609604 -1.6157737 0.98063093 0 56
3.9423819 -1.6081951 1.017339 0 57
3.9447782 -1.6091726 1.0594721 0 58
3.9385316 -1.6066244 1.0994334 0 59
3.9536767 -1.6128025 1.1456596 0 60
3.9385509 -1.6066324 1.1833212 0 61
3.9391484 -1.606876 1.2257676 0 62
3.9457755 -1.6095794 1.2703928 0 63
2.2950702 -0.90346277 -0.73529464 0 0
2.3672721 -0.93188536 -0.73301661 0 1
2.4532979 -0.96574968 -0.73345977 0 2
2.5503988 -1.0039738 -0.73539782 0 3
2.6475036 -1.0421996 -0.73541248 0 4
2.7432973 -1.0799091 -0.73316145 0 5
2.8638337 -1.1273587 -0.73538476 0 6
2.9700024 -1.1691524 -0.73168093 0 7
3.0891461 -1.2160537 -0.72895998 0 8
3.2698901 -1.2872043 -0.73779839 0 9
3.4251318 -1.3483157 -0.73754483 0 10
3.5863531 -1.4117811 -0.73545504 0 11
3.781754 -1.4887015 -0.73685056 0 12
3.8631079 -1.5207266 -0.71332586 0 13
3.8609288 -1.5198689 -0.67369401 0 14
3.8403773 -1.5117787 -0.63120365 0 15
3.8599801 -1.5194954 -0.59543252 0 16
3.8550923 -1.5175712 -0.55583751 0 17
3.8455093 -1.5137988 -0.51580685 0 18
3.8501594 -1.5156294 -0.47782367 0 19
3.8504372 -1.5157387 -0.43933037 0 20
3.8557825 -1.517843 -0.40143427 0 21
3.8498607 -1.5155119 -0.36243936 0 22
3.8574884 -1.5185145 -0.32476494 0 23
3.8386748 -1.5111085 -0.28503075 0 24
3.8542247 -1.5172297 -0.24792923 0 25
3.8482308 -1.5148703 -0.20938906 0 26
3.8565934 -1.5181623 -0.17164215 0 27
3.8604445 -1.5196781 -0.1336026 0 28
3.850719 -1.5158497 -0.095173903 0 29
3.8593807 -1.5192595 -0.057226337 0 30
3.8497634 -1.5154735 -0.019026836 0 31
3.8527069 -1.5166322 0.019041384 0 32
3.8491075 -1.5152153 0.057074003 0 33
3.8353002 -1.5097799 0.094792813 0 34
3.8579433 -1.5186936 0.13351603 0 35
3.852556 -1.5165728 0.17146246 0 36
3.8468668 -1.5143332 0.20931484 0 37
3.8567245 -1.5182137 0.24809003 0 38
3.8463743 -1.5141394 0.28560245 0 39
3.84974 -1.5154643 0.32411259 0 40
3.8608439 -1.5198354 0.36347336 0 41
3.8523903 -1.5165076 0.40108109 0 42
3.8501124 -1.5156109 0.43929332 0 43
3.8491929 -1.5152489 0.47770372 0 44
3.856375 -1.5180762 0.51726431 0 45
3.8486197 -1.5150234 0.55490428 0 46
3.849158 -1.5152352 0.59376311 0 47
3.8685212 -1.5228577 0.63582939 0 48
3.8567841 -1.5182372 0.67297077 0 49
3.8473928 -1.5145403 0.71042407 0 50
3.8383934 -1.5109978 0.74788642 0 51
3.8584433 -1.5188904 0.79125273 0 52
3.8489814 -1.5151657 0.82881379 0 53
3.8529825 -1.5167407 0.86936384 0 54
3.8558762 -1.5178798 0.90988874 0 55
3.8567424 -1.5182209 0.95013559 0 56
3.8554871 -1.5177267 0.99002481 0 57
3.8629932 -1.5206815 1.0324064 0 58
3.8558977 -1.5178883 1.0710751 0 59
3.8589129 -1.5190753 1.112703 0 60
3.8720386 -1.5242422 1.1576191 0 61
3.8520787 -1.516385 1.1927812 0 62
3.8644197 -1.521243 1.2380829 0 63
2.3095932 -0.87653708 -0.73643875 0 0
2.3887222 -0.90656811 -0.73615104 0 1
2.4702334 -0.93750334 -0.73502094 0 2
2.5680509 -0.97462696 -0.73697639 0 3
2.6577253 -1.0086602 -0.73475105 0 4
2.7625928 -1.0484595 -0.73481715 0 5
2.8772671 -1.0919807 -0.73533064 0 6
3.0028288 -1.1396339 -0.73625994 0 7
3.1283967 -1.1872895 -0.73472142 0 8
3.270067 -1.2410562 -0.73433948 0 9
3.4249728 -1.2998461 -0.73401332 0 10
3.5809655 -1.3590485 -0.73086798 0 11
3.7623603 -1.4278915 -0.7295956 0 12
3.7857163 -1.4367555 -0.69572067 0 13
3.7794595 -1.4343809 -0.65635115 0 14
3.7833974 -1.4358754 -0.61888969 0 15
3.7838883 -1.4360617 -0.58092684 0 16
3.7755053 -1.4328803 -0.54178107 0 17
3.7905207 -1.4385788 -0.50602013 0 18
3.7700663 -1.4308161 -0.46566501 0 19
3.7851398 -1.4365368 -0.42983204 0 20
3.7758117 -1.4329964 -0.3912442 0 21
3.7765088 -1.433261 -0.3538478 0 22
3.7717056 -1.4314382 -0.31603703 0 23
3.7877078 -1.4375113 -0.27991265 0 24
3.7808478 -1.4349078 -0.24205585 0 25
3.7884777 -1.4378035 -0.20516028 0 26
3.7834415 -1.4358921 -0.16758795 0 27
3.7844906 -1.4362904 -0.1303529 0 28
3.7580206 -1.4262444 -0.092442334 0 29
3.7806437 -1.4348303 -0.055793002 0 30
3.7749484 -1.4326688 -0.018568603 0 31
3.7751691 -1.4327526 0.018569689 0 32
3.7907424 -1.438663 0.055942036 0 33
3.7711589 -1.4312307 0.092765518 0 34
3.7886894 -1.4378839 0.13049753 0 35
3.7758217 -1.4330003 0.16725044 0 36
3.7736826 -1.4321885 0.20435907 0 37
3.7821405 -1.4353983 0.24213859 0 38
3.7827587 -1.4356331 0.27954692 0 39
3.7805395 -1.4347908 0.31677723 0 40
3.788559 -1.4378344 0.35497686 0 41
3.7909856 -1.4387553 0.39281651 0 42
3.7836704 -1.435979 0.42966518 0 43
3.784318 -1.4362248 0.46742535 0 44
3.7911561 -1.43882 0.50610495 0 45
3.779171 -1.4342715 0.54230708 0 46
3.7790155 -1.4342124 0.58017874 0 47
3.7899365 -1.4383572 0.61995935 0 48
3.7730639 -1.4319537 0.65524048 0 49
3.7884705 -1.4378008 0.69622684 0 50
3.7847409 -1.4363853 0.73393559 0 51
3.7895751 -1.43822 0.77344471 0 52
3.7793019 -1.4343212 0.80995041 0 53
3.7830293 -1.4357357 0.84953237 0 54
3.7854102 -1.4366393 0.88902473 0 55
3.790467 -1.4385585 0.92938 0 56
3.7788141 -1.4341359 0.96573508 0 57
3.7807946 -1.4348876 1.0056468 0 58
3.788872 -1.4379531 1.0474663 0 59
3.7776773 -1.4337045 1.0841136 0 60
3.7769969 -1.4334463 1.12385 0 61
3.7795811 -1.4344271 1.1647829 0 62
3.7973995 -1.4411895 1.2108418 0 63
2.3086967 -0.84386986 -0.7327888 0 0
2.4003444 -0.87736869 -0.73635226 0 1
2.4846923 -0.90819943 -0.73594457 0 2
2.5794444 -0.94283301 -0.73686326 0 3
2.671859 -0.97661221 -0.73528284 0 4
2.7773581 -1.015174 -0.73536867 0 5
2.9011528 -1.0604231 -0.73804677 0 6
3.0164037 -1.1025494 -0.73620856 0 7
3.1523495 -1.15224 -0.73696363 0 8
3.2860191 -1.2010987 -0.73454952 0 9
3.4466989 -1.25983 -0.73529392 0 10
3.6213517 -1.3236687 -0.73573309 0 11
3.7095215 -1.3558965 -0.71606183 0 12
3.7129123 -1.3571358 -0.67922288 0 13
3.7034135 -1.3536638 -0.64020574 0 14
3.7060115 -1.3546134 -0.60346049 0 15
3.696825 -1.3512555 -0.56496668 0 16
3.7066629 -1.3548515 -0.52947158 0 17
3.7033861 -1.3536538 -0.49212873 0 18
3.7082162 -1.3554193 -0.45593244 0 19
3.7027488 -1.3534209 -0.4185544 0 20
3.7088552 -1.3556528 -0.38255006 0 21
3.7203305 -1.3598473 -0.34699109 0 22
3.7132399 -1.3572555 -0.30971622 0 23
3.7038484 -1.3538227 -0.27246457 0 24
3.7125113 -1.3569893 -0.23659468 0 25
3.7089872 -1.3557011 -0.19993769 0 26
3.7156844 -1.3581491 -0.16383451 0 27
3.6957035 -1.3508457 -0.12671301 0 28
3.7185824 -1.3592083 -0.091054194 0 29
3.7210748 -1.3601193 -0.054662965 0 30
3.704777 -1.3541622 -0.01814016 0 31
3.7110119 -1.3564411 0.018170688 0 32
3.6927719 -1.3497741 0.054247193 0 33
3.7124186 -1.3569553 0.09090326 0 34
3.7089498 -1.3556874 0.12716717 0 35
3.7004764 -1.3525902 0.16316395 0 36
3.7009611 -1.3527675 0.19950503 0 37
3.7025738 -1.3533568 0.23596136 0 38
3.6983917 -1.3518282 0.27206317 0 39
3.7154937 -1.3580793 0.30990422 0 40
3.697047 -1.3513367 0.34481946 0 41
3.6913817 -1.3492659 0.38074777 0 42
3.7040884 -1.3539106 0.41870585 0 43
3.704613 -1.3541023 0.4554894 0 44
3.7038338 -1.3538175 0.49218825 0 45
3.703558 -1.3537166 0.52902806 0 46
3.6996543 -1.3522897 0.56539905 0 47
3.7109494 -1.3564183 0.60426456 0 48
3.7031441 -1.3535653 0.64015919 0 49
3.7046781 -1.354126 0.67771655 0 50
3.6939056 -1.3501885 0.71304739 0 51
3.7130318 -1.3571794 0.75435925 0 52
3.7076352 -1.3552068 0.79096013 0 53
3.6973937 -1.3514634 0.82650733 0 54
3.7054646 -1.3544135 0.86627215 0 55
3.7100625 -1.3560941 0.90550876 0 56
3.6943972 -1.3503681 0.9398464 0 57
3.7166386 -1.3584979 0.98406452 0 58
3.7027056 -1.3534051 1.0189669 0 59
3.7046399 -1.3541121 1.058295 0 60
3.7020686 -1.3531722 1.096521 0 61
3.6990073 -1.3520532 1.1347424 0 62
3.7082679 -1.3554381 1.1770178 0 63
2.3237171 -0.817114 -0.7343117 0 0
2.4014938 -0.84446347 -0.733464 0 1
2.482806 -0.87305617 -0.73215073 0 2
2.5842102 -0.908714 -0.73497707 0 3
2.6846054 -0.94401711 -0.73554051 0 4
2.7864709 -0.97983724 -0.73453581 0 5
2.8870444 -1.015203 -0.73122662 0 6
3.0184302 -1.0614035 -0.73346227 0 7
3.15008 -1.107697 -0.73319334 0 8
3.2820129 -1.15409 -0.73042655 0 9
3.4498909 -1.2131228 -0.73273718 0 10
3.6074145 -1.2685145 -0.72967732 0 11
3.6482701 -1.282881 -0.70114017 0 12
3.6429543 -1.2810118 -0.66349339 0 13
3.6359396 -1.2785451 -0.62577653 0 14
3.6375179 -1.2791001 -0.58970177 0 15
3.6445916 -1.2815875 -0.55453378 0 16
3.6370864 -1.2789483 -0.5172475 0 17
3.6331131 -1.2775512 -0.48066652 0 18
3.6414382 -1.2804786 -0.44575232 0 19
3.6493437 -1.2832586 -0.41070279 0 20
3.639087 -1.2796519 -0.37370256 0 21
3.6412079 -1.2803977 -0.33811739 0 22
3.632195 -1.2772284 -0.30162361 0 23
3.6392844 -1.2797214 -0.26653737 0 24
3.637311 -1.2790273 -0.23078248 0 25
3.6293831 -1.2762396 -0.19478585 0 26
3.6242299 -1.2744275 -0.15909903 0 27
3.6505539 -1.2836841 -0.12461435 0 28
3.6374996 -1.2790937 -0.088676944 0 29
3.6324866 -1.2773309 -0.053126849 0 30
3.6460896 -1.2821143 -0.017774263 0 31
3.6377468 -1.2791805 0.017733593 0 32
3.637064 -1.2789404 0.053193793 0 33
3.6383085 -1.2793782 0.088696666 0 34
3.6367216 -1.2788202 0.12414218 0 35
3.6453469 -1.2818531 0.16002604 0 36
3.6577275 -1.2862066 0.19630706 0 37
3.6261911 -1.2751172 0.23007694 0 38
3.6419234 -1.2806493 0.26673064 0 39
3.6457627 -1.2819993 0.30275032 0 40
3.6358085 -1.278499 0.33761603 0 41
3.6521087 -1.2842308 0.37503976 0 42
3.6386483 -1.2794976 0.40949911 0 43
3.6235459 -1.274187 0.44356209 0 44
3.63466 -1.2780952 0.4808712 0 45
3.6278794 -1.2757108 0.5159381 0 46
3.6411233 -1.280368 0.5540061 0 47
3.6366103 -1.2787811 0.58955467 0 48
3.6415944 -1.2805336 0.62674975 0 49
3.6309764 -1.2767998 0.66131181 0 50
3.657052 -1.2859691 0.70282787 0 51
3.6489141 -1.2831075 0.7380715 0 52
3.6239274 -1.2743212 0.76970154 0 53
3.6402617 -1.2800649 0.81015635 0 54
3.6452641 -1.2818241 0.84844941 0 55
3.6342096 -1.2779368 0.88309336 0 56
3.6439748 -1.2813706 0.92294091 0 57
3.6326327 -1.2773824 0.95759082 0 58
3.6343706 -1.2779934 0.99576157 0 59
3.6264429 -1.2752057 1.0313993 0 60
3.6361597 -1.2786225 1.0722615 0 61
3.6437805 -1.2813022 1.1128831 0 62
3.6521335 -1.2842395 1.154101 0 63
2.3353224 -0.78906679 -0.73485732 0 0
2.4154553 -0.81614244 -0.73460752 0 1
2.5028183 -0.84566092 -0.73493016 0 2
2.6138279 -0.88316917 -0.74025607 0 3
2.6901882 -0.90897006 -0.73395228 0 4
2.7967067 -0.94496089 -0.73411548 0 5
2.9175236 -0.98578298 -0.73582053 0 6
3.0350702 -1.0254999 -0.73438597 0 7
3.1711619 -1.0714831 -0.73497802 0 8
3.3073766 -1.1175078 -0.73295772 0 9
3.4790893 -1.1755267 -0.73581296 0 10
3.660933 -1.2369686 -0.73737019 0 11
3.6688528 -1.2396446 -0.70211321 0 12
3.6705894 -1.2402314 -0.66569865 0 13
3.6760757 -1.2420851 -0.63000798 0 14
3.6722851 -1.2408043 -0.59281981 0 15
3.6721938 -1.2407734 -0.55637008 0 16
3.6808245 -1.2436898 -0.52125341 0 17
3.6849513 -1.245084 -0.48546255 0 18
3.6639733 -1.237996 -0.44661364 0 19
3.6721368 -1.2407542 -0.41151983 0 20
3.6775494 -1.242583 -0.37605479 0 21
3.680373 -1.2435371 -0.34030858 0 22
3.6779375 -1.2427142 -0.3041302 0 23
3.6620228 -1.2373369 -0.26706818 0 24
3.6853888 -1.2452319 -0.23284383 0 25
3.6684537 -1.2395098 -0.1960499 0 26
3.6804116 -1.2435502 -0.16088191 0 27
3.6797361 -1.243322 -0.12507917 0 28
3.6752264 -1.2417983 -0.08921767 0 29
3.6784928 -1.2429019 -0.053572137 0 30
3.6783154 -1.242842 -0.01785551 0 31
3.6819236 -1.2440611 0.017873025 0 32
3.6754982 -1.2418901 0.053528521 0 33
3.6807418 -1.2436618 0.089351557 0 34
3.679883 -1.2433716 0.12508416 0 35
3.6815915 -1.2439488 0.16093348 0 36
3.6738012 -1.2413167 0.19633569 0 37
3.6729131 -1.2410166 0.23205562 0 38
3.6852112 -1.2451719 0.26875931 0 39
3.6757441 -1.2419732 0.30394885 0 40
3.679616 -1.2432814 0.34023857 0 41
3.6736987 -1.241282 0.37566105 0 42
3.6803713 -1.2435366 0.41244262 0 43
3.6716952 -1.2406051 0.44755489 0 44
3.6812358 -1.2438287 0.48497307 0 45
3.684768 -1.2450221 0.52181184 0 46
3.67082 -1.2403094 0.55616194 0 47
3.6578281 -1.2359196 0.59048599 0 48
3.6801243 -1.2434531 0.63070184 0 49
3.6826744 -1.2443148 0.66789037 0 50
3.6590717 -1.2363398 0.70024139 0 51
3.6623006 -1.2374308 0.73764569 0 52
3.693646 -1.2480218 0.78119081 0 53
3.6710982 -1.2404033 0.81356311 0 54
3.6660438 -1.2386955 0.84967649 0 55
3.6885822 -1.2463109 0.89251417 0 56
3.6731324 -1.2410907 0.92639059 0 57
3.6732373 -1.2411261 0.96419853 0 58
3.6684163 -1.2394972 1.0008379 0 59
3.6791282 -1.2431165 1.0419573 0 60
3.6670043 -1.2390201 1.0767829 0 61
3.688488 -1.246279 1.1217723 0 62
3.6788099 -1.243009 1.1576134 0 63
2.3563547 -0.76402408 -0.73846352 0 0
2.4388726 -0.79077965 -0.73871624 0 1
2.5130024 -0.81481546 -0.73492295 0 2
2.6050088 -0.84464765 -0.73476142 0 3
2.6915536 -0.87270892 -0.73134172 0 4
2.8049109 -0.90946388 -0.7332781 0 5
2.929913 -0.94999456 -0.7359435 0 6
3.0531151 -0.9899416 -0.73575127 0 7
3.2107365 -1.0410488 -0.74112731 0 8
3.3441205 -1.0842971 -0.73809004 0 9
3.4822667 -1.1290896 -0.73349315 0 10
3.6452141 -1.1819236 -0.73122162 0 11
3.7068582 -1.2019111 -0.70650458 0 12
3.7128038 -1.2038389 -0.67061931 0 13
3.721952 -1.2068051 -0.63527912 0 14
3.7219732 -1.2068119 -0.59840018 0 15
3.721875 -1.2067801 -0.56160653 0 16
3.7158484 -1.2048261 -0.52407563 0 17
3.7014639 -1.2001621 -0.48565701 0 18
3.7105849 -1.2031194 -0.4504579 0 19
3.718879 -1.2058088 -0.41506502 0 20
3.7185016 -1.2056863 -0.37869781 0 21
3.707288 -1.2020504 -0.34140474 0 22
3.718497 -1.2056849 -0.30623502 0 23
3.7152174 -1.2046216 -0.26984695 0 24
3.7331271 -1.2104285 -0.23490182 0 25
3.7115717 -1.2034395 -0.19754845 0 26
3.7129607 -1.2038897 -0.1616454 0 27
3.7203844 -1.2062969 -0.12594715 0 28
3.7080877 -1.2023097 -0.089649722 0 29
3.7206881 -1.2063953 -0.053966526 0 30
3.7116532 -1.2034659 -0.01794415 0 31
3.7171574 -1.2052505 0.017970758 0 32
3.7296395 -1.2092978 0.054096363 0 33
3.7142239 -1.2042993 0.089798078 0 34
3.7198365 -1.2061192 0.1259286 0 35
3.7144835 -1.2043835 0.16171169 0 36
3.7364969 -1.2115211 0.1988751 0 37
3.7127521 -1.2038221 0.23361973 0 38
3.7192464 -1.2059278 0.2701396 0 39
3.7144861 -1.2043844 0.30590469 0 40
3.714962 -1.2045387 0.34211144 0 41
3.7122097 -1.2036463 0.37805703 0 42
3.716022 -1.2048824 0.41474614 0 43
3.7219439 -1.2068025 0.45183688 0 44
3.6987591 -1.199285 0.48530215 0 45
3.7144902 -1.2043858 0.52388406 0 46
3.735389 -1.211162 0.56364566 0 47
3.7140529 -1.2042439 0.59712684 0 48
3.7172368 -1.2052763 0.63447428 0 49
3.716109 -1.2049106 0.67121631 0 50
3.7301395 -1.2094598 0.71094191 0 51
3.7191517 -1.2058971 0.74605334 0 52
3.7180328 -1.2055343 0.78315413 0 53
3.7152374 -1.204628 0.82000029 0 54
3.7155464 -1.2047281 0.85765141 0 55
3.7209995 -1.2064964 0.89670056 0 56
3.714154 -1.2042767 0.93293124 0 57
3.7195885 -1.2060388 0.97239912 0 58
3.7365909 -1.2115517 1.0152965 0 59
3.7199743 -1.2061639 1.0492455 0 60
3.7262511 -1.2081991 1.0897354 0 61
3.7065771 -1.20182 1.1226944 0 62
3.7266014 -1.2083126 1.1678883 0 63
2.3535109 -0.73124659 -0.73469871 0 0
2.4395652 -0.7579841 -0.73604727 0 1
2.5280354 -0.78547221 -0.73643905 0 2
2.6107793 -0.81118107 -0.73352015 0 3
2.704761 -0.84038162 -0.73206723 0 4
2.8304193 -0.87942427 -0.73706394 0 5
2.9329355 -0.91127652 -0.73383254 0 6
3.0505316 -0.94781417 -0.7322647 0 7
3.1916161 -0.99164975 -0.73384356 0 8
3.3436382 -1.0388837 -0.73510849 0 9
3.5200455 -1.0936943 -0.73856217 0 10
3.6991639 -1.1493472 -0.73915297 0 11
3.7385013 -1.1615695 -0.70975965 0 12
3.7478268 -1.164467 -0.67430794 0 13
3.7593744 -1.1680548 -0.63916665 0 14
3.7518473 -1.1657162 -0.6008532 0 15
3.7524304 -1.1658974 -0.56401122 0 16
3.7633853 -1.1693012 -0.52871227 0 17
3.7658541 -1.1700681 -0.49218047 0 18
3.7583432 -1.1677345 -0.45447817 0 19
3.7603273 -1.1683509 -0.41805601 0 20
3.7512302 -1.1655244 -0.38054258 0 21
3.7635486 -1.1693518 -0.34523553 0 22
3.745981 -1.1638935 -0.30729654 0 23
3.7668269 -1.1703705 -0.2725296 0 24
3.7509968 -1.1654519 -0.23510671 0 25
3.7529206 -1.1660496 -0.19897105 0 26
3.7652543 -1.1698818 -0.16328341 0 27
3.751502 -1.1656089 -0.12650579 0 28
3.7666609 -1.1703188 -0.090711057 0 29
3.7542231 -1.1664543 -0.054240793 0 30
3.7622912 -1.1689612 -0.018118098 0 31
3.7589595 -1.167926 0.018102054 0 32
3.7553725 -1.1668115 0.054257397 0 33
3.7470973 -1.1642402 0.090239912 0 34
3.7667632 -1.1703507 0.12702042 0 35
3.7681556 -1.1707832 0.16340922 0 36
3.750762 -1.165379 0.19885661 0 37
3.7408524 -1.1623 0.23447087 0 38
3.757093 -1.167346 0.27182537 0 39
3.7525263 -1.1659272 0.30783349 0 40
3.7410178 -1.1623514 0.34316874 0 41
3.7527142 -1.1659855 0.38069314 0 42
3.7497387 -1.165061 0.41687882 0 43
3.7674425 -1.1705617 0.45557851 0 44
3.7587857 -1.167872 0.49125665 0 45
3.7513492 -1.1655614 0.52702135 0 46
3.7465701 -1.1640766 0.56313038 0 47
3.7573476 -1.1674252 0.60173404 0 48
3.7588553 -1.1678935 0.63907838 0 49
3.7636018 -1.1693684 0.67714626 0 50
3.7617111 -1.1687809 0.7141661 0 51
3.7597203 -1.1681623 0.75125313 0 52
3.7704473 -1.1714953 0.7911005 0 53
3.7595959 -1.1681237 0.82655799 0 54
3.7652638 -1.1698847 0.86574155 0 55
3.7558234 -1.1669515 0.90156645 0 56
3.7571809 -1.1673733 0.94006211 0 57
3.7684705 -1.1708812 0.98134005 0 58
3.7559984 -1.1670059 1.0165938 0 59
3.7549958 -1.1666944 1.0549973 0 60
3.7541771 -1.16644 1.0936249 0 61
3.757539 -1.1674846 1.1336964 0 62
3.7564499 -1.1671462 1.1726562 0 63
2.3641949 -0.70280981 -0.73528063 0 0
2.4492376 -0.72809064 -0.73620862 0 1
2.5272059 -0.75126851 -0.73345089 0 2
2.6434987 -0.78583908 -0.73994207 0 3
2.7322395 -0.81221926 -0.73674566 0 4
2.8368068 -0.84330422 -0.73597127 0 5
2.9460046 -0.8757658 -0.73435259 0 6
3.0755966 -0.91428983 -0.7355271 0 7
3.2149358 -0.9557116 -0.73644769 0 8
3.3594065 -0.99865872 -0.73581982 0 9
3.4990687 -1.0401765 -0.73142201 0 10
3.6735315 -1.0920395 -0.73129272 0 11
3.8033557 -1.1306325 -0.71937847 0 12
