# .PCD v0.7 - Point Cloud Data file format
VERSION 0.7
FIELDS x y z intensity ring
SIZE 4 4 4 4 2
TYPE F F F F U
COUNT 1 1 1 1 1
WIDTH 1300
HEIGHT 1
VIEWPOINT 0 0 0 1 0 0 0
POINTS 1300
DATA ascii
2.2487934 0.75983006 -0.20793644 0 22
2.2326827 0.75438654 -0.18462148 0 23
2.2251837 0.75185275 -0.16228074 0 24
2.2354255 0.75531328 -0.14123477 0 25
2.2381752 0.75624233 -0.1196128 0 26
2.2430811 0.7579 -0.098051853 0 27
2.2440257 0.75821918 -0.07627745 0 28
2.2493629 0.76002246 -0.054604232 0 29
2.2374163 0.75598592 -0.032584857 0 30
2.2399251 0.75683367 -0.010873185 0 31
2.2520056 0.7609154 0.010931826 0 32
2.248075 0.75958741 0.03274009 0 33
2.2346895 0.75506461 0.054248031 0 34
2.2519588 0.7608996 0.076547101 0 35
2.2366066 0.75571239 0.097768836 0 36
2.2516639 0.7608 0.12033367 0 37
2.248729 0.7598083 0.14207529 0 38
2.2311416 0.75386584 0.16271526 0 39
2.2481604 0.75961626 0.18590134 0 40
2.2437258 0.75811785 0.20746787 0 41
2.2307303 0.75372684 0.22810757 0 42
2.2461555 0.75893879 0.25171652 0 43
2.241437 0.75734448 0.27321604 0 44
2.2381768 0.75624293 0.2948617 0 45
2.2542133 0.76166141 0.31922641 0 46
2.2265794 0.75232434 0.33734661 0 47
2.2366822 0.7557379 0.36106932 0 48
2.2324786 0.75431764 0.3826035 0 49
2.2335944 0.75469458 0.40508503 0 50
2.2460301 0.75889641 0.42982575 0 51
2.2388022 0.75645423 0.45093042 0 52
2.2355499 0.7553553 0.47280952 0 53
2.2352865 0.75526631 0.49536857 0 54
2.2449665 0.75853705 0.52031434 0 55
2.2461603 0.75894034 0.54349601 0 56
2.2473388 0.75933856 0.56679511 0 57
2.2361872 0.75557065 0.58698314 0 58
2.2612481 0.76403832 0.61692643 0 59
2.2490015 0.75990039 0.6369344 0 60
2.2352064 0.75523925 0.65634835 0 61
2.2396336 0.75673515 0.68113518 0 62
2.2567499 0.76251847 0.7101329 0 63
2.2181451 0.77999061 -0.70095015 0 0
2.2088225 0.77671236 -0.67461836 0 1
2.2150214 0.77889216 -0.65318418 0 2
2.2184887 0.78011137 -0.63096195 0 3
2.2286234 0.78367519 -0.61060846 0 4
2.2294939 0.78398126 -0.58771223 0 5
2.2247012 0.78229594 -0.56346923 0 6
2.2178779 0.77989656 -0.53893232 0 7
2.2213047 0.78110158 -0.51701725 0 8
2.2165003 0.77941221 -0.49329197 0 9
2.2143013 0.77863896 -0.470305 0 10
2.2173579 0.77971381 -0.44850844 0 11
2.2283874 0.7835921 -0.42826098 0 12
2.2172706 0.77968305 -0.40383276 0 13
2.2244079 0.78219289 -0.38283977 0 14
2.209826 0.77706522 -0.35824931 0 15
2.2052298 0.77544898 -0.33553126 0 16
2.2301831 0.78422368 -0.31716505 0 17
2.2338927 0.78552806 -0.29554749 0 18
2.2147501 0.77879673 -0.27110991 0 19
2.2213693 0.78112429 -0.24999633 0 20
2.206789 0.77599734 -0.22661804 0 21
2.2219293 0.78132123 -0.20632519 0 22
2.2143557 0.77865803 -0.18388385 0 23
2.2241919 0.78211689 -0.16289748 0 24
2.2210162 0.78100014 -0.14092049 0 25
2.2167258 0.77949154 -0.11896975 0 26
2.2290039 0.78380895 -0.097850405 0 27
2.2184029 0.78008127 -0.075726822 0 28
2.2279065 0.78342301 -0.054313112 0 29
2.2048333 0.77530956 -0.032246735 0 30
2.2125206 0.77801275 -0.010785781 0 31
2.2197802 0.78056556 0.010821171 0 32
2.2238762 0.78200591 0.032525249 0 33
2.2176163 0.77980459 0.054062255 0 34
2.212204 0.77790147 0.075515218 0 35
2.2216444 0.78122109 0.09752734 0 36
2.2348237 0.78585547 0.11994105 0 37
2.2191801 0.7803545 0.14080398 0 38
2.2207601 0.78091013 0.16264613 0 39
2.2161043 0.77927291 0.18402904 0 40
2.2078843 0.77638245 0.20502099 0 41
2.2157865 0.77916116 0.22754198 0 42
2.2262032 0.78282416 0.25054038 0 43
2.2210062 0.78099668 0.27187574 0 44
2.2207284 0.78089899 0.29380584 0 45
2.2092631 0.77686727 0.31418991 0 46
2.2091277 0.77681965 0.33612436 0 47
2.2287169 0.78370804 0.36131185 0 48
2.2250831 0.78243023 0.38295594 0 49
2.2219245 0.78131956 0.40468037 0 50
2.2150426 0.77889961 0.42569634 0 51
2.2183874 0.78007579 0.44871667 0 52
2.229389 0.78394443 0.47350952 0 53
2.2231135 0.78173769 0.49476379 0 54
2.2072792 0.77616966 0.51375276 0 55
2.2088327 0.77671599 0.53673446 0 56
2.2204971 0.78081769 0.56240445 0 57
2.2030666 0.7746883 0.58074582 0 58
2.2338231 0.78550357 0.61203307 0 59
2.2269776 0.78309643 0.6333763 0 60
2.233047 0.7852307 0.65849972 0 61
2.2108092 0.77741098 0.67522514 0 62
2.2192583 0.78038198 0.70130187 0 63
2.2020547 0.80489033 -0.69894022 0 0
2.1904089 0.80063355 -0.67195052 0 1
2.1905921 0.80070049 -0.64883459 0 2
2.1939528 0.80192894 -0.62674087 0 3
2.1960645 0.80270082 -0.60434651 0 4
2.1859658 0.79900956 -0.57878411 0 5
2.1804793 0.79700416 -0.55470908 0 6
2.1923487 0.80134267 -0.53508288 0 7
2.1947453 0.80221862 -0.5130927 0 8
2.2023065 0.80498236 -0.49229881 0 9
2.1836989 0.798181 -0.46585461 0 10
2.1952224 0.80239296 -0.44599304 0 11
2.2027581 0.80514741 -0.42520604 0 12
2.2003784 0.8042776 -0.40252697 0 13
2.200489 0.80431801 -0.38039654 0 14
2.1989427 0.80375284 -0.35806015 0 15
2.184747 0.79856408 -0.33388361 0 16
2.1885664 0.79996008 -0.3126218 0 17
2.1921 0.80125177 -0.29129976 0 18
2.1971712 0.80310535 -0.27014649 0 19
2.1975038 0.80322689 -0.24840325 0 20
2.1923079 0.80132771 -0.22612572 0 21
2.2026701 0.80511528 -0.2054406 0 22
2.1824927 0.79774004 -0.18203871 0 23
2.190084 0.80051476 -0.16110818 0 24
2.2061296 0.8063798 -0.14059445 0 25
2.195555 0.80251455 -0.11835419 0 26
2.1911442 0.80090243 -0.096613444 0 27
2.1795208 0.79665381 -0.074728303 0 28
2.1900699 0.80050969 -0.05362663 0 29
2.1885481 0.79995346 -0.032149993 0 30
2.2026596 0.80511147 -0.010785156 0 31
2.2072144 0.80677629 0.010807458 0 32
2.2035193 0.8054257 0.032369923 0 33
2.1876855 0.79963809 0.053568244 0 34
2.1942649 0.80204302 0.075233825 0 35
2.1988347 0.80371332 0.096952528 0 36
2.1964393 0.80283773 0.11840186 0 37
2.2078958 0.80702537 0.14070702 0 38
2.2025185 0.80505991 0.16202292 0 39
2.200839 0.80444598 0.18356895 0 40
2.178566 0.79630476 0.20319243 0 41
2.2165039 0.81017172 0.22862139 0 42
2.2078471 0.80700755 0.24957244 0 43
2.1954963 0.80249316 0.26994058 0 44
2.1999345 0.8041153 0.29234082 0 45
2.1923919 0.80135834 0.31316826 0 46
2.1810107 0.79719836 0.3333126 0 47
2.1864173 0.79917455 0.3560206 0 48
2.2050381 0.80598074 0.38118291 0 49
2.1900713 0.80051023 0.40064147 0 50
2.194067 0.80197066 0.42352834 0 51
2.192693 0.80146849 0.44547915 0 52
2.1943316 0.80206746 0.46812293 0 53
2.1859848 0.79901654 0.48865032 0 54
2.1991575 0.80383128 0.51412416 0 55
2.1951292 0.80235893 0.53576148 0 56
2.1849043 0.79862159 0.55583477 0 57
2.1892869 0.80022347 0.5796634 0 58
2.201148 0.80455893 0.60574543 0 59
2.191324 0.80096805 0.62598991 0 60
2.1826758 0.79780698 0.64648986 0 61
2.1936388 0.80181414 0.67294133 0 62
2.1991947 0.80384499 0.6980325 0 63
2.1735277 0.82489747 -0.69305277 0 0
2.1749196 0.8254258 -0.67026192 0 1
2.1729186 0.82466626 -0.64655453 0 2
2.1805506 0.82756281 -0.62577194 0 3
2.1685407 0.82300478 -0.59951174 0 4
2.1787088 0.82686377 -0.57951087 0 5
2.1652708 0.82176387 -0.55336887 0 6
2.171788 0.82423729 -0.53249812 0 7
2.1838758 0.82882482 -0.51289546 0 8
2.1779795 0.82658702 -0.48909587 0 9
2.1726594 0.82456791 -0.46562731 0 10
2.1751204 0.82550192 -0.44393775 0 11
2.187243 0.83010268 -0.42414936 0 12
2.1649139 0.82162833 -0.3978574 0 13
2.1789382 0.82695085 -0.3784003 0 14
2.1727183 0.82459033 -0.35541415 0 15
2.1654449 0.82182992 -0.33245301 0 16
2.1869695 0.82999897 -0.31382787 0 17
2.1767943 0.82613719 -0.29059377 0 18
2.1594672 0.8195613 -0.26672962 0 19
2.1744905 0.82526284 -0.24693027 0 20
2.1727264 0.82459342 -0.22513482 0 21
2.1872816 0.83011734 -0.20494187 0 22
2.1737068 0.82496542 -0.18213823 0 23
2.1618657 0.82047153 -0.15976247 0 24
2.1793807 0.82711881 -0.1395274 0 25
2.1852636 0.82935154 -0.11834022 0 26
2.1711149 0.82398182 -0.096169777 0 27
2.1864104 0.82978672 -0.075308666 0 28
2.1707387 0.82383901 -0.053397298 0 29
2.1561267 0.81829351 -0.031819128 0 30
2.168751 0.82308465 -0.010667875 0 31
2.1911387 0.83158123 0.010777999 0 32
2.1808929 0.82769275 0.032184616 0 33
2.1705346 0.82376152 0.053392276 0 34
2.1662998 0.82215434 0.074615978 0 35
2.1660476 0.82205862 0.095945314 0 36
2.1578443 0.81894535 0.11685536 0 37
2.1675258 0.82261962 0.13876842 0 38
2.1784644 0.82677108 0.16098914 0 39
2.1786342 0.82683545 0.1825511 0 40
2.1691487 0.82323557 0.20324288 0 41
2.1721625 0.82437938 0.22507638 0 42
2.177762 0.82650453 0.2473018 0 43
2.1629555 0.82088512 0.26716048 0 44
2.1739008 0.82503909 0.29020751 0 45
2.1823735 0.8282547 0.31316835 0 46
2.1765842 0.82605749 0.33416319 0 47
2.170099 0.82359618 0.35498565 0 48
2.190558 0.83136082 0.38041824 0 49
2.1713128 0.82405686 0.39903337 0 50
2.1739357 0.82505232 0.42156884 0 51
2.1524098 0.81688285 0.43930256 0 52
2.1723998 0.82446945 0.4655717 0 53
2.1446102 0.81392276 0.48160234 0 54
2.1802087 0.82743305 0.51203418 0 55
2.17079 0.82385844 0.53225332 0 56
2.1824188 0.82827187 0.5577513 0 57
2.1778109 0.82652307 0.57927209 0 58
2.1741126 0.82511944 0.60105211 0 59
2.1735601 0.82490975 0.62376583 0 60
2.1860127 0.82963586 0.65045071 0 61
2.175894 0.82579553 0.67056215 0 62
2.1578605 0.81895143 0.68805712 0 63
2.1646967 0.85214084 -0.69352561 0 0
2.1599345 0.8502661 -0.66881526 0 1
2.1613567 0.85082597 -0.64617842 0 2
2.1400776 0.84244937 -0.61708325 0 3
2.1615291 0.85089386 -0.60042048 0 4
2.1406889 0.84269005 -0.57211101 0 5
2.1565859 0.848948 -0.55377531 0 6
2.1530085 0.84753972 -0.53040874 0 7
2.1684065 0.85360122 -0.51168883 0 8
2.1509831 0.84674239 -0.48533493 0 9
2.1474926 0.84536833 -0.4624266 0 10
2.1605999 0.85052812 -0.44307521 0 11
2.1505144 0.84655786 -0.41901395 0 12
2.14891 0.84592634 -0.39679793 0 13
2.1573291 0.84924048 -0.37643266 0 14
2.1513314 0.84687954 -0.3535924 0 15
2.1500611 0.84637946 -0.33166394 0 16
2.1431043 0.84364092 -0.30899853 0 17
2.1454935 0.84458137 -0.2877799 0 18
2.1551824 0.84839553 -0.26746872 0 19
2.1569459 0.84908974 -0.24610502 0 20
2.1622882 0.85119271 -0.22512074 0 21
2.1545155 0.84813291 -0.20283362 0 22
2.1575689 0.84933496 -0.18164739 0 23
2.1312222 0.83896345 -0.15824834 0 24
2.1550448 0.84834129 -0.13862674 0 25
2.1516323 0.84699798 -0.11707413 0 26
2.1578255 0.84943593 -0.096036524 0 27
2.1568651 0.84905791 -0.074644975 0 28
2.159816 0.85021955 -0.053381752 0 29
2.1468964 0.8451336 -0.031833865 0 30
2.146482 0.84497052 -0.010608642 0 31
2.1580098 0.84950852 0.010665617 0 32
2.1427174 0.84348857 0.031771902 0 33
2.1631198 0.85152006 0.053463407 0 34
2.1591189 0.84994513 0.074722975 0 35
2.1643121 0.85198939 0.096325211 0 36
2.1543062 0.84805053 0.11721962 0 37
2.1485682 0.84579176 0.13821012 0 38
2.1630962 0.85151076 0.16061504 0 39
2.164994 0.85225785 0.18227251 0 40
2.1410661 0.84283847 0.20156744 0 41
2.1440952 0.84403098 0.22322662 0 42
2.158567 0.84972781 0.24628995 0 43
2.1502774 0.84646457 0.26685995 0 44
2.1676972 0.85332191 0.29075813 0 45
2.1486816 0.8458364 0.30980265 0 46
2.1595511 0.85011524 0.33312786 0 47
2.1480582 0.84559095 0.35305437 0 48
2.1532919 0.8476513 0.37572822 0 49
2.1529672 0.84752345 0.39754707 0 50
2.1562238 0.84880537 0.42012638 0 51
2.1460409 0.8447969 0.44008958 0 52
2.1515956 0.84698349 0.46331012 0 53
2.1547205 0.84821367 0.48617822 0 54
2.1469734 0.84516394 0.50663114 0 55
2.1579356 0.84947926 0.53162259 0 56
2.1379075 0.84159517 0.54897904 0 57
2.1579285 0.84947652 0.57671839 0 58
2.1449971 0.84438598 0.59582829 0 59
2.1461122 0.84482497 0.61882335 0 60
2.1611414 0.85074127 0.64611405 0 61
2.1635315 0.85168213 0.66992909 0 62
2.149967 0.84634238 0.68880653 0 63
2.125046 0.86685878 -0.68418562 0 0
2.1222329 0.86571121 -0.66038746 0 1
2.1359551 0.87130886 -0.64173877 0 2
2.1414628 0.87355566 -0.62053311 0 3
2.1305008 0.86908394 -0.59472513 0 4
2.1382058 0.87222701 -0.57427037 0 5
2.1398232 0.87288678 -0.55218536 0 6
2.1287401 0.86836571 -0.52702075 0 7
2.1323912 0.86985511 -0.50567591 0 8
2.1432142 0.87427002 -0.48597088 0 9
2.1317978 0.86961305 -0.46131474 0 10
2.1296713 0.86874563 -0.43889016 0 11
2.1397233 0.87284607 -0.41897097 0 12
2.1293938 0.86863244 -0.39513665 0 13
2.1114359 0.86130685 -0.37024477 0 14
2.1321094 0.86974019 -0.35216424 0 15
2.1309056 0.86924905 -0.33033291 0 16
2.1273127 0.86778343 -0.30823684 0 17
2.1266918 0.86753017 -0.2866672 0 18
2.1260331 0.86726153 -0.2651546 0 19
2.1310146 0.86929351 -0.24434741 0 20
2.1333928 0.87026364 -0.22320962 0 21
2.1225955 0.86585921 -0.20081572 0 22
2.1336455 0.87036675 -0.18052067 0 23
2.1415815 0.87360406 -0.15980309 0 24
2.1368515 0.8716746 -0.13813548 0 25
2.1282456 0.86816394 -0.11637367 0 26
2.1267059 0.86753589 -0.095119089 0 27
2.1331136 0.87014979 -0.074187674 0 28
2.1175659 0.8638075 -0.052596051 0 29
2.1261513 0.86730969 -0.031682003 0 30
2.1290178 0.86847895 -0.010574309 0 31
2.117847 0.86392212 0.010518827 0 32
2.1403189 0.87308896 0.031893115 0 33
2.1379685 0.87213027 0.053102814 0 34
2.1308355 0.8692205 0.074108444 0 35
2.1324391 0.86987466 0.095375523 0 36
2.1298866 0.86883348 0.11646342 0 37
2.1342525 0.87061441 0.13796747 0 38
2.1315744 0.86952192 0.15905637 0 39
2.1333432 0.87024343 0.18049508 0 40
2.1333199 0.87023389 0.20183034 0 41
2.1357992 0.87124527 0.22346139 0 42
2.1381335 0.87219751 0.24516369 0 43
2.1353741 0.87107193 0.26631957 0 44
2.1354856 0.87111735 0.28785253 0 45
2.1341963 0.8705914 0.30923423 0 46
2.129777 0.86878866 0.33015794 0 47
2.1319735 0.8696847 0.35214177 0 48
2.1327546 0.87000334 0.37398309 0 49
2.1312523 0.86939055 0.39548153 0 50
2.1352663 0.87102795 0.41809824 0 51
2.1219091 0.86557925 0.43729052 0 52
2.1383436 0.87228322 0.46273124 0 53
2.1246891 0.86671317 0.48177034 0 54
2.1308908 0.86924309 0.50532013 0 55
2.1200476 0.86481982 0.52486873 0 56
2.141155 0.87343013 0.55252904 0 57
2.1341367 0.87056708 0.57317746 0 58
2.148566 0.87645316 0.59976798 0 59
2.1337605 0.87041366 0.61830121 0 60
2.1325161 0.86990607 0.64070559 0 61
2.1309068 0.86924958 0.66308659 0 62
2.1300926 0.86891747 0.68581045 0 63
2.1093872 0.89087784 -0.68261945 0 0
2.1042111 0.88869178 -0.65813023 0 1
2.1170206 0.89410174 -0.63930488 0 2
2.1216385 0.89605206 -0.61793464 0 3
2.1117003 0.89185476 -0.59249353 0 4
2.1216393 0.89605236 -0.57273692 0 5
2.1238456 0.89698422 -0.55086684 0 6
2.0986657 0.8863498 -0.52223396 0 7
2.1155725 0.8934902 -0.50425482 0 8
2.1217365 0.89609343 -0.4835628 0 9
2.1105933 0.89138728 -0.45906335 0 10
2.1089261 0.89068317 -0.43683895 0 11
2.1176293 0.89435881 -0.41676664 0 12
2.1168079 0.89401197 -0.39481124 0 13
2.1080844 0.89032769 -0.37154874 0 14
2.1055727 0.88926691 -0.34956083 0 15
2.1075079 0.89008427 -0.32837766 0 16
2.1105962 0.89138848 -0.30737966 0 17
2.1132174 0.89249551 -0.28630856 0 18
2.121841 0.89613765 -0.26598597 0 19
2.1091483 0.89077693 -0.24307774 0 20
2.1136692 0.89268631 -0.22227766 0 21
2.1210978 0.89582372 -0.20170093 0 22
2.1070206 0.88987839 -0.17918026 0 23
2.1081996 0.89037627 -0.15811716 0 24
2.1031618 0.88824868 -0.13665336 0 25
2.1086836 0.89058071 -0.11589406 0 26
2.1235988 0.89687997 -0.095466167 0 27
2.116087 0.89370745 -0.073972106 0 28
2.1227117 0.8965053 -0.052993666 0 29
2.118273 0.89463073 -0.031726133 0 30
2.1111572 0.8916254 -0.010539258 0 31
2.0980077 0.8860718 0.010473613 0 32
2.1091712 0.89078665 0.03158981 0 33
2.1098614 0.89107811 0.052672856 0 34
2.1034555 0.88837278 0.073530555 0 35
2.1054707 0.88922381 0.094651215 0 36
2.1163409 0.89381468 0.11631491 0 37
2.1145148 0.89304346 0.13739102 0 38
2.1035018 0.88839227 0.15776482 0 39
2.1096504 0.89098901 0.1794039 0 40
2.1118901 0.89193493 0.20082535 0 41
2.1136272 0.89266866 0.22227328 0 42
2.1131573 0.89247012 0.24353977 0 43
2.1117687 0.89188373 0.26472333 0 44
2.1126363 0.89225012 0.28622985 0 45
2.1071985 0.88995349 0.30688483 0 46
2.1140356 0.8928411 0.32939476 0 47
2.1134408 0.89258993 0.35086706 0 48
2.1035819 0.88842607 0.37075517 0 49
2.1242437 0.89715242 0.39619812 0 50
2.1101403 0.89119589 0.41529274 0 51
2.1066051 0.88970292 0.43635818 0 52
2.1114678 0.89175659 0.45925355 0 53
2.1078372 0.89022326 0.48039505 0 54
2.1131775 0.8924787 0.50368398 0 55
2.1118028 0.89189816 0.52550304 0 56
2.1048253 0.88895124 0.54593354 0 57
2.1022525 0.88786465 0.56750351 0 58
2.1057155 0.88932717 0.59081435 0 59
2.1053033 0.88915306 0.61317694 0 60
2.1032641 0.88829184 0.63515067 0 61
2.1081603 0.89035976 0.65936542 0 62
2.1002557 0.88702124 0.67966443 0 63
2.0998447 0.91743284 -0.68313044 0 0
2.0882456 0.91236514 -0.656596 0 1
2.0900407 0.91314948 -0.63450027 0 2
2.074966 0.90656322 -0.60754192 0 3
2.0902019 0.91321993 -0.58956772 0 4
2.0754378 0.90676939 -0.56323224 0 5
2.0763717 0.90717739 -0.54140586 0 6
2.0929689 0.91442877 -0.52357477 0 7
2.0955067 0.91553766 -0.50211746 0 8
2.1013074 0.91807199 -0.48144335 0 9
2.0843499 0.91066313 -0.45575643 0 10
2.0966094 0.91601938 -0.43658787 0 11
2.0923362 0.91415232 -0.41396976 0 12
2.0890727 0.91272652 -0.39170194 0 13
2.102191 0.91845804 -0.37247241 0 14
2.0879383 0.91223091 -0.34846911 0 15
2.0911274 0.91362429 -0.32755107 0 16
2.0909443 0.91354424 -0.30613047 0 17
2.0767553 0.907345 -0.28285876 0 18
2.0841827 0.91059011 -0.26264903 0 19
2.0823669 0.90979677 -0.2412623 0 20
2.0755682 0.90682638 -0.21942696 0 21
2.0845087 0.91073245 -0.19927143 0 22
2.0794775 0.90853435 -0.17777462 0 23
2.0792351 0.90842843 -0.15677075 0 24
2.0972075 0.91628075 -0.13698819 0 25
2.0893719 0.91285729 -0.11544089 0 26
2.0919483 0.91398293 -0.094541416 0 27
2.0812738 0.90931922 -0.073140487 0 28
2.087815 0.91217709 -0.052398529 0 29
2.0894859 0.912907 -0.031460728 0 30
2.088238 0.91236186 -0.010480056 0 31
2.0798161 0.90868235 0.01043779 0 32
2.0720332 0.9052819 0.03119795 0 33
2.0883944 0.91243023 0.052413072 0 34
2.0767126 0.90732634 0.072980195 0 35
2.0842807 0.91063285 0.094194889 0 36
2.0876031 0.91208446 0.11534315 0 37
2.087167 0.9118939 0.13633235 0 38
2.091357 0.9137246 0.15768471 0 39
2.0891302 0.91275167 0.17859983 0 40
2.1043043 0.91938132 0.20116383 0 41
2.1090441 0.92145216 0.22296599 0 42
2.0775559 0.90769476 0.24070489 0 43
2.0884731 0.91246462 0.2631897 0 44
2.0986526 0.91691208 0.28584123 0 45
2.0972624 0.91630465 0.30705547 0 46
2.0977411 0.9165138 0.328587 0 47
2.080533 0.90899551 0.34723321 0 48
2.0801499 0.90882814 0.36856711 0 49
2.085181 0.91102618 0.39097226 0 50
2.0882967 0.91238749 0.41317055 0 51
2.0896749 0.91298968 0.43514386 0 52
2.089993 0.91312861 0.45699033 0 53
2.0784822 0.90809947 0.47621369 0 54
2.0907152 0.9134441 0.50096929 0 55
2.0933516 0.91459596 0.52367049 0 56
2.0949597 0.91529858 0.54625261 0 57
2.0744677 0.90634561 0.56296897 0 58
2.0924926 0.91422075 0.59021384 0 59
2.0835357 0.91030741 0.6100511 0 60
2.0883994 0.91243237 0.63400197 0 61
2.0846546 0.91079623 0.65546691 0 62
2.1007459 0.91782671 0.6834237 0 63
2.0644028 0.93234193 -0.67527902 0 0
2.0615978 0.93107516 -0.65176785 0 1
2.0577662 0.92934465 -0.62812406 0 2
2.0680118 0.93397188 -0.60882241 0 3
2.0646653 0.93246049 -0.58555466 0 4
2.0764351 0.93777603 -0.56658942 0 5
2.0795319 0.93917465 -0.54519987 0 6
2.0699372 0.93484139 -0.52064949 0 7
2.0807283 0.93971503 -0.50130725 0 8
2.0697243 0.93474525 -0.47680455 0 9
2.0669687 0.93350077 -0.45443147 0 10
2.0662091 0.93315768 -0.43261415 0 11
2.0717444 0.93565762 -0.41214085 0 12
2.0635538 0.93195856 -0.38903648 0 13
2.0738547 0.93661064 -0.36946437 0 14
2.07672 0.93790466 -0.34849527 0 15
2.0769439 0.93800581 -0.3271113 0 16
2.0656586 0.93290907 -0.30408499 0 17
2.0611424 0.9308694 -0.28226992 0 18
2.069247 0.93452966 -0.26219514 0 19
2.080205 0.93947858 -0.24233194 0 20
2.0671666 0.93359011 -0.21973576 0 21
2.0703225 0.93501544 -0.19899936 0 22
2.0754106 0.93731338 -0.17839879 0 23
2.052753 0.92708057 -0.15562181 0 24
2.067271 0.93363732 -0.13577239 0 25
2.0733929 0.93640208 -0.1151855 0 26
2.0536988 0.92750764 -0.093321174 0 27
2.0685332 0.93420732 -0.073090926 0 28
2.0700004 0.93487 -0.052235994 0 29
2.0655296 0.93285078 -0.031270374 0 30
2.0798106 0.93930048 -0.010494933 0 31
2.0738533 0.93661004 0.010464872 0 32
2.0728936 0.9361766 0.03138186 0 33
2.0648038 0.93252307 0.052104857 0 34
2.0564218 0.92873746 0.072662972 0 35
2.0733857 0.93639886 0.094215758 0 36
2.0558441 0.92847657 0.11421059 0 37
2.0582187 0.92954904 0.13517787 0 38
2.0725386 0.93601632 0.15712178 0 39
2.0595407 0.9301461 0.17703463 0 40
2.0704234 0.93506098 0.19900906 0 41
2.0741332 0.9367364 0.2204763 0 42
2.0605655 0.93060893 0.24004407 0 43
2.0664115 0.93324912 0.26183587 0 44
2.0632253 0.93181014 0.28255519 0 45
2.0750139 0.93713415 0.30546218 0 46
2.0757411 0.93746251 0.32692185 0 47
2.0679648 0.9339506 0.34702605 0 48
2.0688705 0.93435967 0.36857641 0 49
2.0700605 0.93489712 0.39026317 0 50
2.0646584 0.93245739 0.41073123 0 51
2.0827446 0.94062555 0.43607625 0 52
2.0775614 0.9382847 0.45676032 0 53
2.0691547 0.934488 0.47667333 0 54
2.0646012 0.93243146 0.49742171 0 55
2.0733206 0.93636948 0.52150053 0 56
2.0731893 0.93631017 0.54353702 0 57
2.0807312 0.93971628 0.56776166 0 58
2.073704 0.93654257 0.58811808 0 59
2.0569208 0.92896277 0.60555714 0 60
2.075304 0.93726516 0.63347733 0 61
2.0748711 0.93706965 0.65596414 0 62
2.0668292 0.93343776 0.67607272 0 63
2.0437639 0.95344675 -0.67231208 0 0
2.0555022 0.95892286 -0.65351909 0 1
2.0458326 0.95441186 -0.62801617 0 2
2.0475345 0.9552058 -0.60620594 0 3
2.0590386 0.96057266 -0.58726436 0 4
2.0493202 0.95603895 -0.562356 0 5
2.0531826 0.95784068 -0.54133874 0 6
2.0543489 0.95838487 -0.51965356 0 7
2.0579233 0.96005237 -0.49861938 0 8
2.0373347 0.9504475 -0.47199962 0 9
2.0640373 0.96290469 -0.45635566 0 10
2.0409756 0.95214593 -0.42974973 0 11
2.0526857 0.95760894 -0.41066086 0 12
2.0586452 0.96038914 -0.39030793 0 13
2.0521467 0.95735753 -0.36766648 0 14
2.0573041 0.95976353 -0.3471913 0 15
2.0470498 0.95497972 -0.32422805 0 16
2.0464718 0.95471013 -0.30296579 0 17
2.0347579 0.94924527 -0.28023392 0 18
2.0501275 0.95641553 -0.26124293 0 19
2.0549703 0.95867473 -0.24074732 0 20
2.0458553 0.95442247 -0.21870141 0 21
2.0348928 0.94930828 -0.19670101 0 22
2.0393121 0.95137 -0.17628808 0 23
2.0437982 0.95346272 -0.15581997 0 24
2.0471721 0.95503676 -0.1352134 0 25
2.0463555 0.95465589 -0.11432697 0 26
2.0610259 0.96149975 -0.09418425 0 27
2.0373402 0.95045 -0.072396211 0 28
2.0604939 0.96125168 -0.052290421 0 29
2.0476995 0.95528275 -0.031175917 0 30
2.0451379 0.95408773 -0.010378387 0 31
2.047684 0.9552756 0.010391309 0 32
2.0523458 0.95745033 0.031246657 0 33
2.0573831 0.95980036 0.052211475 0 34
2.0606027 0.96130234 0.073222846 0 35
2.0518174 0.95720392 0.093763448 0 36
2.0427792 0.95298737 0.11412716 0 37
2.0437484 0.95343959 0.13498728 0 38
2.0447404 0.95390242 0.15589182 0 39
2.0391135 0.95127738 0.17627092 0 40
2.0598383 0.96094579 0.19911236 0 41
2.0499194 0.95631844 0.21913585 0 42
2.0498328 0.95627803 0.24014544 0 43
2.0560668 0.95918626 0.26199976 0 44
2.0510883 0.95686382 0.28248304 0 45
2.0416138 0.95244378 0.3022466 0 46
2.0494492 0.95609903 0.32460809 0 47
2.0489471 0.95586485 0.34578097 0 48
2.0462282 0.9545964 0.36660609 0 49
2.0401473 0.95175952 0.38680083 0 50
2.0418379 0.95254827 0.40849066 0 51
2.0531421 0.95782185 0.43231153 0 52
2.0459964 0.95448834 0.45236686 0 53
2.0398242 0.95160884 0.47257638 0 54
2.0472026 0.955051 0.49602181 0 55
2.048943 0.95586294 0.51828605 0 56
2.0550988 0.95873469 0.54184401 0 57
2.0453374 0.9541809 0.56126308 0 58
2.0338469 0.94882035 0.58007938 0 59
2.0555089 0.95892596 0.60856688 0 60
2.0528295 0.95767605 0.63016409 0 61
2.0536478 0.95805776 0.65292954 0 62
2.0631874 0.9625082 0.67870164 0 63
2.0253115 0.97533762 -0.67013663 0 0
2.0223942 0.9739328 -0.64675158 0 1
2.0231874 0.97431475 -0.62469524 0 2
2.0275943 0.97643703 -0.6038115 0 3
2.0248301 0.97510588 -0.58088356 0 4
2.0276885 0.97648233 -0.55967259 0 5
2.0258741 0.97560865 -0.53726107 0 6
2.0212986 0.97340524 -0.51428223 0 7
2.0441206 0.98439562 -0.49817023 0 8
2.0364904 0.98072124 -0.47456205 0 9
2.0209429 0.97323388 -0.44943953 0 10
2.0289853 0.97710681 -0.42972243 0 11
2.0344503 0.97973859 -0.40939191 0 12
2.03585 0.98041272 -0.38824242 0 13
2.030246 0.977714 -0.36586899 0 14
2.0404027 0.9826051 -0.34635186 0 15
2.0349607 0.97998452 -0.32419744 0 16
2.0347545 0.97988516 -0.30299199 0 17
2.0221388 0.97380972 -0.28012398 0 18
2.0186825 0.97214532 -0.25873968 0 19
2.0457196 0.98516572 -0.24106456 0 20
2.0263729 0.97584879 -0.217885 0 21
2.0310361 0.97809452 -0.19747588 0 22
2.0266907 0.97600186 -0.17622116 0 23
2.0309572 0.97805649 -0.15574612 0 24
2.0152049 0.97047061 -0.13388008 0 25
2.0222692 0.97387266 -0.11364175 0 26
2.0316334 0.97838205 -0.093383789 0 27
2.0316193 0.97837532 -0.072614938 0 28
2.022644 0.97405308 -0.051629934 0 29
2.0272045 0.97624922 -0.031044303 0 30
2.0167944 0.97123611 -0.010294382 0 31
2.0239797 0.97469634 0.010331058 0 32
2.0235846 0.97450608 0.03098887 0 33
2.0461316 0.98536402 0.052229475 0 34
2.0392337 0.98204219 0.072887093 0 35
2.0246706 0.97502905 0.093063749 0 36
2.0340495 0.97954565 0.11430374 0 37
2.0382717 0.98157889 0.13541251 0 38
2.0300741 0.97763121 0.15567839 0 39
2.0169985 0.97133434 0.17537841 0 40
2.0250268 0.97520059 0.19689159 0 41
2.0161667 0.97093374 0.21678758 0 42
2.0284464 0.97684741 0.23902912 0 43
2.0371463 0.98103696 0.26110622 0 44
2.023315 0.9743762 0.28028691 0 45
2.0224044 0.97393775 0.30115297 0 46
2.0324392 0.97877014 0.32379568 0 47
2.0210876 0.9733035 0.34307319 0 48
2.0344014 0.97971517 0.36661786 0 49
2.0316293 0.97838014 0.38743752 0 50
2.0349414 0.97997516 0.40949076 0 51
2.0173583 0.97150761 0.42725995 0 52
2.0229914 0.9742204 0.44989511 0 53
2.0270662 0.97618276 0.47236592 0 54
2.0244377 0.97491688 0.49337336 0 55
2.0202062 0.97287911 0.51400423 0 56
2.0192633 0.97242504 0.53550786 0 57
2.0429332 0.98382384 0.56388038 0 58
2.020762 0.9731468 0.5797165 0 59
2.013041 0.96942848 0.59947753 0 60
2.024967 0.97517174 0.62524468 0 61
2.0242646 0.97483355 0.64734977 0 62
2.0344443 0.97973579 0.67315847 0 63
2.0106723 0.99892735 -0.66930652 0 0
2.0292492 1.0081565 -0.65285885 0 1
2.0089955 0.99809426 -0.62405556 0 2
2.0032785 0.99525392 -0.60016942 0 3
2.0013483 0.99429494 -0.57761085 0 4
2.0084443 0.99782038 -0.5577054 0 5
2.0164111 1.0017784 -0.53797758 0 6
2.0017569 0.99449801 -0.51238281 0 7
2.0129957 1.0000815 -0.49354455 0 8
1.9970556 0.99216235 -0.46818012 0 9
2.0045753 0.99589813 -0.44848898 0 10
2.0092688 0.99822998 -0.42811397 0 11
1.9993458 0.99330008 -0.40475509 0 12
2.0136981 1.0004306 -0.38633478 0 13
2.0099254 0.99855626 -0.36439225 0 14
2.0094352 0.99831265 -0.34315306 0 15
2.0149357 1.0010455 -0.32294381 0 16
2.0054767 0.99634606 -0.30043393 0 17
2.0256724 1.0063795 -0.28230643 0 18
2.0044546 0.99583828 -0.25846604 0 19
2.0014064 0.99432385 -0.23726559 0 20
2.0057435 0.99647862 -0.21696796 0 21
1.9999595 0.99360502 -0.19562745 0 22
2.019089 1.0031089 -0.17661934 0 23
1.9964968 0.99188471 -0.15402715 0 24
2.0112772 0.99922782 -0.13442527 0 25
1.9924799 0.98988909 -0.11264323 0 26
2.0129051 1.0000365 -0.093081132 0 27
2.0113714 0.99927467 -0.072324954 0 28
2.0038316 0.9955287 -0.051458314 0 29
2.0270925 1.007085 -0.031229867 0 30
1.9955367 0.99140775 -0.010247326 0 31
2.0107825 0.99898201 0.010325614 0 32
2.0126212 0.99989545 0.031006919 0 33
2.006084 0.99664778 0.051516157 0 34
2.0008972 0.99407083 0.071948312 0 35
1.9903402 0.98882604 0.092037685 0 36
1.9931158 0.99020499 0.11267918 0 37
2.0039694 0.99559724 0.13393685 0 38
2.0137703 1.0004663 0.15535977 0 39
2.0106709 0.99892658 0.17588297 0 40
2.0187809 1.0029558 0.19746849 0 41
2.0010238 0.99413383 0.21645741 0 42
2.0133615 1.0002632 0.23868284 0 43
2.0029237 0.99507773 0.25826862 0 44
2.0059781 0.9965952 0.27956176 0 45
2.0083625 0.99777979 0.30086625 0 46
2.0085745 0.99788505 0.32192424 0 47
1.9967439 0.99200749 0.34098577 0 48
2.0141919 1.0006758 0.36516571 0 49
2.0080621 0.99763048 0.38525349 0 50
2.010287 0.9987359 0.40697008 0 51
2.0068157 0.9970113 0.42759132 0 52
2.018039 1.0025871 0.45150125 0 53
2.0135546 1.0003592 0.47204804 0 54
2.0216765 1.0043943 0.49567291 0 55
2.0045946 0.99590778 0.51310915 0 56
1.9888824 0.98810184 0.53063297 0 57
2.0087793 0.99798685 0.55779839 0 58
2.0164764 1.0018108 0.58197701 0 59
1.9998778 0.99356449 0.5991506 0 60
2.0129988 1.0000831 0.62529916 0 61
2.0132871 1.0002264 0.64772344 0 62
2.0202203 1.0036708 0.67248476 0 63
1.9888864 1.0187838 -0.66617417 0 0
1.9883015 1.0184842 -0.64366549 0 1
1.9749976 1.0116695 -0.61731237 0 2
1.9956079 1.0222268 -0.60159171 0 3
1.981629 1.0150664 -0.57547855 0 4
1.9751749 1.0117604 -0.55188006 0 5
1.9853866 1.0169911 -0.53299642 0 6
1.9936635 1.0212309 -0.51348668 0 7
1.9833438 1.0159447 -0.48930046 0 8
1.9803843 1.0144287 -0.46716079 0 9
1.9915158 1.0201308 -0.44833979 0 10
1.9847015 1.0166402 -0.42551085 0 11
1.9972208 1.0230531 -0.40684086 0 12
2.0000527 1.0245037 -0.38610458 0 13
1.9908427 1.0197859 -0.36317855 0 14
1.9856371 1.0171194 -0.34119907 0 15
1.996335 1.0225993 -0.32195356 0 16
1.9817957 1.0151517 -0.29873377 0 17
1.9874139 1.0180296 -0.27869806 0 18
1.9936917 1.0212454 -0.2586779 0 19
1.9913365 1.0200388 -0.23754078 0 20
1.9854953 1.0170468 -0.21611413 0 21
1.9892856 1.0189884 -0.19579421 0 22
1.9879856 1.0183225 -0.17498069 0 23
1.9915464 1.0201465 -0.15460132 0 24
1.9823246 1.0154227 -0.13331464 0 25
1.9906424 1.0196834 -0.11323965 0 26
1.9876155 1.0181328 -0.092483625 0 27
1.9893186 1.0190052 -0.071977094 0 28
1.9969027 1.0228901 -0.05159948 0 29
1.9862689 1.0174431 -0.03079135 0 30
1.9927627 1.0207695 -0.010296758 0 31
1.9980288 1.0234669 0.010323969 0 32
1.9983438 1.0236284 0.030978536 0 33
1.9915458 1.0201461 0.05146106 0 34
2.0037174 1.0263809 0.072498068 0 35
1.9849128 1.0167484 0.092357866 0 36
1.9893279 1.0190101 0.11316486 0 37
1.9850863 1.0168374 0.13350037 0 38
1.9881842 1.0184242 0.15434031 0 39
1.9908221 1.0197754 0.17523034 0 40
1.9786812 1.0135564 0.19475047 0 41
1.9825789 1.0155529 0.21579669 0 42
1.9842659 1.016417 0.23669736 0 43
1.9947721 1.0217987 0.25881806 0 44
1.9950711 1.0219519 0.27977183 0 45
1.9973891 1.0231392 0.30108431 0 46
1.98361 1.0160811 0.31990141 0 47
1.9879519 1.0183052 0.34159684 0 48
1.9904933 1.0196069 0.36311483 0 49
1.9683597 1.0082693 0.37998635 0 50
1.9859637 1.0172868 0.40454778 0 51
1.9987199 1.023821 0.42851636 0 52
1.9918607 1.0203074 0.44841745 0 53
1.9949819 1.0219063 0.4706043 0 54
1.9897707 1.0192368 0.49088597 0 55
1.9847748 1.0166777 0.51119727 0 56
1.9811597 1.0148259 0.53186166 0 57
1.9861822 1.0173986 0.55495554 0 58
1.9795766 1.0140151 0.57488257 0 59
1.9890808 1.0188835 0.59962404 0 60
1.9820192 1.0152662 0.61950707 0 61
1.990919 1.019825 0.64451283 0 62
1.9847338 1.0166568 0.6647833 0 63
1.9701226 1.0399482 -0.66412228 0 0
1.9678246 1.0387352 -0.641123 0 1
1.9671558 1.0383822 -0.61880547 0 2
1.9653984 1.0374545 -0.59628546 0 3
1.9561406 1.0325677 -0.5717206 0 4
1.9668645 1.0382284 -0.5530833 0 5
1.9661918 1.0378733 -0.53122932 0 6
1.9666106 1.0380944 -0.50976813 0 7
1.9532583 1.0310462 -0.48496929 0 8
1.9698411 1.0397996 -0.46765447 0 9
1.9724342 1.0411685 -0.44689247 0 10
1.9779932 1.0441028 -0.42679298 0 11
1.9631568 1.0362712 -0.40246719 0 12
1.9616195 1.0354598 -0.38111433 0 13
1.9728481 1.0413868 -0.36220452 0 14
1.9784132 1.0443245 -0.3421385 0 15
1.9673293 1.0384737 -0.31931099 0 16
1.9750283 1.0425378 -0.29962343 0 17
1.9807447 1.0455552 -0.27954462 0 18
1.9684218 1.0390505 -0.25703749 0 19
1.9608165 1.035036 -0.23540056 0 20
1.9693645 1.039548 -0.21573339 0 21
1.9714949 1.0406725 -0.1952879 0 22
1.9576193 1.0333482 -0.17341317 0 23
1.9762645 1.0431902 -0.15439911 0 24
1.9782984 1.044264 -0.13389732 0 25
1.9535522 1.0312014 -0.1118426 0 26
1.9843131 1.0474389 -0.09292224 0 27
1.9688435 1.039273 -0.071693227 0 28
1.9709255 1.040372 -0.051254928 0 29
1.9666408 1.0381104 -0.03068264 0 30
1.962162 1.0357462 -0.010203679 0 31
1.9754711 1.0427716 0.010272889 0 32
1.9604757 1.034856 0.030586453 0 33
1.9541878 1.0315369 0.050819654 0 34
1.9653703 1.0374397 0.071566753 0 35
1.9556412 1.032304 0.091579571 0 36
1.9642829 1.0368656 0.11245693 0 37
1.9757642 1.0429262 0.13372579 0 38
1.9661099 1.0378301 0.15360577 0 39
1.9821932 1.0463198 0.17559002 0 40
1.9673371 1.0384779 0.19487604 0 41
1.9671348 1.0383711 0.21548915 0 42
1.9596452 1.0344176 0.23525994 0 43
1.9653287 1.0374177 0.25663358 0 44
1.9668308 1.0382106 0.27758092 0 45
1.96703 1.0383158 0.29841003 0 46
1.9721045 1.0409944 0.32008603 0 47
1.9575506 1.033312 0.33853063 0 48
1.9617144 1.0355098 0.36016044 0 49
1.9698471 1.0398028 0.38271284 0 50
1.9755394 1.0428076 0.40500575 0 51
1.9679904 1.0388228 0.42463464 0 52
1.9653271 1.0374169 0.44528222 0 53
1.9711473 1.0404891 0.46796456 0 54
1.9677172 1.0386785 0.48855925 0 55
1.9660203 1.0377828 0.50961512 0 56
1.9529742 1.0308963 0.52765816 0 57
1.9630848 1.0362333 0.55202049 0 58
1.9811122 1.0457492 0.57901907 0 59
1.9517598 1.0302552 0.59214759 0 60
1.9551423 1.0320407 0.61502635 0 61
1.9713203 1.0405804 0.64226192 0 62
1.9747305 1.0423806 0.66567564 0 63
1.9548546 1.0628252 -0.66333085 0 0
1.9513367 1.0609126 -0.63995308 0 1
1.9288799 1.0487032 -0.61077535 0 2
1.9564677 1.0637023 -0.59749907 0 3
1.9519792 1.061262 -0.57427502 0 4
1.9620529 1.0667388 -0.55537683 0 5
1.960392 1.0658358 -0.53316307 0 6
1.9509155 1.0606836 -0.50904208 0 7
1.9525611 1.0615783 -0.48800036 0 8
1.9486014 1.0594255 -0.46566957 0 9
1.9391508 1.0542873 -0.44225529 0 10
1.9402986 1.0549114 -0.42142662 0 11
1.9372317 1.0532439 -0.39977714 0 12
1.9519377 1.0612394 -0.38173977 0 13
1.9462432 1.0581434 -0.35968164 0 14
1.9456059 1.0577968 -0.33868876 0 15
1.9343631 1.0516844 -0.31603542 0 16
1.9489837 1.0596334 -0.2976265 0 17
1.9665077 1.0691608 -0.27936962 0 18
1.9476391 1.0589024 -0.2560046 0 19
1.9597819 1.0655042 -0.23683137 0 20
1.9502668 1.060331 -0.21505338 0 21
1.9535272 1.0621036 -0.19478706 0 22
1.959396 1.0652944 -0.17471774 0 23
1.9447261 1.0573186 -0.1529393 0 24
1.9350775 1.0520728 -0.13183762 0 25
1.9398662 1.0546763 -0.11179309 0 26
1.9431717 1.0564735 -0.091597073 0 27
1.9448094 1.0573639 -0.07128612 0 28
1.952327 1.0614511 -0.051106825 0 29
1.9455099 1.0577447 -0.030553577 0 30
1.9508932 1.0606716 -0.010212131 0 31
1.951039 1.0607507 0.010212894 0 32
1.9546733 1.0627267 0.030697485 0 33
1.9481744 1.0591934 0.050998122 0 34
1.9523991 1.0614903 0.071564317 0 35
1.9454719 1.057724 0.091705494 0 36
1.9302276 1.049436 0.11123762 0 37
1.9470598 1.0585873 0.13265398 0 38
1.9557577 1.0633162 0.15380687 0 39
1.947221 1.0586751 0.17363212 0 40
1.9448442 1.0573828 0.19392127 0 41
1.938218 1.0537802 0.21372476 0 42
1.9494089 1.0598645 0.23557784 0 43
1.9472225 1.0586758 0.25594983 0 44
1.9491527 1.0597253 0.27690414 0 45
1.948899 1.0595874 0.29761356 0 46
1.9490732 1.059682 0.31843874 0 47
1.948947 1.0596133 0.33927035 0 48
1.9403231 1.0549247 0.35858759 0 49
1.942767 1.0562534 0.37994626 0 50
1.9498509 1.0601048 0.40238136 0 51
1.9483563 1.0592922 0.42317674 0 52
1.9470569 1.0585858 0.44405842 0 53
1.9471978 1.0586623 0.46533412 0 54
1.9373354 1.0533004 0.48419502 0 55
1.9522198 1.0613928 0.50938243 0 56
1.9437236 1.0567734 0.52862978 0 57
1.9379289 1.0536231 0.54854834 0 58
1.9537857 1.0622441 0.57480645 0 59
1.9483937 1.0593126 0.59503329 0 60
1.9594772 1.0653385 0.62046391 0 61
1.9627703 1.0671289 0.64370281 0 62
1.9474459 1.0587972 0.66081691 0 63
1.9318774 1.0813172 -0.65999603 0 0
1.9253064 1.0776393 -0.63571405 0 1
1.9281994 1.0792586 -0.6147157 0 2
1.9301695 1.0803612 -0.59347987 0 3
1.9297888 1.0801482 -0.57161093 0 4
1.9362936 1.0837891 -0.55181599 0 5
1.9304184 1.0805006 -0.52858472 0 6
1.9353518 1.083262 -0.50841832 0 7
1.9263633 1.0782309 -0.4847298 0 8
1.9311426 1.0809059 -0.46463847 0 9
1.9263651 1.0782319 -0.44232967 0 10
1.9295863 1.0800349 -0.42195255 0 11
1.9326094 1.0817269 -0.4015379 0 12
1.9322891 1.0815476 -0.38046926 0 13
1.9257216 1.0778717 -0.35831147 0 14
1.9248095 1.0773611 -0.33734918 0 15
1.9266708 1.078403 -0.3169212 0 16
1.9306195 1.0806131 -0.29682881 0 17
1.9255062 1.0777512 -0.27540672 0 18
1.9275621 1.0789019 -0.25509012 0 19
1.9183884 1.0737671 -0.23340708 0 20
1.9347918 1.0829484 -0.21479911 0 21
1.9354568 1.0833207 -0.1942988 0 22
1.9319544 1.0813603 -0.17344336 0 23
1.9368804 1.0841175 -0.15335909 0 24
1.9337757 1.0823797 -0.13264568 0 25
1.9248827 1.0774021 -0.11168464 0 26
1.9263327 1.0782137 -0.091421366 0 27
1.9264666 1.0782887 -0.071094401 0 28
1.9276161 1.0789322 -0.050803419 0 29
1.9365591 1.0839376 -0.030620014 0 30
1.9193506 1.0743058 -0.010115404 0 31
1.9320604 1.0814196 0.010182386 0 32
1.9179034 1.0734956 0.030325038 0 33
1.9330702 1.0819849 0.05094716 0 34
1.9289453 1.0796762 0.071185872 0 35
1.9236097 1.0766896 0.091292135 0 36
1.9299183 1.0802207 0.11197682 0 37
1.9229805 1.0763375 0.1319052 0 38
1.9242229 1.0770328 0.15235689 0 39
1.9248739 1.0773972 0.17280771 0 40
1.9203482 1.074864 0.19278206 0 41
1.9130874 1.0707999 0.2123895 0 42
1.9236451 1.0767094 0.23404665 0 43
1.917617 1.0733353 0.25377399 0 44
1.9197136 1.0745089 0.27457818 0 45
1.9224745 1.0760542 0.29557654 0 46
1.925241 1.0776027 0.316686 0 47
1.9350682 1.0831033 0.33914718 0 48
1.9195824 1.0744354 0.35716915 0 49
1.9424956 1.0872605 0.38247892 0 50
1.9241008 1.0769645 0.39977005 0 51
1.9277835 1.0790257 0.42155832 0 52
1.9225426 1.0760924 0.44145194 0 53
1.9287434 1.079563 0.46406126 0 54
1.928527 1.0794419 0.48527426 0 55
1.9217005 1.075621 0.50483209 0 56
1.9220049 1.0757914 0.52628094 0 57
1.9245443 1.0772127 0.54846758 0 58
1.9381725 1.0848408 0.57409418 0 59
1.92998 1.0802553 0.59342164 0 60
1.9290447 1.0797317 0.61498517 0 61
1.9199836 1.0746599 0.63395649 0 62
1.9386834 1.0851268 0.66232121 0 63
1.9097528 1.0999876 -0.65700877 0 0
1.8977389 1.0930678 -0.63100189 0 1
1.9001601 1.0944624 -0.610021 0 2
1.9015113 1.0952406 -0.58876467 0 3
1.9066404 1.098195 -0.56871122 0 4
1.9120301 1.1012993 -0.54871905 0 5
1.908262 1.099129 -0.52617884 0 6
1.9009575 1.0949216 -0.50288177 0 7
1.9122452 1.1014231 -0.48454863 0 8
1.8971288 1.0927163 -0.45965281 0 9
1.8986255 1.0935785 -0.43901467 0 10
1.9026563 1.0959002 -0.41897875 0 11
1.9191179 1.1053817 -0.40152848 0 12
1.8956752 1.0918791 -0.37587517 0 13
1.9034413 1.0963523 -0.35664731 0 14
1.9134566 1.1021209 -0.3377091 0 15
1.9048622 1.0971707 -0.31552923 0 16
1.9143416 1.1026307 -0.29638833 0 17
1.8974035 1.0928745 -0.27328861 0 18
1.9142197 1.1025605 -0.25509933 0 19
1.9100693 1.1001699 -0.23402318 0 20
1.9111114 1.1007701 -0.21365668 0 21
1.8911104 1.0892498 -0.19117706 0 22
1.9090068 1.0995579 -0.172584 0 23
1.9051598 1.0973421 -0.1519044 0 24
1.9031192 1.0961667 -0.13145746 0 25
1.9197235 1.1057305 -0.11216571 0 26
1.8941814 1.0910187 -0.090525351 0 27
1.9088249 1.0994531 -0.070936911 0 28
1.9061579 1.097917 -0.050589859 0 29
1.9044055 1.0969076 -0.030322589 0 30
1.9143674 1.1026455 -0.01015983 0 31
1.8928577 1.0902562 0.010045674 0 32
1.9046677 1.0970587 0.030326767 0 33
1.8940784 1.0909593 0.050269268 0 34
1.9072239 1.098531 0.07087741 0 35
1.9027809 1.0959718 0.090936333 0 36
1.9050859 1.0972996 0.11131047 0 37
1.9119014 1.1012251 0.13206409 0 38
1.9181567 1.1048281 0.15294069 0 39
1.9022524 1.0956675 0.17197338 0 40
1.9086447 1.0993493 0.19294964 0 41
1.9152588 1.103159 0.21412034 0 42
1.9035841 1.0964346 0.23322861 0 43
1.921309 1.1066438 0.25604406 0 44
1.9060214 1.0978384 0.27452987 0 45
1.9173114 1.1043413 0.29684812 0 46
1.9046487 1.0970477 0.31549385 0 47
1.9116701 1.1010919 0.33739379 0 48
1.9091761 1.0996554 0.35772184 0 49
1.9150227 1.1030229 0.37971142 0 50
1.8949958 1.0914878 0.39648151 0 51
1.9030643 1.096135 0.41906857 0 52
1.908103 1.0990373 0.4412061 0 53
1.9197823 1.1057644 0.46514151 0 54
1.9124106 1.1015185 0.48459056 0 55
1.9088312 1.0994568 0.50496471 0 56
1.9073845 1.0986235 0.5259369 0 57
1.9073638 1.0986115 0.54737991 0 58
1.9147152 1.1028459 0.57111979 0 59
1.9095378 1.0998638 0.59124988 0 60
1.9082803 1.0991395 0.61262786 0 61
1.9074106 1.0986385 0.63421774 0 62
1.9030433 1.096123 0.65470052 0 63
1.881996 1.1150393 -0.65212739 0 0
1.8961469 1.1234235 -0.63501775 0 1
1.8877439 1.1184449 -0.61040401 0 2
1.896307 1.1235182 -0.59138614 0 3
1.8848851 1.1167511 -0.56627524 0 4
1.8964667 1.1236129 -0.54817629 0 5
1.8915598 1.1207057 -0.52533358 0 6
1.8893907 1.1194205 -0.50342524 0 7
1.8864875 1.1177005 -0.48146796 0 8
1.8942286 1.1222869 -0.46225879 0 9
1.8683591 1.1069598 -0.43513075 0 10
1.8942263 1.1222855 -0.42012954 0 11
1.8932319 1.1216964 -0.39896813 0 12
1.8996016 1.1254703 -0.37936908 0 13
1.8909962 1.1203718 -0.35686982 0 14
1.88341 1.1158772 -0.33480254 0 15
1.8949596 1.12272 -0.3161518 0 16
1.897215 1.1240563 -0.2958543 0 17
1.8871075 1.1180679 -0.27376515 0 18
1.8891627 1.1192855 -0.25357509 0 19
1.8840482 1.1162553 -0.2324992 0 20
1.8830752 1.1156788 -0.21204002 0 21
1.8799818 1.1138459 -0.19142216 0 22
1.8971785 1.1240348 -0.17275116 0 23
1.8862691 1.1175711 -0.15148245 0 24
1.8819859 1.1150334 -0.13093486 0 25
1.8792256 1.113398 -0.11059107 0 26
1.8807305 1.1142896 -0.0905305 0 27
1.8850559 1.1168523 -0.070558622 0 28
1.8859409 1.1173767 -0.050414145 0 29
1.892068 1.1210068 -0.030343335 0 30
1.8844295 1.1164812 -0.010073043 0 31
1.8797184 1.1136899 0.01004786 0 32
1.8931499 1.1216478 0.030360686 0 33
1.8733795 1.1099343 0.050078359 0 34
1.8905215 1.1200906 0.070763201 0 35
1.8853202 1.1170088 0.090751432 0 36
1.8952944 1.1229184 0.1115367 0 37
1.8905252 1.1200927 0.13152897 0 38
1.8741428 1.1103865 0.1505086 0 39
1.884602 1.1165833 0.17160597 0 40
1.8855681 1.1171558 0.19199097 0 41
1.8881491 1.1186849 0.21261136 0 42
1.8889768 1.1191753 0.2331074 0 43
1.891597 1.1207278 0.25390184 0 44
1.884465 1.1165022 0.2733818 0 45
1.88781 1.118484 0.29438767 0 46
1.8988755 1.1250401 0.31680515 0 47
1.8928759 1.1214855 0.33648524 0 48
1.8997332 1.1255482 0.35851866 0 49
1.8960392 1.1233597 0.37865764 0 50
1.8831084 1.1156985 0.39683476 0 51
1.8870831 1.1180533 0.41854522 0 52
1.8793498 1.1134715 0.43769041 0 53
1.8854556 1.1170892 0.46011788 0 54
1.9021024 1.1269519 0.48545319 0 55
1.8869278 1.1179614 0.50276899 0 56
1.8855094 1.117121 0.52365321 0 57
1.8903371 1.1199813 0.54640448 0 58
1.8905213 1.1200904 0.56796849 0 59
1.8904178 1.1200291 0.58954954 0 60
1.8882408 1.1187392 0.61056471 0 61
1.8887972 1.1190689 0.63255632 0 62
1.8926225 1.1213354 0.65580952 0 63
1.8793167 1.144902 -0.65602762 0 0
1.8620218 1.1343657 -0.62821323 0 1
1.8704367 1.1394922 -0.60929233 0 2
1.869485 1.1389124 -0.58734453 0 3
1.8699619 1.1392028 -0.56595755 0 4
1.863319 1.135156 -0.54258859 0 5
1.8651844 1.1362925 -0.52184951 0 6
1.8701535 1.1393197 -0.50199437 0 7
1.8732073 1.14118 -0.48162359 0 8
1.8677158 1.1378345 -0.45916843 0 9
1.8698746 1.1391498 -0.43871281 0 10
1.8712257 1.1399728 -0.41810557 0 11
1.8730357 1.1410755 -0.39763889 0 12
1.8655483 1.1365141 -0.3753309 0 13
1.8675165 1.1377131 -0.35505202 0 14
1.8707118 1.1396598 -0.33501107 0 15
1.8571953 1.1314253 -0.31214881 0 16
1.8712108 1.1399637 -0.29396287 0 17
1.8749759 1.1422575 -0.27402213 0 18
1.8659148 1.1367373 -0.25231174 0 19
1.8821616 1.1466351 -0.23398863 0 20
1.86891 1.1385621 -0.21200542 0 21
1.8735631 1.1413968 -0.19218315 0 22
1.8712887 1.1400112 -0.17165717 0 23
1.8753215 1.1424681 -0.15171999 0 24
1.8649974 1.1361785 -0.13071506 0 25
1.8597503 1.1329819 -0.11025649 0 26
1.8769745 1.1434751 -0.091019645 0 27
1.8721397 1.1405296 -0.070594773 0 28
1.8621372 1.134436 -0.050146937 0 29
1.8857335 1.1488111 -0.030465988 0 30
1.8703054 1.1394122 -0.010071676 0 31
1.8628993 1.1349003 0.010031794 0 32
1.8762857 1.1430554 0.03031335 0 33
1.8704432 1.1394961 0.050370615 0 34
1.8650765 1.1362267 0.070328429 0 35
1.863284 1.1351346 0.090355754 0 36
1.8671731 1.1375039 0.11069655 0 37
1.8663744 1.1370174 0.13081156 0 38
1.8731396 1.1411388 0.15154347 0 39
1.8572128 1.131436 0.17036596 0 40
1.8694248 1.1388757 0.19175866 0 41
1.8579454 1.1318823 0.21076164 0 42
1.8616349 1.13413 0.23143677 0 43
1.8772576 1.1436476 0.25384551 0 44
1.8539823 1.129468 0.27095398 0 45
1.8687837 1.1384851 0.29358158 0 46
1.8660129 1.1367972 0.31363085 0 47
1.8796706 1.1451175 0.33661544 0 48
1.8712821 1.1400073 0.35576797 0 49
1.8799227 1.1452712 0.37822291 0 50
1.8626723 1.134762 0.39543879 0 51
1.8712568 1.1399918 0.41811252 0 52
1.8795422 1.1450394 0.44098106 0 53
1.8815398 1.1462563 0.46256697 0 54
1.8694009 1.1388611 0.48064488 0 55
1.8746568 1.142063 0.50320315 0 56
1.8719971 1.1404427 0.52375555 0 57
1.8748103 1.1421566 0.5459348 0 58
1.878798 1.144586 0.56863189 0 59
1.8663373 1.1369947 0.58635557 0 60
1.8658217 1.1366807 0.60778904 0 61
1.8806728 1.1457281 0.63450569 0 62
1.8537163 1.1293058 0.64709103 0 63
1.8382987 1.1511413 -0.64660144 0 0
1.8391486 1.1516736 -0.6252268 0 1
1.8448673 1.1552545 -0.60554481 0 2
1.8648537 1.16777 -0.59035623 0 3
1.8449944 1.1553341 -0.56265813 0 4
1.8468769 1.156513 -0.54190081 0 5
1.8472003 1.1567155 -0.52075797 0 6
1.8551804 1.1617125 -0.50177175 0 7
1.8500726 1.158514 -0.47930187 0 8
1.8471657 1.1566938 -0.45757839 0 9
1.8496472 1.1582476 -0.4372755 0 10
1.8583766 1.1637141 -0.41840026 0 11
1.8561872 1.162343 -0.3970663 0 12
1.8521872 1.1598382 -0.37548375 0 13
1.8433936 1.1543317 -0.3531377 0 14
1.8535843 1.1607131 -0.33447453 0 15
1.8414125 1.1530912 -0.31185567 0 16
1.8488328 1.1577377 -0.29266167 0 17
1.850515 1.1587911 -0.2725091 0 18
1.8464302 1.1562332 -0.25158048 0 19
1.8355603 1.1494265 -0.22993493 0 20
1.8470238 1.156605 -0.21112008 0 21
1.8401698 1.152313 -0.19019686 0 22
1.8573518 1.1630722 -0.17167765 0 23
1.8470558 1.1566249 -0.15057245 0 24
1.8589212 1.164055 -0.13128248 0 25
1.8554978 1.1619114 -0.11084304 0 26
1.8359462 1.1496681 -0.08970882 0 27
1.8500197 1.158481 -0.070292518 0 28
1.8621976 1.1661068 -0.050530888 0 29
1.8429472 1.1540521 -0.030001733 0 30
1.8388041 1.1514578 -0.0099775326 0 31
1.8533716 1.1605799 0.010056577 0 32
1.8523339 1.1599301 0.030154539 0 33
1.8557706 1.1620821 0.050356489 0 34
1.8428811 1.1540108 0.070021279 0 35
1.8603563 1.1649537 0.090901561 0 36
1.8382879 1.1511346 0.10981496 0 37
1.8522536 1.1598798 0.1308116 0 38
1.8429445 1.1540505 0.15023729 0 39
1.8605829 1.1650957 0.17197633 0 40
1.8584352 1.1637508 0.19208474 0 41
1.8476046 1.1569686 0.21118647 0 42
1.8523456 1.1599374 0.23203757 0 43
1.8456687 1.1557564 0.25147673 0 44
1.8481317 1.1572987 0.27215812 0 45
1.8638304 1.1671293 0.29503572 0 46
1.8583872 1.1637207 0.31473047 0 47
1.8459162 1.1559113 0.33309081 0 48
1.8474852 1.1568938 0.35392153 0 49
1.8525387 1.1600584 0.37555501 0 50
1.8502094 1.1585997 0.39578754 0 51
1.8531979 1.1604711 0.4172343 0 52
1.8438599 1.1546237 0.43590736 0 53
1.8502027 1.1585956 0.45833072 0 54
1.8514506 1.159377 0.47965884 0 55
1.8482476 1.1573713 0.49989665 0 56
1.8401068 1.1522735 0.51875824 0 57
1.8493612 1.1580687 0.54262978 0 58
1.8560241 1.1622409 0.5660218 0 59
1.8592188 1.1642414 0.58857238 0 60
1.8468041 1.1564674 0.60618055 0 61
1.8521923 1.1598414 0.62966102 0 62
1.8495386 1.1581796 0.6505549 0 63
1.8390564 1.1833414 -0.65193677 0 0
1.843002 1.1858802 -0.63144624 0 1
1.8369476 1.1819845 -0.60766995 0 2
1.825351 1.1745226 -0.58237886 0 3
1.8377587 1.1825064 -0.56484318 0 4
1.833928 1.1800416 -0.54231799 0 5
1.8283682 1.1764641 -0.51948792 0 6
1.8331051 1.179512 -0.49968609 0 7
1.8307736 1.1780118 -0.47801864 0 8
1.8352278 1.1808779 -0.45818356 0 9
1.8406674 1.184378 -0.43856245 0 10
1.8245634 1.1740159 -0.41400638 0 11
1.8391711 1.1834152 -0.39650917 0 12
1.8422472 1.1853945 -0.37639517 0 13
1.8287722 1.1767241 -0.35308191 0 14
1.8284491 1.1765162 -0.33252436 0 15
1.8390893 1.1833626 -0.31390285 0 16
1.8384613 1.1829585 -0.2933003 0 17
1.8335816 1.1798186 -0.27213129 0 18
1.8353204 1.1809374 -0.25202626 0 19
1.8265235 1.1752771 -0.23059583 0 20
1.8290317 1.176891 -0.21070175 0 21
1.8263071 1.1751379 -0.19024318 0 22
1.8361512 1.1814721 -0.17104797 0 23
1.8299657 1.177492 -0.15034823 0 24
1.8172702 1.1693231 -0.12934664 0 25
1.8411252 1.1846726 -0.1108463 0 26
1.8212785 1.1719022 -0.089689463 0 27
1.8288653 1.1767839 -0.070033252 0 28
1.8333519 1.1796708 -0.050137982 0 29
1.8286288 1.1766318 -0.030001907 0 30
1.829393 1.1771235 -0.01000425 0 31
1.8218915 1.1722966 0.0099632274 0 32
1.8298552 1.1774209 0.030022027 0 33
1.8402514 1.1841104 0.050326671 0 34
1.8376329 1.1824255 0.07036899 0 35
1.831521 1.1784928 0.09019386 0 36
1.8301375 1.1776025 0.11018477 0 37
1.8399907 1.1839426 0.1309638 0 38
1.8311244 1.1782376 0.15044342 0 39
1.8408467 1.1844933 0.17148538 0 40
1.8230057 1.1730136 0.18989928 0 41
