# .PCD v0.7 - Point Cloud Data file format
VERSION 0.7
FIELDS x y z intensity ring
SIZE 4 4 4 4 2
TYPE F F F F U
COUNT 1 1 1 1 1
WIDTH 1291
HEIGHT 1
VIEWPOINT 0 0 0 1 0 0 0
POINTS 1291
DATA ascii
1.0766668 1.5149491 -0.2842434 0 15
1.0801437 1.5198412 -0.26763472 0 16
1.0850466 1.5267401 -0.25128987 0 17
1.0894297 1.5329074 -0.23471777 0 18
1.0860928 1.5282122 -0.21650574 0 19
1.0869172 1.5293721 -0.19920082 0 20
1.0840862 1.5253887 -0.18129225 0 21
1.0830922 1.52399 -0.16378316 0 22
1.100741 1.5488232 -0.1488549 0 23
1.0795655 1.5190277 -0.1287576 0 24
1.0820516 1.5225259 -0.11180267 0 25
1.0964199 1.5427431 -0.095825978 0 26
1.0776802 1.5163749 -0.077041283 0 27
1.0860956 1.528216 -0.060375277 0 28
1.0880936 1.5310274 -0.043197222 0 29
1.0870173 1.529513 -0.025889775 0 30
1.0839769 1.5252348 -0.0086053014 0 31
1.0803766 1.5201689 0.00857672 0 32
1.086486 1.5287653 0.02587712 0 33
1.087835 1.5306635 0.043186951 0 34
1.0849991 1.5266732 0.060314324 0 35
1.0779669 1.5167785 0.07706178 0 36
1.0967488 1.5432059 0.095854729 0 37
1.0937868 1.5390381 0.1130152 0 38
1.0850433 1.5267354 0.12941094 0 39
1.090228 1.5340306 0.14743321 0 40
1.0829906 1.5238472 0.16376781 0 41
1.0860865 1.5282032 0.18162677 0 42
1.0967953 1.5432714 0.20101121 0 43
1.0851638 1.5269051 0.21632054 0 44
1.0753018 1.5130283 0.2316739 0 45
1.0865574 1.5288658 0.25163975 0 46
1.0936438 1.5388368 0.27097973 0 47
1.0892526 1.5326582 0.28756613 0 48
1.0957623 1.5418177 0.30711478 0 49
1.0852616 1.5270426 0.3218838 0 50
1.0880693 1.5309931 0.34053063 0 51
1.0876114 1.530349 0.35825342 0 52
1.0811048 1.5211935 0.3739318 0 53
1.0874698 1.5301497 0.39412618 0 54
1.0802557 1.5199989 0.40945417 0 55
1.0899544 1.5336456 0.43130723 0 56
1.0872402 1.5298266 0.44844154 0 57
1.0914637 1.5357693 0.46854311 0 58
1.0883902 1.5314448 0.48561555 0 59
1.0876042 1.5303386 0.50373089 0 60
1.0862135 1.5283819 0.52162057 0 61
1.0862546 1.5284398 0.54026985 0 62
1.0819027 1.5223163 0.55675888 0 63
1.060771 1.5321352 -0.55553746 0 0
1.0702749 1.5458624 -0.54173547 0 1
1.0688742 1.5438393 -0.52237082 0 2
1.0630012 1.5353564 -0.50104213 0 3
1.0646774 1.5377774 -0.48343572 0 4
1.0673069 1.5415753 -0.46627519 0 5
1.0614926 1.5331774 -0.44556391 0 6
1.0605395 1.5318009 -0.42708868 0 7
1.0661311 1.5398772 -0.41124639 0 8
1.0670904 1.5412626 -0.39357907 0 9
1.0518084 1.51919 -0.37023208 0 10
1.0615489 1.5332589 -0.35585198 0 11
1.0681353 1.5427719 -0.3402034 0 12
1.0622076 1.5342101 -0.3206172 0 13
1.0654634 1.5389128 -0.30390349 0 14
1.0660536 1.5397654 -0.28641841 0 15
1.0634931 1.536067 -0.2681689 0 16
1.0629011 1.535212 -0.25051412 0 17
1.0700914 1.5455972 -0.23462829 0 18
1.0591203 1.5297511 -0.21486244 0 19
1.0649345 1.5381489 -0.19862337 0 20
1.0585928 1.5289892 -0.18015948 0 21
1.0588287 1.5293299 -0.16294546 0 22
1.0624224 1.5345205 -0.14621368 0 23
1.0678606 1.5423752 -0.1296138 0 24
1.0591255 1.5297586 -0.11136901 0 25
1.0671587 1.5413615 -0.094917908 0 26
1.065449 1.5388919 -0.077513799 0 27
1.0653059 1.5386853 -0.060266811 0 28
1.0657679 1.5393525 -0.043059099 0 29
1.0617456 1.533543 -0.025735052 0 30
1.0629538 1.535288 -0.0085876277 0 31
1.0638049 1.5365173 0.0085945036 0 32
1.0590261 1.5296149 0.025669135 0 33
1.0621617 1.5341439 0.042913403 0 34
1.0668751 1.5409518 0.060355581 0 35
1.070111 1.5456256 0.077852972 0 36
1.0695317 1.544789 0.095128968 0 37
1.0698904 1.545307 0.11250097 0 38
1.0721983 1.5486403 0.13014027 0 39
1.0610279 1.5325063 0.14602175 0 40
1.0626241 1.5348119 0.16352956 0 41
1.0656497 1.5391818 0.18136048 0 42
1.0623162 1.5343671 0.19813503 0 43
1.0638696 1.5366108 0.21582593 0 44
1.0658193 1.5394268 0.23369159 0 45
1.0692141 1.5443302 0.25200203 0 46
1.062619 1.5348043 0.26794845 0 47
1.0648801 1.5380703 0.28610313 0 48
1.0609488 1.532392 0.30261579 0 49
1.0617553 1.5335571 0.3204807 0 50
1.0625585 1.5347172 0.33842722 0 51
1.0630614 1.5354433 0.35635895 0 52
1.0723892 1.5489162 0.37747648 0 53
1.0613691 1.5329992 0.39146888 0 54
1.0645647 1.5376148 0.41064218 0 55
1.0543042 1.522795 0.42457768 0 56
1.0608822 1.5322958 0.44530773 0 57
1.0579486 1.5280586 0.46218684 0 58
1.0633209 1.5358183 0.4828198 0 59
1.056507 1.5259765 0.49798113 0 60
1.059449 1.5302259 0.51776457 0 61
1.0604948 1.5317363 0.53678507 0 62
1.0638109 1.5365261 0.55712956 0 63
1.042372 1.5458328 -0.55581456 0 0
1.0406755 1.543317 -0.53631842 0 1
1.0423428 1.5457895 -0.5186547 0 2
1.0440691 1.5483495 -0.50105476 0 3
1.0437571 1.5478868 -0.48254251 0 4
1.04193 1.5451772 -0.46345437 0 5
1.0430454 1.5468314 -0.44577092 0 6
1.0389556 1.5407662 -0.42599416 0 7
1.0500762 1.5572581 -0.41240865 0 8
1.0336441 1.5328894 -0.38816583 0 9
1.0462364 1.5515636 -0.37495804 0 10
1.0412526 1.5441728 -0.3553865 0 11
1.0409639 1.5437446 -0.33756971 0 12
1.0493625 1.5561997 -0.32249162 0 13
1.0452623 1.5501192 -0.30355537 0 14
1.0413932 1.5443811 -0.28487349 0 15
1.043041 1.5468248 -0.26778764 0 16
1.0452337 1.5500766 -0.25082347 0 17
1.0380287 1.5393916 -0.2317311 0 18
1.0414094 1.5444052 -0.21510582 0 19
1.0416064 1.5446975 -0.19780013 0 20
1.0433091 1.5472225 -0.1807826 0 21
1.0411737 1.5440557 -0.16313803 0 22
1.0418214 1.5450162 -0.14598206 0 23
1.0445083 1.549001 -0.1290815 0 24
1.0465479 1.5520257 -0.11204476 0 25
1.0461135 1.5513815 -0.094735637 0 26
1.0459602 1.5511541 -0.077477746 0 27
1.0481915 1.5544633 -0.060375396 0 28
1.0458601 1.5510055 -0.043022074 0 29
1.0341426 1.5336286 -0.025521163 0 30
1.0482737 1.554585 -0.008622813 0 31
1.0426722 1.546278 0.0085767368 0 32
1.0439813 1.5482194 0.025763968 0 33
1.0459609 1.5511551 0.043026224 0 34
1.0436974 1.5477983 0.060116526 0 35
1.0459625 1.5511574 0.07747791 0 36
1.0432156 1.547084 0.094473213 0 37
1.0460898 1.5513463 0.1119957 0 38
1.0424212 1.5459058 0.12882358 0 39
1.0419686 1.5452347 0.14600269 0 40
1.040122 1.5424961 0.16297324 0 41
1.0422736 1.5456868 0.18060318 0 42
1.0474722 1.5533965 0.19891404 0 43
1.0376265 1.5387954 0.21432447 0 44
1.0379207 1.5392317 0.23170701 0 45
1.0384768 1.5400562 0.24920204 0 46
1.0448186 1.5494611 0.26824403 0 47
1.0415848 1.5446656 0.28492594 0 48
1.0409377 1.5437058 0.30229944 0 49
1.0435597 1.5475941 0.32070825 0 50
1.0424598 1.545963 0.33805487 0 51
1.046404 1.5518123 0.35714471 0 52
1.0412115 1.5441118 0.3731572 0 53
1.0322379 1.530804 0.38763776 0 54
1.0404508 1.5429838 0.40862837 0 55
1.0448763 1.5495467 0.4284218 0 56
1.0441757 1.5485078 0.44625401 0 57
1.0383807 1.5399138 0.46187568 0 58
1.0384582 1.5400287 0.48009276 0 59
1.0385174 1.5401163 0.49839047 0 60
1.0389094 1.5406978 0.51694632 0 61
1.0360744 1.5364934 0.53394717 0 62
1.0522184 1.5604349 0.56106484 0 63
1.0238816 1.5594391 -0.55613786 0 0
1.0192411 1.5523713 -0.53506905 0 1
1.0207466 1.5546643 -0.51738191 0 2
1.0189586 1.5519409 -0.49812463 0 3
1.021629 1.5560081 -0.48112163 0 4
1.0204318 1.5541847 -0.46235758 0 5
1.0190257 1.5520432 -0.44362828 0 6
1.0209143 1.5549198 -0.42640424 0 7
1.0258776 1.562479 -0.41041952 0 8
1.0244461 1.5602988 -0.39188707 0 9
1.0266819 1.5637041 -0.37481272 0 10
1.0229324 1.5579933 -0.35564548 0 11
1.0222034 1.5568831 -0.33766863 0 12
1.0153996 1.5465204 -0.31787428 0 13
1.0260485 1.5627394 -0.30353311 0 14
1.0281615 1.5659577 -0.28649974 0 15
1.0287602 1.5668695 -0.26904747 0 16
1.0248557 1.5609229 -0.25052041 0 17
1.0258068 1.5623713 -0.23327388 0 18
1.0227324 1.5576887 -0.21518809 0 19
1.0180206 1.5505126 -0.19692691 0 20
1.0245092 1.560395 -0.18083607 0 21
1.0230396 1.5581567 -0.16328642 0 22
1.0248076 1.5608494 -0.14627634 0 23
1.0189157 1.5518756 -0.12826729 0 24
1.021619 1.5559928 -0.11141583 0 25
1.020641 1.5545033 -0.094152778 0 26
1.0232775 1.558519 -0.077211283 0 27
1.0243464 1.5601468 -0.060102381 0 28
1.0143389 1.5449048 -0.042503662 0 29
1.0158453 1.5471992 -0.025537193 0 30
1.0193638 1.5525581 -0.0085413987 0 31
1.0252968 1.5615946 0.0085911136 0 32
1.0231453 1.5583177 0.025720708 0 33
1.0204799 1.554258 0.042760991 0 34
1.0234233 1.5587411 0.060048223 0 35
1.0238274 1.5593565 0.077252783 0 36
1.0159467 1.5473539 0.093719743 0 37
1.022828 1.5578344 0.11154769 0 38
1.0208588 1.5548351 0.12851189 0 39
1.02185 1.5563449 0.14585419 0 40
1.0256248 1.5620941 0.16369903 0 41
1.0228821 1.5579169 0.18054888 0 42
1.0178933 1.5503186 0.19690228 0 43
1.0204663 1.5542374 0.21471131 0 44
1.0140069 1.5443991 0.23059049 0 45
1.0143946 1.5449897 0.24796322 0 46
1.020736 1.5546482 0.26694891 0 47
1.0251372 1.5613514 0.28565699 0 48
1.0215971 1.5559597 0.30221626 0 49
1.0211161 1.555227 0.31966385 0 50
1.0270853 1.5643185 0.33928129 0 51
1.0236943 1.5591537 0.35591036 0 52
1.0165434 1.5482625 0.37111142 0 53
1.0215536 1.5558934 0.39078057 0 54
1.027983 1.5656857 0.41126183 0 55
1.0221213 1.556758 0.42690834 0 56
1.0237514 1.5592407 0.4456856 0 57
1.0161569 1.5476739 0.46042067 0 58
1.0194086 1.5526263 0.48007599 0 59
1.0166667 1.5484502 0.49700424 0 60
1.0174541 1.5496497 0.5157131 0 61
1.0210992 1.5552012 0.53604448 0 62
1.0202405 1.5538934 0.55416018 0 63
1.0035015 1.5701447 -0.5555132 0 0
0.99758059 1.5608803 -0.53373349 0 1
1.0067425 1.5752156 -0.52006215 0 2
1.0028297 1.5690933 -0.49963433 0 3
1.0032779 1.5697947 -0.48153353 0 4
0.99624175 1.5587856 -0.46004716 0 5
0.99805337 1.5616201 -0.44282427 0 6
1.0011785 1.5665098 -0.42617434 0 7
0.99905431 1.5631862 -0.40734759 0 8
1.0034478 1.5700604 -0.39121017 0 9
1.0092554 1.5791476 -0.37551138 0 10
1.0002021 1.5649822 -0.35440654 0 11
1.0039999 1.5709245 -0.33801088 0 12
0.99929076 1.5635562 -0.31882611 0 13
1.00184 1.5675448 -0.30205086 0 14
0.99937093 1.5636816 -0.28381357 0 15
1.0022124 1.5681276 -0.26712719 0 16
1.0066317 1.5750424 -0.25078094 0 17
1.0064577 1.5747701 -0.23325966 0 18
1.0022961 1.5682585 -0.21492942 0 19
1.0015513 1.5670931 -0.19745368 0 20
1.0000571 1.5647553 -0.17990266 0 21
0.9978171 1.5612503 -0.16231255 0 22
0.99568629 1.5579164 -0.14484312 0 23
1.0070399 1.575681 -0.12920161 0 24
1.001862 1.5675794 -0.11135494 0 25
0.99389154 1.5551082 -0.09344212 0 26
0.99813783 1.5617522 -0.07675761 0 27
1.0020392 1.5678564 -0.059920184 0 28
1.0003979 1.5652885 -0.042722799 0 29
0.99100316 1.5505888 -0.025390087 0 30
1.0044343 1.571604 -0.0085775834 0 31
0.9987275 1.5626749 0.0085288491 0 32
1.0028639 1.569147 0.025693968 0 33
1.0041273 1.5711237 0.042882062 0 34
1.0022663 1.5682119 0.059933767 0 35
1.01194 1.5833479 0.077819012 0 36
1.0014653 1.5669587 0.094154187 0 37
0.99762619 1.5609517 0.11088413 0 38
0.99489117 1.5566722 0.12764294 0 39
1.0054505 1.5731941 0.14626352 0 40
1.0003291 1.5651808 0.16272117 0 41
0.99863434 1.5625291 0.17964672 0 42
1.0073329 1.5761395 0.19859351 0 43
0.9988358 1.5628444 0.2141874 0 44
0.99577874 1.558061 0.23078467 0 45
0.99963617 1.5640967 0.24903816 0 46
1.0005209 1.5654809 0.26667634 0 47
1.0010326 1.5662817 0.28428549 0 48
1.0010082 1.5662433 0.30180007 0 49
1.0104774 1.5810595 0.32239524 0 50
1.0046384 1.5719234 0.33822581 0 51
1.0005153 1.5654722 0.35451752 0 52
0.99940497 1.5637348 0.37184632 0 53
1.0023272 1.5683072 0.39077333 0 54
0.99951708 1.5639102 0.4075363 0 55
1.0040921 1.5710686 0.42741457 0 56
1.0001795 1.5649468 0.44376761 0 57
0.99726725 1.5603901 0.46052071 0 58
0.99804807 1.5616118 0.4790234 0 59
1.0034757 1.570104 0.49995616 0 60
0.9947502 1.5564517 0.5138672 0 61
0.99578148 1.5580653 0.53277093 0 62
0.99719214 1.5602726 0.55202043 0 63
0.98227692 1.5794011 -0.5544728 0 0
0.98393595 1.5820688 -0.53680104 0 1
0.98697901 1.5869617 -0.519894 0 2
0.98760617 1.5879701 -0.50174022 0 3
0.98489338 1.5836082 -0.48201939 0 4
0.97975737 1.57535 -0.46134537 0 5
0.97292739 1.5643681 -0.4401778 0 6
0.98114097 1.5775746 -0.42587015 0 7
0.97467333 1.5671754 -0.40523335 0 8
0.97675401 1.5705209 -0.38830289 0 9
0.98224372 1.5793477 -0.3726587 0 10
0.97229898 1.5633577 -0.35130456 0 11
0.97970802 1.5752707 -0.33632851 0 12
0.97463864 1.5671196 -0.31708497 0 13
0.9788003 1.5738112 -0.3009164 0 14
0.97974283 1.5753267 -0.28371909 0 15
0.97824037 1.5729108 -0.26587281 0 16
0.978329 1.5730534 -0.24853003 0 17
0.97807366 1.5726427 -0.23114564 0 18
0.98292971 1.5804508 -0.21492764 0 19
0.97796905 1.5724746 -0.19660166 0 20
0.98099017 1.5773323 -0.17994818 0 21
0.98021501 1.5760858 -0.16258952 0 22
0.98020172 1.5760645 -0.1453988 0 23
0.97698504 1.5708923 -0.12781422 0 24
0.98278975 1.5802258 -0.11138641 0 25
0.98318696 1.5808644 -0.094256185 0 26
0.97995532 1.5756683 -0.076843522 0 27
0.97712141 1.5711117 -0.059580892 0 28
0.98413235 1.5823845 -0.042855881 0 29
0.98353857 1.5814297 -0.025695115 0 30
0.97889727 1.5739671 -0.0085241394 0 31
0.97212267 1.5630741 0.0084651466 0 32
0.9739272 1.5659757 0.025444018 0 33
0.98722649 1.5873595 0.042990621 0 34
0.98343635 1.5812654 0.05996595 0 35
0.97770017 1.5720422 0.076666683 0 36
0.97818166 1.5728164 0.09377633 0 37
0.97589743 1.5691437 0.11060525 0 38
0.97813737 1.5727452 0.12796497 0 39
0.9741205 1.5662864 0.14449674 0 40
0.98342913 1.5812539 0.16312265 0 41
0.97758627 1.5718591 0.17932378 0 42
0.97893763 1.5740319 0.19679637 0 43
0.98057747 1.5766686 0.2144133 0 44
0.9825446 1.5798316 0.23220225 0 45
0.98047417 1.5765026 0.24907498 0 46
0.98182487 1.5786744 0.26684704 0 47
0.98657316 1.5863091 0.28569704 0 48
0.97452986 1.5669447 0.29960352 0 49
0.98725545 1.5874062 0.32118967 0 50
0.97519135 1.5680084 0.33477795 0 51
0.98519892 1.5840994 0.35596547 0 52
0.98301059 1.5805808 0.37294966 0 53
0.97686464 1.5706989 0.38834688 0 54
0.9832415 1.5809522 0.40879568 0 55
0.97942525 1.574816 0.42512545 0 56
0.9805634 1.576646 0.44363251 0 57
0.97921598 1.5744796 0.46109045 0 58
0.97910553 1.574302 0.47918677 0 59
0.98005074 1.5758216 0.49790177 0 60
0.97996527 1.5756843 0.51619947 0 61
0.97659487 1.5702651 0.53279597 0 62
0.98279929 1.5802411 0.55476773 0 63
0.95408469 1.5769821 -0.54946339 0 0
0.95559579 1.5794798 -0.5318954 0 1
0.95681399 1.5814933 -0.51420927 0 2
0.96037841 1.5873848 -0.49778637 0 3
0.95603728 1.5802095 -0.47737056 0 4
0.95963776 1.5861607 -0.46102071 0 5
0.9592253 1.5854789 -0.44276553 0 6
0.9619174 1.5899286 -0.42597988 0 7
0.96353948 1.5926096 -0.40871549 0 8
0.95843804 1.5841776 -0.38873616 0 9
0.96231353 1.5905833 -0.37248957 0 10
0.95892245 1.5849782 -0.3534866 0 11
0.95701367 1.5818233 -0.33518967 0 12
0.96218204 1.590366 -0.31937048 0 13
0.95359862 1.5761787 -0.29910445 0 14
0.95852417 1.5843199 -0.28319463 0 15
0.95993674 1.5866548 -0.2661806 0 16
0.95717275 1.5820863 -0.24807887 0 17
0.95799124 1.5834391 -0.2309836 0 18
0.95300645 1.5751998 -0.21260387 0 19
0.96747935 1.5991218 -0.19843088 0 20
0.96212882 1.590278 -0.18006177 0 21
0.96630716 1.5971843 -0.16352792 0 22
0.96077287 1.5880368 -0.1454024 0 23
0.96021056 1.5871074 -0.12816317 0 24
0.95641011 1.5808258 -0.11059137 0 25
0.96274924 1.5913036 -0.094165631 0 26
0.94901603 1.5686042 -0.075924166 0 27
0.95621675 1.5805062 -0.059486762 0 28
0.95736372 1.5824019 -0.04253431 0 29
0.95268583 1.57467 -0.025393022 0 30
0.9540894 1.5769899 -0.0084763328 0 31
0.9606055 1.5877602 0.0085342238 0 32
0.95752621 1.5826705 0.025522038 0 33
0.96498615 1.5950009 0.042872962 0 34
0.95357746 1.5761437 0.059322566 0 35
0.96199054 1.5900494 0.076962158 0 36
0.96475416 1.5946174 0.09436173 0 37
0.9595353 1.5859913 0.11095274 0 38
0.96166396 1.5895097 0.12835716 0 39
0.96821195 1.6003327 0.14652823 0 40
0.96181017 1.5897514 0.16276689 0 41
0.95897347 1.5850627 0.17947125 0 42
0.95412183 1.5770435 0.19569124 0 43
0.96114433 1.5886508 0.21441934 0 44
0.95314968 1.5754366 0.22981624 0 45
0.95640087 1.5808104 0.2478788 0 46
0.96222311 1.5904338 0.26681462 0 47
0.95161211 1.5728953 0.28115249 0 48
0.95571339 1.5796741 0.29976776 0 49
0.96243131 1.590778 0.31945321 0 50
0.95897597 1.5850668 0.33587697 0 51
0.95898509 1.5850818 0.35350966 0 52
0.96387321 1.5931613 0.37309328 0 53
0.96088523 1.5882225 0.38972872 0 54
0.95821798 1.5838139 0.40645823 0 55
0.95221078 1.5738848 0.42168137 0 56
0.96274728 1.5913002 0.44439125 0 57
0.95938557 1.5857438 0.46089959 0 58
0.95800406 1.5834603 0.47835264 0 59
0.96396077 1.5933059 0.49964318 0 60
0.9603622 1.587358 0.51611614 0 61
0.9551872 1.5788045 0.53166795 0 62
0.95670366 1.581311 0.55097169 0 63
0.93286878 1.5856127 -0.54843223 0 0
0.93784726 1.5940746 -0.53288645 0 1
0.94055665 1.5986799 -0.51599789 0 2
0.94000047 1.5977346 -0.49736965 0 3
0.93891609 1.5958914 -0.47858399 0 4
0.93252242 1.585024 -0.45732296 0 5
0.94166476 1.6005633 -0.44371089 0 6
0.93440169 1.5882182 -0.42241129 0 7
0.94126087 1.5998769 -0.40757936 0 8
0.93651032 1.5918022 -0.38775203 0 9
0.93469697 1.5887201 -0.36933371 0 10
0.94149911 1.6002818 -0.35429087 0 11
0.93432945 1.5880954 -0.33405894 0 12
0.94003624 1.5977954 -0.31851706 0 13
0.93482894 1.5889443 -0.29932293 0 14
0.93670332 1.5921303 -0.28251052 0 15
0.93907452 1.5961607 -0.26581806 0 16
0.93823534 1.5947343 -0.24823432 0 17
0.94462961 1.6056027 -0.23250473 0 18
0.94234973 1.6017276 -0.21460411 0 19
0.93019271 1.5810641 -0.19475611 0 20
0.93620402 1.5912817 -0.17885841 0 21
0.94401723 1.6045619 -0.16308244 0 22
0.93321484 1.586201 -0.14417273 0 23
0.94049418 1.5985737 -0.12814553 0 24
0.92794174 1.5772381 -0.10953385 0 25
0.93905741 1.5961317 -0.093760945 0 26
0.94264519 1.6022298 -0.07698486 0 27
0.93304598 1.5859138 -0.059253987 0 28
0.93611491 1.5911301 -0.042456303 0 29
0.94655275 1.6088716 -0.025754914 0 30
0.94044888 1.5984967 -0.0085291294 0 31
0.93627429 1.5914011 0.0084912693 0 32
0.93567926 1.5903896 0.025459055 0 33
0.9432705 1.6032927 0.042780835 0 34
0.93529409 1.589735 0.059396759 0 35
0.93791777 1.5941945 0.076598778 0 36
0.93864119 1.5954242 0.093719386 0 37
0.93651021 1.591802 0.11054527 0 38
0.93801373 1.5943576 0.12780756 0 39
0.9337588 1.5871255 0.14425676 0 40
0.93685794 1.5923932 0.16184565 0 41
0.93690664 1.5924759 0.17899264 0 42
0.93495524 1.5891591 0.19575325 0 43
0.93778372 1.5939667 0.21356428 0 44
0.93994462 1.5976396 0.23135158 0 45
0.9348135 1.5889182 0.24732898 0 46
0.93877095 1.5956447 0.26573211 0 47
0.93269652 1.5853199 0.28130206 0 48
0.94265515 1.6022468 0.30182883 0 49
0.93421996 1.5879092 0.31654629 0 50
0.94183493 1.6008526 0.33674246 0 51
0.93697411 1.5925906 0.35258809 0 52
0.93954402 1.5969588 0.37124896 0 53
0.94061345 1.5987763 0.38945088 0 54
0.94181955 1.6008264 0.40782127 0 55
0.93919045 1.5963577 0.4245761 0 56
0.93625182 1.591363 0.44116035 0 57
0.93683332 1.5923512 0.45943707 0 58
0.9387635 1.5956321 0.47850624 0 59
0.93950057 1.5968848 0.49710515 0 60
0.94742388 1.6103523 0.51976532 0 61
0.94365698 1.6039495 0.53618753 0 62
0.93790638 1.5941751 0.55139381 0 63
0.92001611 1.6087024 -0.55246383 0 0
0.92256767 1.6131639 -0.53543508 0 1
0.92315024 1.6141827 -0.5172987 0 2
0.91817182 1.6054776 -0.49622789 0 3
0.9143942 1.5988722 -0.47607005 0 4
0.91389984 1.5980078 -0.45779213 0 5
0.9237262 1.6151898 -0.44458321 0 6
0.9172141 1.6038029 -0.42352456 0 7
0.91389149 1.5979933 -0.40420607 0 8
0.91867852 1.6063637 -0.38851795 0 9
0.92101514 1.6104493 -0.37172425 0 10
0.91285026 1.5961725 -0.35086948 0 11
0.91995859 1.6086019 -0.3359676 0 12
0.91808552 1.6053267 -0.31774393 0 13
0.92423826 1.6160851 -0.3022719 0 14
0.91815144 1.6054419 -0.28284785 0 15
0.9167363 1.6029675 -0.26505432 0 16
0.91697299 1.6033814 -0.24780644 0 17
0.91303807 1.5965009 -0.22954357 0 18
0.92199802 1.612168 -0.2144677 0 19
0.91942489 1.6076688 -0.19662577 0 20
0.91571218 1.6011767 -0.17869149 0 21
0.92788512 1.6224618 -0.16372971 0 22
0.91736269 1.6040628 -0.14476 0 23
0.91931653 1.6074792 -0.12794356 0 24
0.92918628 1.624737 -0.11203055 0 25
0.92410308 1.6158488 -0.094244547 0 26
0.92092866 1.6102982 -0.076822609 0 27
0.91537774 1.600592 -0.059377365 0 28
0.91608745 1.601833 -0.042438101 0 29
0.91630244 1.6022089 -0.025465965 0 30
0.91563034 1.6010337 -0.0084819496 0 31
0.91843748 1.6059421 0.008507954 0 32
0.92019147 1.609009 0.025574049 0 33
0.91308558 1.596584 0.04229904 0 34
0.91812056 1.605388 0.059555281 0 35
0.91453755 1.5991229 0.076289475 0 36
0.91648203 1.6025229 0.093467318 0 37
0.91446525 1.5989964 0.11025566 0 38
0.91841906 1.6059099 0.12781866 0 39
0.92057246 1.6096753 0.14526649 0 40
0.91996443 1.6086121 0.16233207 0 41
0.92801046 1.622681 0.18109138 0 42
0.92192787 1.6120453 0.19716103 0 43
0.91825718 1.6056268 0.21359755 0 44
0.91416967 1.5984796 0.22982806 0 45
0.91026968 1.5916603 0.24599491 0 46
0.92411619 1.6158717 0.26718804 0 47
0.91558969 1.6009625 0.28205866 0 48
0.91178679 1.594313 0.29819968 0 49
0.91756994 1.6044252 0.3175655 0 50
0.91602051 1.6017159 0.3345294 0 51
0.91623586 1.6020924 0.3521708 0 52
0.91652298 1.6025945 0.36991119 0 53
0.92266977 1.6133425 0.39020589 0 54
0.92377377 1.615273 0.40857691 0 55
0.9222942 1.6126858 0.42587033 0 56
0.91843033 1.6059296 0.44203433 0 57
0.91774231 1.6047266 0.45971689 0 58
0.91840523 1.6058857 0.47815835 0 59
0.91901082 1.6069447 0.49668136 0 60
0.92032373 1.6092404 0.51571482 0 61
0.91446972 1.5990043 0.53073519 0 62
0.91118652 1.5932634 0.5471617 0 63
0.89726675 1.6146743 -0.55068403 0 0
0.90298837 1.6249707 -0.53562796 0 1
0.9011246 1.6216167 -0.51609105 0 2
0.89300466 1.6070045 -0.49326855 0 3
0.89523137 1.6110116 -0.47637087 0 4
0.89539725 1.6113101 -0.45841411 0 5
0.8985014 1.6168962 -0.44197839 0 6
0.90399551 1.626783 -0.42662537 0 7
0.89763957 1.6153452 -0.40577257 0 8
0.89210248 1.605381 -0.38559797 0 9
0.89353544 1.6079596 -0.36858562 0 10
0.89386261 1.6085484 -0.35114729 0 11
0.8962636 1.6128691 -0.33453175 0 12
0.89526653 1.6110749 -0.31667879 0 13
0.90294415 1.6248912 -0.30181947 0 14
0.89328676 1.6075121 -0.28125611 0 15
0.89928341 1.6183034 -0.26574159 0 16
0.90330309 1.625537 -0.2494951 0 17
0.89339441 1.6077058 -0.22955775 0 18
0.89241904 1.6059506 -0.21216476 0 19
0.90165114 1.6225643 -0.19707666 0 20
0.89810658 1.6161857 -0.17912048 0 21
0.89815927 1.6162804 -0.16197915 0 22
0.8920781 1.6053371 -0.14387417 0 23
0.89413255 1.6090343 -0.12718262 0 24
0.90440106 1.6275129 -0.11144671 0 25
0.89564222 1.6117508 -0.09335614 0 26
0.90100533 1.621402 -0.076817982 0 27
0.89201379 1.6052214 -0.059137724 0 28
0.89566517 1.6117922 -0.042406965 0 29
0.89477307 1.6101869 -0.02541597 0 30
0.89168513 1.60463 -0.0084422762 0 31
0.89809334 1.6161619 0.0085029481 0 32
0.9014951 1.6222835 0.025606908 0 33
0.89966029 1.6189816 0.042596124 0 34
0.89910638 1.6179848 0.059607942 0 35
0.88916898 1.6001019 0.075808838 0 36
0.90288788 1.6247898 0.094111383 0 37
0.89475691 1.6101577 0.11025828 0 38
0.90007955 1.6197362 0.12802853 0 39
0.89836365 1.6166482 0.14488789 0 40
0.8995865 1.6188488 0.16223656 0 41
0.89742005 1.6149502 0.17898357 0 42
0.89753574 1.6151583 0.19617714 0 43
0.89088309 1.6031867 0.21179961 0 44
0.89336801 1.6076584 0.22955097 0 45
0.89060271 1.6026821 0.24598722 0 46
0.90371913 1.6262857 0.26705235 0 47
0.90006542 1.6197107 0.2833904 0 48
0.88616061 1.5946883 0.29620937 0 49
0.89569539 1.6118466 0.31683049 0 50
0.90046418 1.6204282 0.33609962 0 51
0.90499955 1.6285899 0.35552236 0 52
0.89799839 1.615991 0.3704266 0 53
0.89451385 1.6097203 0.38664025 0 54
0.89643472 1.6131771 0.40522793 0 55
0.90206039 1.6233008 0.42571211 0 56
0.90160531 1.6224818 0.44350523 0 57
0.89772528 1.6154995 0.45960596 0 58
0.90117556 1.6217084 0.47953388 0 59
0.90077466 1.6209871 0.49756047 0 60
0.89890689 1.6176258 0.51482093 0 61
0.90061355 1.620697 0.53421926 0 62
0.89986944 1.6193579 0.55228138 0 63
0.877756 1.626345 -0.55094165 0 0
0.87352735 1.61851 -0.52991772 0 1
0.8765375 1.6240873 -0.51340824 0 2
0.87248951 1.616587 -0.49287954 0 3
0.87194175 1.6155721 -0.47451311 0 4
0.88247466 1.635088 -0.46205676 0 5
0.87692559 1.6248064 -0.44115973 0 6
0.87299472 1.6175231 -0.42134985 0 7
0.88198805 1.6341863 -0.40775025 0 8
0.88073337 1.6318616 -0.3893277 0 9
0.88402438 1.6379594 -0.37294236 0 10
0.88195574 1.6341265 -0.35433677 0 11
0.87524718 1.6216966 -0.33410516 0 12
0.87371808 1.6188635 -0.31607401 0 13
0.87336397 1.6182073 -0.29856059 0 14
0.87535739 1.6219008 -0.28186902 0 15
0.88056481 1.6315492 -0.26611853 0 16
0.87559479 1.6223407 -0.24733329 0 17
0.87404972 1.6194779 -0.22968663 0 18
0.8765384 1.624089 -0.213121 0 19
0.87473923 1.6207554 -0.19553572 0 20
0.87810671 1.6269948 -0.17910823 0 21
0.87703514 1.6250094 -0.16176093 0 22
0.88309294 1.6362336 -0.14565897 0 23
0.87206507 1.6158006 -0.12686026 0 24
0.87251467 1.6166337 -0.10995875 0 25
0.87699234 1.6249301 -0.093487814 0 26
0.87261873 1.6168265 -0.076087087 0 27
0.87765384 1.6261557 -0.059506878 0 28
0.86981088 1.611624 -0.04211795 0 29
0.87524414 1.6216909 -0.025425754 0 30
0.87524968 1.6217012 -0.0084748268 0 31
0.87708139 1.6250951 0.0084925629 0 32
0.87593657 1.6229739 0.025445869 0 33
0.87453038 1.6203684 0.042346474 0 34
0.88554287 1.6407728 0.06004177 0 35
0.87638974 1.6238135 0.076415896 0 36
0.8745209 1.6203508 0.093224347 0 37
0.87796831 1.6267384 0.11064604 0 38
0.8802706 1.6310041 0.12805393 0 39
0.87315255 1.6178155 0.14401938 0 40
0.87830085 1.6273545 0.16199438 0 41
0.87618017 1.6234252 0.17871527 0 42
0.87670839 1.624404 0.1959759 0 43
0.88082236 1.6320266 0.21416259 0 44
0.88209099 1.634377 0.23179975 0 45
0.87872887 1.6281476 0.24821858 0 46
0.87249243 1.6165924 0.26367894 0 47
0.87617552 1.6234167 0.28213245 0 48
0.87953317 1.6296378 0.30066952 0 49
0.87743866 1.6257571 0.31741998 0 50
0.87635016 1.6237403 0.33452621 0 51
0.87388188 1.6191669 0.35109296 0 52
0.86856407 1.6093137 0.36642012 0 53
0.8734014 1.6182767 0.38608664 0 54
0.87833804 1.6274235 0.40606284 0 55
0.8777259 1.6262892 0.42363337 0 56
0.87565172 1.6224462 0.44051892 0 57
0.87724483 1.6253979 0.45931846 0 58
0.87287217 1.6172961 0.47501945 0 59
0.87572616 1.622584 0.49470794 0 60
0.88029414 1.6310478 0.51560861 0 61
0.87764299 1.6261356 0.53241444 0 62
0.87879407 1.6282684 0.55159318 0 63
0.85855961 1.6386689 -0.55149835 0 0
0.85446203 1.6308482 -0.53047723 0 1
0.85640162 1.6345501 -0.51334798 0 2
0.84882611 1.6200912 -0.49072853 0 3
0.8585735 1.6386954 -0.47816771 0 4
0.8568837 1.6354702 -0.45915252 0 5
0.85412508 1.630205 -0.43974066 0 6
0.8505367 1.6233562 -0.42011321 0 7
0.85389584 1.6297674 -0.40399727 0 8
0.85173851 1.62565 -0.38531789 0 9
0.85618466 1.634136 -0.36964679 0 10
0.86782056 1.6563445 -0.35681355 0 11
0.85418826 1.6303257 -0.33369374 0 12
0.85517341 1.6322058 -0.31660202 0 13
0.85914326 1.6397828 -0.30056942 0 14
0.85057461 1.6234285 -0.28029564 0 15
0.86175227 1.6447625 -0.26652518 0 16
0.85135883 1.6249253 -0.2461127 0 17
0.85840398 1.6383718 -0.23085183 0 18
0.85818988 1.6379633 -0.21354072 0 19
0.85909992 1.6397002 -0.19653197 0 20
0.86459786 1.6501936 -0.18047805 0 21
0.85740912 1.6364731 -0.16184033 0 22
0.85727668 1.6362202 -0.14470844 0 23
0.85811931 1.6378285 -0.12775162 0 24
0.85405946 1.6300797 -0.11015067 0 25
0.85797781 1.6375585 -0.093600303 0 26
0.86075991 1.6428684 -0.076808706 0 27
0.85445052 1.6308261 -0.059288826 0 28
0.85554373 1.6329128 -0.042396169 0 29
0.85214281 1.6264217 -0.025333725 0 30
0.85749847 1.6366435 -0.0084971692 0 31
0.85979962 1.6410356 0.0085199717 0 32
0.85572028 1.6332498 0.02544008 0 33
0.86633748 1.6535139 0.042931046 0 34
0.85358232 1.6291691 0.059228584 0 35
0.85437107 1.6306745 0.07623861 0 36
0.85474831 1.6313945 0.093247987 0 37
0.85838234 1.6383306 0.11070821 0 38
0.85270393 1.6274925 0.12694541 0 39
0.85504746 1.6319655 0.14433214 0 40
0.85613286 1.6340371 0.16159943 0 41
0.85006744 1.6224605 0.17744495 0 42
0.85515732 1.6321751 0.19563003 0 43
0.85614324 1.6340569 0.21303144 0 44
0.85772604 1.6370778 0.2306695 0 45
0.85091972 1.6240872 0.24598578 0 46
0.85951006 1.6404829 0.26583168 0 47
0.85768342 1.6369965 0.28263825 0 48
0.85077393 1.6238089 0.29764143 0 49
0.85048437 1.6232563 0.31486604 0 50
0.8592115 1.6399131 0.33565611 0 51
0.85817945 1.6379433 0.35284954 0 52
0.85159212 1.6253706 0.36766401 0 53
0.85789245 1.6373955 0.38810185 0 54
0.85589576 1.6335845 0.4049435 0 55
0.86213678 1.6454964 0.42584294 0 56
0.85530907 1.6324648 0.4403502 0 57
0.85846084 1.6384804 0.45999762 0 58
0.85976648 1.6409724 0.47883213 0 59
0.8568362 1.6353796 0.49535939 0 60
0.85836858 1.6383042 0.51452702 0 61
0.85547388 1.6327794 0.5311054 0 62
0.85661459 1.6349566 0.55024904 0 63
0.8395921 1.6515518 -0.55231786 0 0
0.83520192 1.642916 -0.53102183 0 1
0.83984083 1.6520412 -0.5155589 0 2
0.83392864 1.6404114 -0.49374014 0 3
0.84077632 1.6538813 -0.47954592 0 4
0.83670735 1.6458774 -0.45915109 0 5
0.84507161 1.6623306 -0.44556966 0 6
0.83642149 1.6453151 -0.42310232 0 7
0.83511865 1.6427522 -0.4046399 0 8
0.83664221 1.6457492 -0.38761413 0 9
0.83708918 1.6466285 -0.37011626 0 10
0.83073241 1.6341242 -0.34979978 0 11
0.83124858 1.6351395 -0.33256179 0 12
0.83923018 1.6508399 -0.31819072 0 13
0.83435911 1.6412581 -0.29893667 0 14
0.83077878 1.6342152 -0.28037307 0 15
0.83409423 1.6407371 -0.26419091 0 16
0.8381803 1.6487747 -0.24814516 0 17
0.83878481 1.6499639 -0.23101443 0 18
0.83244967 1.6375022 -0.21213007 0 19
0.82535249 1.6235414 -0.19336414 0 20
0.84085947 1.6540449 -0.17975485 0 21
0.83830696 1.649024 -0.16204987 0 22
0.83061081 1.6338849 -0.14358774 0 23
0.83913702 1.6506567 -0.1279377 0 24
0.83464658 1.6418236 -0.11024239 0 25
0.84438288 1.6609758 -0.094338201 0 26
0.82915282 1.631017 -0.075772211 0 27
0.83593369 1.6443555 -0.059402499 0 28
0.83504182 1.6426011 -0.042377915 0 29
0.83087933 1.6344131 -0.025297148 0 30
0.83916402 1.6507097 -0.008515981 0 31
0.83491695 1.6423554 0.0084728813 0 32
0.83623505 1.6449482 0.025460208 0 33
0.83911377 1.650611 0.042584565 0 34
0.83293122 1.6384493 0.059189137 0 35
0.83971304 1.6517898 0.076737262 0 36
0.83977902 1.6519196 0.093823835 0 37
0.83643997 1.6453514 0.11047927 0 38
0.83939928 1.6511726 0.1279777 0 39
0.83867645 1.6497507 0.14498205 0 40
0.83483261 1.6421896 0.16137826 0 41
0.84461826 1.6614388 0.1805584 0 42
0.82835537 1.6294483 0.19406766 0 43
0.83306664 1.6387157 0.21228729 0 44
0.83841157 1.6492298 0.23091164 0 45
0.82986987 1.6324275 0.24568485 0 46
0.84188402 1.6560603 0.26665825 0 47
0.82896769 1.6306527 0.27976185 0 48
0.82956445 1.6318266 0.29721883 0 49
0.83900869 1.6504043 0.31810677 0 50
0.836842 1.6461422 0.33479959 0 51
0.83519119 1.642895 0.35167727 0 52
0.83745092 1.6473399 0.37027618 0 53
0.8360731 1.6446297 0.38735047 0 54
0.83650506 1.6454794 0.40531164 0 55
0.83662581 1.6457169 0.42320567 0 56
0.83428347 1.6411093 0.43988156 0 57
0.83843541 1.6492765 0.46009937 0 58
0.83451635 1.6415675 0.47597548 0 59
0.83270466 1.6380037 0.49301547 0 60
0.83154565 1.6357238 0.51046669 0 61
0.83528727 1.6430839 0.53107613 0 62
0.84023774 1.6528219 0.5527426 0 63
0.81424373 1.6516522 -0.54896158 0 0
0.81611812 1.6554544 -0.53179067 0 1
0.81433022 1.6518278 -0.51232868 0 2
0.81500381 1.6531941 -0.49453378 0 3
0.81638634 1.6559985 -0.477213 0 4
0.81891584 1.6611295 -0.46056202 0 5
0.81900281 1.6613058 -0.44256216 0 6
0.814758 1.6526954 -0.42239195 0 7
0.81551099 1.654223 -0.40496466 0 8
0.81385154 1.6508567 -0.38643086 0 9
0.81274354 1.6486092 -0.3682873 0 10
0.82135904 1.6660854 -0.35445264 0 11
0.80959433 1.6422212 -0.3319523 0 12
0.8165068 1.6562428 -0.31727293 0 13
0.8159076 1.6550274 -0.29959458 0 14
0.82061142 1.6645688 -0.28382799 0 15
0.81694716 1.6571361 -0.26519388 0 16
0.82057089 1.6644866 -0.24897243 0 17
0.81816059 1.6595975 -0.2309372 0 18
0.81919473 1.6616951 -0.21394305 0 19
0.81470025 1.6525784 -0.19561453 0 20
0.81775516 1.6587751 -0.17916258 0 21
0.8151359 1.6534619 -0.1614888 0 22
0.81767815 1.6586188 -0.14486682 0 23
0.81938756 1.6620864 -0.12803298 0 24
0.81793463 1.6591392 -0.11072135 0 25
0.81210995 1.647324 -0.09298861 0 26
0.81877905 1.6608521 -0.076684736 0 27
0.81654876 1.656328 -0.059467789 0 28
0.82325208 1.6699253 -0.042818453 0 29
0.81427544 1.6517167 -0.025408072 0 30
0.81590861 1.6550294 -0.0084858658 0 31
0.82276696 1.6689413 0.0085571967 0 32
0.81453508 1.6522434 0.025416175 0 33
0.81002277 1.6430904 0.042130381 0 34
0.81909484 1.6614925 0.059653215 0 35
0.81074208 1.6445494 0.075932004 0 36
0.81641936 1.6560655 0.093482047 0 37
0.81515527 1.6535014 0.11034512 0 38
0.81282949 1.6487836 0.12700824 0 39
0.81671828 1.6566719 0.14469677 0 40
0.81819725 1.6596719 0.16209529 0 41
0.81828982 1.6598595 0.17927971 0 42
0.81414324 1.6514485 0.19548079 0 43
0.81592542 1.6550635 0.21308923 0 44
0.81874305 1.6607789 0.2311016 0 45
0.80909932 1.6412171 0.2454918 0 46
0.81551921 1.6542395 0.26473033 0 47
0.81585646 1.6549236 0.28218338 0 48
0.81380332 1.6507589 0.2988219 0 49
0.80859452 1.6401932 0.31419843 0 50
0.8168382 1.6569151 0.33492243 0 51
0.81323671 1.6496097 0.3509475 0 52
0.82089949 1.6651531 0.37198311 0 53
0.81682932 1.6568971 0.38784477 0 54
0.81980109 1.6629251 0.40709502 0 55
0.82019407 1.6637223 0.42521018 0 56
0.81539005 1.6539776 0.44060996 0 57
0.81732512 1.6579028 0.45966738 0 58
0.81853467 1.6603562 0.47846875 0 59
0.81844288 1.66017 0.49662057 0 60
0.81685764 1.6569545 0.51391876 0 61
0.81970137 1.6627228 0.53412557 0 62
0.81979942 1.6629218 0.55270725 0 63
0.79668427 1.6674203 -0.55090469 0 0
0.79954165 1.6734008 -0.53435701 0 1
0.79764837 1.6694381 -0.51470965 0 2
0.79617935 1.6663635 -0.49550718 0 3
0.79484361 1.663568 -0.47654173 0 4
0.8019771 1.6784979 -0.4626084 0 5
0.78787428 1.6489815 -0.43666515 0 6
0.80037516 1.6751451 -0.42558208 0 7
0.79759711 1.6693308 -0.40623152 0 8
0.79580319 1.6655762 -0.38755649 0 9
0.79402316 1.6618507 -0.36903632 0 10
0.7942372 1.6622988 -0.35154274 0 11
0.79706734 1.6682221 -0.3352015 0 12
0.7946009 1.6630599 -0.3166832 0 13
0.79319012 1.6601071 -0.29872596 0 14
0.79837441 1.6709577 -0.28322202 0 15
0.79988128 1.6741115 -0.26631632 0 16
0.79464227 1.6631465 -0.2472917 0 17
0.79641378 1.6668541 -0.23056683 0 18
0.7966761 1.6674032 -0.21340054 0 19
0.79930514 1.6729057 -0.19684237 0 20
0.78754568 1.6482937 -0.17697115 0 21
0.79735994 1.6688344 -0.16202034 0 22
0.79603153 1.6660541 -0.14465038 0 23
0.78848445 1.6502585 -0.12636544 0 24
0.80327857 1.6812218 -0.11152742 0 25
0.79694861 1.6679735 -0.093593992 0 26
0.79753649 1.669204 -0.076611765 0 27
0.7948277 1.6635346 -0.059371144 0 28
0.79324025 1.6602122 -0.042316098 0 29
0.78669703 1.6465175 -0.025177386 0 30
0.79429972 1.6624296 -0.008473089 0 31
0.79000926 1.6534499 0.008427321 0 32
0.79596311 1.665911 0.025473936 0 33
0.79475147 1.663375 0.042396713 0 34
0.80099756 1.6764479 0.05983201 0 35
0.79386461 1.6615189 0.076259047 0 36
0.79653603 1.6671101 0.093545541 0 37
0.79816335 1.670516 0.11081723 0 38
0.79155463 1.6566843 0.12685749 0 39
0.79188663 1.657379 0.14389719 0 40
0.79173285 1.6570572 0.16087693 0 41
0.79810953 1.6704032 0.17934497 0 42
0.79341006 1.6605676 0.19539061 0 43
0.79304177 1.6597967 0.21242705 0 44
0.80063879 1.6756968 0.23178999 0 45
0.79381734 1.66142 0.247035 0 46
0.79326868 1.6602716 0.26411471 0 47
0.80152476 1.6775512 0.28433961 0 48
0.79381859 1.6614226 0.29896268 0 49
0.79341871 1.6605856 0.31621203 0 50
0.79210287 1.6578317 0.3331137 0 51
0.79505366 1.6640074 0.35190409 0 52
0.79270768 1.6590974 0.36842492 0 53
0.79927903 1.6728511 0.38924924 0 54
0.80477381 1.6843512 0.40988672 0 55
0.79244196 1.6585413 0.42136377 0 56
0.79927552 1.6728436 0.44298407 0 57
0.79742539 1.6689714 0.45998281 0 58
0.79247934 1.6586195 0.47512421 0 59
0.79541337 1.6647605 0.49503049 0 60
0.7916556 1.6568955 0.51084262 0 61
0.79327488 1.6602846 0.53016877 0 62
0.7920531 1.6577275 0.54770231 0 63
0.77598703 1.6767979 -0.55080879 0 0
0.76943356 1.6626368 -0.52785873 0 1
0.77648753 1.6778793 -0.51432949 0 2
0.77123678 1.6665332 -0.4927004 0 3
0.77638912 1.6776667 -0.47780952 0 4
0.76673067 1.6567962 -0.45399445 0 5
0.77583903 1.676478 -0.44138685 0 6
0.77121264 1.666481 -0.4209398 0 7
0.77584285 1.6764863 -0.40562052 0 8
0.76980633 1.6634421 -0.38482824 0 9
0.77621078 1.6772813 -0.37031537 0 10
0.76998997 1.663839 -0.34983972 0 11
0.77230436 1.6688402 -0.33339229 0 12
0.77567536 1.6761243 -0.31733069 0 13
0.76921523 1.6621649 -0.29737175 0 14
0.77740484 1.6798615 -0.28308952 0 15
0.77554011 1.6758322 -0.26505297 0 16
0.77271527 1.6697279 -0.24683884 0 17
0.77435911 1.6732801 -0.2301212 0 18
0.77966845 1.6847529 -0.21437782 0 19
0.77759844 1.6802799 -0.19657011 0 20
0.76971167 1.6632376 -0.17754601 0 21
0.7737273 1.6719148 -0.16138351 0 22
0.77565032 1.6760702 -0.14468096 0 23
0.77633709 1.6775542 -0.12771493 0 24
0.76956493 1.6629206 -0.10967734 0 25
0.76959932 1.6629949 -0.092776604 0 26
0.7764464 1.6777905 -0.076561868 0 27
0.77352595 1.6714798 -0.059310749 0 28
0.77455103 1.6736948 -0.042413786 0 29
0.77187818 1.6679192 -0.025357591 0 30
0.77029896 1.6645067 -0.0084347613 0 31
0.77797031 1.6810834 0.0085187629 0 32
0.77448338 1.6735486 0.025443178 0 33
0.77717805 1.6793715 0.042557638 0 34
0.77459568 1.6737913 0.059392769 0 35
0.76811278 1.6597826 0.075740121 0 36
0.7755456 1.675844 0.093493439 0 37
0.76745147 1.6583537 0.10937613 0 38
0.77159864 1.6673151 0.12693541 0 39
0.77247775 1.6692148 0.14408919 0 40
0.7758745 1.6765547 0.16183138 0 41
0.77671009 1.6783602 0.17916031 0 42
0.77343965 1.6712933 0.19551881 0 43
0.77551818 1.6757847 0.21323666 0 44
0.77319175 1.6707577 0.22977428 0 45
0.77464795 1.6739043 0.24745622 0 46
0.7813524 1.6883916 0.26703939 0 47
0.7801708 1.6858383 0.28409672 0 48
0.77826905 1.681729 0.30087188 0 49
0.76995629 1.6637663 0.31499103 0 50
0.78069657 1.6869744 0.33701506 0 51
0.77507824 1.6748341 0.35215154 0 52
0.77692825 1.6788317 0.37065768 0 53
0.77339244 1.6711912 0.38662094 0 54
0.77735841 1.6797612 0.40641287 0 55
0.77264833 1.6695833 0.42172343 0 56
0.77252513 1.6693172 0.43950152 0 57
0.77154809 1.6672059 0.45684689 0 58
0.78144294 1.6885873 0.48091978 0 59
0.78010583 1.685698 0.49836636 0 60
0.77336681 1.6711359 0.5122624 0 61
0.77160162 1.6673216 0.52934605 0 62
0.77207541 1.6683453 0.54803222 0 63
0.75641239 1.6886705 -0.55161178 0 0
0.75343233 1.6820177 -0.5310303 0 1
0.7497707 1.6738431 -0.51022756 0 2
0.7560541 1.6878707 -0.49622265 0 3
0.75940078 1.6953421 -0.48014778 0 4
0.75197148 1.6787562 -0.45744359 0 5
0.75087476 1.6763079 -0.43887797 0 6
0.75802225 1.6922646 -0.42506596 0 7
0.76219708 1.7015848 -0.40939447 0 8
0.75003684 1.6744374 -0.38520914 0 9
0.75129783 1.6772525 -0.36824152 0 10
0.75250274 1.6799423 -0.35125345 0 11
0.75423795 1.6838161 -0.33450603 0 12
0.7500003 1.6743557 -0.31522602 0 13
0.75511593 1.6857762 -0.2999121 0 14
0.74660051 1.6667657 -0.2793144 0 15
0.7514624 1.6776199 -0.2638543 0 16
0.75089866 1.6763612 -0.24643582 0 17
0.7554704 1.6865675 -0.23065355 0 18
0.75783104 1.6918377 -0.21407738 0 19
0.75584489 1.6874037 -0.19630137 0 20
0.74936879 1.672946 -0.17758529 0 21
0.75407404 1.6834502 -0.16158973 0 22
0.75010741 1.6745949 -0.14374654 0 23
0.75394493 1.683162 -0.12742642 0 24
0.75203818 1.6789052 -0.11011337 0 25
0.75787485 1.6919354 -0.093864165 0 26
0.75299239 1.6810355 -0.076281659 0 27
0.75024354 1.6748987 -0.059100248 0 28
0.76142257 1.6998557 -0.04283623 0 29
0.75765163 1.6914371 -0.025571566 0 30
0.75061911 1.6757371 -0.0084442608 0 31
0.75829279 1.6928686 0.0085305879 0 32
0.75549847 1.6866302 0.025498895 0 33
0.75589973 1.6875261 0.042525526 0 34
0.75043559 1.6753274 0.059115376 0 35
0.75050187 1.6754755 0.07602936 0 36
0.75592285 1.6875776 0.093622401 0 37
0.75391078 1.6830858 0.11038756 0 38
0.75756133 1.6912355 0.12803763 0 39
0.75015044 1.6746908 0.14375478 0 40
0.75760287 1.6913283 0.16234593 0 41
0.75413692 1.6835907 0.17871524 0 42
0.75163943 1.6780151 0.19520916 0 43
0.75211954 1.6790869 0.21246397 0 44
0.75699431 1.6899697 0.23111883 0 45
0.75404418 1.6833836 0.24746816 0 46
0.75677019 1.6894693 0.26571798 0 47
0.7516343 1.6780037 0.28119764 0 48
0.75177014 1.6783068 0.29858321 0 49
0.75476646 1.6849961 0.31722924 0 50
0.75657678 1.6890374 0.3355433 0 51
0.75123018 1.6771014 0.35065946 0 52
0.75372958 1.6826813 0.3694334 0 53
0.75177222 1.6783115 0.38610041 0 54
0.75245303 1.6798314 0.40416068 0 55
0.76115572 1.69926 0.42682308 0 56
0.7521354 1.6791223 0.4396148 0 57
0.75003403 1.6744311 0.45626503 0 58
0.75547034 1.6865674 0.47766265 0 59
0.75958508 1.6957535 0.4985401 0 60
0.75429916 1.6839528 0.51330924 0 61
0.75332427 1.6817763 0.53095412 0 62
0.75337338 1.681886 0.54939562 0 63
0.73591602 1.6985911 -0.55185473 0 0
0.73591977 1.6985997 -0.53336817 0 1
0.73413861 1.6944885 -0.51373023 0 2
0.73348331 1.6929761 -0.49503458 0 3
0.73508978 1.696684 -0.47793174 0 4
0.73292565 1.6916889 -0.45847717 0 5
0.72978699 1.6844445 -0.4386256 0 6
0.73290443 1.69164 -0.42261347 0 7
0.7321738 1.6899536 -0.40439934 0 8
0.73214287 1.6898822 -0.38666192 0 9
0.73700052 1.7010943 -0.37145823 0 10
0.73646963 1.6998689 -0.35349962 0 11
0.73709708 1.7013171 -0.33615676 0 12
0.73415637 1.6945295 -0.3173005 0 13
0.73445892 1.6952279 -0.29996419 0 14
0.73729694 1.7017784 -0.28364104 0 15
0.73458129 1.6955104 -0.26522738 0 16
0.73483068 1.6960859 -0.2479884 0 17
0.73738807 1.7019887 -0.23150501 0 18
0.7390272 1.705772 -0.21467447 0 19
0.73343152 1.6928564 -0.19587174 0 20
0.73567063 1.6980246 -0.17927362 0 21
0.73779327 1.702924 -0.16257586 0 22
0.72951269 1.6838114 -0.14375681 0 23
0.7318235 1.689145 -0.12718847 0 24
0.7394619 1.7067754 -0.11133649 0 25
0.73000276 1.6849425 -0.092971191 0 26
0.72644472 1.6767302 -0.075675227 0 27
0.73608226 1.6989747 -0.059625905 0 28
0.73556387 1.6977783 -0.042552736 0 29
0.73418093 1.6945863 -0.025480764 0 30
0.72830492 1.6810237 -0.0084251342 0 31
0.73553437 1.6977102 0.0085087661 0 32
0.7315883 1.6886021 0.025390781 0 33
0.73827833 1.7040435 0.042709768 0 34
0.73382771 1.693771 0.059443276 0 35
0.73218942 1.6899897 0.076273657 0 36
0.7362265 1.6993078 0.093763836 0 37
0.7349686 1.6964042 0.11065996 0 38
0.73031688 1.6856675 0.12692663 0 39
0.72868603 1.6819032 0.14359389 0 40
0.7353403 1.6972622 0.16203533 0 41
0.73203182 1.6896257 0.17838688 0 42
0.72934026 1.6834134 0.19477911 0 43
0.73482198 1.6960658 0.21345292 0 44
0.73366839 1.6934032 0.2303372 0 45
0.73142332 1.6882213 0.2468385 0 46
0.73224592 1.69012 0.26438418 0 47
0.73281699 1.6914381 0.28191757 0 48
0.73697603 1.7010378 0.30099225 0 49
0.73222232 1.6900655 0.3164646 0 50
0.72982579 1.6845341 0.33284065 0 51
0.73401111 1.6941943 0.35231957 0 52
0.73591566 1.6985902 0.37091142 0 53
0.7313776 1.6881158 0.38625777 0 54
0.73536628 1.6973222 0.40616265 0 55
0.72925889 1.6832256 0.42051134 0 56
0.7353102 1.6971928 0.44194523 0 57
0.73337352 1.6927226 0.45875731 0 58
0.72996575 1.684857 0.47460023 0 59
0.73649168 1.6999197 0.49706492 0 60
0.73444384 1.6951932 0.51394385 0 61
0.73122823 1.687771 0.52996796 0 62
0.73093683 1.6870984 0.54812086 0 63
0.71041536 1.6966212 -0.54833513 0 0
0.7143538 1.7060269 -0.53290188 0 1
0.71561754 1.7090451 -0.51543665 0 2
0.71217537 1.7008244 -0.4947314 0 3
0.71152842 1.6992793 -0.47616223 0 4
0.71161205 1.699479 -0.45818228 0 5
0.71080095 1.697542 -0.43972692 0 6
0.71284956 1.7024344 -0.42308834 0 7
0.70818728 1.6912999 -0.40260723 0 8
0.71790671 1.714512 -0.39024812 0 9
0.71229351 1.7011064 -0.36952037 0 10
0.71679568 1.7118586 -0.35413328 0 11
0.71457303 1.7065505 -0.33542931 0 12
0.71143371 1.699053 -0.31648549 0 13
0.71145546 1.699105 -0.29907963 0 14
0.71455359 1.706504 -0.2829428 0 15
0.71323061 1.7033445 -0.2650609 0 16
0.7112205 1.698544 -0.24705042 0 17
0.7186873 1.7163762 -0.23224239 0 18
0.71912426 1.7174197 -0.21501124 0 19
0.71627057 1.7106044 -0.19689129 0 20
0.71193409 1.7002481 -0.17857061 0 21
0.71378785 1.7046753 -0.16189288 0 22
0.71248704 1.7015687 -0.14451393 0 23
0.71442527 1.7061976 -0.12780136 0 24
0.71447802 1.7063235 -0.11072554 0 25
0.71415216 1.7055453 -0.093616381 0 26
0.71139461 1.6989597 -0.076277934 0 27
0.71903032 1.7171954 -0.059950534 0 28
0.71131086 1.6987598 -0.042354912 0 29
0.70852154 1.6920981 -0.025310434 0 30
0.71091074 1.6978041 -0.0084647844 0 31
0.71381116 1.704731 0.0084993197 0 32
0.71219969 1.7008824 0.025441829 0 33
0.71347529 1.7039288 0.042483788 0 34
0.71205407 1.7005347 0.059368879 0 35
0.7106235 1.6971182 0.076195255 0 36
0.70917976 1.6936703 0.092964567 0 37
0.71106011 1.6981609 0.11019586 0 38
0.71597296 1.7098938 0.12807821 0 39
0.71357733 1.7041725 0.14473507 0 40
0.70892328 1.6930577 0.16078955 0 41
0.71104592 1.698127 0.17834783 0 42
0.71903694 1.7172112 0.19765174 0 43
0.70965314 1.6948009 0.21217947 0 44
0.71468824 1.7068256 0.2309501 0 45
0.71307909 1.7029825 0.24769601 0 46
0.70754677 1.6897702 0.2629486 0 47
0.71615237 1.7103223 0.28357586 0 48
0.70791584 1.6906517 0.29759166 0 49
0.71548361 1.7087252 0.31828716 0 50
0.70847487 1.6919868 0.33256677 0 51
0.71033835 1.6964371 0.35094303 0 52
0.71442628 1.7062 0.37062681 0 53
0.71329927 1.7035085 0.38774356 0 54
0.7077682 1.6902992 0.40236902 0 55
0.71064138 1.697161 0.42177778 0 56
0.71154332 1.699315 0.4401862 0 57
0.71995234 1.7193974 0.46355233 0 58
0.7098183 1.6951952 0.47501779 0 59
0.71383423 1.7047861 0.49588376 0 60
0.7094931 1.6944185 0.51102537 0 61
0.71040606 1.6965989 0.52995688 0 62
0.71278077 1.7022702 0.55016083 0 63
0.69249213 1.7126257 -0.55071402 0 0
0.69323999 1.7144754 -0.53283787 0 1
0.68759137 1.7005055 -0.51027262 0 2
0.69208992 1.7116311 -0.49536192 0 3
0.68701714 1.6990854 -0.47370484 0 4
0.6931867 1.7143435 -0.45985702 0 5
0.6956346 1.7203976 -0.44339812 0 6
0.69416916 1.7167733 -0.42449844 0 7
0.6897167 1.7057618 -0.4040004 0 8
0.6917311 1.7107437 -0.38742504 0 9
0.69244659 1.7125132 -0.37012061 0 10
0.6967032 1.7230402 -0.35464734 0 11
0.6920529 1.7115395 -0.33471197 0 12
0.69372934 1.7156856 -0.31797066 0 13
0.68866223 1.703154 -0.29827923 0 14
0.69521773 1.7193666 -0.2836366 0 15
0.69393975 1.716206 -0.26571438 0 16
0.69725096 1.724395 -0.24954452 0 17
0.69314879 1.7142498 -0.23078394 0 18
0.68974721 1.7058372 -0.21248327 0 19
0.68711126 1.6993182 -0.19460504 0 20
0.69043982 1.70755 -0.17843235 0 21
0.69000888 1.7064843 -0.1612467 0 22
0.6921522 1.7117851 -0.14464784 0 23
0.69120222 1.7094357 -0.12739763 0 24
0.69144702 1.710041 -0.1104067 0 25
0.69194531 1.7112734 -0.093456708 0 26
0.69489211 1.7185613 -0.076768547 0 27
0.70121181 1.7341907 -0.060238291 0 28
0.69116735 1.7093494 -0.042403832 0 29
0.68821764 1.7020544 -0.02533086 0 30
0.69615793 1.7216917 -0.0085405558 0 31
0.68786615 1.7011851 0.0084388312 0 32
0.69216377 1.7118137 0.025476104 0 33
0.68961251 1.7055041 0.042308439 0 34
0.68772799 1.7008435 0.059079953 0 35
0.69793892 1.7260964 0.077105142 0 36
0.69212478 1.7117172 0.093480945 0 37
0.69542557 1.7198806 0.11104198 0 38
0.68542182 1.69514 0.12633222 0 39
0.69658816 1.7227558 0.14557488 0 40
0.69390678 1.7161244 0.1621576 0 41
0.68841141 1.7025336 0.17790814 0 42
0.69233871 1.7122464 0.19608557 0 43
0.69639134 1.7222691 0.21453005 0 44
0.69275469 1.7132751 0.23065272 0 45
0.69572252 1.7206149 0.24899748 0 46
0.69311512 1.7141665 0.26539862 0 47
0.693865 1.7160209 0.28308469 0 48
0.6940189 1.7164017 0.30059934 0 49
0.69470453 1.7180973 0.31841764 0 50
0.68966019 1.705622 0.33355474 0 51
0.69087112 1.7086169 0.35167864 0 52
0.69091141 1.7087164 0.36930004 0 53
0.68937957 1.704928 0.38610798 0 54
0.6926688 1.7130628 0.40572959 0 55
0.6880126 1.7015473 0.42073357 0 56
0.69051266 1.7077303 0.44013336 0 57
0.69316107 1.7142801 0.45984 0 58
0.69226867 1.7120731 0.47732586 0 59
0.69066817 1.7081149 0.49434429 0 60
0.68706828 1.699212 0.50988448 0 61
0.69442683 1.7174106 0.53375006 0 62
0.69699252 1.7237558 0.55429304 0 63
0.67191207 1.7223694 -0.55114877 0 0
0.67218155 1.72306 -0.53289682 0 1
0.67085028 1.7196476 -0.51350248 0 2
0.67000484 1.7174803 -0.49463302 0 3
0.67182511 1.7221464 -0.47779498 0 4
0.67107564 1.7202252 -0.45918649 0 5
0.66883463 1.7144806 -0.43972024 0 6
0.6779784 1.7379197 -0.42763346 0 7
0.67209786 1.7228456 -0.40605852 0 8
0.67305523 1.7252997 -0.38881782 0 9
0.66961187 1.716473 -0.36916897 0 10
0.66527933 1.7053671 -0.34929955 0 11
0.67262149 1.7241877 -0.33554268 0 12
0.67059177 1.718985 -0.31702995 0 13
0.67237526 1.7235566 -0.30038172 0 14
0.66957265 1.7163726 -0.28176317 0 15
0.67054266 1.718859 -0.26482853 0 16
0.66991997 1.7172629 -0.24730159 0 17
0.67033237 1.71832 -0.23020479 0 18
0.66509169 1.7048861 -0.21133012 0 19
0.67280829 1.7246667 -0.19654565 0 20
0.66987538 1.7171485 -0.17856111 0 21
0.67491144 1.7300578 -0.16267769 0 22
0.66947967 1.7161342 -0.14430881 0 23
0.67376107 1.727109 -0.12808762 0 24
0.66661716 1.7087964 -0.10978881 0 25
