# .PCD v0.7 - Point Cloud Data file format
VERSION 0.7
FIELDS x y z intensity ring
SIZE 4 4 4 4 2
TYPE F F F F U
COUNT 1 1 1 1 1
WIDTH 1249
HEIGHT 1
VIEWPOINT 0 0 0 1 0 0 0
POINTS 1249
DATA ascii
0.21895584 1.7280703 0.3824732 0 55
0.21983796 1.7350323 0.40090999 0 56
0.21984689 1.7351029 0.41789427 0 57
0.21841578 1.7238081 0.43210572 0 58
0.21886113 1.7273228 0.45003089 0 59
0.22025742 1.7383428 0.47013658 0 60
0.21959689 1.7331297 0.48599464 0 61
0.21768801 1.7180642 0.49897566 0 62
0.21825871 1.7225684 0.51762629 0 63
0.197639 1.7301704 -0.51914108 0 0
0.19751234 1.7290615 -0.50142634 0 1
0.19761309 1.7299435 -0.48438317 0 2
0.19780107 1.7315891 -0.46761689 0 3
0.19777912 1.7313968 -0.45042464 0 4
0.19799283 1.7332678 -0.4338339 0 5
0.19807594 1.7339952 -0.41700935 0 6
0.20041354 1.7544591 -0.40479887 0 7
0.19929959 1.7447073 -0.38558391 0 8
0.19668765 1.7218421 -0.36385551 0 9
0.1975797 1.7296512 -0.34881952 0 10
0.19902939 1.742342 -0.3346321 0 11
0.19974802 1.7486331 -0.31909201 0 12
0.19747397 1.7287257 -0.29895672 0 13
0.19940497 1.7456299 -0.28526872 0 14
0.19860454 1.7386228 -0.26762831 0 15
0.19815958 1.7347275 -0.25061658 0 16
0.1985539 1.7381796 -0.2347139 0 17
0.19795273 1.7329167 -0.21769178 0 18
0.19746679 1.7286628 -0.20092331 0 19
0.20037752 1.7541438 -0.18744655 0 20
0.19743907 1.7284201 -0.16853198 0 21
0.19908975 1.7428705 -0.15366909 0 22
0.19720006 1.7263277 -0.13611902 0 23
0.19826536 1.7356536 -0.12069924 0 24
0.19904292 1.7424605 -0.10497472 0 25
0.19833253 1.7362416 -0.088477761 0 26
0.19897075 1.7418287 -0.072603345 0 27
0.19742171 1.7282681 -0.056016993 0 28
0.1980096 1.7334145 -0.040124495 0 29
0.19770502 1.7307482 -0.024034953 0 30
0.19831052 1.7360489 -0.0080357352 0 31
0.19800712 1.7333928 0.0080234408 0 32
0.19806735 1.7339201 0.024079002 0 33
0.20107821 1.7602777 0.040746316 0 34
0.20009711 1.7516891 0.056776118 0 35
0.19819589 1.7350454 0.072320603 0 36
0.19708815 1.7253481 0.087922633 0 37
0.19865142 1.7390332 0.10476825 0 38
0.19627443 1.7182245 0.1194872 0 39
0.19951209 1.7465677 0.13771492 0 40
0.19801317 1.7334459 0.15283813 0 41
0.19742619 1.7283072 0.16852097 0 42
0.19741628 1.7282206 0.18467641 0 43
0.19873041 1.7397246 0.20220904 0 44
0.19986983 1.7496994 0.21980004 0 45
0.19890712 1.7412716 0.23513143 0 46
0.19758287 1.729679 0.24988723 0 47
0.19820459 1.7351216 0.26708937 0 48
0.19803694 1.7336539 0.28331161 0 49
0.19764131 1.7301906 0.29921004 0 50
0.19872013 1.7396346 0.31744996 0 51
0.19879337 1.7402759 0.33423525 0 52
0.19884552 1.7407323 0.35105425 0 53
0.19811836 1.7343667 0.36650217 0 54
0.19811302 1.73432 0.38328829 0 55
0.19874576 1.739859 0.40143025 0 56
0.19832142 1.7361443 0.41752619 0 57
0.19873424 1.7397583 0.43545848 0 58
0.19941935 1.7457558 0.45416015 0 59
0.19711637 1.7255952 0.46599823 0 60
0.19969149 1.7481381 0.48947763 0 61
0.19794148 1.7328182 0.50251579 0 62
0.19804527 1.7337267 0.52020824 0 63
0.17824276 1.7510574 -0.52471101 0 0
0.1776593 1.7453256 -0.50547117 0 1
0.17748749 1.7436377 -0.48756957 0 2
0.17658018 1.734724 -0.46784174 0 3
0.17755158 1.7442672 -0.45317063 0 4
0.17764299 1.7451652 -0.43623212 0 5
0.17741203 1.7428963 -0.4185937 0 6
0.17695163 1.7383734 -0.40055513 0 7
0.17723989 1.7412052 -0.38429922 0 8
0.17720334 1.7408462 -0.36738315 0 9
0.17731102 1.7419039 -0.3508243 0 10
0.17751962 1.7439532 -0.33449703 0 11
0.17610899 1.7300953 -0.31529018 0 12
0.17837048 1.7523119 -0.30263343 0 13
0.17761199 1.7448608 -0.28476459 0 14
0.17791957 1.7478822 -0.26869655 0 15
0.1767008 1.7359091 -0.25045446 0 16
0.178059 1.7492521 -0.23589557 0 17
0.17731696 1.7419623 -0.21853769 0 18
0.17827386 1.7513629 -0.20329159 0 19
0.17859635 1.7545309 -0.1872391 0 20
0.17688327 1.7377017 -0.16921212 0 21
0.17853142 1.7538931 -0.15443572 0 22
0.17705005 1.7393402 -0.13696302 0 23
0.17701498 1.7389957 -0.12077115 0 24
0.17719258 1.7407404 -0.10473192 0 25
0.17666292 1.7355369 -0.088324472 0 26
0.17730947 1.7418888 -0.07250949 0 27
0.17743382 1.7431104 -0.056423083 0 28
0.17672674 1.7361641 -0.040134802 0 29
0.17846453 1.7532361 -0.024314929 0 30
0.17662409 1.7351555 -0.0080209402 0 31
0.17842552 1.7528528 0.0081027485 0 32
0.17652303 1.7341627 0.024050409 0 33
0.17848203 1.753408 0.040533431 0 34
0.17631608 1.7321297 0.056067649 0 35
0.1760236 1.7292564 0.071983643 0 36
0.17491658 1.718381 0.087451376 0 37
0.17746341 1.7434011 0.10489199 0 38
0.17809303 1.7495863 0.12150667 0 39
0.17754872 1.7442391 0.13734879 0 40
0.17697415 1.7385944 0.15308863 0 41
0.17675576 1.7364491 0.16909015 0 42
0.17702986 1.7391418 0.18559681 0 43
0.17746688 1.7434353 0.20237137 0 44
0.17740491 1.7428263 0.21864608 0 45
0.17712519 1.7400783 0.23465845 0 46
0.17757528 1.7445 0.25169393 0 47
0.17612942 1.7302959 0.26599306 0 48
0.17678772 1.7367631 0.28344303 0 49
0.17803635 1.7490295 0.30206653 0 50
0.17616515 1.730647 0.31539074 0 51
0.17783809 1.7470819 0.3350971 0 52
0.17877862 1.7563215 0.35372806 0 53
0.17788117 1.7475051 0.36878845 0 54
0.17693351 1.7381953 0.3836349 0 55
0.17800817 1.7487528 0.40294677 0 56
0.17721671 1.7409775 0.41813287 0 57
0.17717883 1.7406054 0.4350923 0 58
0.17564711 1.7255578 0.44830984 0 59
0.17791647 1.7478518 0.47138223 0 60
0.17669483 1.7358505 0.48539203 0 61
0.17602387 1.729259 0.50081807 0 62
0.17639197 1.7328752 0.51926261 0 63
0.15635028 1.7492143 -0.523543 0 0
0.15510853 1.7353218 -0.50198364 0 1
0.15552251 1.7399534 -0.48596784 0 2
0.15538187 1.7383798 -0.46827701 0 3
0.15692735 1.7556703 -0.45559746 0 4
0.15660821 1.7521 -0.43745109 0 5
0.15516645 1.7359697 -0.4164404 0 6
0.1547647 1.731475 -0.39849699 0 7
0.15620109 1.7475451 -0.38524547 0 8
0.15731382 1.7599943 -0.37098783 0 9
0.15622717 1.7478368 -0.35160571 0 10
0.15710799 1.7576914 -0.33673605 0 11
0.15733163 1.7601933 -0.32039845 0 12
0.1558855 1.7440144 -0.30084661 0 13
0.15713668 1.7580123 -0.28657395 0 14
0.15626547 1.7482654 -0.26843977 0 15
0.15773533 1.7647099 -0.25431073 0 16
0.15596524 1.7449064 -0.23503314 0 17
0.15537609 1.7383152 -0.21782398 0 18
0.15619101 1.7474324 -0.2025971 0 19
0.15551637 1.7398846 -0.18545799 0 20
0.15657891 1.7517722 -0.17038189 0 21
0.15671411 1.7532847 -0.15420081 0 22
0.15527798 1.7372177 -0.13663521 0 23
0.15548253 1.7395061 -0.1206647 0 24
0.15681207 1.7543806 -0.10542859 0 25
0.15646809 1.7505323 -0.08898297 0 26
0.15740722 1.7610391 -0.073220551 0 27
0.15567234 1.7416295 -0.056308929 0 28
0.15710418 1.7576487 -0.040583737 0 29
0.15691033 1.7554799 -0.024317453 0 30
0.15523989 1.7367915 -0.008019072 0 31
0.15761301 1.7633413 0.0081416573 0 32
0.15585545 1.7436782 0.02415397 0 33
0.15662773 1.7523183 0.040460657 0 34
0.15645824 1.750422 0.056593202 0 35
0.15691088 1.7554861 0.072989665 0 36
0.15458982 1.7295185 0.087914795 0 37
0.15557449 1.7405349 0.10459654 0 38
0.15569921 1.7419301 0.12083285 0 39
0.15523936 1.7367855 0.13660122 0 40
0.15668346 1.7529418 0.15417066 0 41
0.15535647 1.7380956 0.16905168 0 42
0.15586551 1.7437906 0.18587433 0 43
0.15773822 1.7647423 0.204604 0 44
0.15537749 1.7383308 0.21782593 0 45
0.15619925 1.7475245 0.23538579 0 46
0.15725665 1.7593545 0.25353897 0 47
0.15670229 1.7531525 0.26919016 0 48
0.15636896 1.7494233 0.28517383 0 49
0.15602295 1.7455522 0.30111188 0 50
0.1556921 1.7418506 0.31705964 0 51
0.15540861 1.7386789 0.33309367 0 52
0.1560128 1.7454386 0.35112327 0 53
0.15636964 1.7494309 0.36876121 0 54
0.15684094 1.7547036 0.38682353 0 55
0.15678427 1.7540696 0.40369713 0 56
0.15627959 1.7484235 0.4194279 0 57
0.15544908 1.7391317 0.43421331 0 58
0.15541238 1.7387211 0.45119914 0 59
0.15684658 1.7547667 0.47269124 0 60
0.15510763 1.7353117 0.48467144 0 61
0.15583846 1.7434881 0.50434589 0 62
0.15561721 1.7410128 0.5210883 0 63
0.13532472 1.7574172 -0.52546042 0 0
0.13453472 1.7471576 -0.50489068 0 1
0.13522308 1.7560971 -0.48997533 0 2
0.13441342 1.7455823 -0.46973643 0 3
0.13423066 1.7432089 -0.45190123 0 4
0.13444367 1.7459753 -0.43547627 0 5
0.13453604 1.747175 -0.41869992 0 6
0.13530721 1.7571896 -0.40400174 0 7
0.13480274 1.7506385 -0.3855328 0 8
0.13510281 1.7545353 -0.36945906 0 9
0.13518527 1.7556062 -0.35280758 0 10
0.13408595 1.7413297 -0.33326042 0 11
0.13460436 1.7480621 -0.31786495 0 12
0.1338402 1.7381383 -0.29952642 0 13
0.13489388 1.751822 -0.2852729 0 14
0.13502042 1.7534653 -0.26896292 0 15
0.13474122 1.7498393 -0.25190994 0 16
0.13496044 1.7526865 -0.23583972 0 17
0.13482663 1.7509487 -0.21918273 0 18
0.13540511 1.7584611 -0.20366733 0 19
0.13527586 1.7567825 -0.18706772 0 20
0.13466135 1.7488022 -0.16991913 0 21
0.13576314 1.7631109 -0.15490648 0 22
0.13426425 1.7436451 -0.13700053 0 23
0.13536683 1.757964 -0.12182041 0 24
0.13513285 1.7549255 -0.10535351 0 25
0.13480377 1.7506518 -0.088898063 0 26
0.1344768 1.7464055 -0.072537877 0 27
0.13460572 1.7480798 -0.056459691 0 28
0.13593474 1.7653393 -0.040719636 0 29
0.13485484 1.751315 -0.024234956 0 30
0.13422191 1.7430954 -0.0080399504 0 31
0.13508441 1.7542963 0.0080916146 0 32
0.1337495 1.7369603 0.024036314 0 33
0.13426469 1.743651 0.04021937 0 34
0.13534847 1.7577256 0.056771234 0 35
0.13423139 1.7432184 0.072405502 0 36
0.13393007 1.7393054 0.088321894 0 37
0.13478969 1.750469 0.10508598 0 38
0.13528746 1.7569335 0.12174898 0 39
0.13424775 1.743431 0.13698371 0 40
0.13438061 1.7451563 0.153329 0 41
0.13432048 1.7443755 0.16948901 0 42
0.13465911 1.7487731 0.18621485 0 43
0.13546014 1.7591758 0.2037501 0 44
0.13521412 1.7559808 0.21981265 0 45
0.1347919 1.7504976 0.2355452 0 46
0.13457207 1.7476429 0.25159371 0 47
0.13463819 1.7485014 0.26820153 0 48
0.13482197 1.750888 0.28512082 0 49
0.13442799 1.7457716 0.30084184 0 50
0.1354254 1.7587248 0.31980383 0 51
0.13506287 1.7540168 0.3356885 0 52
0.13431704 1.7443308 0.35054168 0 53
0.13446294 1.7462254 0.36770919 0 54
0.13532443 1.7574135 0.38702482 0 55
0.13516982 1.7554055 0.40359154 0 56
0.13442984 1.7457956 0.41836935 0 57
0.13466386 1.7488347 0.43618947 0 58
0.13494039 1.7524259 0.4542906 0 59
0.1348689 1.7514976 0.47132823 0 60
0.13618813 1.76863 0.49347219 0 61
0.13489252 1.7518044 0.50623351 0 62
0.13401984 1.7404711 0.52039361 0 63
0.11403892 1.7640967 -0.52699846 0 0
0.11370891 1.7589917 -0.50786805 0 1
0.11399569 1.763428 -0.4915925 0 2
0.11290073 1.7464899 -0.46957156 0 3
0.11339463 1.7541301 -0.45433658 0 4
0.11231396 1.737413 -0.43296349 0 5
0.11365119 1.7580987 -0.42095101 0 6
0.11320572 1.7512078 -0.40227598 0 7
0.11404978 1.7642648 -0.38819546 0 8
0.11340472 1.7542862 -0.36908504 0 9
0.11299809 1.7479959 -0.35097244 0 10
0.11412805 1.7654755 -0.33758745 0 11
0.11332051 1.7529835 -0.31848237 0 12
0.11361187 1.7574906 -0.3025977 0 13
0.11368004 1.7585452 -0.28611848 0 14
0.11296067 1.7474171 -0.26780188 0 15
0.11309116 1.7494357 -0.2516326 0 16
0.11401467 1.7637216 -0.23711802 0 17
0.11373646 1.7594179 -0.2200512 0 18
0.11309877 1.7495533 -0.20245925 0 19
0.11300949 1.7481722 -0.18598883 0 20
0.11349212 1.7556382 -0.17043486 0 21
0.11325461 1.7519641 -0.15379316 0 22
0.11339857 1.754191 -0.13770917 0 23
0.11385904 1.761314 -0.12194631 0 24
0.11395553 1.7628068 -0.10573454 0 25
0.11398222 1.7632196 -0.089458317 0 26
0.11386721 1.7614405 -0.073098682 0 27
0.11387257 1.7615235 -0.056844372 0 28
0.11353451 1.756294 -0.040475734 0 29
0.11306873 1.7490886 -0.02418308 0 30
0.11227352 1.7367873 -0.0080038821 0 31
0.11274686 1.7441095 0.0080376258 0 32
0.11307257 1.749148 0.024183901 0 33
0.11417501 1.7662019 0.040704072 0 34
0.11484483 1.7765635 0.057329718 0 35
0.11391856 1.7622348 0.073131643 0 36
0.11305977 1.7489499 0.088734336 0 37
0.11330555 1.7527521 0.10513145 0 38
0.11396671 1.7629796 0.12206163 0 39
0.11325134 1.7519134 0.13753037 0 40
0.11451191 1.7714137 0.1555005 0 41
0.1134676 1.7552589 0.17039803 0 42
0.1135153 1.7559967 0.18682128 0 43
0.11407284 1.7646216 0.20420295 0 44
0.1134747 1.7553687 0.21954477 0 45
0.11404525 1.7641948 0.23718165 0 46
0.11272657 1.7437958 0.25082138 0 47
0.11358482 1.7570722 0.2692816 0 48
0.11469066 1.7741786 0.28866208 0 49
0.11384716 1.7611305 0.30322438 0 50
0.11336659 1.7536963 0.31861189 0 51
0.11347097 1.755311 0.3356438 0 52
0.11344793 1.7549546 0.35236967 0 53
0.1131898 1.7509615 0.36838558 0 54
0.11345396 1.7550479 0.38616744 0 55
0.11224393 1.7363296 0.39885825 0 56
0.11312643 1.7499813 0.41900742 0 57
0.11365931 1.7582245 0.43814972 0 58
0.11377983 1.7600888 0.45587993 0 59
0.11346452 1.7552112 0.47191644 0 60
0.11336453 1.7536645 0.48887068 0 61
0.11404686 1.7642196 0.50937748 0 62
0.11378621 1.7601876 0.52583063 0 63
0.092410736 1.7667222 -0.52740341 0 0
0.091687486 1.7528951 -0.50574404 0 1
0.093112119 1.7801313 -0.4958922 0 2
0.09300109 1.7780087 -0.47770232 0 3
0.09262605 1.7708386 -0.45833459 0 4
0.092033356 1.7595074 -0.43815428 0 5
0.092188157 1.7624669 -0.42169359 0 6
0.092204235 1.7627742 -0.4046419 0 7
0.092783377 1.7738465 -0.39002323 0 8
0.092833415 1.7748032 -0.37313324 0 9
0.092380717 1.7661483 -0.35436234 0 10
0.092295736 1.7645236 -0.33716291 0 11
0.092520677 1.7688241 -0.32112935 0 12
0.092121199 1.7611868 -0.30301616 0 13
0.093008414 1.7781487 -0.28910005 0 14
0.09275043 1.7732166 -0.27156049 0 15
0.091039062 1.7404984 -0.25016716 0 16
0.092549987 1.7693844 -0.23770837 0 17
0.092060491 1.7600262 -0.21996906 0 18
0.093021847 1.7784054 -0.20565012 0 19
0.091875702 1.7564933 -0.1867398 0 20
0.091835648 1.7557275 -0.17032102 0 21
0.092621796 1.7707573 -0.15533116 0 22
0.091477148 1.7488737 -0.13719307 0 23
0.091459967 1.7485453 -0.12097524 0 24
0.092582621 1.7700083 -0.10609019 0 25
0.09209495 1.760685 -0.089265518 0 26
0.09211845 1.7611343 -0.073033445 0 27
0.09251292 1.7686757 -0.057034157 0 28
0.092426263 1.7670192 -0.040693637 0 29
0.093029208 1.7785462 -0.024572689 0 30
0.092435777 1.7672011 -0.0081381882 0 31
0.09173207 1.7537473 0.0080762319 0 32
0.092669643 1.771672 0.024477713 0 33
0.091955036 1.75801 0.040486164 0 34
0.092329435 1.765168 0.056921043 0 35
0.091931269 1.7575557 0.072885044 0 36
0.092698187 1.7722178 0.089850225 0 37
0.091848299 1.7559694 0.10524873 0 38
0.09252762 1.7689568 0.12238744 0 39
0.092658073 1.7714509 0.13896418 0 40
0.092152983 1.7617944 0.15454493 0 41
0.09229558 1.7645206 0.17117403 0 42
0.092075497 1.760313 0.1871459 0 43
0.091949984 1.7579135 0.20328048 0 44
0.092639491 1.7710956 0.22135252 0 45
0.092200384 1.7627007 0.23681045 0 46
0.092184521 1.7623974 0.25331476 0 47
0.092389606 1.7663182 0.27050406 0 48
0.092150882 1.7617544 0.28643459 0 49
0.091667607 1.752515 0.30152413 0 50
0.092138067 1.7615092 0.31980133 0 51
0.093109936 1.7800896 0.34013721 0 52
0.092123039 1.761222 0.35337389 0 53
0.092678517 1.7718416 0.37251064 0 54
0.09182813 1.7555839 0.38600776 0 55
0.091680817 1.7527676 0.40234488 0 56
0.092884213 1.7757742 0.42487755 0 57
0.092514679 1.7687094 0.44044578 0 58
0.091986172 1.7586054 0.45516834 0 59
0.092472076 1.767895 0.47498503 0 60
0.092835523 1.7748435 0.49441916 0 61
0.092155375 1.7618401 0.50832486 0 62
0.092441276 1.7673061 0.5275777 0 63
0.070276998 1.7576222 -0.52438927 0 0
0.070855029 1.7720788 -0.51098889 0 1
0.070625499 1.7663382 -0.49177077 0 2
0.07128083 1.782728 -0.47869858 0 3
0.070172817 1.7550166 -0.45398185 0 4
0.070665032 1.767327 -0.43985188 0 5
0.070439681 1.761691 -0.42126885 0 6
0.070405655 1.7608399 -0.40396863 0 7
0.07064689 1.7668732 -0.38826963 0 8
0.070416868 1.7611204 -0.37004659 0 9
0.070468217 1.7624046 -0.3534106 0 10
0.070676617 1.7676166 -0.33756235 0 11
0.071019709 1.7761973 -0.32228506 0 12
0.070964165 1.7748083 -0.30518657 0 13
0.071093328 1.7780385 -0.28891817 0 14
0.070673004 1.7675263 -0.2705355 0 15
0.070372812 1.7600186 -0.25282937 0 16
0.070376165 1.7601024 -0.23632726 0 17
0.070687003 1.7678765 -0.22082488 0 18
0.070810042 1.7709537 -0.20467225 0 19
0.070937224 1.7741344 -0.18850832 0 20
0.07070291 1.7682743 -0.17144087 0 21
0.070704579 1.768316 -0.15502901 0 22
0.070273332 1.7575307 -0.13779397 0 23
0.070815675 1.7710944 -0.12246583 0 24
0.070644736 1.7668194 -0.10583898 0 25
0.070778802 1.7701724 -0.089695618 0 26
0.071005709 1.7758472 -0.073601812 0 27
0.070773184 1.7700318 -0.057045508 0 28
0.070733935 1.7690502 -0.040717304 0 29
0.070634842 1.7665719 -0.024393406 0 30
0.07056988 1.7649472 -0.0081231985 0 31
0.070225969 1.756346 0.0080836117 0 32
0.070689335 1.7679348 0.024412226 0 33
0.070361525 1.7597362 0.040502928 0 34
0.070400223 1.760704 0.056744892 0 35
0.070432365 1.7615079 0.073007502 0 36
0.071069911 1.7774529 0.090064533 0 37
0.070904627 1.7733191 0.10622834 0 38
0.070516855 1.763621 0.12194906 0 39
0.069871299 1.7474757 0.13700564 0 40
0.070396684 1.7606155 0.15435392 0 41
0.070689306 1.7679341 0.17140788 0 42
0.070753798 1.7695469 0.18802087 0 43
0.070125893 1.7538431 0.20269474 0 44
0.071090654 1.7779717 0.22208586 0 45
0.070262618 1.7572626 0.23594597 0 46
0.070368037 1.7598991 0.25281221 0 47
0.070574097 1.7650527 0.27015689 0 48
0.070633486 1.7665379 0.28704941 0 49
0.070889674 1.7729452 0.30486619 0 50
0.070639856 1.7666973 0.32056129 0 51
0.070449218 1.7619295 0.33647627 0 52
0.071128733 1.778924 0.35672319 0 53
0.071122408 1.7787659 0.37375423 0 54
0.07069613 1.7681048 0.38854027 0 55
0.071062341 1.7772636 0.40773648 0 56
0.070724078 1.7688037 0.42296973 0 57
0.070388094 1.7604008 0.43812808 0 58
0.070065118 1.7523232 0.4532851 0 59
0.07048206 1.7627509 0.47333434 0 60
0.070913278 1.7735356 0.49377459 0 61
0.070814274 1.7710594 0.51069492 0 62
0.070461869 1.7622459 0.52576876 0 63
0.049273971 1.7805116 -0.53099746 0 0
0.049117249 1.7748483 -0.51157469 0 1
0.049124867 1.7751236 -0.49401119 0 2
0.048921853 1.7677877 -0.47448942 0 3
0.048821606 1.7641653 -0.45615861 0 4
0.048781697 1.7627232 -0.43852365 0 5
0.048948839 1.7687628 -0.42278403 0 6
0.049249906 1.7796419 -0.40811235 0 7
0.048865955 1.7657679 -0.38786536 0 8
0.049197514 1.7777487 -0.37338516 0 9
0.049088184 1.7737981 -0.3555474 0 10
0.048717044 1.7603869 -0.33604187 0 11
0.048799511 1.7633669 -0.31982395 0 12
0.049344689 1.7830669 -0.30647916 0 13
0.048864521 1.7657161 -0.28679654 0 14
0.049023379 1.7714564 -0.27102429 0 15
0.048850711 1.7652171 -0.25347069 0 16
0.048939742 1.7684342 -0.23734722 0 17
0.049319573 1.7821593 -0.22251637 0 18
0.048986726 1.7701318 -0.2044922 0 19
0.049250741 1.7796721 -0.18901809 0 20
0.049106624 1.7744644 -0.17196947 0 21
0.049099132 1.7741938 -0.15547964 0 22
0.048805561 1.7635856 -0.13821119 0 23
0.049427412 1.7860562 -0.12344902 0 24
0.049387328 1.7846076 -0.10686011 0 25
0.048918027 1.7676494 -0.089530535 0 26
0.049280599 1.780751 -0.07377436 0 27
0.049458053 1.7871633 -0.05757368 0 28
0.049023554 1.7714627 -0.040755875 0 29
0.048869781 1.7659061 -0.024374072 0 30
0.049326275 1.7824016 -0.0082001211 0 31
0.049329944 1.7825341 0.0082007311 0 32
0.048927434 1.7679894 0.024402825 0 33
0.04934052 1.7829162 0.041019384 0 34
0.049256887 1.7798941 0.057339504 0 35
0.048633184 1.7573568 0.072805166 0 36
0.049311988 1.7818853 0.090251565 0 37
0.04891248 1.7674491 0.10583268 0 38
0.048664927 1.7585038 0.12154465 0 39
0.04872695 1.7607449 0.13798857 0 40
0.049233787 1.7790594 0.15590604 0 41
0.049327523 1.7824465 0.17274305 0 42
0.049076442 1.7733737 0.18834913 0 43
0.049461287 1.7872802 0.20647323 0 44
0.049070425 1.7731564 0.22139227 0 45
0.04897486 1.7697031 0.23751754 0 46
0.049123805 1.7750852 0.25488767 0 47
0.048997167 1.7705092 0.27087939 0 48
0.048874822 1.7660884 0.28685701 0 49
0.049243413 1.7794074 0.30585015 0 50
0.048818789 1.7640636 0.31995031 0 51
0.048763398 1.762062 0.33636162 0 52
0.048818164 1.7640409 0.35359165 0 53
0.048979633 1.7698755 0.37173155 0 54
0.049162399 1.7764798 0.39021835 0 55
0.048819054 1.7640731 0.40454206 0 56
0.049252082 1.7797205 0.42540324 0 57
0.048945259 1.7686336 0.43999404 0 58
0.049344543 1.7830616 0.46104461 0 59
0.048958469 1.7691109 0.47484455 0 60
0.049174864 1.7769303 0.49451399 0 61
0.048887409 1.7665431 0.50918084 0 62
0.049122807 1.7750492 0.5293684 0 63
0.02727106 1.7740331 -0.52892536 0 0
0.02730101 1.7759813 -0.51176578 0 1
0.027421506 1.7838198 -0.49629995 0 2
0.027295297 1.7756097 -0.47646281 0 3
0.027326031 1.777609 -0.4595131 0 4
0.027190821 1.7688134 -0.43992233 0 5
0.02729913 1.7758591 -0.42436793 0 6
0.027402351 1.7825737 -0.40867651 0 7
0.02749972 1.7889079 -0.39284426 0 8
0.027473867 1.787226 -0.37527639 0 9
0.027212409 1.7702178 -0.35473585 0 10
0.027390352 1.7817932 -0.34003812 0 11
0.027266586 1.7737421 -0.32162058 0 12
0.027130587 1.764895 -0.30327547 0 13
0.027448926 1.7856035 -0.28995004 0 14
0.027463313 1.7865396 -0.27325961 0 15
0.027360454 1.7798482 -0.25550398 0 16
0.027490439 1.7883041 -0.23995051 0 17
0.027386993 1.7815747 -0.22238451 0 18
0.027424373 1.7840064 -0.20604049 0 19
0.027397849 1.7822809 -0.18924506 0 20
0.027292427 1.7754229 -0.17201684 0 21
0.027140353 1.7655302 -0.15467949 0 22
0.027413854 1.7833222 -0.13972095 0 23
0.027261181 1.7733904 -0.12254116 0 24
0.027095446 1.762609 -0.10551493 0 25
0.027365984 1.7802081 -0.090142764 0 26
0.027310433 1.7765944 -0.073582686 0 27
0.027270742 1.7740124 -0.0571349 0 28
0.027152667 1.7663313 -0.040627066 0 29
0.027307825 1.7764246 -0.024512768 0 30
0.027222373 1.7708658 -0.0081448937 0 31
0.027387884 1.7816327 0.0081944149 0 32
0.027290897 1.7753235 0.024497572 0 33
0.027551057 1.7922474 0.041223157 0 34
0.027239183 1.7719594 0.05706878 0 35
0.027373357 1.7806877 0.073752217 0 36
0.027358884 1.7797462 0.090119377 0 37
0.027324095 1.7774831 0.10640534 0 38
0.027095452 1.7626094 0.12179619 0 39
0.027391024 1.781837 0.13960458 0 40
0.027283549 1.7748456 0.1554956 0 41
0.027081011 1.76167 0.17068435 0 42
0.027151048 1.7662261 0.18754034 0 43
0.027054103 1.7599196 0.20325865 0 44
0.027583828 1.7943792 0.22398283 0 45
0.027279433 1.7745777 0.23810874 0 46
0.027488859 1.7882012 0.25670308 0 47
0.02734644 1.7789366 0.27209672 0 48
0.027478354 1.7875179 0.29026088 0 49
0.027344096 1.7787842 0.30566213 0 50
0.027205385 1.7697607 0.32089868 0 51
0.027290296 1.7752844 0.33879599 0 52
0.027299363 1.7758743 0.35586935 0 53
0.027279383 1.7745745 0.37261987 0 54
0.02713502 1.7651834 0.3876344 0 55
0.027380913 1.7811792 0.40835679 0 56
0.027439516 1.7849915 0.42655024 0 57
0.027262058 1.7734475 0.44107488 0 58
0.027170928 1.7675194 0.45690492 0 59
0.027304124 1.776184 0.47661689 0 60
0.027470777 1.787025 0.49719173 0 61
0.027575331 1.7938265 0.51690805 0 62
0.027309554 1.7765371 0.52967197 0 63
0.0054692198 1.7784349 -0.53017765 0 0
0.0054659005 1.7773556 -0.51210374 0 1
0.0054978821 1.787755 -0.49733844 0 2
0.005490406 1.7853241 -0.4790152 0 3
0.0054683927 1.7781659 -0.45960495 0 4
0.0054696705 1.7785816 -0.4423016 0 5
0.005537671 1.8006934 -0.43025362 0 6
0.0054859244 1.7838669 -0.40892661 0 7
0.0055255755 1.7967603 -0.39452392 0 8
0.0054849535 1.7835511 -0.37446228 0 9
0.005512408 1.7924786 -0.35915598 0 10
0.0055001145 1.788481 -0.34127575 0 11
0.0055106501 1.791907 -0.32487744 0 12
0.005486764 1.7841399 -0.30654767 0 13
0.0054937666 1.7864169 -0.29004923 0 14
0.0054815877 1.7824566 -0.2726042 0 15
0.0054663634 1.7775061 -0.25513881 0 16
0.0054811887 1.7823269 -0.23912138 0 17
0.0054860986 1.7839235 -0.22265244 0 18
0.005470322 1.7787933 -0.20541513 0 19
0.0054540951 1.7735169 -0.18829313 0 20
0.0054843645 1.7833596 -0.17276622 0 21
0.0055020484 1.7891098 -0.15672754 0 22
0.0055286665 1.7977654 -0.14083658 0 23
0.0054810327 1.7822762 -0.12314119 0 24
0.0054619224 1.776062 -0.10630821 0 25
0.0055080573 1.7910638 -0.090682171 0 26
0.0054980428 1.7878073 -0.074038699 0 27
0.0054906243 1.7853951 -0.057494979 0 28
0.0054413308 1.7693663 -0.040692259 0 29
0.0054881885 1.784603 -0.024622826 0 30
0.0054139332 1.7604574 -0.0080961036 0 31
0.0054955035 1.7869817 0.0082180854 0 32
0.0054455139 1.7707264 0.024431366 0 33
0.0055076354 1.7909266 0.041188106 0 34
0.0055021546 1.7891444 0.057615716 0 35
0.0054891272 1.7849083 0.073918641 0 36
0.0054438706 1.770192 0.089625426 0 37
0.0055070571 1.7907386 0.10718669 0 38
0.0054471157 1.7712474 0.1223792 0 39
0.0054956828 1.78704 0.13999636 0 40
0.0054774219 1.7811022 0.15602605 0 41
0.0054776436 1.7811742 0.17255449 0 42
0.0054874229 1.7843541 0.18944372 0 43
0.0054541058 1.7735204 0.20480621 0 44
0.0054520364 1.7728474 0.22127002 0 45
0.0054676426 1.777922 0.23853043 0 46
0.0054832888 1.7830098 0.25592881 0 47
0.0054923953 1.7859709 0.27314165 0 48
0.0054906663 1.7854087 0.28988552 0 49
0.0055224295 1.7957373 0.30854031 0 50
0.005507946 1.7910275 0.324718 0 51
0.0054643033 1.7768362 0.33905369 0 52
0.0054495307 1.7720326 0.35505924 0 53
0.0054743611 1.7801067 0.37373912 0 54
0.0054825684 1.7827756 0.39145324 0 55
0.0055057774 1.7903225 0.41040647 0 56
0.0054455176 1.7707276 0.42309371 0 57
0.0054653324 1.7771708 0.44195077 0 58
0.0055266446 1.7971078 0.46450087 0 59
0.0054385043 1.7684472 0.47448701 0 60
0.0054712007 1.7790791 0.49492484 0 61
0.0054783649 1.7814087 0.51327151 0 62
0.0054886453 1.7847517 0.53206074 0 63
-0.016513303 1.7908709 -0.53390515 0 0
-0.016507931 1.7902883 -0.51584947 0 1
-0.016446192 1.7835927 -0.49619922 0 2
-0.016524941 1.792133 -0.48086026 0 3
-0.016527915 1.7924556 -0.46331593 0 4
-0.016570827 1.7971094 -0.44692603 0 5
-0.016461052 1.7852043 -0.42656884 0 6
-0.016463283 1.7854462 -0.40930408 0 7
-0.016606422 1.8009696 -0.39546314 0 8
-0.016497992 1.7892104 -0.37566465 0 9
-0.016554965 1.7953892 -0.35975274 0 10
-0.016501727 1.7896153 -0.34150508 0 11
-0.016533341 1.7930441 -0.32509589 0 12
-0.016402444 1.7788482 -0.30565003 0 13
-0.016416788 1.7804037 -0.28908381 0 14
-0.016529756 1.7926552 -0.2741743 0 15
-0.016407624 1.7794099 -0.25542173 0 16
-0.016674137 1.8083134 -0.24261695 0 17
-0.01659652 1.7998956 -0.22465442 0 18
-0.016463518 1.7854717 -0.20619413 0 19
-0.016393419 1.7778695 -0.18876238 0 20
-0.016559964 1.7959312 -0.1739907 0 21
-0.016446576 1.7836343 -0.15625377 0 22
-0.016604327 1.8007424 -0.14107513 0 23
-0.016574426 1.7974997 -0.12419771 0 24
-0.016541608 1.7939404 -0.10738239 0 25
-0.016337451 1.7717997 -0.089710206 0 26
-0.016477276 1.7869637 -0.074006557 0 27
-0.016459774 1.7850657 -0.057486542 0 28
-0.016560936 1.7960367 -0.041307189 0 29
-0.016534723 1.7931938 -0.024742292 0 30
-0.016604027 1.80071 -0.0082815327 0 31
-0.016441887 1.7831258 0.0082006622 0 32
-0.016490895 1.7884406 0.024676709 0 33
-0.016601542 1.8004403 0.041408468 0 34
-0.016410399 1.7797109 0.057314094 0 35
-0.016531862 1.7928835 0.074251726 0 36
-0.016607484 1.8010849 0.091192983 0 37
-0.016366478 1.7749476 0.10624552 0 38
-0.016474579 1.7866713 0.12344953 0 39
-0.016463848 1.7855074 0.13988158 0 40
-0.016491055 1.7884582 0.15667637 0 41
-0.016358688 1.7741029 0.17187595 0 42
-0.016504297 1.7898942 0.19003908 0 43
-0.016471619 1.7863501 0.20629558 0 44
-0.016472938 1.7864932 0.2229816 0 45
-0.016495984 1.7889926 0.24002475 0 46
-0.016549885 1.7948382 0.25763637 0 47
-0.016434347 1.7823081 0.27259177 0 48
-0.016514258 1.7909745 0.29080018 0 49
-0.016564898 1.7964664 0.30867726 0 50
-0.01655169 1.7950339 0.32545665 0 51
-0.016456192 1.7846771 0.34056273 0 52
-0.016531518 1.7928462 0.35924321 0 53
-0.016535584 1.7932873 0.37652063 0 54
-0.016470207 1.7861971 0.39221931 0 55
-0.016435666 1.7824512 0.40861747 0 56
-0.016426949 1.7815057 0.42568508 0 57
-0.016515134 1.7910695 0.44542396 0 58
-0.016523482 1.7919749 0.46319166 0 59
-0.01645197 1.7842191 0.47873685 0 60
-0.016555645 1.7954627 0.49950153 0 61
-0.016564526 1.7964259 0.51761794 0 62
-0.01655273 1.7951467 0.53517991 0 63
-0.038748518 1.8006039 -0.53690827 0 0
-0.038760494 1.8011606 -0.51908028 0 1
-0.038693286 1.7980374 -0.50031233 0 2
-0.039048888 1.8145618 -0.48697031 0 3
-0.038693048 1.7980263 -0.46484369 0 4
-0.038621515 1.7947023 -0.44641176 0 5
-0.038596436 1.7935369 -0.4286409 0 6
-0.038764652 1.8013537 -0.41302884 0 7
-0.038904 1.8078291 -0.39704439 0 8
-0.038739324 1.8001766 -0.37803859 0 9
-0.038671333 1.7970173 -0.36014706 0 10
-0.038539618 1.7908965 -0.34181416 0 11
-0.038603142 1.7938484 -0.3253032 0 12
-0.038797207 1.8028666 -0.30983552 0 13
-0.0385562 1.7916671 -0.29096761 0 14
-0.038894936 1.8074079 -0.27648288 0 15
-0.038628336 1.7950191 -0.25771102 0 16
-0.038867656 1.8061402 -0.24237119 0 17
-0.038684364 1.7976228 -0.22441314 0 18
-0.038657568 1.7963777 -0.20749281 0 19
-0.039022569 1.8133389 -0.19256467 0 20
-0.038582228 1.7928766 -0.17372759 0 21
-0.038528066 1.7903597 -0.1568726 0 22
-0.038654458 1.7962331 -0.14074846 0 23
-0.038356349 1.7823803 -0.12317632 0 24
-0.038702432 1.7984624 -0.10767343 0 25
-0.03853815 1.7908285 -0.090690814 0 26
-0.038660966 1.7965355 -0.074417032 0 27
-0.038672969 1.7970933 -0.05788482 0 28
-0.03866607 1.7967726 -0.041331924 0 29
-0.038445827 1.7865382 -0.024655117 0 30
-0.038339742 1.7816086 -0.0081952326 0 31
-0.038532384 1.7905604 0.0082364101 0 32
-0.038756158 1.800959 0.024854133 0 33
-0.038650487 1.7960485 0.041315269 0 34
-0.038380425 1.7834991 0.057446945 0 35
-0.038723242 1.7994294 0.074536912 0 36
-0.038837548 1.8047411 0.091395378 0 37
-0.038754176 1.8008668 0.10781738 0 38
-0.038644448 1.7957679 0.1241015 0 39
-0.038475409 1.7879128 0.14009652 0 40
-0.038523439 1.7901448 0.15685377 0 41
-0.038570769 1.7923442 0.173676 0 42
-0.038707677 1.7987061 0.19101076 0 43
-0.03885806 1.8056943 0.20856895 0 44
-0.038725097 1.7995155 0.22464943 0 45
-0.038381301 1.7835398 0.23933837 0 46
-0.038838394 1.8047805 0.25911248 0 47
-0.038529668 1.7904342 0.27388638 0 48
-0.038366109 1.7828338 0.28953311 0 49
-0.038494244 1.7887881 0.30741602 0 50
-0.039096151 1.816758 0.32945773 0 51
-0.038573321 1.7924628 0.34211311 0 52
-0.038588565 1.7931712 0.35937622 0 53
-0.038430061 1.7858056 0.37502065 0 54
-0.038922548 1.808691 0.39723369 0 55
-0.038891561 1.807251 0.41438103 0 56
-0.038448699 1.7866716 0.42700014 0 57
-0.038810771 1.8034967 0.44859928 0 58
-0.038471512 1.7877319 0.46218225 0 59
-0.038990818 1.8118634 0.48624614 0 60
-0.038356837 1.7824029 0.49596196 0 61
-0.038410477 1.7848955 0.51439279 0 62
-0.03848986 1.7885845 0.5333243 0 63
-0.061079148 1.8057314 -0.53862047 0 0
-0.060878579 1.7998019 -0.51886523 0 1
-0.06095783 1.8021449 -0.5016259 0 2
-0.061039429 1.8045573 -0.48445022 0 3
-0.060386296 1.7852482 -0.46169722 0 4
-0.060500901 1.7886363 -0.44505432 0 5
-0.060402855 1.7857378 -0.42692217 0 6
-0.06069782 1.794458 -0.41158777 0 7
-0.061138783 1.8074945 -0.39710599 0 8
-0.060684733 1.7940711 -0.37688461 0 9
-0.060674049 1.7937552 -0.35961562 0 10
-0.060841288 1.7986994 -0.34342027 0 11
-0.061106198 1.8065312 -0.32771462 0 12
-0.060804781 1.7976201 -0.309039 0 13
-0.060883451 1.799946 -0.2924116 0 14
-0.060380224 1.7850686 -0.27315852 0 15
-0.061302599 1.8123375 -0.26028597 0 16
-0.060603794 1.7916782 -0.24051231 0 17
-0.061060809 1.8051893 -0.22543442 0 18
-0.060848575 1.7989148 -0.20785658 0 19
-0.060979895 1.8027972 -0.19151036 0 20
-0.061211191 1.8096352 -0.17541115 0 21
-0.061121725 1.8069903 -0.15838365 0 22
-0.060618926 1.7921256 -0.14047439 0 23
-0.060926877 1.8012297 -0.12452132 0 24
-0.06094889 1.8018805 -0.10791478 0 25
-0.061071292 1.8054993 -0.091464885 0 26
-0.060580894 1.7910012 -0.074213035 0 27
-0.060948122 1.8018578 -0.058058038 0 28
-0.061239302 1.8104663 -0.041661099 0 29
-0.060648143 1.7929893 -0.024752567 0 30
-0.060559988 1.7903831 -0.0082383975 0 31
-0.061265349 1.8112363 0.0083343536 0 32
-0.060961399 1.8022504 0.024880419 0 33
-0.060556278 1.7902734 0.041196436 0 34
-0.060807392 1.7976973 0.05792398 0 35
-0.061201073 1.8093361 0.074972771 0 36
-0.060609441 1.7918452 0.090773188 0 37
-0.061005216 1.8035458 0.10801451 0 38
-0.060631815 1.7925066 0.12391828 0 39
-0.060796425 1.7973731 0.14088571 0 40
-0.060888983 1.8001094 0.15778054 0 41
-0.060587514 1.7911969 0.17362389 0 42
-0.060919397 1.8010086 0.19132036 0 43
-0.061086461 1.8059477 0.2086692 0 44
-0.061052222 1.8049355 0.22540273 0 45
-0.060840908 1.7986882 0.24145332 0 46
-0.06068673 1.7941302 0.25767106 0 47
-0.060425054 1.786394 0.27336133 0 48
-0.060980331 1.8028101 0.29287687 0 49
-0.061011858 1.8037421 0.31009147 0 50
-0.060940508 1.8016328 0.32682604 0 51
-0.060817223 1.7979879 0.34328443 0 52
-0.060737826 1.7956407 0.35999364 0 53
-0.060534313 1.7896241 0.37595043 0 54
-0.060831539 1.7984113 0.3951104 0 55
-0.060817946 1.7980093 0.41240233 0 56
-0.060877983 1.7997842 0.43028033 0 57
-0.060842782 1.7987436 0.44756925 0 58
-0.060538989 1.7897624 0.46286467 0 59
-0.060912266 1.8007978 0.48344097 0 60
-0.06091946 1.8010105 0.50131017 0 61
-0.061541688 1.8194058 0.52451682 0 62
-0.060969692 1.8024956 0.53765523 0 63
-0.083733447 1.814737 -0.54157281 0 0
-0.083665386 1.8132619 -0.52300268 0 1
-0.083054088 1.8000133 -0.501279 0 2
-0.083332166 1.8060402 -0.48508671 0 3
-0.083191559 1.8029927 -0.46651557 0 4
-0.083404571 1.8076093 -0.44999641 0 5
-0.083470196 1.8090315 -0.43270376 0 6
-0.082855031 1.7956991 -0.41207498 0 7
-0.083717883 1.8143996 -0.39881906 0 8
-0.083487861 1.8094144 -0.38029474 0 9
-0.083449759 1.8085886 -0.36276776 0 10
-0.082864068 1.7958951 -0.34305346 0 11
-0.083575845 1.8113214 -0.32874516 0 12
-0.082828127 1.7951162 -0.30876029 0 13
-0.083303675 1.8054227 -0.29344553 0 14
-0.083319999 1.8057764 -0.27646318 0 15
-0.083434433 1.8082565 -0.25982758 0 16
-0.083331101 1.806017 -0.24255635 0 17
-0.083032385 1.799543 -0.22483982 0 18
-0.083241448 1.804074 -0.20855521 0 19
-0.082995437 1.7987423 -0.19117357 0 20
-0.082892351 1.7965081 -0.17422435 0 21
-0.083576754 1.8113409 -0.15884307 0 22
-0.083390377 1.8073016 -0.14173362 0 23
-0.083210379 1.8034006 -0.1247327 0 24
-0.083848603 1.8172326 -0.10888773 0 25
-0.083206698 1.8033209 -0.091399454 0 26
-0.083653085 1.8129953 -0.075161338 0 27
-0.083647624 1.8128769 -0.05844181 0 28
-0.082958318 1.7979378 -0.041393146 0 29
-0.083032757 1.799551 -0.024855368 0 30
-0.083028711 1.7994633 -0.0082842521 0 31
-0.083667539 1.8133085 0.0083479919 0 32
-0.083937161 1.819152 0.025126098 0 33
-0.083802044 1.8162236 0.041814134 0 34
-0.08379937 1.8161657 0.058547828 0 35
-0.083500125 1.8096801 0.075023904 0 36
-0.083345108 1.8063205 0.09155149 0 37
-0.083072133 1.8004044 0.10787939 0 38
-0.082940631 1.7975544 0.12432835 0 39
-0.082683586 1.7919835 0.14053233 0 40
-0.083001643 1.7988766 0.15775003 0 41
-0.083070494 1.8003689 0.17459877 0 42
-0.083636753 1.8126414 0.19265079 0 43
-0.083455436 1.8087116 0.20909132 0 44
-0.083799809 1.8161751 0.22691788 0 45
-0.083637029 1.8126473 0.24344683 0 46
-0.083440088 1.8083791 0.2598452 0 47
-0.082474075 1.7874428 0.27365634 0 48
-0.08273875 1.793179 0.29145551 0 49
-0.082988165 1.7985847 0.30935687 0 50
-0.083717808 1.8143979 0.32930356 0 51
-0.083742589 1.814935 0.34669048 0 52
-0.083384454 1.8071734 0.36248389 0 53
-0.082962781 1.7980344 0.37790295 0 54
-0.083095916 1.8009199 0.39585611 0 55
-0.082743607 1.7932844 0.41152084 0 56
-0.082435913 1.7866158 0.42734215 0 57
-0.083167844 1.8024787 0.44871917 0 58
-0.083576173 1.8113284 0.46867236 0 59
-0.083463989 1.808897 0.48585403 0 60
-0.082581989 1.7897817 0.4984296 0 61
-0.083157033 1.8022444 0.51982486 0 62
-0.083611757 1.8120997 0.54078579 0 63
-0.10591183 1.8113732 -0.54091674 0 0
-0.10530248 1.8009516 -0.51978618 0 1
-0.10631467 1.8182628 -0.50668699 0 2
-0.10635205 1.8189021 -0.48885563 0 3
-0.10594296 1.8119055 -0.46912333 0 4
-0.10573056 1.8082731 -0.45045128 0 5
-0.10637638 1.8193183 -0.43544424 0 6
-0.10574666 1.8085485 -0.41529062 0 7
-0.10592066 1.8115242 -0.39844319 0 8
-0.10512897 1.7979844 -0.37813553 0 9
-0.10596616 1.8123024 -0.36374652 0 10
-0.10598487 1.8126223 -0.34647146 0 11
-0.10583243 1.8100152 -0.32871944 0 12
-0.10546678 1.8037616 -0.31044689 0 13
-0.10567296 1.8072879 -0.29393768 0 14
-0.10605825 1.8138775 -0.2778821 0 15
-0.10667527 1.82443 -0.26232019 0 16
-0.10586254 1.8105301 -0.24331892 0 17
-0.10591771 1.8114738 -0.2264761 0 18
-0.10596247 1.8122393 -0.20963392 0 19
-0.10707906 1.8313359 -0.1947629 0 20
-0.10483649 1.792982 -0.17399424 0 21
-0.10639925 1.8197094 -0.15967959 0 22
-0.10550805 1.8044676 -0.1416024 0 23
-0.10545387 1.8035409 -0.12482266 0 24
-0.10671453 1.8251015 -0.10942959 0 25
-0.10627938 1.8176593 -0.092185453 0 26
-0.10630256 1.8180557 -0.07541962 0 27
-0.10610085 1.8146058 -0.058535177 0 28
-0.10593103 1.8117015 -0.041736856 0 29
-0.1067344 1.8254412 -0.025229184 0 30
-0.10580925 1.8096187 -0.0083363643 0 31
-0.10572286 1.8081412 0.0083295582 0 32
-0.10611342 1.8148209 0.025082402 0 33
-0.10596123 1.8122181 0.041748758 0 34
-0.10623271 1.816861 0.058607925 0 35
-0.10568948 1.8075705 0.074984655 0 36
-0.10617592 1.8158898 0.09209571 0 37
-0.10531469 1.8011605 0.10799413 0 38
-0.10633346 1.8185841 0.12586379 0 39
-0.10582002 1.809803 0.14202109 0 40
-0.10661073 1.8233262 0.15999697 0 41
-0.10584118 1.8101649 0.17566171 0 42
-0.10596532 1.812288 0.19273715 0 43
-0.10524204 1.7999181 0.20820864 0 44
-0.1059529 1.8120755 0.22655132 0 45
-0.10620115 1.8163213 0.24409719 0 46
-0.1061278 1.8150668 0.26097393 0 47
-0.10536307 1.801988 0.27606067 0 48
-0.105801 1.8094777 0.29429382 0 49
-0.10526444 1.8003011 0.30985132 0 50
-0.10627308 1.8175515 0.33008811 0 51
-0.10509447 1.7973942 0.34356067 0 52
-0.10586615 1.8105919 0.36340323 0 53
-0.10482284 1.7927485 0.37703437 0 54
-0.10618947 1.8161216 0.39945439 0 55
-0.10632522 1.8184433 0.41756272 0 56
-0.10582655 1.8099146 0.4331935 0 57
-0.10668393 1.8245782 0.45451295 0 58
-0.10597243 1.8124096 0.46925384 0 59
-0.10572294 1.8081427 0.48596388 0 60
-0.10578677 1.8092344 0.50417101 0 61
-0.1063021 1.8180478 0.52472043 0 62
-0.10606971 1.8140733 0.54172307 0 63
-0.12900631 1.8216637 -0.54442227 0 0
-0.12917729 1.824078 -0.52687943 0 1
-0.12787798 1.8057309 -0.50359488 0 2
-0.12743746 1.7995105 -0.48402843 0 3
-0.12981011 1.8330139 -0.4749659 0 4
-0.12915345 1.8237413 -0.45466575 0 5
-0.12918925 1.8242469 -0.43697107 0 6
-0.12865292 1.8166736 -0.41748807 0 7
-0.12853387 1.8149925 -0.39952347 0 8
-0.12926489 1.8253151 -0.38418871 0 9
-0.12820546 1.8103552 -0.36364463 0 10
-0.12913448 1.8234736 -0.34882274 0 11
-0.12737654 1.7986501 -0.32691517 0 12
-0.12811826 1.8091238 -0.31161737 0 13
-0.12795262 1.8067849 -0.29408953 0 14
-0.12917726 1.8240775 -0.27966693 0 15
-0.12930767 1.8259193 -0.26274306 0 16
-0.12851793 1.8147674 -0.24408229 0 17
-0.12912875 1.8233927 -0.22814751 0 18
-0.12774019 1.8037852 -0.20882188 0 19
-0.12840243 1.8131365 -0.19298071 0 20
-0.12811959 1.8091425 -0.1757021 0 21
-0.12882845 1.8191522 -0.15975763 0 22
-0.12763225 1.802261 -0.1415417 0 23
-0.12831065 1.8118405 -0.12549677 0 24
-0.12794286 1.8066471 -0.10840923 0 25
-0.12795424 1.8068079 -0.091707967 0 26
-0.12927103 1.8254019 -0.075784571 0 27
-0.12935057 1.8265249 -0.05896651 0 28
-0.12847315 1.8141351 -0.041826151 0 29
-0.12840447 1.8131654 -0.025079448 0 30
-0.12836139 1.812557 -0.0083565395 0 31
-0.12759973 1.8018018 0.0083069541 0 32
-0.12804835 1.8081367 0.025009891 0 33
-0.12823528 1.8107762 0.04174871 0 34
-0.12843464 1.8135914 0.058548968 0 35
-0.12881345 1.8189403 0.075516313 0 36
-0.12889189 1.820048 0.092379995 0 37
-0.12915558 1.8237715 0.10943679 0 38
-0.12833746 1.8122189 0.125523 0 39
-0.12894599 1.820812 0.14299862 0 40
-0.12837057 1.8126864 0.15918981 0 41
-0.127986 1.8072561 0.17551889 0 42
-0.12864655 1.8165836 0.1933476 0 43
-0.12785694 1.8054339 0.20901275 0 44
-0.1285948 1.815853 0.2272041 0 45
-0.12887214 1.8197693 0.24475503 0 46
-0.12934679 1.8264714 0.26282254 0 47
-0.12876934 1.8183174 0.2787838 0 48
-0.12914741 1.8236562 0.29683566 0 49
-0.12866324 1.8168193 0.31294289 0 50
-0.12834837 1.8123732 0.32940939 0 51
-0.12920626 1.8244871 0.34901664 0 52
-0.12900656 1.8216673 0.36591688 0 53
-0.1288093 1.8188819 0.38283467 0 54
-0.12831551 1.8119091 0.39884475 0 55
-0.12900992 1.8217146 0.41864654 0 56
-0.12827811 1.811381 0.43388921 0 57
-0.12910844 1.8231061 0.45450735 0 58
-0.12968297 1.8312186 0.47450072 0 59
-0.1280954 1.8088011 0.48652735 0 60
-0.12815018 1.8095746 0.50466681 0 61
-0.12903726 1.8221009 0.52630836 0 62
-0.12853777 1.8150476 0.542445 0 63
-0.15184531 1.8253542 -0.54604197 0 0
-0.15102749 1.8155231 -0.52490515 0 1
-0.15119743 1.8175659 -0.50737566 0 2
-0.15018678 1.8054169 -0.4860771 0 3
-0.15088767 1.8138424 -0.47044343 0 4
-0.1510303 1.8155569 -0.45305407 0 5
-0.15103573 1.8156221 -0.43531707 0 6
-0.15149876 1.8211883 -0.41892204 0 7
-0.15147835 1.820943 -0.40121299 0 8
-0.15205993 1.8279341 -0.38510442 0 9
-0.1512565 1.8182762 -0.36558166 0 10
-0.15196781 1.8268268 -0.34979525 0 11
-0.15047209 1.8088466 -0.32907984 0 12
-0.15218422 1.8294284 -0.3154133 0 13
-0.15218216 1.8294036 -0.29805323 0 14
-0.1504833 1.8089813 -0.2776151 0 15
-0.15000664 1.8032513 -0.25972703 0 16
-0.15190281 1.8260455 -0.24583182 0 17
-0.1516044 1.8224583 -0.22824657 0 18
-0.15092677 1.8143125 -0.21023956 0 19
-0.15182975 1.8251672 -0.19444521 0 20
-0.15194224 1.8265195 -0.17755777 0 21
-0.15116997 1.8172359 -0.15974051 0 22
-0.15042484 1.8082786 -0.14214882 0 23
-0.15161581 1.8225955 -0.1263613 0 24
-0.15106055 1.8159207 -0.10906892 0 25
-0.15140648 1.8200791 -0.092469081 0 26
-0.15157631 1.8221205 -0.075720005 0 27
-0.15180323 1.8248484 -0.05896819 0 28
-0.15133005 1.8191603 -0.041981742 0 29
-0.15176095 1.8243401 -0.025257917 0 30
-0.15165043 1.8230116 -0.0084127001 0 31
-0.15043609 1.8084137 0.0083453348 0 32
-0.1520111 1.8273473 0.025299551 0 33
-0.15251888 1.8334514 0.042311545 0 34
-0.15089077 1.8138796 0.058613744 0 35
-0.15174253 1.8241187 0.075803041 0 36
-0.15214233 1.8289248 0.092918485 0 37
-0.15143357 1.8204048 0.10933824 0 38
-0.15208788 1.8282702 0.12675473 0 39
-0.15217213 1.8292831 0.14379998 0 40
-0.15268987 1.8355069 0.16134657 0 41
-0.15047316 1.8088593 0.175841 0 42
-0.15196621 1.8268077 0.19461998 0 43
-0.15072955 1.8119416 0.20996484 0 44
-0.15203074 1.8275833 0.22888844 0 45
-0.15261729 1.8346343 0.24698809 0 46
-0.15136945 1.8196338 0.26208663 0 47
-0.15089983 1.8139886 0.27838355 0 48
-0.15122472 1.8178941 0.29617804 0 49
-0.15222283 1.8298925 0.31549332 0 50
-0.15161811 1.8226231 0.33158618 0 51
-0.1516773 1.8233346 0.34912655 0 52
-0.15235108 1.8314341 0.36822721 0 53
-0.15080975 1.8129057 0.38193828 0 54
-0.1535826 1.8462385 0.40678641 0 55
-0.15171728 1.8238151 0.41952628 0 56
-0.15152439 1.8214965 0.43672553 0 57
-0.15166329 1.8231663 0.4549529 0 58
-0.15170011 1.8236088 0.47297645 0 59
-0.15214399 1.8289446 0.49241152 0 60
-0.1506957 1.8115346 0.50569201 0 61
-0.15128052 1.8185648 0.52578455 0 62
-0.15156533 1.8219886 0.54503518 0 63
-0.17452449 1.8259327 -0.54681569 0 0
-0.17435457 1.824155 -0.52798074 0 1
-0.17496021 1.8304915 -0.51154572 0 2
-0.17508918 1.8318408 -0.49373361 0 3
-0.17482753 1.8291032 -0.47492319 0 4
-0.17303516 1.810351 -0.45225176 0 5
-0.17558999 1.8370805 -0.44094631 0 6
-0.17554672 1.8366278 -0.42293811 0 7
-0.17378393 1.8181849 -0.4010458 0 8
-0.17540479 1.8351429 -0.38704827 0 9
-0.17540598 1.8351552 -0.3693811 0 10
-0.17376171 1.8179523 -0.34847873 0 11
-0.17341793 1.8143556 -0.33044505 0 12
-0.17486103 1.8294538 -0.31576452 0 13
-0.17580001 1.8392777 -0.29999146 0 14
-0.17641701 1.845733 -0.28356668 0 15
-0.17567199 1.8379383 -0.26501417 0 16
-0.17556928 1.8368638 -0.24756016 0 17
-0.17504875 1.8314178 -0.2296209 0 18
-0.17489515 1.8298109 -0.21226867 0 19
-0.17634557 1.8449856 -0.19677271 0 20
-0.1738359 1.8187286 -0.1769948 0 21
-0.17476279 1.8284259 -0.16090088 0 22
-0.17469063 1.8276712 -0.14383125 0 23
-0.1758458 1.8397567 -0.12769136 0 24
-0.17352526 1.8154786 -0.10916226 0 25
-0.17333189 1.8134553 -0.092233874 0 26
-0.17492411 1.8301138 -0.076135799 0 27
-0.17446718 1.8253331 -0.059048716 0 28
-0.17468253 1.8275863 -0.042222571 0 29
-0.17548178 1.8359483 -0.025446584 0 30
-0.17595358 1.8408844 -0.0085045202 0 31
-0.17402475 1.8207043 0.008411292 0 32
-0.17581102 1.8393929 0.025494326 0 33
-0.1749737 1.8306327 0.042292949 0 34
-0.17585012 1.839802 0.059516776 0 35
-0.17488596 1.8297147 0.076119192 0 36
-0.17531203 1.8341722 0.093287557 0 37
-0.1751508 1.8324856 0.11018487 0 38
-0.17611529 1.8425763 0.12788706 0 39
-0.17435969 1.8242086 0.14355877 0 40
-0.17550658 1.8362077 0.16158567 0 41
-0.17460951 1.8268224 0.17778248 0 42
-0.17490564 1.8299205 0.19516599 0 43
-0.17552267 1.8363761 0.21303026 0 44
-0.17426078 1.8231738 0.22858727 0 45
-0.17426206 1.8231871 0.2457169 0 46
-0.17486213 1.8294653 0.26379246 0 47
-0.17403249 1.8207853 0.27973387 0 48
-0.17429289 1.8235098 0.29741967 0 49
-0.17440079 1.8246387 0.31493342 0 50
-0.1735879 1.8161339 0.33076894 0 51
-0.17487748 1.829626 0.35071644 0 52
-0.17439823 1.8246119 0.36725894 0 53
-0.17406741 1.8211508 0.38409722 0 54
-0.17377748 1.8181173 0.4010309 0 55
-0.17499597 1.8308657 0.42161119 0 56
-0.17510965 1.832055 0.43974006 0 57
-0.1751491 1.8324677 0.45777681 0 58
-0.1733472 1.8136157 0.47090188 0 59
-0.17449036 1.8255758 0.49204502 0 60
-0.17555253 1.8366885 0.51327753 0 61
-0.17440397 1.8246719 0.52813035 0 62
-0.17413341 1.8218412 0.54559034 0 63
-0.19800644 1.833318 -0.54971492 0 0
-0.19807957 1.8339951 -0.53149366 0 1
-0.19781503 1.8315458 -0.51248139 0 2
-0.19904056 1.8428929 -0.49733454 0 3
-0.19719997 1.8258511 -0.47467247 0 4
-0.19793288 1.832637 -0.45839247 0 5
-0.19665931 1.8208452 -0.43759677 0 6
-0.19914898 1.8438966 -0.42514375 0 7
-0.19886321 1.8412508 -0.4066422 0 8
-0.19806492 1.8338596 -0.38726202 0 9
-0.1985032 1.8379176 -0.3704004 0 10
-0.1977856 1.8312733 -0.35147184 0 11
-0.19780639 1.8314657 -0.33397904 0 12
-0.19787472 1.8320986 -0.31661704 0 13
-0.1979005 1.8323371 -0.29923373 0 14
-0.19730803 1.8268517 -0.28101736 0 15
-0.19652879 1.8196367 -0.26270384 0 16
-0.19655669 1.819895 -0.24558039 0 17
-0.19739752 1.8276801 -0.22943924 0 18
-0.19749132 1.8285486 -0.21238787 0 19
-0.19770528 1.8305297 -0.19547544 0 20
-0.19685963 1.8226998 -0.17760342 0 21
-0.19805196 1.8337395 -0.16157056 0 22
-0.19856317 1.8384728 -0.1448625 0 23
-0.19769953 1.8304764 -0.12720636 0 24
-0.19712459 1.8251531 -0.10988142 0 25
-0.1986603 1.839372 -0.093669184 0 26
-0.1975787 1.8293577 -0.076199658 0 27
-0.1992044 1.8444099 -0.059740562 0 28
-0.19888075 1.8414131 -0.04259529 0 29
-0.19849142 1.8378085 -0.025504267 0 30
-0.19688939 1.8229753 -0.0084323306 0 31
-0.19730063 1.8267829 0.0084499437 0 32
-0.1980724 1.8339288 0.025450425 0 33
-0.19704182 1.8243868 0.042201441 0 34
-0.19733265 1.8270795 0.059179232 0 35
-0.19962394 1.8482943 0.076988436 0 36
-0.19629474 1.8174696 0.092553809 0 37
-0.19725931 1.8264005 0.10995652 0 38
-0.19675829 1.8217616 0.12660073 0 39
-0.1983346 1.8363564 0.14469574 0 40
-0.19824548 1.8355314 0.16172844 0 41
-0.19837968 1.8367739 0.17897479 0 42
-0.19827524 1.8358068 0.19603898 0 43
-0.19786432 1.8320022 0.21278903 0 44
-0.19777049 1.8311335 0.22987278 0 45
-0.19676767 1.8218485 0.24584401 0 46
-0.19759724 1.8295294 0.26413205 0 47
-0.20006678 1.8523945 0.28494653 0 48
-0.19672184 1.821424 0.29745156 0 49
-0.19693591 1.8234061 0.31511483 0 50
-0.19550419 1.81015 0.33009198 0 51
-0.19858681 1.8386916 0.35289562 0 52
-0.19803695 1.8336006 0.36953041 0 53
-0.19825491 1.8356186 0.38763347 0 54
-0.1971823 1.8256875 0.40320504 0 55
-0.19616556 1.8162737 0.41877475 0 56
-0.19837236 1.836706 0.44140857 0 57
-0.19719444 1.8257998 0.45668232 0 58
-0.19851446 1.8380218 0.47783655 0 59
-0.19751555 1.8287729 0.49352404 0 60
-0.19833624 1.8363717 0.51383168 0 61
-0.19666448 1.820893 0.52769661 0 62
-0.19961192 1.8481829 0.55417216 0 63
-0.22176449 1.8409672 -0.55278438 0 0
-0.22261541 1.8480309 -0.53631401 0 1
-0.22092602 1.8340067 -0.51389122 0 2
-0.22101551 1.8347495 -0.49583286 0 3
-0.2205964 1.8312702 -0.47675049 0 4
-0.22152361 1.8389674 -0.4606224 0 5
-0.22200674 1.8429781 -0.44353843 0 6
-0.22125232 1.8367155 -0.4240832 0 7
-0.2206884 1.8320341 -0.40517536 0 8
-0.22084698 1.8333505 -0.38769865 0 9
-0.22145292 1.8383806 -0.37101448 0 10
-0.22086582 1.8335068 -0.35239512 0 11
-0.22173442 1.8407176 -0.33613795 0 12
-0.22245003 1.8466581 -0.31958172 0 13
-0.22063054 1.8315537 -0.29952618 0 14
-0.22152597 1.838987 -0.28328168 0 15
-0.22097865 1.8344436 -0.26521376 0 16
-0.22020356 1.8280092 -0.24702205 0 17
-0.22152163 1.838951 -0.23117864 0 18
-0.22118552 1.8361609 -0.21357182 0 19
-0.21979691 1.8246332 -0.19511966 0 20
-0.22161561 1.8397312 -0.17951493 0 21
-0.22061729 1.8314437 -0.16159509 0 22
-0.22105829 1.8351046 -0.14480034 0 23
