# .PCD v0.7 - Point Cloud Data file format
VERSION 0.7
FIELDS x y z intensity ring
SIZE 4 4 4 4 2
TYPE F F F F U
COUNT 1 1 1 1 1
WIDTH 1288
HEIGHT 1
VIEWPOINT 0 0 0 1 0 0 0
POINTS 1288
DATA ascii
-4.6688519 2.0741353 0.87778693 0 50
-4.6773973 2.0779316 0.92793649 0 51
-4.6874585 2.0824015 0.97874242 0 52
-4.6857939 2.0816619 1.0273589 0 53
-4.6927342 2.0847452 1.0780983 0 54
-4.6738563 2.0763586 1.1229707 0 55
-4.6733871 2.0761502 1.1722617 0 56
-4.6864672 2.0819612 1.2252939 0 57
-4.6675992 2.0735791 1.27013 0 58
-4.6723695 2.0756984 1.3214767 0 59
-4.6812458 2.0796416 1.3743697 0 60
-4.6742768 2.0765455 1.4228802 0 61
-4.6815343 2.0797696 1.4759842 0 62
-4.6611495 2.0707138 1.5204998 0 63
-2.2693348 0.97492051 -0.73630673 0 0
-2.3403707 1.005438 -0.73391372 0 1
-2.4276872 1.0429497 -0.7350443 0 2
-2.5216355 1.0833105 -0.73636192 0 3
-2.6092632 1.1209558 -0.73401856 0 4
-2.7169235 1.1672075 -0.73535818 0 5
-2.8386722 1.2195115 -0.73820472 0 6
-2.9577744 1.2706785 -0.73794627 0 7
-3.0705388 1.3191228 -0.73379463 0 8
-3.2256987 1.3857806 -0.73709434 0 9
-3.3703406 1.4479195 -0.73498702 0 10
-3.5267808 1.5151273 -0.73244715 0 11
-3.7168479 1.5967813 -0.73342496 0 12
-3.9331725 1.6897156 -0.73551053 0 13
-4.1512694 1.7834114 -0.73357838 0 14
-4.4179621 1.8979843 -0.73538083 0 15
-4.7007113 2.0194552 -0.73435456 0 16
-4.878758 2.0959451 -0.71238881 0 17
-4.8667583 2.09079 -0.66110098 0 18
-4.8616786 2.0886078 -0.61104041 0 19
-4.8562779 2.0862875 -0.56115061 0 20
-4.8669672 2.0908797 -0.51316273 0 21
-4.8606744 2.0881763 -0.46342728 0 22
-4.8622994 2.0888746 -0.41457292 0 23
-4.8693037 2.0918834 -0.3661609 0 24
-4.8674912 2.091105 -0.31709591 0 25
-4.883266 2.0978818 -0.26909027 0 26
-4.8763509 2.0949111 -0.21979095 0 27
-4.8594217 2.0876381 -0.17031658 0 28
-4.8641715 2.0896788 -0.121753 0 29
-4.8633318 2.089318 -0.073030949 0 30
-4.8644633 2.0898042 -0.02434794 0 31
-4.8673887 2.0910606 0.024362583 0 32
-4.8706961 2.0924816 0.073141538 0 33
-4.8661852 2.090544 0.12180341 0 34
-4.8566833 2.0864618 0.1702206 0 35
-4.8609271 2.088285 0.21909575 0 36
-4.8548698 2.0856826 0.26752552 0 37
-4.8702407 2.0922861 0.31727502 0 38
-4.8654113 2.0902114 0.36586821 0 39
-4.8573966 2.0867682 0.41415492 0 40
-4.872025 2.0930526 0.46450946 0 41
-4.8734031 2.0936446 0.51384127 0 42
-4.8710942 2.0926528 0.56286269 0 43
-4.8644929 2.0898168 0.61139411 0 44
-4.8597326 2.0877717 0.66014653 0 45
-4.8671436 2.0909555 0.71069288 0 46
-4.8670936 2.090934 0.76034713 0 47
-4.8870277 2.0994978 0.81345797 0 48
-4.8737335 2.0937867 0.86124641 0 49
-4.8775859 2.0954416 0.9121176 0 50
-4.875875 2.0947068 0.96212935 0 51
-4.8584857 2.0872359 1.0090176 0 52
-4.8686862 2.0916183 1.0617387 0 53
-4.8678365 2.0912533 1.1123341 0 54
-4.8656039 2.0902941 1.1627778 0 55
-4.8585916 2.0872815 1.2121882 0 56
-4.8691168 2.0918033 1.2662275 0 57
-4.8761497 2.0948246 1.3197708 0 58
-4.869442 2.091943 1.3698354 0 59
-4.866416 2.0906429 1.4210789 0 60
-4.8721423 2.0931032 1.4751655 0 61
-4.8740821 2.0939362 1.5284569 0 62
-4.8638806 2.0895536 1.5781312 0 63
-2.2735591 0.94379282 -0.73385638 0 0
-2.3551831 0.97767633 -0.73473322 0 1
-2.448235 1.0163038 -0.73742616 0 2
-2.5343518 1.0520524 -0.73624194 0 3
-2.6108553 1.0838102 -0.73066217 0 4
-2.7421963 1.1383321 -0.73835415 0 5
-2.8444629 1.1807847 -0.73587912 0 6
-2.9540515 1.2262766 -0.73319983 0 7
-3.0791211 1.2781953 -0.73203421 0 8
-3.2409685 1.3453808 -0.73674762 0 9
-3.3970306 1.4101648 -0.73697031 0 10
-3.5661881 1.4803849 -0.73679507 0 11
-3.7491672 1.5563427 -0.73597038 0 12
-3.9376438 1.6345825 -0.73253262 0 13
-4.1825709 1.736256 -0.73528141 0 14
-4.4229779 1.836053 -0.73240244 0 15
-4.7168932 1.9580622 -0.73306572 0 16
-5.0590878 2.1001129 -0.73489398 0 17
-5.0755892 2.1069629 -0.68589729 0 18
-5.0698795 2.1045926 -0.63390762 0 19
-5.0749722 2.1067069 -0.58338362 0 20
-5.0650387 2.1025832 -0.53128076 0 21
-5.0688014 2.1041453 -0.4807674 0 22
-5.0604067 2.1006603 -0.42922923 0 23
-5.0682006 2.1038959 -0.37914348 0 24
-5.0582519 2.099766 -0.32781631 0 25
-5.0674672 2.1035914 -0.27779421 0 26
-5.074667 2.10658 -0.22754486 0 27
-5.0594435 2.1002605 -0.17640859 0 28
-5.064476 2.1023495 -0.12611012 0 29
-5.0592518 2.1001809 -0.075579494 0 30
-5.068924 2.1041961 -0.025239905 0 31
-5.064961 2.102551 0.025220172 0 32
-5.0552735 2.0985296 0.075520061 0 33
-5.0722995 2.1055973 0.12630494 0 34
-5.0697308 2.1045308 0.17676727 0 35
-5.0568991 2.0992045 0.22674817 0 36
-5.0762138 2.1072223 0.2782737 0 37
-5.0740886 2.1063399 0.32884264 0 38
-5.0646453 2.1024199 0.37887749 0 39
-5.0626092 2.1015747 0.42941609 0 40
-5.0600381 2.1005073 0.47993618 0 41
-5.0775042 2.1077578 0.5325883 0 42
-5.0752711 2.1068308 0.58341801 0 43
-5.0749874 2.1067133 0.63454634 0 44
-5.0789814 2.108371 0.68635577 0 45
-5.073092 2.1059263 0.73692828 0 46
-5.0534453 2.0977707 0.78537023 0 47
-5.0676236 2.1036563 0.83914948 0 48
-5.0547376 2.0983069 0.88860524 0 49
-5.0672989 2.1035213 0.94268602 0 50
-5.0633755 2.1018927 0.99395251 0 51
-5.0699339 2.1046152 1.0474776 0 52
-5.0769649 2.1075342 1.1014245 0 53
-5.0675592 2.1036296 1.1519742 0 54
-5.077899 2.1079218 1.2072263 0 55
-5.0779309 2.1079352 1.2603499 0 56
-5.0633554 2.1018846 1.3099196 0 57
-5.0699129 2.1046066 1.3651068 0 58
-5.0644312 2.1023309 1.4173088 0 59
-5.068037 2.103828 1.4722903 0 60
-5.0577736 2.0995672 1.523438 0 61
-5.0668693 2.103343 1.5806828 0 62
-5.0699453 2.10462 1.6364702 0 63
-2.2916145 0.91842109 -0.73598343 0 0
-2.3709142 0.95020241 -0.7359401 0 1
-2.4557943 0.98422021 -0.73600203 0 2
-2.5308931 1.0143179 -0.7315585 0 3
-2.633724 1.05553 -0.73337436 0 4
-2.7330759 1.0953476 -0.73221642 0 5
-2.8474252 1.141176 -0.73295981 0 6
-2.9785542 1.1937292 -0.73558259 0 7
-3.1116416 1.2470673 -0.73606443 0 8
-3.237227 1.2973987 -0.73221517 0 9
-3.4084821 1.3660333 -0.73575491 0 10
-3.5890901 1.4384165 -0.73781669 0 11
-3.7742672 1.5126308 -0.7371906 0 12
-3.9689541 1.5906564 -0.73466313 0 13
-4.1958394 1.6815863 -0.73392344 0 14
-4.4709797 1.7918556 -0.73664683 0 15
-4.7473297 1.9026097 -0.73410451 0 16
-5.0777855 2.035048 -0.7339195 0 17
-5.0940127 2.0415514 -0.68494278 0 18
-5.1085877 2.0473928 -0.63555163 0 19
-5.084393 2.0376961 -0.58154225 0 20
-5.0977287 2.0430408 -0.53203434 0 21
-5.10289 2.0451093 -0.48157904 0 22
-5.092339 2.0408807 -0.42977664 0 23
-5.1002259 2.0440414 -0.37963024 0 24
-5.0809689 2.0363238 -0.32764101 0 25
-5.0798364 2.0358698 -0.27707899 0 26
-5.0866456 2.0385988 -0.22694081 0 27
-5.0985384 2.0433652 -0.17688227 0 28
-5.1016536 2.0446138 -0.12640028 0 29
-5.0843496 2.0376787 -0.075574405 0 30
-5.0909772 2.0403349 -0.025222883 0 31
-5.0996256 2.0438011 0.025265731 0 32
-5.0928445 2.0410831 0.07570067 0 33
-5.107811 2.0470815 0.12655284 0 34
-5.0911388 2.0403996 0.17662555 0 35
-5.0803328 2.0360689 0.22665916 0 36
-5.0856619 2.0382047 0.27739674 0 37
-5.0838356 2.0374727 0.32782587 0 38
-5.096714 2.042634 0.37936887 0 39
-5.0910997 2.0403841 0.42967206 0 40
-5.0857716 2.0382485 0.47996348 0 41
-5.0965052 2.0425503 0.53190666 0 42
-5.0813417 2.0364733 0.58119333 0 43
-5.0876455 2.0389996 0.63294619 0 44
-5.0846705 2.0378075 0.68368667 0 45
-5.0803075 2.0360587 0.73428404 0 46
-5.0842667 2.0376453 0.78620678 0 47
-5.0814772 2.0365276 0.83723354 0 48
-5.083425 2.0373082 0.8891772 0 49
-5.0874834 2.0389345 0.94170564 0 50
-5.0976539 2.0430107 0.99567473 0 51
-5.0966444 2.0426061 1.0477278 0 52
-5.0974989 2.0429487 1.1003461 0 53
-5.0920558 2.0407672 1.1517513 0 54
-5.0849218 2.0379081 1.2028474 0 55
-5.0967002 2.0426285 1.2586792 0 56
-5.0840659 2.037565 1.3086966 0 57
-5.0859404 2.0383162 1.3625706 0 58
-5.0855546 2.0381615 1.4160994 0 59
-5.0981078 2.0431926 1.4736159 0 60
-5.0741353 2.0335851 1.5207194 0 61
-5.0867286 2.0386322 1.5789385 0 62
-5.1059546 2.0463374 1.6398474 0 63
-2.2992988 0.88884711 -0.73488551 0 0
-2.3736901 0.91760486 -0.73324394 0 1
-2.4694157 0.95460981 -0.73651075 0 2
-2.5483866 0.98513782 -0.73305809 0 3
-2.6579325 1.0274854 -0.73654151 0 4
-2.7508211 1.0633936 -0.73341191 0 5
-2.8735716 1.1108457 -0.73611844 0 6
-2.9795589 1.1518176 -0.73227763 0 7
-3.1194441 1.2058934 -0.73434693 0 8
-3.2780066 1.2671893 -0.73785871 0 9
-3.4212923 1.3225797 -0.73495406 0 10
-3.5921826 1.3886414 -0.73488665 0 11
-3.7857897 1.4634846 -0.7358706 0 12
-3.9954376 1.5445288 -0.7359941 0 13
-4.2281046 1.6344717 -0.73599601 0 14
-4.4928131 1.736801 -0.73666972 0 15
-4.7932973 1.85296 -0.73763353 0 16
-5.0871367 1.9665506 -0.73172069 0 17
-5.0984149 1.9709102 -0.68222445 0 18
-5.098146 1.9708062 -0.63118994 0 19
-5.0917516 1.9683346 -0.57957178 0 20
-5.1034279 1.9728482 -0.53005719 0 21
-5.0767837 1.9625484 -0.47680175 0 22
-5.0865269 1.9663147 -0.42721322 0 23
-5.0909643 1.9680301 -0.37711108 0 24
-5.0871401 1.9665518 -0.32645494 0 25
-5.0888023 1.9671943 -0.27622774 0 26
-5.1036577 1.972937 -0.2266003 0 27
-5.0892644 1.9673729 -0.17570797 0 28
-5.1015182 1.97211 -0.12578659 0 29
-5.0955963 1.9698206 -0.07537584 0 30
-5.0967202 1.9702551 -0.025129406 0 31
-5.0795383 1.9636132 0.025044689 0 32
-5.1031151 1.9727273 0.075487062 0 33
-5.0915813 1.9682686 0.12554158 0 34
-5.0950794 1.9696209 0.17590873 0 35
-5.0983286 1.9708771 0.2263637 0 36
-5.0892801 1.967379 0.27625367 0 37
-5.100369 1.9716657 0.32730389 0 38
-5.0898299 1.9675915 0.37702703 0 39
-5.087326 1.9666237 0.42728034 0 40
-5.1131043 1.9765888 0.4802129 0 41
-5.0926065 1.9686649 0.52893329 0 42
-5.0946894 1.9694701 0.57990623 0 43
-5.073525 1.9612886 0.6281417 0 44
-5.1047854 1.9733731 0.68307692 0 45
-5.0886507 1.9671358 0.73193848 0 46
-5.0875649 1.9667161 0.78291798 0 47
-5.0923724 1.9685745 0.83497721 0 48
-5.0882177 1.9669683 0.88571787 0 49
-5.0863023 1.9662279 0.93694085 0 50
-5.0882206 1.9669695 0.98903334 0 51
-5.1030173 1.9726895 1.0439723 0 52
-5.0869918 1.9664944 1.0927757 0 53
-5.0953016 1.9697068 1.1469204 0 54
-5.0932121 1.968899 1.1989907 0 55
-5.1043043 1.973187 1.2544702 0 56
-5.1028218 1.9726138 1.307182 0 57
-5.085197 1.9658006 1.355793 0 58
-5.0939469 1.9691832 1.4115872 0 59
-5.0971012 1.9704025 1.4662106 0 60
-5.0832114 1.9650332 1.5160834 0 61
-5.0895443 1.9674811 1.572184 0 62
-5.10179 1.9722149 1.6305978 0 63
-2.3072975 0.85948211 -0.73400873 0 0
-2.3927851 0.89132673 -0.7357012 0 1
-2.4929516 0.92863941 -0.74006873 0 2
-2.5630767 0.95476145 -0.73385125 0 3
-2.6789379 0.99792039 -0.73890609 0 4
-2.7841203 1.0371015 -0.73883408 0 5
-2.89098 1.0769073 -0.73712999 0 6
-3.0099614 1.1212286 -0.73630548 0 7
-3.1445193 1.1713523 -0.73680347 0 8
-3.2820985 1.2226013 -0.73534018 0 9
-3.420325 1.2740916 -0.73132545 0 10
-3.6274338 1.3512408 -0.73864329 0 11
-3.7878809 1.4110084 -0.73284918 0 12
-3.9943905 1.4879344 -0.7323755 0 13
-4.2254615 1.5740097 -0.73211139 0 14
-4.5169473 1.6825898 -0.73717868 0 15
-4.7980022 1.7872845 -0.73492002 0 16
-5.0993872 1.8995521 -0.73006785 0 17
-5.1020169 1.9005319 -0.67952794 0 18
-5.092236 1.8968884 -0.62752301 0 19
-5.0942488 1.8976381 -0.57715636 0 20
-5.0962839 1.8983963 -0.52685088 0 21
-5.1010137 1.900158 -0.4768469 0 22
-5.11201 1.9042543 -0.42735457 0 23
-5.1029434 1.9008769 -0.37623855 0 24
-5.0975695 1.8988751 -0.32560122 0 25
-5.0947104 1.8978101 -0.2752609 0 26
-5.101872 1.9004779 -0.2254664 0 27
-5.0987215 1.8993043 -0.17521492 0 28
-5.1063824 1.902158 -0.12532035 0 29
-5.1104269 1.9036645 -0.075243264 0 30
-5.0941625 1.897606 -0.024999857 0 31
-5.0889263 1.8956555 0.02497416 0 32
-5.0883536 1.8954421 0.07491827 0 33
-5.0916533 1.8966714 0.12495886 0 34
-5.1028905 1.9008572 0.17535816 0 35
-5.1001134 1.8998227 0.22538868 0 36
-5.0973878 1.8988074 0.27540556 0 37
-5.0852418 1.8942831 0.32481381 0 38
-5.0945616 1.8977548 0.37562057 0 39
-5.0945764 1.8977602 0.42589715 0 40
-5.0967703 1.8985773 0.47645023 0 41
-5.101964 1.9005121 0.52743804 0 42
-5.1044259 1.9014292 0.57830942 0 43
-5.0964084 1.8984425 0.62803715 0 44
-5.0961761 1.8983561 0.67874998 0 45
-5.101006 1.9001553 0.73029965 0 46
-5.0912485 1.8965205 0.77983713 0 47
-5.0960069 1.8982929 0.83168286 0 48
-5.1019073 1.900491 0.88396609 0 49
-5.1142616 1.9050931 0.93770504 0 50
-5.1135573 1.9048307 0.98933053 0 51
-5.0877376 1.8952128 1.0360005 0 52
-5.0939913 1.8975422 1.0891846 0 53
-5.0940609 1.8975681 1.1413026 0 54
-5.0976329 1.8988987 1.1944444 0 55
-5.0901823 1.8961233 1.2451751 0 56
-5.1185379 1.9066859 1.3051033 0 57
-5.1058612 1.9019638 1.3549645 0 58
-5.1032181 1.9009793 1.4075724 0 59
-5.0928693 1.8971243 1.4581727 0 60
-5.0976443 1.8989029 1.5133092 0 61
-5.106905 1.9023526 1.5702021 0 62
-5.0839176 1.8937896 1.6173205 0 63
-2.3288107 0.83503485 -0.73753029 0 0
-2.3969169 0.85945553 -0.73366678 0 1
-2.4844968 0.89085877 -0.73425126 0 2
-2.5827928 0.92610443 -0.73618001 0 3
-2.6862998 0.96321863 -0.73761398 0 4
-2.7696342 0.99309963 -0.73169386 0 5
-2.8889937 1.0358981 -0.73332024 0 6
-3.0111883 1.079713 -0.73330235 0 7
-3.1541073 1.130959 -0.73573583 0 8
-3.2830513 1.1771941 -0.73225516 0 9
-3.4478569 1.2362881 -0.73390633 0 10
-3.6231027 1.2991253 -0.7344529 0 11
-3.8148546 1.3678813 -0.73475808 0 12
-4.0272565 1.4440416 -0.73509026 0 13
-4.2431917 1.5214689 -0.73188657 0 14
-4.5094256 1.6169317 -0.73265088 0 15
-4.8366461 1.7342621 -0.737517 0 16
-5.0987921 1.828259 -0.72670913 0 17
-5.1090903 1.8319517 -0.67741859 0 18
-5.1063962 1.8309857 -0.62644613 0 19
-5.1114974 1.8328148 -0.57651365 0 20
-5.103498 1.8299464 -0.52523071 0 21
-5.1074853 1.8313761 -0.4753108 0 22
-5.1020064 1.8294115 -0.42460561 0 23
-5.1079073 1.8315275 -0.37491572 0 24
-5.1062355 1.830928 -0.32469213 0 25
-5.1017289 1.8293122 -0.27440405 0 26
-5.0872769 1.8241301 -0.22381322 0 27
-5.0997391 1.8285986 -0.17446399 0 28
-5.1195617 1.8357062 -0.12508035 0 29
-5.0889139 1.8247172 -0.074590527 0 30
-5.1022863 1.829512 -0.024927437 0 31
-5.1106691 1.8325177 0.024968391 0 32
-5.1072888 1.8313057 0.074859858 0 33
-5.0943036 1.8266495 0.12446324 0 34
-5.1075101 1.831385 0.17472984 0 35
-5.1163588 1.8345578 0.22509265 0 36
-5.1020632 1.8294319 0.27442202 0 37
-5.1086421 1.8317909 0.32484519 0 38
-5.113987 1.8337075 0.37536198 0 39
-5.1063542 1.8309705 0.42496744 0 40
-5.0893035 1.8248566 0.47361878 0 41
-5.1218381 1.8365225 0.52711821 0 42
-5.1061964 1.8309139 0.57591569 0 43
-5.1131244 1.8333981 0.62727147 0 44
-5.1025124 1.8295929 0.67654634 0 45
-5.1021252 1.8294541 0.72718418 0 46
-5.1131058 1.8333914 0.77967298 0 47
-5.1109209 1.832608 0.83037639 0 48
-5.1221046 1.8366182 0.88348579 0 49
-5.0957384 1.8271641 0.93011898 0 50
-5.1021323 1.8294567 0.98269349 0 51
-5.1065226 1.831031 1.0351627 0 52
-5.0969667 1.8276045 1.0849336 0 53
-5.1044331 1.8302817 1.1384981 0 54
-5.1160078 1.834432 1.1933743 0 55
-5.1071596 1.8312594 1.2437258 0 56
-5.111146 1.8326888 1.2973745 0 57
-5.1102762 1.8323768 1.3500546 0 58
-5.1081519 1.8316151 1.402615 0 59
-5.1056004 1.8307003 1.4552624 0 60
-5.1064301 1.8309978 1.5091196 0 61
-5.0987554 1.8282459 1.5606662 0 62
-5.1055403 1.8306787 1.6169158 0 63
-2.3287637 0.80284262 -0.73433346 0 0
-2.421412 0.8347832 -0.73796666 0 1
-2.5041218 0.8632974 -0.73685819 0 2
-2.5861421 0.89157397 -0.73395437 0 3
-2.7006669 0.9310565 -0.73835957 0 4
-2.7725468 0.95583713 -0.72930312 0 5
-2.9088185 1.0028168 -0.73516673 0 6
-3.0126798 1.0386231 -0.73050022 0 7
-3.1595902 1.0892706 -0.73383498 0 8
-3.3204517 1.1447276 -0.73740172 0 9
-3.4626856 1.1937629 -0.73388267 0 10
-3.6551211 1.2601051 -0.73774678 0 11
-3.8338039 1.3217061 -0.73522192 0 12
-4.030993 1.3896872 -0.73259789 0 13
-4.2803001 1.475636 -0.73510194 0 14
-4.5143962 1.5563407 -0.73029393 0 15
-4.8661323 1.6776019 -0.73881179 0 16
-5.1183839 1.7645658 -0.72635406 0 17
-5.1289439 1.7682062 -0.67711687 0 18
-5.1058249 1.760236 -0.6236735 0 19
-5.1145482 1.7632434 -0.57436889 0 20
-5.0940528 1.7561775 -0.52199674 0 21
-5.093617 1.7560273 -0.47197506 0 22
-5.1097431 1.7615869 -0.42341477 0 23
-5.1027374 1.7591716 -0.3729203 0 24
-5.1214356 1.765618 -0.32425365 0 25
-5.1205835 1.7653241 -0.27422985 0 26
-5.0989647 1.757871 -0.22335957 0 27
-5.1220231 1.7658204 -0.17447032 0 28
-5.1163015 1.7638478 -0.12446138 0 29
-5.1043892 1.7597412 -0.074494556 0 30
-5.1036625 1.7594905 -0.024826581 0 31
-5.118186 1.7644976 0.024897233 0 32
-5.1041217 1.7596489 0.074490651 0 33
-5.1034532 1.7594184 0.12414883 0 34
-5.1079788 1.7609786 0.17399193 0 35
-5.110744 1.7619319 0.22387555 0 36
-5.1135211 1.7628893 0.27385163 0 37
-5.1117301 1.762272 0.32363915 0 38
-5.1134753 1.7628735 0.37370506 0 39
-5.1182623 1.7645237 0.42412069 0 40
-5.1095471 1.7615194 0.47345117 0 41
-5.1238027 1.766434 0.52504528 0 42
-5.099761 1.7581455 0.57270825 0 43
-5.1099267 1.7616502 0.62417454 0 44
-5.1053886 1.7600857 0.67400718 0 45
-5.0991378 1.7579308 0.7236228 0 46
-5.1084337 1.7611355 0.77559972 0 47
-5.1018543 1.7588671 0.82532704 0 48
-5.0990524 1.7579013 0.87571502 0 49
-5.109756 1.7615914 0.92865366 0 50
-5.1147389 1.7633091 0.98087132 0 51
-5.1062536 1.7603838 1.0306422 0 52
-5.1089816 1.7613244 1.0827992 0 53
-5.1187572 1.7646945 1.1367671 0 54
-5.1210194 1.7654743 1.1893893 0 55
-5.1288443 1.768172 1.2436177 0 56
-5.1109381 1.7619989 1.2917244 0 57
-5.1135187 1.7628886 1.3450829 0 58
-5.1136551 1.7629355 1.398068 0 59
-5.102272 1.7590113 1.4480391 0 60
-5.1003418 1.7583458 1.5008171 0 61
-5.1113095 1.7621269 1.5577589 0 62
-5.1061616 1.760352 1.6101356 0 63
-2.3399432 0.77463984 -0.7347995 0 0
-2.421195 0.80153835 -0.73484117 0 1
-2.5113378 0.83138019 -0.73591769 0 2
-2.6079841 0.86337495 -0.73708445 0 3
-2.7021608 0.89455223 -0.73570502 0 4
-2.80969 0.93014985 -0.73600918 0 5
-2.9176228 0.96588111 -0.73433471 0 6
-3.054394 1.0111593 -0.73754424 0 7
-3.1736784 1.0506485 -0.73405099 0 8
-3.3188732 1.0987153 -0.73399532 0 9
-3.4859509 1.1540265 -0.73575038 0 10
-3.6478562 1.2076254 -0.73322779 0 11
-3.8263481 1.2667153 -0.73074979 0 12
-4.0596509 1.3439503 -0.73474717 0 13
-4.2827296 1.4178007 -0.73246962 0 14
-4.5586076 1.5091302 -0.73438853 0 15
-4.8376632 1.6015117 -0.73144412 0 16
-5.1256094 1.6968366 -0.72436363 0 17
-5.1291466 1.6980077 -0.67433619 0 18
-5.1087151 1.6912438 -0.62143934 0 19
-5.1149101 1.6932945 -0.57202798 0 20
-5.1139026 1.692961 -0.5218581 0 21
-5.1176724 1.6942091 -0.47223794 0 22
-5.1130662 1.6926842 -0.42193347 0 23
-5.110023 1.6916767 -0.37190443 0 24
-5.0997415 1.688273 -0.32154143 0 25
-5.1170187 1.6939926 -0.27290276 0 26
-5.1277394 1.6975417 -0.22368875 0 27
-5.1124196 1.6924701 -0.17342119 0 28
-5.1025004 1.6891863 -0.12361102 0 29
-5.116291 1.6937518 -0.074358679 0 30
-5.1283469 1.6977429 -0.024843229 0 31
-5.1042161 1.6897544 0.024726333 0 32
-5.103436 1.689496 0.074171841 0 33
-5.10637 1.6904675 0.12370476 0 34
-5.1089001 1.691305 0.17330182 0 35
-5.1043897 1.6898118 0.22267015 0 36
-5.0996218 1.6882334 0.27197495 0 37
-5.1116962 1.6922307 0.32229519 0 38
-5.1091456 1.6913862 0.37184054 0 39
-5.1258383 1.6969124 0.42298746 0 40
-5.1153069 1.693426 0.47201967 0 41
-5.1232004 1.6960391 0.52280694 0 42
-5.1216879 1.6955384 0.57278597 0 43
-5.1203623 1.6950996 0.62285608 0 44
-5.1222477 1.6957237 0.67342913 0 45
-5.1165414 1.6938347 0.72308218 0 46
-5.1207728 1.6952355 0.77424967 0 47
-5.1055117 1.6901833 0.82249445 0 48
-5.1065536 1.6905283 0.87336719 0 49
-5.1139898 1.6929901 0.92556965 0 50
-5.1194954 1.6948125 0.97771293 0 51
-5.1187153 1.6945543 1.0288739 0 52
-5.1169128 1.6939576 1.0799838 0 53
-5.1073575 1.6907943 1.1295329 0 54
-5.1144075 1.6931282 1.1829288 0 55
-5.1227059 1.6958754 1.2369792 0 56
-5.1248231 1.6965762 1.2898636 0 57
-5.1281133 1.6976656 1.3433292 0 58
-5.1049786 1.6900067 1.3899091 0 59
-5.1145463 1.6931742 1.4455045 0 60
-5.1098456 1.691618 1.4973795 0 61
-5.1236072 1.6961738 1.5550327 0 62
-5.1095972 1.6915358 1.6045388 0 63
-2.3356442 0.74147809 -0.73053116 0 0
-2.4347777 0.77294922 -0.73602325 0 1
-2.515712 0.79864275 -0.73426622 0 2
-2.6141148 0.82988191 -0.73587745 0 3
-2.6942692 0.8553279 -0.73063761 0 4
-2.8131351 0.89306331 -0.73397952 0 5
-2.9243755 0.92837793 -0.73310566 0 6
-3.0572531 0.9705615 -0.73529726 0 7
-3.1897185 1.0126141 -0.73482543 0 8
-3.3391688 1.060059 -0.73554546 0 9
-3.5027277 1.1119827 -0.7363497 0 10
-3.6720667 1.1657414 -0.73515725 0 11
-3.8730018 1.2295306 -0.73671657 0 12
-4.0685744 1.2916175 -0.73343229 0 13
-4.3124809 1.3690485 -0.73462325 0 14
-4.5898991 1.4571183 -0.73648745 0 15
-4.8753262 1.5477303 -0.73420566 0 16
-5.1234055 1.6264862 -0.72117126 0 17
-5.1195922 1.6252756 -0.67040187 0 18
-5.1398454 1.6317052 -0.62273836 0 19
-5.1106305 1.6224307 -0.5692752 0 20
-5.1224203 1.6261734 -0.52064741 0 21
-5.1306605 1.6287893 -0.47155267 0 22
-5.1248384 1.6269411 -0.42122221 0 23
-5.1191382 1.6251316 -0.37108541 0 24
-5.1267481 1.6275473 -0.32195804 0 25
-5.131041 1.6289102 -0.27256176 0 26
-5.1163578 1.6242487 -0.22230417 0 27
-5.1244178 1.6268076 -0.17313653 0 28
-5.1155734 1.6239997 -0.12343461 0 29
-5.1229043 1.626327 -0.074158534 0 30
-5.1206779 1.6256202 -0.024707375 0 31
-5.123682 1.6265739 0.02472187 0 32
-5.1122241 1.6229365 0.074003927 0 33
-5.1169243 1.6244286 0.12346721 0 34
-5.1290221 1.6282692 0.1732921 0 35
-5.1155367 1.6239882 0.22226851 0 36
-5.1128755 1.6231433 0.27159682 0 37
-5.1273818 1.6277485 0.32199782 0 38
-5.1122193 1.6229349 0.37058383 0 39
-5.1287165 1.6281722 0.42154095 0 40
-5.1254654 1.62714 0.47107518 0 41
-5.1342649 1.6299337 0.52185136 0 42
-5.1118803 1.6228273 0.56941438 0 43
-5.1195107 1.6252496 0.6202746 0 44
-5.1211467 1.6257691 0.67060548 0 45
-5.113646 1.6233879 0.71979755 0 46
-5.1240325 1.6266853 0.77165991 0 47
-5.1279049 1.6279145 0.82281494 0 48
-5.115519 1.6239825 0.87141937 0 49
-5.1180491 1.6247858 0.92261857 0 50
-5.1150522 1.6238343 0.97297746 0 51
-5.1244917 1.6268311 1.0259365 0 52
-5.1220398 1.6260526 1.0767643 0 53
-5.1209803 1.6257162 1.1280392 0 54
-5.1140614 1.6235198 1.1781423 0 55
-5.1198874 1.6253693 1.2313795 0 56
-5.1125627 1.6230439 1.2816577 0 57
-5.1215401 1.6258941 1.3362691 0 58
-5.1245441 1.6268476 1.3896847 0 59
-5.1142669 1.623585 1.4396743 0 60
-5.1307564 1.6288198 1.4975249 0 61
-5.1382895 1.6312113 1.5532837 0 62
-5.1186643 1.624981 1.6009903 0 63
-2.3653831 0.71902639 -0.73701161 0 0
-2.4319828 0.73927122 -0.73237497 0 1
-2.530724 0.76928651 -0.7358312 0 2
-2.6422546 0.80318946 -0.74096262 0 3
-2.7321813 0.83052528 -0.73809344 0 4
-2.8126581 0.85498846 -0.73105669 0 5
-2.9390337 0.89340401 -0.73397076 0 6
-3.048928 0.92680955 -0.73049879 0 7
-3.1863561 0.96858478 -0.73125178 0 8
-3.3500113 1.0183325 -0.73511994 0 9
-3.5207951 1.0702472 -0.73732555 0 10
-3.6997809 1.124655 -0.73788124 0 11
-3.8652565 1.1749561 -0.73243964 0 12
-4.0929766 1.2441782 -0.73501766 0 13
-4.3529749 1.3232121 -0.73869371 0 14
-4.5807261 1.3924438 -0.73221278 0 15
-4.8995695 1.4893653 -0.73504305 0 16
-5.1217718 1.5569102 -0.71819222 0 17
-5.137424 1.5616682 -0.67017168 0 18
-5.1218314 1.5569283 -0.61818945 0 19
-5.1227059 1.5571942 -0.56844443 0 20
-5.1281648 1.5588535 -0.51924372 0 21
-5.1246109 1.5577731 -0.46920064 0 22
-5.128767 1.5590366 -0.4199377 0 23
-5.1273437 1.5586039 -0.37026292 0 24
-5.1332793 1.5604082 -0.32113895 0 25
-5.1215611 1.5568461 -0.2710208 0 26
-5.1286964 1.5590152 -0.22199056 0 27
-5.1267076 1.5584105 -0.17255341 0 28
-5.1184583 1.555903 -0.12303329 0 29
-5.1246147 1.5577744 -0.073900424 0 30
-5.130106 1.5594436 -0.024658479 0 31
-5.1168175 1.5554041 0.024594605 0 32
-5.1299095 1.5593839 0.073976777 0 33
-5.1342549 1.5607047 0.12341298 0 34
-5.1217647 1.556908 0.17238705 0 35
-5.1342697 1.5607092 0.22223178 0 36
-5.1196761 1.5562731 0.27092102 0 37
-5.115509 1.5550064 0.32002723 0 38
-5.1247854 1.5578263 0.37007818 0 39
-5.12748 1.5586454 0.41983232 0 40
-5.1349821 1.560926 0.47015026 0 41
-5.1150012 1.5548521 0.5179109 0 42
-5.1271939 1.5585583 0.56894243 0 43
-5.1110797 1.5536599 0.6168918 0 44
-5.1339421 1.5606097 0.66971743 0 45
-5.1228833 1.557248 0.71834803 0 46
-5.1280284 1.558812 0.76931691 0 47
-5.1258779 1.5581583 0.81935334 0 48
-5.1151972 1.5549116 0.86804181 0 49
-5.1258597 1.5581528 0.92050308 0 50
-5.12607 1.5582168 0.9713552 0 51
-5.119288 1.5561551 1.0209866 0 52
-5.1244583 1.5577269 1.0731651 0 53
-5.1215081 1.55683 1.1238538 0 54
-5.1254301 1.5580223 1.1762589 0 55
-5.1110587 1.5536536 1.2245688 0 56
-5.1285329 1.5589653 1.2807587 0 57
-5.1220274 1.5569878 1.3313003 0 58
-5.1375461 1.5617052 1.3878981 0 59
-5.1244879 1.5577358 1.4370508 0 60
-5.1427703 1.5632932 1.4953076 0 61
-5.1255684 1.5580642 1.5435299 0 62
-5.1365991 1.5614173 1.6004736 0 63
-2.3668821 0.68780679 -0.73478788 0 0
-2.4460452 0.71081126 -0.73392212 0 1
-2.53163 0.73568189 -0.73340887 0 2
-2.6270435 0.76340872 -0.73400909 0 3
-2.7185643 0.79000431 -0.73173523 0 4
-2.8328569 0.82321733 -0.73362029 0 5
-2.9501843 0.8573122 -0.73406732 0 6
-3.0800095 0.89503884 -0.73525316 0 7
-3.2196 0.93560332 -0.73618513 0 8
-3.3657267 0.97806722 -0.73587376 0 9
-3.5141628 1.0212021 -0.73325145 0 10
-3.6973979 1.0744495 -0.73471546 0 11
-3.8844016 1.128792 -0.73338187 0 12
-4.1026492 1.192214 -0.73406655 0 13
-4.3388495 1.2608531 -0.73361027 0 14
-4.6143394 1.3409092 -0.73489457 0 15
-4.8891811 1.4207771 -0.73080832 0 16
-5.1351314 1.4922494 -0.71743828 0 17
-5.1500878 1.4965957 -0.66937244 0 18
-5.1377363 1.4930063 -0.61784661 0 19
-5.1265979 1.4897696 -0.56680065 0 20
-5.1266513 1.4897852 -0.51719654 0 21
-5.1407332 1.4938773 -0.46895948 0 22
-5.1304116 1.4908779 -0.41853967 0 23
-5.1454563 1.4952497 -0.37021515 0 24
-5.1295705 1.4906334 -0.31973606 0 25
-5.1413083 1.4940444 -0.2710731 0 26
-5.1307235 1.4909685 -0.221268 0 27
-5.1242895 1.4890988 -0.17184272 0 28
-5.1282964 1.4902632 -0.12282 0 29
-5.1331582 1.4916761 -0.073753543 0 30
-5.1312642 1.4911257 -0.024574058 0 31
-5.1396432 1.4935604 0.024614183 0 32
-5.1263447 1.489696 0.073655643 0 33
-5.1507769 1.4967959 0.12335839 0 34
-5.1314149 1.4911693 0.17208168 0 35
-5.1352777 1.4922919 0.22146441 0 36
-5.1291552 1.4905127 0.27043232 0 37
-5.1402664 1.4937416 0.32040277 0 38
-5.1220222 1.4884398 0.36852905 0 39
-5.1251121 1.4893378 0.41810733 0 40
-5.1172523 1.4870539 0.46681744 0 41
-5.1400595 1.4936814 0.5185492 0 42
-5.1181564 1.4873165 0.56586736 0 43
-5.1416669 1.4941486 0.61831933 0 44
-5.1177783 1.4872066 0.66517305 0 45
-5.1323953 1.4914542 0.71705598 0 46
-5.1272788 1.4899675 0.76639789 0 47
-5.1316919 1.4912498 0.81728977 0 48
-5.1382904 1.4931674 0.8687793 0 49
-5.1452227 1.4951819 0.92060906 0 50
-5.1295638 1.4906316 0.96847075 0 51
-5.1264019 1.4897126 1.018675 0 52
-5.120276 1.4879324 1.0683768 0 53
-5.1300282 1.4907664 1.121616 0 54
-5.1128445 1.485773 1.1690894 0 55
-5.1407208 1.4938737 1.2271817 0 56
-5.1202264 1.487918 1.274019 0 57
-5.1340346 1.4919306 1.3295524 0 58
-5.1325445 1.4914976 1.3814878 0 59
-5.1440463 1.49484 1.4372722 0 60
-5.1331053 1.4916606 1.4870517 0 61
-5.144824 1.4950659 1.5436757 0 62
-5.1305285 1.4909117 1.5927495 0 63
-2.3879325 0.66219467 -0.73873925 0 0
-2.4478226 0.67880261 -0.73189569 0 1
-2.5296752 0.70150113 -0.73028845 0 2
-2.6421504 0.73269147 -0.7356571 0 3
-2.7408595 0.76006436 -0.73516506 0 4
-2.8512797 0.79068482 -0.73581767 0 5
-2.9643953 0.82205278 -0.7350325 0 6
-3.0953684 0.85837281 -0.73634428 0 7
-3.2184918 0.89251596 -0.73336685 0 8
-3.3651254 0.93317878 -0.73317802 0 9
-3.5340719 0.98002917 -0.73483562 0 10
-3.7216055 1.0320339 -0.73694843 0 11
-3.9067936 1.0833881 -0.73503876 0 12
-4.1221642 1.1431123 -0.73498774 0 13
-4.348362 1.2058389 -0.73265618 0 14
-4.616467 1.2801868 -0.7326709 0 15
-4.9298105 1.3670796 -0.73431319 0 16
-5.1332455 1.423494 -0.71467531 0 17
-5.1399803 1.4253615 -0.66573036 0 18
-5.1343837 1.4238096 -0.61529154 0 19
-5.1231422 1.4206922 -0.56444448 0 20
-5.1450481 1.4267669 -0.51724344 0 21
-5.1448693 1.4267173 -0.46770102 0 22
-5.1222544 1.420446 -0.41641781 0 23
-5.1315761 1.423031 -0.36792967 0 24
-5.1365047 1.4243977 -0.3190524 0 25
-5.1417403 1.4258497 -0.27015105 0 26
-5.1392393 1.4251561 -0.22086281 0 27
-5.134798 1.4239244 -0.17159499 0 28
-5.1332626 1.4234987 -0.12251046 0 29
-5.1281991 1.4220946 -0.073425487 0 30
-5.1443601 1.4265761 -0.024550909 0 31
-5.1424627 1.4260499 0.024541853 0 32
-5.1261134 1.4215162 0.073395625 0 33
-5.142211 1.4259802 0.12272403 0 34
-5.1414623 1.4257725 0.17181771 0 35
-5.1407075 1.4255632 0.2209259 0 36
-5.138998 1.4250892 0.27000695 0 37
-5.1482224 1.4276472 0.31978026 0 38
-5.1441698 1.4265234 0.36883265 0 39
-5.1291966 1.4223711 0.41698217 0 40
-5.1335006 1.4235648 0.46666753 0 41
-5.1323466 1.4232447 0.51596653 0 42
-5.1458459 1.4269881 0.56694585 0 43
-5.1383533 1.4249104 0.61576718 0 44
-5.1300654 1.4226122 0.66444623 0 45
-5.1377983 1.4247565 0.71530914 0 46
-5.1261287 1.4215204 0.76355547 0 47
-5.131145 1.4229114 0.81435454 0 48
-5.1328325 1.4233794 0.86483175 0 49
-5.1277542 1.4219712 0.9142859 0 50
-5.1473699 1.4274107 0.96844536 0 51
-5.1335921 1.4235901 1.0165484 0 52
-5.1566105 1.4299732 1.0722082 0 53
-5.1304588 1.4227213 1.1178007 0 54
-5.1549191 1.4295043 1.1746019 0 55
-5.144043 1.4264883 1.2236949 0 56
-5.1392121 1.4251486 1.2742863 0 57
-5.1434569 1.4263257 1.3273501 0 58
-5.1323528 1.4232465 1.3766216 0 59
-5.1197939 1.4197637 1.4255103 0 60
-5.1374087 1.4246485 1.4831115 0 61
-5.1449485 1.4267393 1.5383328 0 62
-5.1504178 1.4282559 1.5933514 0 63
-2.3915601 0.631639 -0.73740292 0 0
-2.4710412 0.65263093 -0.7363829 0 1
-2.5623469 0.67674583 -0.73726237 0 2
-2.6468945 0.69907582 -0.73452902 0 3
-2.7560325 0.72790039 -0.73677832 0 4
-2.8430147 0.75087345 -0.73124677 0 5
-2.9779117 0.78650129 -0.73593038 0 6
-3.1127319 0.82210892 -0.73801428 0 7
-3.253583 0.85930932 -0.73889917 0 8
-3.3844845 0.89388192 -0.73494554 0 9
-3.5444467 0.93612981 -0.7345438 0 10
-3.7396851 0.98769456 -0.73806769 0 11
-3.9242554 1.0364417 -0.73587066 0 12
-4.1428914 1.0941861 -0.73622876 0 13
-4.3872132 1.1587143 -0.73674589 0 14
-4.6585751 1.2303841 -0.73689693 0 15
-4.9645472 1.311195 -0.73703009 0 16
-5.1402993 1.3576132 -0.71327925 0 17
-5.1516967 1.3606234 -0.6650306 0 18
-5.1351748 1.3562597 -0.61334139 0 19
-5.1525736 1.360855 -0.56580067 0 20
-5.1534481 1.3610859 -0.5163663 0 21
-5.1435142 1.3584622 -0.46602404 0 22
-5.1384635 1.3571284 -0.41634741 0 23
-5.1366825 1.3566579 -0.36707196 0 24
-5.1232948 1.353122 -0.3171744 0 25
-5.1522436 1.3607677 -0.26980335 0 26
-5.1491957 1.3599628 -0.22055534 0 27
-5.1588116 1.3625025 -0.1718246 0 28
-5.1473913 1.3594862 -0.12243944 0 29
-5.136764 1.3566794 -0.073303714 0 30
-5.1388063 1.3572189 -0.024442909 0 31
-5.1451335 1.3588899 0.024473004 0 32
-5.1380053 1.3570073 0.073321432 0 33
-5.1358542 1.3564392 0.12216501 0 34
-5.1545424 1.361375 0.1716824 0 35
-5.1393518 1.3573629 0.22013369 0 36
-5.1370673 1.3567595 0.26900864 0 37
-5.132988 1.3556821 0.3177745 0 38
-5.1417799 1.3580042 0.36743623 0 39
-5.153676 1.3611461 0.41758001 0 40
-5.1314902 1.3552866 0.46493465 0 41
-5.1394639 1.3573925 0.51496512 0 42
-5.1425304 1.3582025 0.56469786 0 43
-5.1451378 1.358891 0.61453134 0 44
-5.1328473 1.3556451 0.66259736 0 45
-5.1373878 1.3568442 0.71287519 0 46
-5.1293187 1.3547131 0.76149178 0 47
-5.1564298 1.3618734 0.81564802 0 48
-5.1435447 1.3584703 0.86375684 0 49
-5.149703 1.3600968 0.9151482 0 50
-5.1465244 1.3592572 0.96506876 0 51
-5.130177 1.3549397 1.0124965 0 52
-5.1367469 1.3566749 1.0645287 0 53
-5.1284628 1.3544871 1.1136528 0 54
-5.125422 1.3536838 1.1639999 0 55
-5.1337657 1.3558875 1.2171919 0 56
-5.1397929 1.3574795 1.2701954 0 57
-5.1275692 1.354251 1.3188529 0 58
-5.1444702 1.3587148 1.3752866 0 59
-5.1371036 1.3567692 1.4255769 0 60
-5.1360197 1.3564829 1.4777834 0 61
-5.1383696 1.3571035 1.5312604 0 62
-5.1387086 1.357193 1.5844463 0 63
-2.3997285 0.602332 -0.73758203 0 0
-2.4708378 0.62018049 -0.73399425 0 1
-2.5654194 0.64392048 -0.73581254 0 2
-2.6566129 0.66680998 -0.73489499 0 3
-2.7528884 0.69097519 -0.73361099 0 4
-2.8762078 0.72192836 -0.73744524 0 5
-2.979856 0.74794406 -0.73408246 0 6
-3.1054568 0.77946991 -0.73396134 0 7
-3.2254658 0.80959213 -0.73019761 0 8
-3.402493 0.85402596 -0.73651999 0 9
-3.5548992 0.89227992 -0.7343806 0 10
-3.7299755 0.9362241 -0.7338239 0 11
-3.9300752 0.98644912 -0.73463184 0 12
-4.1478415 1.0411084 -0.73477781 0 13
-4.4000831 1.1044211 -0.73657084 0 14
-4.6614561 1.1700257 -0.73502135 0 15
-4.948822 1.2421547 -0.73237258 0 16
-5.1576066 1.2945596 -0.71341801 0 17
-5.1432486 1.2909557 -0.6618408 0 18
-5.1503735 1.2927442 -0.61321175 0 19
-5.1540256 1.2936608 -0.56417072 0 20
-5.1432705 1.2909613 -0.51371717 0 21
-5.1384325 1.2897469 -0.46409163 0 22
-5.1398196 1.290095 -0.41514054 0 23
-5.1336284 1.288541 -0.36569378 0 24
-5.1480389 1.2921581 -0.3176986 0 25
-5.1491575 1.2924389 -0.26878917 0 26
-5.1381164 1.2896675 -0.21938492 0 27
-5.140954 1.2903798 -0.17068842 0 28
-5.1507564 1.2928402 -0.12213211 0 29
-5.1487637 1.29234 -0.073242649 0 30
-5.1395087 1.290017 -0.024368957 0 31
-5.1355786 1.2890306 0.024350323 0 32
-5.1451993 1.2914454 0.073191941 0 33
-5.1642466 1.2962261 0.12245197 0 34
-5.1389642 1.2898804 0.17062236 0 35
-5.1515894 1.2930492 0.2199602 0 36
-5.1431422 1.2909291 0.2684752 0 37
-5.1547236 1.293836 0.31811112 0 38
-5.1395202 1.2900199 0.36611348 0 39
-5.1545386 1.2937895 0.41632938 0 40
-5.1420608 1.2906575 0.46441934 0 41
-5.1315794 1.2880267 0.5125494 0 42
-5.1536131 1.2935573 0.56412554 0 43
-5.147965 1.2921395 0.61292493 0 44
-5.1432838 1.2909646 0.66184533 0 45
-5.1532612 1.293469 0.71281695 0 46
-5.1593676 1.2950016 0.76353109 0 47
-5.1539912 1.2936521 0.8126846 0 48
-5.1373968 1.289487 0.85999668 0 49
-5.1435761 1.2910379 0.91116929 0 50
-5.1451583 1.291435 0.96176207 0 51
-5.1443009 1.2912198 1.0120739 0 52
-5.1651735 1.2964588 1.0670354 0 53
-5.1520152 1.2931561 1.11523 0 54
-5.146287 1.2917184 1.1650431 0 55
-5.1247544 1.2863138 1.2112137 0 56
-5.1516857 1.2930734 1.269109 0 57
-5.1469197 1.2918772 1.3196443 0 58
-5.1491938 1.2924479 1.3721969 0 59
-5.147562 1.2920383 1.4239626 0 60
-5.1437173 1.2910733 1.4753188 0 61
-5.1441994 1.2911943 1.5281507 0 62
-5.1373725 1.2894808 1.579026 0 63
-2.3883438 0.5683521 -0.73187947 0 0
-2.4804182 0.59026295 -0.73462856 0 1
-2.5754187 0.6128701 -0.73646331 0 2
-2.6532524 0.63139212 -0.73176235 0 3
-2.7749276 0.6603471 -0.73726457 0 4
-2.8692918 0.6828028 -0.73346382 0 5
-3.0002508 0.71396708 -0.73688829 0 6
-3.1237419 0.74335408 -0.73606694 0 7
-3.2499592 0.77338994 -0.73353422 0 8
-3.3910189 0.80695778 -0.73183304 0 9
-3.5838993 0.85285735 -0.73814929 0 10
-3.7554042 0.89367026 -0.73660904 0 11
-3.9432037 0.93836069 -0.73487347 0 12
-4.1613135 0.99026412 -0.73495179 0 13
-4.3872666 1.044034 -0.73222101 0 14
-4.6732302 1.1120844 -0.73466611 0 15
-4.9642692 1.1813428 -0.73245347 0 16
-5.1623759 1.2284861 -0.71193439 0 17
-5.1344771 1.2218471 -0.65872896 0 18
-5.1499591 1.2255313 -0.61132199 0 19
-5.1477356 1.2250022 -0.56179082 0 20
-5.163137 1.2286673 -0.51415354 0 21
-5.1482649 1.2251281 -0.46358401 0 22
-5.1626315 1.2285469 -0.41573146 0 23
-5.1347728 1.2219174 -0.36467743 0 24
-5.1549611 1.2267215 -0.31717089 0 25
-5.1518059 1.2259706 -0.26812023 0 26
-5.1503429 1.2256225 -0.21924691 0 27
-5.1615896 1.2282989 -0.17085917 0 28
-5.147563 1.224961 -0.12169002 0 29
-5.1417298 1.223573 -0.072923049 0 30
-5.1444759 1.2242265 -0.024319295 0 31
-5.1578965 1.2274201 0.024382735 0 32
-5.1499724 1.2255344 0.073039949 0 33
-5.1500292 1.2255479 0.12174832 0 34
-5.1614103 1.2282563 0.17085326 0 35
-5.1412578 1.2234606 0.21886016 0 36
-5.15558 1.2268689 0.26831669 0 37
-5.1656389 1.2292625 0.31782788 0 38
-5.151979 1.226012 0.36589941 0 39
-5.1473942 1.2249209 0.41450441 0 40
-5.1614022 1.2282543 0.46476698 0 41
-5.1427178 1.2238081 0.51212013 0 42
-5.1557546 1.2269104 0.562666 0 43
-5.1565413 1.2270976 0.61210328 0 44
-5.1589699 1.2276756 0.66187125 0 45
-5.1607113 1.2280899 0.71170479 0 46
-5.1631265 1.2286646 0.76179385 0 47
-5.1480718 1.2250822 0.80931473 0 48
-5.1467566 1.2247692 0.8589775 0 49
-5.1578469 1.2274083 0.91095489 0 50
-5.1571774 1.2272489 0.96111518 0 51
-5.1496501 1.2254578 1.0100853 0 52
-5.1538982 1.2264687 1.0615104 0 53
-5.163722 1.2288064 1.1144091 0 54
-5.1449051 1.2243285 1.1612343 0 55
-5.1456599 1.2245082 1.2125041 0 56
-5.1554985 1.2268496 1.2662363 0 57
-5.1522698 1.2260811 1.3170511 0 58
-5.123827 1.2193125 1.3613385 0 59
-5.132359 1.221343 1.4154956 0 60
-5.1445355 1.2242407 1.4711245 0 61
-5.1498532 1.2255061 1.5252384 0 62
-5.1449761 1.2243454 1.5766165 0 63
-2.4152358 0.5434624 -0.73801655 0 0
-2.5062089 0.56393266 -0.74015725 0 1
-2.5606236 0.5761767 -0.7301513 0 2
-2.6754405 0.60201216 -0.73578459 0 3
-2.774596 0.62432355 -0.73508114 0 4
-2.888896 0.65004265 -0.73637623 0 5
-3.0094199 0.67716229 -0.73703945 0 6
-3.1227906 0.7026723 -0.73375136 0 7
-3.2678769 0.73531872 -0.73548192 0 8
-3.4133348 0.76804888 -0.73455542 0 9
-3.5663331 0.80247563 -0.73244357 0 10
-3.7631419 0.84676045 -0.73602879 0 11
-3.9676871 0.89278603 -0.73733467 0 12
-4.1692958 0.93815082 -0.73426861 0 13
-4.4055037 0.991301 -0.73317486 0 14
-4.699069 1.0573573 -0.73662847 0 15
-4.9962349 1.1242238 -0.73507458 0 16
-5.1445966 1.1576074 -0.70746589 0 17
-5.1608248 1.1612589 -0.6602273 0 18
-5.143333 1.1573231 -0.60880011 0 19
-5.1644917 1.162084 -0.5620175 0 20
-5.1612954 1.1613648 -0.51250929 0 21
-5.1572552 1.1604557 -0.46307361 0 22
-5.1636248 1.161889 -0.41462958 0 23
-5.1637702 1.1619217 -0.36569446 0 24
-5.1637578 1.161919 -0.31680912 0 25
-5.1573606 1.1604794 -0.26764643 0 26
-5.1535959 1.1596323 -0.21876185 0 27
-5.1487842 1.1585497 -0.16995087 0 28
-5.154964 1.1599402 -0.12151861 0 29
-5.1553702 1.1600316 -0.072908685 0 30
-5.1620951 1.1615448 -0.024333226 0 31
-5.1579342 1.1606085 0.02431361 0 32
-5.1622005 1.1615685 0.073005281 0 33
-5.1567397 1.1603398 0.12156048 0 34
-5.1612501 1.1613547 0.17036234 0 35
-5.1625595 1.1616493 0.21914235 0 36
-5.1468081 1.158105 0.26709881 0 37
-5.1650038 1.1621993 0.31688556 0 38
-5.1547298 1.1598876 0.36505425 0 39
-5.1592698 1.1609091 0.41427988 0 40
-5.151679 1.159201 0.46257296 0 41
-5.1415439 1.1569204 0.510548 0 42
-5.1436639 1.1573975 0.55975097 0 43
-5.1436653 1.1573979 0.60883945 0 44
-5.1612458 1.1613537 0.66028112 0 45
-5.146472 1.1580294 0.7077238 0 46
-5.1466851 1.1580774 0.75720966 0 47
-5.1505904 1.1589561 0.80740929 0 48
-5.163631 1.1618904 0.85934424 0 49
-5.149291 1.1586637 0.90685892 0 50
-5.1729374 1.1639844 0.96131217 0 51
-5.1516371 1.1591916 1.007603 0 52
-5.1534405 1.1595974 1.0583992 0 53
-5.1702991 1.1633908 1.1126571 0 54
-5.1642179 1.1620225 1.1622803 0 55
-5.1564422 1.1602727 1.2115914 0 56
-5.1617336 1.1614635 1.2641642 0 57
-5.1588769 1.1608206 1.3149917 0 58
-5.162189 1.1615659 1.3676326 0 59
-5.1462965 1.1579899 1.4153054 0 60
-5.1563482 1.1602517 1.4703116 0 61
-5.158494 1.1607344 1.523455 0 62
-5.1730604 1.1640121 1.580717 0 63
-2.4069419 0.5105865 -0.73350829 0 0
-2.4926748 0.52877313 -0.7341845 0 1
-2.58673 0.54872513 -0.73561585 0 2
-2.6720171 0.56681716 -0.73287082 0 3
-2.7981434 0.59357244 -0.73933005 0 4
-2.8762572 0.61014277 -0.73118693 0 5
-3.0094864 0.63840479 -0.73507762 0 6
-3.1376395 0.66558999 -0.73526168 0 7
-3.2801211 0.69581473 -0.73625636 0 8
-3.4164302 0.72473013 -0.73324829 0 9
-3.5897372 0.76149386 -0.73527157 0 10
-3.7562432 0.79681492 -0.73270774 0 11
-3.9570673 0.83941585 -0.73338753 0 12
-4.2007861 0.89111614 -0.73782891 0 13
-4.4206696 0.93776023 -0.73372436 0 14
-4.692348 0.99539155 -0.73360074 0 15
-5.0159168 1.0640305 -0.73598969 0 16
-5.1593256 1.0944519 -0.70758724 0 17
-5.16505 1.0956662 -0.65899444 0 18
-5.1662683 1.0959246 -0.60987365 0 19
-5.1627502 1.0951784 -0.56032014 0 20
-5.1689024 1.0964835 -0.51188713 0 21
-5.1711907 1.0969689 -0.46307874 0 22
-5.1619239 1.095003 -0.41338056 0 23
-5.1606774 1.0947387 -0.36449456 0 24
-5.1655049 1.0957627 -0.31606573 0 25
-5.1555762 1.0936565 -0.26683575 0 26
-5.151721 1.0928386 -0.21809533 0 27
-5.1566558 1.0938855 -0.16975388 0 28
-5.1526093 1.0930271 -0.12113711 0 29
-5.1545711 1.0934433 -0.072701737 0 30
-5.1651578 1.0956891 -0.024282316 0 31
-5.1535482 1.0932264 0.024227738 0 32
-5.1534243 1.0932001 0.07268557 0 33
-5.1672921 1.0961418 0.12148231 0 34
-5.1546898 1.0934685 0.16968915 0 35
-5.1628647 1.0952027 0.2185671 0 36
-5.1538115 1.0932822 0.26674443 0 37
-5.161139 1.0948366 0.31579861 0 38
-5.1661463 1.0958987 0.36488083 0 39
-5.1419106 1.0907577 0.41177785 0 40
-5.1497068 1.0924114 0.46115485 0 41
-5.1597877 1.09455 0.51098448 0 42
-5.159462 1.0944808 0.55996329 0 43
-5.1492996 1.0923251 0.60787052 0 44
-5.1699967 1.0967157 0.65962559 0 45
-5.163043 1.0952405 0.70809704 0 46
-5.1575222 1.0940694 0.75676763 0 47
-5.1627913 1.0951871 0.80714971 0 48
-5.1627154 1.095171 0.85688597 0 49
-5.1551394 1.0935639 0.90545225 0 50
-5.1596742 1.0945259 0.95627409 0 51
-5.1535702 1.093231 1.0052758 0 52
-5.1592293 1.0944314 1.0567443 0 53
-5.1571212 1.0939842 1.1068425 0 54
-5.1588044 1.0943414 1.1579459 0 55
-5.159781 1.0945486 1.2091222 0 56
-5.1517301 1.0928407 1.2583281 0 57
-5.1720691 1.0971552 1.3148161 0 58
-5.1499176 1.0924562 1.3607197 0 59
-5.1539955 1.0933213 1.4136187 0 60
-5.15202 1.0929022 1.4651346 0 61
-5.159626 1.0945157 1.5196998 0 62
-5.1643229 1.095512 1.5738119 0 63
-2.4230127 0.48294142 -0.73654044 0 0
-2.5096829 0.50021601 -0.73732662 0 1
-2.6078634 0.51978481 -0.73975223 0 2
-2.675468 0.53325939 -0.73196352 0 3
-2.7904258 0.55617213 -0.73542827 0 4
-2.9016066 0.57833207 -0.73576766 0 5
-3.0200047 0.6019305 -0.73578316 0 6
-3.155889 0.62901419 -0.73766994 0 7
-3.2812836 0.6540072 -0.73465669 0 8
-3.4349287 0.68463081 -0.73535603 0 9
-3.5920968 0.71595675 -0.73389614 0 10
-3.7742 0.75225252 -0.73435056 0 11
-3.9872289 0.79471225 -0.73711067 0 12
-4.194447 0.83601385 -0.7348544 0 13
-4.4254665 0.88205934 -0.73266488 0 14
-4.7216678 0.9410966 -0.73631978 0 15
-5.0116754 0.99889928 -0.73350966 0 16
-5.1667428 1.0298064 -0.70681435 0 17
-5.1715407 1.0307628 -0.65815568 0 18
-5.1719584 1.0308459 -0.60900295 0 19
-5.1712294 1.0307007 -0.55982256 0 20
-5.1796961 1.0323882 -0.51166016 0 21
-5.1794062 1.0323304 -0.4626427 0 22
-5.1753116 1.0315143 -0.41340569 0 23
-5.1682916 1.0301151 -0.36411017 0 24
-5.1666441 1.0297867 -0.31533682 0 25
-5.1660361 1.0296656 -0.26670167 0 26
-5.1733561 1.0311246 -0.21845798 0 27
-5.1749372 1.0314397 -0.16992532 0 28
-5.1695495 1.0303658 -0.12122835 0 29
-5.1615357 1.0287687 -0.072616063 0 30
-5.1624174 1.0289444 -0.024208123 0 31
-5.1755061 1.031553 0.024269499 0 32
-5.1648006 1.0294193 0.072661996 0 33
-5.1656981 1.0295982 0.12113803 0 34
-5.1653924 1.0295373 0.16961192 0 35
-5.1612582 1.0287132 0.21794711 0 36
-5.1617651 1.0288143 0.26648119 0 37
-5.172081 1.0308704 0.31566864 0 38
-5.1607742 1.0286168 0.36358058 0 39
-5.1695366 1.0303633 0.41294438 0 40
-5.1534953 1.027166 0.46032825 0 41
-5.1610632 1.0286744 0.50981963 0 42
-5.1732202 1.0310974 0.56003809 0 43
-5.1568961 1.0278438 0.60722935 0 44
-5.167933 1.0300436 0.65769655 0 45
-5.179244 1.0322981 0.70852453 0 46
-5.1598954 1.0284417 0.75520313 0 47
-5.166049 1.0296681 0.8056187 0 48
-5.1694541 1.0303469 0.85583693 0 49
-5.1612477 1.0287112 0.90423495 0 50
-5.1731219 1.0310779 0.95634431 0 51
-5.1520448 1.0268768 1.0024394 0 52
-5.1638937 1.0292386 1.0550277 0 53
-5.1648698 1.0294331 1.1057051 0 54
-5.1807709 1.0326023 1.1599387 0 55
-5.1583662 1.0281368 1.2057368 0 56
-5.1740079 1.0312544 1.2605768 0 57
-5.1713662 1.030728 1.3113164 0 58
-5.1716137 1.0307773 1.3630003 0 59
-5.1690011 1.0302565 1.4141526 0 60
-5.1667957 1.029817 1.4656247 0 61
-5.1661758 1.0296935 1.517785 0 62
-5.17173 1.0308005 1.5720875 0 63
-2.415169 0.45057571 -0.73241657 0 0
-2.5091469 0.4681083 -0.73542249 0 1
-2.5930521 0.4837617 -0.73380798 0 2
-2.705683 0.50477421 -0.73847592 0 3
-2.7905197 0.52060139 -0.73371047 0 4
-2.9131782 0.54348463 -0.73695159 0 5
-3.0268538 0.56469208 -0.73570454 0 6
-3.1560943 0.58880323 -0.7359699 0 7
-3.2713921 0.6103133 -0.73070651 0 8
-3.4500556 0.64364487 -0.73684442 0 9
-3.6160214 0.67460757 -0.73703367 0 10
-3.7959759 0.70818001 -0.73683745 0 11
-3.9836602 0.74319458 -0.73470598 0 12
-4.2135801 0.78608853 -0.73645729 0 13
-4.4373755 0.82784003 -0.73289579 0 14
-4.7257457 0.88163853 -0.73520947 0 15
-5.0407205 0.94040048 -0.73601258 0 16
-5.1735396 0.96517932 -0.70606714 0 17
-5.1764631 0.96572471 -0.6572212 0 18
-5.1524715 0.96124882 -0.6052708 0 19
-5.1679015 0.96412748 -0.5581367 0 20
-5.163887 0.96337855 -0.50888991 0 21
-5.1619763 0.96302211 -0.4599933 0 22
-5.1689706 0.96432692 -0.41192079 0 23
-5.1728621 0.9650529 -0.36356866 0 24
-5.1626725 0.96315199 -0.31434783 0 25
-5.1580324 0.96228623 -0.26565748 0 26
-5.175828 0.96560621 -0.21804447 0 27
-5.1796846 0.9663257 -0.16967821 0 28
-5.1693096 0.96439016 -0.12093548 0 29
-5.1650934 0.96360356 -0.072493926 0 30
-5.1796689 0.96632278 -0.024231467 0 31
-5.1710782 0.96472013 0.024191279 0 32
-5.1752629 0.96550083 0.072636664 0 33
-5.1819773 0.96675342 0.12123185 0 34
-5.1828799 0.96692187 0.16978289 0 35
-5.1762648 0.96568769 0.21806288 0 36
-5.1763444 0.96570259 0.26660064 0 37
-5.1612921 0.96289438 0.31426376 0 38
-5.1673713 0.96402854 0.36318275 0 39
-5.1694217 0.96441108 0.41195676 0 40
-5.1752124 0.96549141 0.46117279 0 41
-5.1672378 0.96400368 0.50922012 0 42
-5.1766901 0.96576709 0.55908585 0 43
-5.1804862 0.96647525 0.60856169 0 44
-5.1740732 0.96527886 0.65691775 0 45
-5.1726975 0.96502215 0.70595223 0 46
-5.1514378 0.96105593 0.75217879 0 47
-5.1796236 0.96631432 0.80582166 0 48
-5.1829681 0.96693832 0.85604101 0 49
-5.1592903 0.96252102 0.90175033 0 50
-5.1720266 0.96489704 0.95387626 0 51
-5.1641865 0.9634344 1.002421 0 52
-5.1738305 0.96523356 1.0545532 0 53
-5.1666799 0.96389955 1.1034719 0 54
-5.1782026 0.96604925 1.1566166 0 55
-5.1715279 0.96480399 1.2059491 0 56
-5.1723051 0.96494895 1.257176 0 57
-5.1729035 0.96506065 1.3085982 0 58
-5.1714072 0.96478146 1.3597164 0 59
-5.1742644 0.96531451 1.4122384 0 60
-5.1686025 0.96425825 1.4626632 0 61
-5.1539812 0.96153051 1.5106144 0 62
-5.1682787 0.96419781 1.5673159 0 63
-2.4344318 0.42326346 -0.73662412 0 0
-2.504775 0.43549374 -0.73251617 0 1
-2.5946763 0.45112443 -0.73264235 0 2
-2.7026827 0.46990302 -0.73602432 0 3
-2.8005574 0.48692006 -0.73471987 0 4
-2.9119549 0.50628817 -0.73501164 0 5
-3.0144701 0.52411205 -0.73107284 0 6
-3.1810677 0.55307758 -0.74015158 0 7
-3.2971096 0.57325327 -0.73482078 0 8
-3.4392612 0.59796852 -0.7329132 0 9
-3.6126204 0.62810969 -0.73471063 0 10
-3.7902882 0.65899998 -0.73410499 0 11
-4.0055943 0.69643432 -0.73711622 0 12
-4.2249584 0.73457408 -0.73681158 0 13
-4.447886 0.77333349 -0.7330057 0 14
-4.7489281 0.82567424 -0.73718077 0 15
-5.0644078 0.88052529 -0.73783451 0 16
-5.1697145 0.89883447 -0.70398349 0 17
-5.1859155 0.90165126 -0.65696394 0 18
-5.1713004 0.8991102 -0.60613805 0 19
-5.1868858 0.90182 -0.55894715 0 20
-5.172152 0.89925826 -0.50857621 0 21
-5.1858983 0.90164834 -0.46110219 0 22
-5.1830568 0.90115428 -0.41212916 0 23
-5.1773739 0.90016621 -0.36308038 0 24
-5.1686721 0.89865327 -0.31401655 0 25
-5.1760039 0.89992797 -0.26599306 0 26
-5.1562276 0.89648956 -0.21673797 0 27
-5.1770129 0.90010339 -0.16921532 0 28
-5.1895471 0.90228266 -0.12114021 0 29
-5.164813 0.8979823 -0.072329551 0 30
-5.1899004 0.90234411 -0.024225593 0 31
-5.1816411 0.90090805 0.02418704 0 32
-5.1732135 0.89944291 0.072447196 0 33
-5.1733932 0.89947408 0.12076313 0 34
-5.1724272 0.89930612 0.16906543 0 35
-5.1863117 0.90172017 0.21800254 0 36
-5.1803336 0.90068072 0.26621556 0 37
-5.189322 0.90224355 0.31527111 0 38
-5.1775584 0.90019822 0.36309329 0 39
-5.1652174 0.89805263 0.41071066 0 40
-5.1727214 0.89935726 0.45993054 0 41
-5.1714997 0.89914489 0.50851208 0 42
-5.1759415 0.89991713 0.55776775 0 43
-5.1854548 0.90157115 0.60779715 0 44
-5.1682487 0.8985796 0.65472585 0 45
-5.1695166 0.89880008 0.70395654 0 46
-5.1816339 0.90090686 0.75491321 0 47
-5.1703901 0.89895195 0.80260479 0 48
-5.1808767 0.90077525 0.85380167 0 49
-5.1790819 0.90046316 0.90320593 0 50
-5.1840544 0.90132773 0.95397836 0 51
-5.1782007 0.90030992 1.0029166 0 52
-5.1787653 0.90040809 1.0532228 0 53
-5.1879411 0.90200347 1.1055602 0 54
-5.1741185 0.89960021 1.1531464 0 55
-5.1678843 0.89851624 1.202432 0 56
-5.1743045 0.89963251 1.2548784 0 57
