# .PCD v0.7 - Point Cloud Data file format
VERSION 0.7
FIELDS x y z intensity ring
SIZE 4 4 4 4 2
TYPE F F F F U
COUNT 1 1 1 1 1
WIDTH 1339
HEIGHT 1
VIEWPOINT 0 0 0 1 0 0 0
POINTS 1339
DATA ascii
6.1899695 0.19033732 -0.37068105 0 25
6.1968632 0.1905493 -0.31389609 0 26
6.2000732 0.190648 -0.2568846 0 27
6.1953602 0.19050308 -0.19960219 0 28
6.2038274 0.19076344 -0.14274369 0 29
6.1921587 0.19040462 -0.085475475 0 30
6.1938386 0.19045629 -0.028497947 0 31
6.2068901 0.19085762 0.028557997 0 32
6.1905575 0.19035539 0.085453376 0 33
6.1905112 0.19035397 0.14243729 0 34
6.1835494 0.1901399 0.19922167 0 35
6.2048979 0.19079636 0.25708449 0 36
6.1985693 0.19060175 0.31398252 0 37
6.1838865 0.19015026 0.37031674 0 38
6.1981206 0.19058797 0.42844152 0 39
6.1938314 0.19045608 0.4854506 0 40
6.2005138 0.19066155 0.54342443 0 41
6.2031512 0.19074264 0.60122281 0 42
6.2062249 0.19083716 0.65921921 0 43
6.189352 0.19031833 0.7150811 0 44
6.1951356 0.19049616 0.77357996 0 45
6.1798902 0.19002739 0.82949728 0 46
6.1858459 0.19021052 0.88831645 0 47
6.1987939 0.19060865 0.94847071 0 48
6.1884871 0.19029173 1.0052557 0 49
6.1836095 0.19014175 1.0629537 0 50
6.1871219 0.19024976 1.1222663 0 51
6.1898389 0.19033331 1.1816901 0 52
6.1998539 0.19064125 1.2428359 0 53
6.1984034 0.19059666 1.3019836 0 54
6.2070813 0.19086349 1.3635587 0 55
6.1928234 0.19042507 1.4202826 0 56
6.1894445 0.19032118 1.4795841 0 57
6.1967983 0.19054729 1.5417546 0 58
6.1939254 0.19045897 1.6017014 0 59
6.1905432 0.19035496 1.6617441 0 60
6.1971931 0.19055945 1.7248138 0 61
0 0 0 0 62
0 0 0 0 63
2.467205 0.10624295 -0.73618829 0 0
2.5398259 0.10937015 -0.73246652 0 1
2.6284509 0.11318653 -0.7318871 0 2
2.7381999 0.11791255 -0.73535597 0 3
2.8444331 0.12248717 -0.73588234 0 4
2.9375746 0.12649803 -0.73119611 0 5
3.0826001 0.13274314 -0.73722869 0 6
3.2040224 0.13797183 -0.73515463 0 7
3.3404047 0.14384474 -0.73414618 0 8
3.5028718 0.15084089 -0.73611724 0 9
3.6593442 0.15757892 -0.7338928 0 10
3.8537047 0.16594848 -0.73603714 0 11
4.0510721 0.17444754 -0.73514724 0 12
4.2637596 0.18360631 -0.73326695 0 13
4.5327406 0.19518918 -0.73663092 0 14
4.7802744 0.20584849 -0.73175657 0 15
5.1225276 0.22058661 -0.73595279 0 16
5.5046716 0.23704255 -0.73920131 0 17
5.8738756 0.25294122 -0.73379749 0 18
6.1949973 0.26676938 -0.71605814 0 19
6.1844296 0.26631433 -0.6572023 0 20
6.1821952 0.2662181 -0.59946364 0 21
6.1977715 0.26688886 -0.54343063 0 22
6.1819487 0.26620749 -0.48473918 0 23
6.1934342 0.26670209 -0.42831191 0 24
6.187964 0.26646653 -0.37072912 0 25
6.1826801 0.26623899 -0.3133198 0 26
6.1877332 0.26645657 -0.25648966 0 27
6.1726828 0.26580846 -0.19896182 0 28
6.1784859 0.26605839 -0.14222513 0 29
6.1849265 0.26633573 -0.085414395 0 30
6.1994858 0.26696268 -0.028536877 0 31
6.1963239 0.26682651 0.028522322 0 32
6.2021737 0.26707843 0.085652575 0 33
6.1840081 0.26629618 0.14235224 0 34
6.1759734 0.26595017 0.19906791 0 35
6.1936278 0.26671043 0.25673404 0 36
6.1772423 0.26600483 0.31304422 0 37
6.1883154 0.26648167 0.37075016 0 38
6.187531 0.26644787 0.42790365 0 39
6.1922536 0.26665124 0.48554718 0 40
6.2093558 0.26738772 0.54444635 0 41
6.1898365 0.26654717 0.60020459 0 42
6.1875749 0.26644978 0.65753651 0 43
6.178442 0.26605648 0.71414459 0 44
6.2007952 0.26701906 0.77463812 0 45
6.1878958 0.26646358 0.83094883 0 46
6.2027793 0.26710451 0.8911525 0 47
6.191896 0.26663584 0.94784528 0 48
6.1871514 0.26643154 1.0054948 0 49
6.1903811 0.26657063 1.0646007 0 50
6.1880293 0.26646933 1.1229404 0 51
6.2035475 0.26713759 1.1848447 0 52
6.1941209 0.26673165 1.2422501 0 53
6.1842828 0.26630801 1.2996072 0 54
6.1851292 0.26634443 1.3593528 0 55
6.1825891 0.26623508 1.4185791 0 56
6.1868868 0.26642013 1.4796438 0 57
6.201757 0.26706046 1.5436887 0 58
6.1681457 0.26561311 1.5957589 0 59
6.1856232 0.26636574 1.6611772 0 60
6.1895618 0.26653531 1.7234716 0 61
0 0 0 0 62
0 0 0 0 63
2.4516094 0.13578942 -0.73197764 0 0
2.5291095 0.14008199 -0.72981757 0 1
2.631484 0.14575228 -0.73317528 0 2
2.7342222 0.15144274 -0.73473227 0 3
2.8410277 0.15735847 -0.73544627 0 4
2.9660141 0.1642812 -0.73872203 0 5
3.0698514 0.17003252 -0.73462421 0 6
3.1992159 0.17719774 -0.73449618 0 7
3.3380573 0.18488787 -0.73407441 0 8
3.5125265 0.19455135 -0.73859304 0 9
3.6496117 0.20214421 -0.73238403 0 10
3.8509724 0.21329714 -0.7359606 0 11
4.0560913 0.22465824 -0.73650366 0 12
4.2559738 0.23572929 -0.73237103 0 13
4.5116987 0.24989337 -0.73365527 0 14
4.7816873 0.26484746 -0.73241603 0 15
5.1110821 0.28309193 -0.73475301 0 16
5.4985971 0.30455557 -0.73883259 0 17
5.8581223 0.32446891 -0.73227257 0 18
6.1786623 0.3422229 -0.71460241 0 19
6.1896963 0.34283409 -0.65816015 0 20
6.1764622 0.34210107 -0.59927034 0 21
6.1741424 0.34197259 -0.54168653 0 22
6.1891804 0.3428055 -0.48560002 0 23
6.1856523 0.34261006 -0.4280327 0 24
6.1758609 0.34206775 -0.37022799 0 25
6.2041974 0.34363726 -0.31460059 0 26
6.1782694 0.34220117 -0.25625244 0 27
6.1962957 0.34319961 -0.19984385 0 28
6.1812682 0.34236726 -0.14237532 0 29
6.1865983 0.34266248 -0.085489206 0 30
6.1780114 0.34218687 -0.028455246 0 31
6.1774898 0.34215796 0.028452842 0 32
6.1716094 0.34183228 0.085282087 0 33
6.185894 0.34262347 0.14248186 0 34
6.2001534 0.34341326 0.19996826 0 35
6.1797976 0.34228581 0.25631583 0 36
6.1902032 0.34286216 0.31389099 0 37
6.1959233 0.34317896 0.3714307 0 38
6.2045379 0.34365612 0.42933956 0 39
6.1833949 0.34248507 0.48514614 0 40
6.1969147 0.34323388 0.54368448 0 41
6.1792431 0.34225509 0.59954011 0 42
6.1788177 0.34223154 0.65700346 0 43
6.1902785 0.34286633 0.7159459 0 44
6.1873369 0.3427034 0.7734248 0 45
6.1899352 0.34284732 0.83172596 0 46
6.18399 0.34251803 0.88899088 0 47
6.1790657 0.34224528 0.94645393 0 48
6.1820121 0.34240845 1.0052679 0 49
6.1956291 0.34316269 1.0661483 0 50
6.1904211 0.34287423 1.1240546 0 51
6.1791325 0.34224898 1.180896 0 52
6.1822042 0.34241909 1.2406108 0 53
6.1909962 0.34290606 1.3018056 0 54
6.1768017 0.34211987 1.3583446 0 55
6.1963854 0.34320459 1.4226054 0 56
6.1740561 0.34196779 1.4774693 0 57
6.1913552 0.34292597 1.5420326 0 58
6.1779652 0.34218431 1.5992669 0 59
6.2051878 0.34369212 1.6674402 0 60
6.186295 0.34264567 1.7236049 0 61
0 0 0 0 62
0 0 0 0 63
2.4623659 0.16677719 -0.73574585 0 0
2.5482574 0.17259467 -0.73589981 0 1
2.6366463 0.17858128 -0.73516983 0 2
2.7285578 0.1848065 -0.73376536 0 3
2.8360584 0.19208756 -0.73471582 0 4
2.9767017 0.2016134 -0.74194521 0 5
3.0529211 0.20677577 -0.73112589 0 6
3.1969216 0.216529 -0.7345252 0 7
3.3502004 0.22691065 -0.73730266 0 8
3.5146756 0.23805062 -0.73960459 0 9
3.6330452 0.24606784 -0.72961164 0 10
3.8550692 0.26110566 -0.73730141 0 11
4.0650773 0.27532956 -0.73869425 0 12
4.254488 0.28815848 -0.73266977 0 13
4.5280566 0.30668738 -0.73687279 0 14
4.7721786 0.32322189 -0.73151308 0 15
5.1056428 0.34580755 -0.73452681 0 16
5.4178977 0.36695674 -0.72854042 0 17
5.8778377 0.39810869 -0.73529339 0 18
6.1807389 0.41862434 -0.71538389 0 19
6.1878452 0.41910565 -0.65846151 0 20
6.1787605 0.41849032 -0.59994727 0 21
6.1762128 0.41831779 -0.54227847 0 22
6.1973791 0.41975138 -0.48661149 0 23
6.1758966 0.41829637 -0.42768124 0 24
6.1669068 0.41768751 -0.36997119 0 25
6.1748419 0.41822493 -0.31334916 0 26
6.1860819 0.4189862 -0.25677076 0 27
6.1695733 0.41786808 -0.19913267 0 28
6.187479 0.41908085 -0.1426263 0 29
6.1849556 0.41890991 -0.08553122 0 30
6.1918707 0.41937831 -0.028540675 0 31
6.1699662 0.41789472 0.02843971 0 32
6.18818 0.4191283 0.085575812 0 33
6.1740074 0.4181684 0.14231576 0 34
6.1845222 0.41888058 0.19961517 0 35
6.1748762 0.41822726 0.25630563 0 36
6.1823831 0.41873568 0.31373182 0 37
6.1615033 0.4173215 0.369647 0 38
6.1722136 0.41804689 0.42742616 0 39
6.1770735 0.41837606 0.48501709 0 40
6.1717939 0.41801849 0.5418905 0 41
6.1824303 0.4187389 0.60030359 0 42
6.1810117 0.41864279 0.65773433 0 43
6.1720986 0.41803911 0.71438378 0 44
6.1711717 0.41797635 0.77198827 0 45
6.1799741 0.41857255 0.83101624 0 46
6.1733985 0.41812715 0.88814026 0 47
6.1832771 0.41879624 0.94781613 0 48
6.1819987 0.41870967 1.0060269 0 49
6.1836748 0.41882318 1.0648969 0 50
6.1788712 0.41849783 1.1228068 0 51
6.1678371 0.41775051 1.1796299 0 52
6.1799278 0.41856939 1.241093 0 53
6.1806064 0.41861534 1.3006049 0 54
6.183197 0.41879082 1.3607806 0 55
6.1885338 0.41915226 1.4218785 0 56
6.1768537 0.41836119 1.4792579 0 57
6.1795926 0.41854671 1.5402684 0 58
6.179081 0.41851205 1.6007669 0 59
6.1875968 0.41908881 1.6639721 0 60
6.1833234 0.41879937 1.7240814 0 61
0 0 0 0 62
0 0 0 0 63
2.4609346 0.19710523 -0.73598683 0 0
2.5346601 0.20301017 -0.73263866 0 1
2.6316111 0.21077532 -0.73443305 0 2
2.7532253 0.22051585 -0.74107212 0 3
2.8347297 0.22704382 -0.73503929 0 4
2.9602463 0.23709692 -0.7385146 0 5
3.0591316 0.24501701 -0.73327935 0 6
3.2081752 0.25695443 -0.73778099 0 7
3.3318436 0.2668595 -0.73392946 0 8
3.469631 0.27789539 -0.73078948 0 9
3.6547382 0.2927213 -0.73463547 0 10
3.8370049 0.3073197 -0.7345137 0 11
3.99927 0.32031611 -0.72739673 0 12
4.255147 0.34081021 -0.73344946 0 13
4.5248189 0.36240923 -0.73701543 0 14
4.7716837 0.38218156 -0.73210222 0 15
5.1070008 0.40903831 -0.73539025 0 16
5.418314 0.43397251 -0.72925884 0 17
5.8705859 0.4701966 -0.7350539 0 18
6.1772265 0.49475661 -0.71562743 0 19
6.179235 0.49491745 -0.65814316 0 20
6.1699204 0.49417138 -0.59963357 0 21
6.1640081 0.49369788 -0.54169893 0 22
6.172255 0.49435839 -0.48507938 0 23
6.1790867 0.49490556 -0.4282912 0 24
6.1780887 0.49482563 -0.37097898 0 25
6.1681943 0.49403316 -0.31329638 0 26
6.1733937 0.49444959 -0.25647706 0 27
6.1784616 0.49485549 -0.19960086 0 28
6.1773667 0.49476781 -0.14252266 0 29
6.1702781 0.49420008 -0.085405834 0 30
6.1774764 0.49477661 -0.028500214 0 31
6.1782823 0.49484113 0.028503932 0 32
6.1821656 0.49515218 0.085570373 0 33
6.1668229 0.49392334 0.1422794 0 34
6.1758885 0.49464944 0.19951774 0 35
6.1712375 0.49427691 0.2563875 0 36
6.1741152 0.49450737 0.31359711 0 37
6.1698165 0.4941631 0.37048227 0 38
6.1858382 0.49544632 0.42875916 0 39
6.177053 0.49474266 0.48545647 0 40
6.1828766 0.4952091 0.54335713 0 41
6.1721969 0.49435371 0.59985483 0 42
6.185976 0.49545735 0.6588611 0 43
6.161984 0.49353576 0.71386158 0 44
6.1717725 0.49431974 0.77276534 0 45
6.1915579 0.49590442 0.83333087 0 46
6.1788363 0.4948855 0.88973081 0 47
6.1769142 0.49473155 0.94770163 0 48
6.1723485 0.49436587 1.0053697 0 49
6.1625247 0.49357903 1.0622195 0 50
6.1691027 0.49410594 1.122051 0 51
6.1596155 0.49334607 1.1791286 0 52
6.1823382 0.495166 1.2427061 0 53
6.1697464 0.49415749 1.2995002 0 54
6.1872315 0.4955579 1.3629065 0 55
6.1717768 0.49432006 1.4193176 0 56
6.1668415 0.49392483 1.4782031 0 57
6.1761827 0.49467298 1.5408181 0 58
6.1865406 0.49550259 1.6041567 0 59
6.164052 0.49370137 1.6591475 0 60
6.1711636 0.49427095 1.7222553 0 61
0 0 0 0 62
0 0 0 0 63
2.4494302 0.22652623 -0.73332375 0 0
2.5342634 0.23437171 -0.73330152 0 1
2.6318283 0.24339463 -0.7352733 0 2
2.7327785 0.25273064 -0.7363494 0 3
2.8447688 0.26308763 -0.73842543 0 4
2.9423077 0.27210814 -0.73481852 0 5
3.0574563 0.28275722 -0.73365569 0 6
3.1971228 0.29567376 -0.73601979 0 7
3.3498805 0.30980095 -0.73868585 0 8
3.4830022 0.3221122 -0.73438454 0 9
3.6502123 0.337576 -0.73450458 0 10
3.8450701 0.35559669 -0.736839 0 11
4.009635 0.37081584 -0.73005605 0 12
4.2549191 0.3935 -0.73418868 0 13
4.5339541 0.4193055 -0.73928732 0 14
4.7562814 0.43986657 -0.73051369 0 15
5.1113887 0.47270733 -0.73680335 0 16
5.4333887 0.50248629 -0.73206407 0 17
5.8833256 0.54409695 -0.73743099 0 18
6.1738467 0.57096475 -0.71599507 0 19
6.1689382 0.57051075 -0.65774387 0 20
6.1715398 0.57075137 -0.60042769 0 21
6.1591296 0.56960368 -0.54184479 0 22
6.1682487 0.57044703 -0.48527911 0 23
6.1661854 0.57025617 -0.42785066 0 24
6.1625962 0.56992424 -0.3704415 0 25
6.1850262 0.57199866 -0.3144848 0 26
6.1681151 0.57043469 -0.25652981 0 27
6.1639719 0.57005149 -0.19934414 0 28
6.1674271 0.57037103 -0.14244437 0 29
6.1718545 0.57078046 -0.08551833 0 30
6.1588326 0.5695762 -0.028444363 0 31
6.1891065 0.57237595 0.02858418 0 32
6.1823559 0.57175165 0.08566384 0 33
6.1702409 0.57063127 0.14250937 0 34
6.1754575 0.57111371 0.1997156 0 35
6.1716228 0.57075906 0.25667566 0 36
6.1755986 0.57112676 0.31400543 0 37
6.1720004 0.57079399 0.37100682 0 38
6.1686888 0.57048768 0.42802435 0 39
6.1716886 0.57076514 0.48554975 0 40
6.1763272 0.57119411 0.54335773 0 41
6.1768909 0.57124627 0.60094827 0 42
6.1727414 0.57086253 0.65814942 0 43
6.1796894 0.57150507 0.71667266 0 44
6.1729226 0.57087928 0.7737298 0 45
6.1846437 0.57196325 0.8332839 0 46
6.1736445 0.57094604 0.88992685 0 47
6.1869011 0.57217205 0.95024157 0 48
6.178793 0.57142216 1.0074878 0 49
6.1782932 0.57137597 1.0660679 0 50
6.1499348 0.5687533 1.119752 0 51
6.1766353 0.57122266 1.1836418 0 52
6.1670794 0.5703389 1.2409548 0 53
6.17419 0.57099652 1.3018166 0 54
6.16085 0.56976277 1.3585359 0 55
6.16959 0.57057106 1.4203209 0 56
6.1674938 0.57037717 1.4799286 0 57
6.1701899 0.57062656 1.540957 0 58
6.1691756 0.57053274 1.601352 0 59
6.17623 0.57118517 1.6641902 0 60
6.1648698 0.57013452 1.7223253 0 61
0 0 0 0 62
0 0 0 0 63
2.4663174 0.25870919 -0.73927611 0 0
2.5398831 0.266426 -0.73581994 0 1
2.6296468 0.27584192 -0.73555589 0 2
2.7267668 0.28602955 -0.73562163 0 3
2.8309798 0.29696119 -0.73573846 0 4
2.9470558 0.30913717 -0.73689789 0 5
3.045532 0.31946704 -0.7316817 0 6
3.2031102 0.33599651 -0.73829347 0 7
3.3328106 0.34960169 -0.73581403 0 8
3.479156 0.36495289 -0.73446429 0 9
3.640944 0.38192394 -0.73352915 0 10
3.8304799 0.40180567 -0.73493427 0 11
4.0228295 0.42198259 -0.73334783 0 12
4.25843 0.44669634 -0.73568666 0 13
4.4780321 0.46973193 -0.73105544 0 14
4.7767892 0.50107068 -0.73455429 0 15
5.1080289 0.53581673 -0.73721308 0 16
5.4295721 0.56954557 -0.73243809 0 17
5.8715024 0.61590272 -0.73684257 0 18
6.1595693 0.64612007 -0.71520662 0 19
6.1560097 0.64574665 -0.65716237 0 20
6.1642613 0.64661223 -0.60044771 0 21
6.1622348 0.64639968 -0.54277617 0 22
6.1691122 0.64712113 -0.48593637 0 23
6.1729546 0.64752412 -0.4288404 0 24
6.1854777 0.6488378 -0.37226841 0 25
6.1678934 0.64699328 -0.31399444 0 26
6.1740441 0.64763844 -0.25708815 0 27
6.1468415 0.64478499 -0.19903152 0 28
6.178503 0.64810616 -0.14287345 0 29
6.1835961 0.64864045 -0.085785061 0 30
6.1595349 0.64611644 -0.028482145 0 31
6.1732116 0.64755106 0.028545387 0 32
6.1574774 0.64590067 0.085422717 0 33
6.1600227 0.64616764 0.1424461 0 34
6.1670403 0.64690375 0.19968554 0 35
6.1635718 0.64653993 0.25665209 0 36
6.1656051 0.64675319 0.31387794 0 37
6.169127 0.64712262 0.37128434 0 38
6.1636543 0.64654857 0.42819431 0 39
6.1651449 0.64670497 0.48562387 0 40
6.1740999 0.64764428 0.54382128 0 41
6.1710634 0.64732575 0.60111028 0 42
6.1809478 0.64836258 0.65982455 0 43
6.1703 0.64724571 0.7164526 0 44
6.167213 0.64692187 0.77395272 0 45
6.1723843 0.64746433 0.8326419 0 46
6.1659455 0.64678895 0.88989627 0 47
6.1577215 0.64592624 0.94690818 0 48
6.1676145 0.64696401 1.0068861 0 49
6.1759748 0.64784098 1.0669619 0 50
6.1586814 0.64602691 1.1227062 0 51
6.1830001 0.64857787 1.1863 0 52
6.1724801 0.64747435 1.2435495 0 53
6.1626048 0.64643848 1.3009514 0 54
6.1650286 0.64669269 1.3611078 0 55
6.1532364 0.64545578 1.418276 0 56
6.174932 0.6477316 1.4835125 0 57
6.1788669 0.6481443 1.5449976 0 58
6.1717052 0.64739311 1.6039537 0 59
6.1724114 0.6474672 1.6651807 0 60
6.1606488 0.64623332 1.7232358 0 61
0 0 0 0 62
0 0 0 0 63
2.4458306 0.28700548 -0.73413754 0 0
2.5140517 0.29501083 -0.72933221 0 1
2.6157746 0.30694753 -0.73267597 0 2
2.7142975 0.31850865 -0.73325884 0 3
2.8180103 0.33067882 -0.73336911 0 4
2.9292855 0.34373638 -0.73345596 0 5
3.0393846 0.35665596 -0.7312032 0 6
3.2131717 0.37704894 -0.74162519 0 7
3.3164456 0.38916761 -0.7332021 0 8
3.4675333 0.40689695 -0.73301148 0 9
3.656178 0.42903343 -0.73760539 0 10
3.799751 0.44588098 -0.73003525 0 11
4.0252309 0.47233987 -0.73478878 0 12
4.2595592 0.49983704 -0.73688781 0 13
4.4785967 0.52553993 -0.73214722 0 14
4.7710223 0.55985457 -0.73467052 0 15
5.1006722 0.59853733 -0.73715782 0 16
5.4306049 0.63725317 -0.73357898 0 17
5.8736529 0.68924254 -0.73812026 0 18
6.1734753 0.72442514 -0.71780133 0 19
6.1719618 0.72424752 -0.65976608 0 20
6.1596456 0.72280228 -0.60081846 0 21
6.156898 0.72247988 -0.54304755 0 22
6.1595721 0.72279364 -0.48584825 0 23
6.1638112 0.7232911 -0.42879066 0 24
6.1701894 0.72403955 -0.371856 0 25
6.1703997 0.72406423 -0.3145515 0 26
6.1615596 0.72302687 -0.25691909 0 27
6.1631393 0.72321224 -0.19983207 0 28
6.1673846 0.72371042 -0.14281134 0 29
6.1671553 0.72368354 -0.085673951 0 30
6.157774 0.7225827 -0.028512934 0 31
6.1695776 0.72396779 0.02856759 0 32
6.1599603 0.72283924 0.085574001 0 33
6.164649 0.72338945 0.142748 0 34
6.1592131 0.72275156 0.19970477 0 35
6.1610742 0.72296989 0.25689882 0 36
6.1582665 0.72264051 0.31393299 0 37
6.1664858 0.72360498 0.37163281 0 38
6.1625857 0.72314727 0.42870542 0 39
6.1580796 0.72261852 0.48573053 0 40
6.1567206 0.72245908 0.54303193 0 41
6.1748109 0.72458184 0.60229766 0 42
6.1477332 0.72140443 0.65717614 0 43
6.1665311 0.72361028 0.71699393 0 44
6.1773376 0.72487837 0.7762832 0 45
6.1645117 0.72337335 0.83271688 0 46
6.1662049 0.72357202 0.89115041 0 47
6.1724143 0.72430062 0.95046532 0 48
6.1603761 0.72288805 1.0070795 0 49
6.1631799 0.72321701 1.0662072 0 50
6.1623712 0.72312212 1.1249146 0 51
6.1721997 0.72427541 1.1858469 0 52
6.1625972 0.72314864 1.2432559 0 53
6.1634688 0.72325093 1.3029128 0 54
6.1617446 0.72304857 1.3622427 0 55
6.1601558 0.72286212 1.4218122 0 56
6.1613097 0.72299761 1.4822637 0 57
6.1763597 0.72476363 1.5464822 0 58
6.166481 0.72360444 1.6047872 0 59
6.1662912 0.72358209 1.6658039 0 60
6.1660933 0.7235589 1.7271168 0 61
0 0 0 0 62
0 0 0 0 63
2.4460859 0.31757188 -0.73533076 0 0
2.5166376 0.32673153 -0.73119271 0 1
2.6210821 0.34029141 -0.73527908 0 2
2.7275479 0.3541137 -0.73795891 0 3
2.8214405 0.36630362 -0.73537838 0 4
2.9382257 0.3814657 -0.73681331 0 5
3.0556479 0.39671046 -0.73623365 0 6
3.1769586 0.41246003 -0.73438197 0 7
3.3137369 0.4302178 -0.73371738 0 8
3.4820411 0.45206848 -0.7371977 0 9
3.6435289 0.4730342 -0.73617131 0 10
3.7892127 0.49194813 -0.72911763 0 11
4.0273333 0.52286297 -0.73629051 0 12
4.2492871 0.55167896 -0.73622876 0 13
4.4824743 0.58195335 -0.73389554 0 14
4.7692399 0.61918372 -0.73551291 0 15
5.0500956 0.65564674 -0.73095828 0 16
5.4298997 0.70495623 -0.73459917 0 17
5.8716769 0.76231152 -0.73899406 0 18
6.1703801 0.80109173 -0.71853244 0 19
6.1660328 0.80052733 -0.66013467 0 20
6.1532726 0.79887074 -0.60110956 0 21
6.1711946 0.80119747 -0.54513627 0 22
6.1681819 0.80080634 -0.48726723 0 23
6.1664371 0.80057985 -0.42962569 0 24
6.1497355 0.79841149 -0.37118694 0 25
6.161943 0.79999638 -0.31459808 0 26
6.1580768 0.79949439 -0.25716433 0 27
6.1730862 0.80144304 -0.20045896 0 28
6.1599631 0.7997393 -0.1428564 0 29
6.1633244 0.80017573 -0.085750937 0 30
6.1671143 0.80066776 -0.028599609 0 31
6.1662674 0.80055779 0.028595682 0 32
6.1448579 0.79777825 0.085494012 0 33
6.1535292 0.79890406 0.1427072 0 34
6.1538615 0.79894716 0.19983467 0 35
6.1750431 0.80169713 0.25787285 0 36
6.1564846 0.79928774 0.3143194 0 37
6.1547556 0.79906327 0.37148994 0 38
6.1588645 0.79959673 0.4290981 0 39
6.16711 0.80066723 0.48718256 0 40
6.1656909 0.80048299 0.54465014 0 41
6.1785126 0.80214763 0.60357523 0 42
6.1625123 0.80007023 0.65975773 0 43
6.1698699 0.80102551 0.71847308 0 44
6.1614084 0.79992694 0.77545893 0 45
6.1640763 0.80027336 0.83392429 0 46
6.1560078 0.79922581 0.89102966 0 47
6.1601415 0.79976249 0.95001793 0 48
6.1693621 0.80095959 1.0100821 0 49
6.1725321 0.8013711 1.0694489 0 50
6.1576581 0.79944009 1.1257638 0 51
6.1577482 0.79945177 1.1848695 0 52
6.1634178 0.80018783 1.2453123 0 53
6.1561985 0.7992506 1.303355 0 54
6.1640749 0.80027318 1.3648304 0 55
6.1613307 0.79991686 1.424246 0 56
6.1578498 0.799465 1.4836842 0 57
6.16465 0.80034781 1.5458975 0 58
6.1590681 0.79962313 1.6052955 0 59
6.1573477 0.79939973 1.6659174 0 60
6.1627645 0.80010307 1.7288095 0 61
0 0 0 0 62
0 0 0 0 63
2.4309344 0.34604913 -0.73199975 0 0
2.5215254 0.35894498 -0.73383969 0 1
2.6098249 0.37151462 -0.73334718 0 2
2.7090104 0.38563389 -0.73417085 0 3
2.7979436 0.39829376 -0.73047549 0 4
2.9257865 0.41649246 -0.73492265 0 5
3.0405838 0.43283415 -0.73383099 0 6
3.1693718 0.45116743 -0.73385519 0 7
3.3219881 0.4728927 -0.73677611 0 8
3.4679728 0.49367395 -0.73544878 0 9
3.6253355 0.5160749 -0.73372209 0 10
3.8239896 0.54435378 -0.73704165 0 11
4.0261497 0.57313174 -0.73730689 0 12
4.2167106 0.60025853 -0.73180807 0 13
4.4763875 0.63722414 -0.73412639 0 14
4.7700167 0.67902291 -0.73686469 0 15
5.0490942 0.71875024 -0.73203725 0 16
5.427093 0.77255923 -0.73544902 0 17
5.7927127 0.82460612 -0.73027682 0 18
6.1610413 0.87703848 -0.71864653 0 19
6.1633248 0.87736356 -0.66094983 0 20
6.1598263 0.87686551 -0.60275751 0 21
6.1707468 0.87842011 -0.5460096 0 22
6.1678772 0.87801158 -0.48805913 0 23
6.1734967 0.8788116 -0.43083787 0 24
6.1617794 0.87714356 -0.37253672 0 25
6.1410322 0.87419015 -0.31405556 0 26
6.1648469 0.87758023 -0.25787821 0 27
6.1642027 0.87748855 -0.20050572 0 28
6.1523809 0.87580568 -0.14291951 0 29
6.1663132 0.87778896 -0.085936196 0 30
6.1527286 0.87585515 -0.028580679 0 31
6.1624179 0.87723446 0.028625689 0 32
6.1526332 0.87584162 0.085745551 0 33
6.1496172 0.87541223 0.1428553 0 34
6.1540914 0.87604916 0.20017682 0 35
6.1512008 0.87563765 0.25730738 0 36
6.1621118 0.87719089 0.3151336 0 37
6.1650004 0.8776021 0.37273148 0 38
6.1525755 0.87583333 0.42937779 0 39
6.157053 0.87647074 0.48720264 0 40
6.1618695 0.87715644 0.54522413 0 41
6.1618724 0.87715685 0.60295773 0 42
6.1567163 0.87642282 0.66024113 0 43
6.172143 0.87861884 0.71994144 0 44
6.1540108 0.87603772 0.77582502 0 45
6.1664772 0.87781233 0.83564621 0 46
6.1570849 0.87647527 0.89267802 0 47
6.142909 0.8744573 0.94894689 0 48
6.1646233 0.87754846 1.0109966 0 49
6.1728725 0.87872273 1.0712991 0 50
6.1597261 0.87685126 1.1280277 0 51
6.1541319 0.87605488 1.1861569 0 52
6.1583791 0.87665951 1.2463781 0 53
6.1460519 0.87490469 1.3033859 0 54
6.1579103 0.87659276 1.3657488 0 55
6.1526136 0.87583882 1.4246128 0 56
6.1478019 0.87515384 1.4837438 0 57
6.1649957 0.87760144 1.5485734 0 58
6.1545458 0.87611383 1.6068032 0 59
6.1593876 0.8768031 1.6692601 0 60
6.1603065 0.87693387 1.731014 0 61
0 0 0 0 62
0 0 0 0 63
2.434787 0.37719715 -0.734501 0 0
2.5148518 0.38960075 -0.73323631 0 1
2.6109433 0.40448725 -0.73500353 0 2
2.7067764 0.4193337 -0.73490727 0 3
2.8032825 0.43428442 -0.73320812 0 4
2.9153688 0.4516488 -0.73364538 0 5
3.0414159 0.47117603 -0.73537451 0 6
3.1661353 0.49049756 -0.73444682 0 7
3.3115678 0.51302797 -0.73580855 0 8
3.445792 0.53382194 -0.73208165 0 9
3.6236796 0.56138033 -0.73472852 0 10
3.8106537 0.59034634 -0.73581475 0 11
4.022161 0.62311298 -0.73792374 0 12
4.218492 0.65352863 -0.73345643 0 13
4.4902873 0.69563514 -0.73775297 0 14
4.783134 0.74100292 -0.7402426 0 15
5.060482 0.78396964 -0.73503035 0 16
5.429666 0.84116369 -0.7371437 0 17
5.7981529 0.89824963 -0.73229969 0 18
6.1511497 0.95293593 -0.71880519 0 19
6.1623044 0.95466399 -0.66204923 0 20
6.153307 0.95327014 -0.603221 0 21
6.139359 0.95110929 -0.54422599 0 22
6.1578317 0.95397103 -0.48815557 0 23
6.1695008 0.9557789 -0.4313466 0 24
6.1542659 0.95341867 -0.3727631 0 25
6.1560097 0.9536888 -0.31539741 0 26
6.1579561 0.95399028 -0.25806114 0 27
6.1423464 0.95157212 -0.20016026 0 28
6.1518631 0.95304638 -0.14316888 0 29
6.1605821 0.95439714 -0.086013377 0 30
6.1558924 0.95367062 -0.028647684 0 31
6.1668344 0.95536572 0.028698605 0 32
6.1594677 0.95422447 0.085997812 0 33
6.1510425 0.95291924 0.14314979 0 34
6.1544323 0.95344442 0.20055409 0 35
6.1464882 0.95221376 0.25758058 0 36
6.1527596 0.95318526 0.31523088 0 37
6.1686225 0.95564276 0.37363267 0 38
6.1556134 0.95362747 0.43037564 0 39
6.1539097 0.95336348 0.48784468 0 40
6.1535921 0.9533143 0.5454877 0 41
6.1350546 0.95044243 0.60143167 0 42
6.1396532 0.95115489 0.6596157 0 43
6.1511841 0.95294124 0.71880919 0 44
6.1402669 0.9512499 0.77550828 0 45
6.1523943 0.9531287 0.83526284 0 46
6.1417222 0.95147538 0.89207953 0 47
6.1565013 0.95376492 0.95278633 0 48
6.1532474 0.95326084 1.0109768 0 49
6.162508 0.95469552 1.0714567 0 50
6.1527348 0.95318145 1.1288085 0 51
6.1539016 0.95336223 1.1882823 0 52
6.1534476 0.95329189 1.2476581 0 53
6.1437869 0.95179522 1.3052888 0 54
6.1536269 0.95331967 1.3672954 0 55
6.1596985 0.95426029 1.4288621 0 56
6.1445479 0.95191312 1.4856712 0 57
6.141562 0.95145053 1.545509 0 58
6.1493378 0.95265514 1.6083802 0 59
6.158051 0.954005 1.6719507 0 60
6.1515765 0.95300204 1.731723 0 61
0 0 0 0 62
0 0 0 0 63
2.436096 0.40813273 -0.73635411 0 0
2.5106831 0.42062876 -0.73347348 0 1
2.600168 0.43562067 -0.73342264 0 2
2.6947641 0.45146888 -0.73309773 0 3
2.801131 0.46928912 -0.73409915 0 4
2.9131706 0.48805973 -0.7345469 0 5
3.0330377 0.50814176 -0.73480397 0 6
3.1746578 0.53186816 -0.73788512 0 7
3.3051183 0.55372494 -0.73583275 0 8
3.4367678 0.57578093 -0.73161334 0 9
3.6280444 0.60782653 -0.73707318 0 10
3.8162963 0.63936543 -0.73836666 0 11
4.0003314 0.67019784 -0.73537523 0 12
4.2302456 0.70871663 -0.73695946 0 13
4.4787555 0.75035089 -0.73731846 0 14
4.7230639 0.79128122 -0.73239654 0 15
5.0572309 0.84726614 -0.7360158 0 16
5.4229822 0.90854251 -0.73769724 0 17
5.8000193 0.97170961 -0.73398906 0 18
6.159308 1.0319033 -0.72118682 0 19
6.1454268 1.0295777 -0.66154611 0 20
6.1534977 1.0309298 -0.60443676 0 21
6.1328011 1.0274625 -0.54472345 0 22
6.1475081 1.0299264 -0.48830423 0 23
6.1528473 1.0308208 -0.43103585 0 24
6.1519532 1.0306711 -0.37336242 0 25
6.1577177 1.0316368 -0.31611094 0 26
6.1368771 1.0281453 -0.25768813 0 27
6.1443491 1.0293971 -0.20062283 0 28
6.1475534 1.0299339 -0.14335249 0 29
6.1515799 1.0306085 -0.086058117 0 30
6.1694837 1.0336081 -0.028767906 0 31
6.1366034 1.0280994 0.028614586 0 32
6.1526799 1.0307928 0.08607351 0 33
6.151226 1.0305492 0.14343813 0 34
6.1515203 1.0305985 0.20085698 0 35
6.1456676 1.029618 0.25805724 0 36
6.1322141 1.027364 0.31480169 0 37
6.1609516 1.0321786 0.37390855 0 38
6.1509519 1.0305034 0.43090308 0 39
6.1482182 1.0300453 0.48836061 0 40
6.1469016 1.0298247 0.54597586 0 41
6.148252 1.030051 0.60392147 0 42
6.1440139 1.029341 0.661394 0 43
6.1453047 1.0295572 0.71954715 0 44
6.1532655 1.0308909 0.77869213 0 45
6.1496139 1.0302792 0.83654207 0 46
6.1621747 1.0323836 0.89682633 0 47
6.1384478 1.0284084 0.95187742 0 48
6.1532898 1.030895 1.0129899 0 49
6.1408243 1.0288066 1.0698051 0 50
6.1511703 1.0305399 1.1307609 0 51
6.1591663 1.0318795 1.1916587 0 52
6.1408257 1.0288068 1.2475697 0 53
6.133985 1.0276607 1.3057923 0 54
6.1543398 1.0310709 1.3701673 0 55
6.1324821 1.027409 1.4253715 0 56
6.1469302 1.0298296 1.4891964 0 57
6.1432276 1.0292093 1.5489959 0 58
6.1355553 1.0279238 1.6079599 0 59
6.1548963 1.0311642 1.6744103 0 60
6.1481805 1.0300391 1.7342014 0 61
0 0 0 0 62
0 0 0 0 63
2.4345293 0.43871018 -0.73745543 0 0
2.5100856 0.4523257 -0.73486829 0 1
2.609556 0.47025055 -0.73764592 0 2
2.7005582 0.48664945 -0.73624623 0 3
2.804925 0.50545669 -0.73666662 0 4
2.9249668 0.52708864 -0.73909968 0 5
3.0254281 0.54519206 -0.73452902 0 6
3.1324284 0.56447393 -0.72962785 0 7
3.2847378 0.59192055 -0.73286039 0 8
3.461298 0.62373734 -0.7384122 0 9
3.6013393 0.64897317 -0.7332136 0 10
3.7784624 0.68089134 -0.73261112 0 11
3.9946215 0.71984392 -0.73589706 0 12
4.2196484 0.76039457 -0.73668659 0 13
4.4368753 0.79953957 -0.73198712 0 14
4.7314577 0.8526243 -0.73526841 0 15
5.0440764 0.90895921 -0.73567241 0 16
5.3545923 0.96491516 -0.72995287 0 17
5.8055634 1.0461817 -0.73626298 0 18
6.1488919 1.1080506 -0.72150797 0 19
6.1356249 1.1056598 -0.66190445 0 20
6.1309705 1.1048211 -0.60351282 0 21
6.1444397 1.1072483 -0.54692519 0 22
6.1467991 1.1076734 -0.48929283 0 23
6.1472554 1.1077557 -0.43156576 0 24
6.147099 1.1077275 -0.37386623 0 25
6.1368265 1.1058763 -0.31571269 0 26
6.1501207 1.108272 -0.2587969 0 27
6.1415863 1.106734 -0.20096178 0 28
6.153636 1.1089054 -0.14380142 0 29
6.1396422 1.1063838 -0.086074933 0 30
6.1608 1.1101964 -0.028788894 0 31
6.1384225 1.106164 0.028684327 0 32
6.1543694 1.1090376 0.086281404 0 33
6.1390491 1.1062769 0.14346056 0 34
6.131125 1.104849 0.20061947 0 35
6.1380043 1.1060886 0.25828704 0 36
6.1450028 1.1073498 0.31613332 0 37
6.1479774 1.1078857 0.37391964 0 38
6.1388674 1.1062441 0.43097687 0 39
6.1424274 1.1068857 0.48894483 0 40
6.1347623 1.1055044 0.54606378 0 41
6.1576233 1.109624 0.60613638 0 42
6.1329823 1.1051836 0.66161937 0 43
6.1387239 1.1062183 0.72031486 0 44
6.1416421 1.1067442 0.77888453 0 45
6.1351485 1.1055739 0.83636039 0 46
6.1485162 1.1079829 0.89675355 0 47
6.1578035 1.1096565 0.95692247 0 48
6.1441989 1.1072049 1.013658 0 49
6.1492801 1.1081206 1.073571 0 50
6.1553979 1.1092229 1.1339595 0 51
6.1415868 1.1067342 1.1908005 0 52
6.14644 1.1076087 1.2513826 0 53
6.1389637 1.1062615 1.309649 0 54
6.152966 1.1087847 1.372793 0 55
6.1518373 1.1085813 1.4329304 0 56
6.1352425 1.1055908 1.4895458 0 57
6.1433954 1.1070601 1.5523531 0 58
6.1432538 1.1070346 1.6134229 0 59
6.1365638 1.105829 1.6729957 0 60
6.1347208 1.1054969 1.734108 0 61
0 0 0 0 62
0 0 0 0 63
2.4166379 0.46623531 -0.73371702 0 0
2.5093789 0.48412761 -0.73634851 0 1
2.5762217 0.4970234 -0.72989577 0 2
2.6825304 0.51753324 -0.73301095 0 3
2.7823613 0.53679335 -0.73241884 0 4
2.902509 0.55997312 -0.73510921 0 5
3.0190558 0.5824582 -0.73466533 0 6
3.1446621 0.60669106 -0.73415959 0 7
3.2750659 0.63184947 -0.73238057 0 8
3.4594662 0.66742539 -0.73971635 0 9
3.595381 0.69364703 -0.73368162 0 10
3.7775543 0.7287932 -0.73411715 0 11
3.9818864 0.76821446 -0.73523563 0 12
4.2270083 0.81550521 -0.73966628 0 13
4.424994 0.85370201 -0.73170352 0 14
4.7169304 0.91002452 -0.73469424 0 15
5.0558643 0.97541404 -0.73908508 0 16
5.3744316 1.0368743 -0.73433995 0 17
5.8022099 1.1194044 -0.73752755 0 18
6.139183 1.1844157 -0.72202307 0 19
6.1341066 1.1834364 -0.6632604 0 20
6.1521187 1.1869113 -0.60698527 0 21
6.1383076 1.1842469 -0.54763418 0 22
6.1453581 1.1856071 -0.49030155 0 23
6.1449018 1.1855191 -0.43239126 0 24
6.1604214 1.1885133 -0.37553695 0 25
6.1531487 1.1871101 -0.31727937 0 26
6.1443629 1.1854151 -0.25914839 0 27
6.1518106 1.186852 -0.20175862 0 28
6.1486192 1.1862363 -0.14401416 0 29
6.1377816 1.1841455 -0.086246468 0 30
6.1368389 1.1839635 -0.028742785 0 31
6.1419396 1.1849476 0.028766675 0 32
6.1508884 1.1866741 0.086430639 0 33
6.1414747 1.184858 0.14384682 0 34
6.128315 1.182319 0.20098805 0 35
6.1358762 1.1837778 0.25879043 0 36
6.1322193 1.1830723 0.31620017 0 37
6.1402225 1.1846163 0.37430564 0 38
6.1388011 1.184342 0.43196195 0 39
6.1249127 1.1816627 0.48867032 0 40
6.1398869 1.1845516 0.54777503 0 41
6.135458 1.1836971 0.60534155 0 42
6.1363635 1.1838719 0.66350442 0 43
6.1397128 1.184518 0.72208542 0 44
6.1389718 1.184375 0.78033388 0 45
6.1419153 1.1849428 0.83920574 0 46
6.131897 1.1830101 0.89638352 0 47
6.1453342 1.1856025 0.95717788 0 48
6.1343131 1.1834762 1.0143512 0 49
6.1523356 1.1869533 1.0765711 0 50
6.1537418 1.1872245 1.136258 0 51
6.1354156 1.1836889 1.192336 0 52
6.1323581 1.183099 1.2513828 0 53
6.1427479 1.1851035 1.3134658 0 54
6.1531091 1.1871026 1.3759778 0 55
6.1487546 1.1862624 1.4355015 0 56
6.1503234 1.186565 1.4966365 0 57
6.1342726 1.1834683 1.5536077 0 58
6.1346822 1.1835474 1.6148717 0 59
6.144012 1.1853474 1.6788731 0 60
6.1424041 1.1850373 1.7402673 0 61
0 0 0 0 62
0 0 0 0 63
2.4257762 0.49901068 -0.73829871 0 0
2.4919271 0.51261872 -0.73302174 0 1
2.5830119 0.53135586 -0.73361522 0 2
2.6730802 0.54988396 -0.73222089 0 3
2.7872112 0.57336205 -0.73549581 0 4
2.8975432 0.59605867 -0.73565227 0 5
3.021502 0.62155843 -0.73706466 0 6
3.1421554 0.64637828 -0.73537439 0 7
3.2446795 0.66746867 -0.72736585 0 8
3.417033 0.70292383 -0.73243588 0 9
3.6006253 0.74069095 -0.73655468 0 10
3.789557 0.77955639 -0.73825675 0 11
3.9907782 0.82094997 -0.73868555 0 12
4.1814709 0.86017764 -0.73349321 0 13
4.4523044 0.91589129 -0.73802596 0 14
4.7234855 0.97167641 -0.73752046 0 15
4.9909339 1.0266937 -0.7313835 0 16
5.3647752 1.1035973 -0.73481923 0 17
5.7995362 1.1930327 -0.73899657 0 18
6.1204934 1.2590574 -0.72159129 0 19
6.1424465 1.2635734 -0.66579187 0 20
6.1284418 1.2606925 -0.60613298 0 21
6.1370549 1.2624644 -0.54886591 0 22
6.1407652 1.2632276 -0.49113727 0 23
6.1444602 1.2639877 -0.43342111 0 24
6.1292963 1.2608683 -0.37455639 0 25
6.1364956 1.2623492 -0.31719708 0 26
6.140851 1.2632452 -0.25963581 0 27
6.1397638 1.2630216 -0.20185763 0 28
6.1156464 1.2580602 -0.14359334 0 29
6.1495624 1.2650373 -0.086624041 0 30
6.1387758 1.2628183 -0.028822407 0 31
6.1278982 1.2605807 0.028771333 0 32
6.1358671 1.26222 0.086431123 0 33
6.147562 1.2646258 0.14434272 0 34
6.1452937 1.2641592 0.20203944 0 35
6.1593409 1.2670488 0.26041755 0 36
6.146822 1.2644734 0.31773084 0 37
6.1387248 1.2628078 0.37513256 0 38
6.1334953 1.261732 0.43264762 0 39
6.1211171 1.2591857 0.48956582 0 40
6.1369023 1.2624329 0.54885221 0 41
6.1247602 1.2599351 0.6057688 0 42
6.1409321 1.2632619 0.66562772 0 43
6.1355844 1.2621619 0.72337049 0 44
6.1348829 1.2620175 0.78172761 0 45
6.1300254 1.2610183 0.83963639 0 46
6.1321359 1.2614523 0.89861798 0 47
6.1340117 1.2618383 0.95775872 0 48
6.1418862 1.2634581 1.0180956 0 49
6.1301994 1.261054 1.0753298 0 50
6.1349015 1.2620213 1.1355588 0 51
6.1261148 1.2602139 1.1934497 0 52
6.1352515 1.2620933 1.2550453 0 53
6.131094 1.2612381 1.3141907 0 54
6.1287856 1.2607633 1.3739014 0 55
6.1238666 1.2597513 1.4331992 0 56
6.1312737 1.2612751 1.4956619 0 57
6.1435881 1.2638083 1.559785 0 58
6.1306148 1.2611395 1.617761 0 59
6.1343646 1.2619109 1.6803499 0 60
6.1339893 1.2618337 1.7421477 0 61
0 0 0 0 62
0 0 0 0 63
2.4125259 0.52728426 -0.73618364 0 0
2.4951844 0.54535019 -0.73589689 0 1
2.5907891 0.56624562 -0.73774582 0 2
2.6884966 0.58760071 -0.73836726 0 3
2.7892532 0.60962218 -0.737957 0 4
2.898726 0.63354868 -0.73787469 0 5
3.0010293 0.65590817 -0.73398256 0 6
3.1333528 0.68482894 -0.73522949 0 7
3.2669473 0.71402752 -0.73427039 0 8
3.4171388 0.74685353 -0.73437154 0 9
3.587445 0.78407586 -0.73577511 0 10
3.7859395 0.82745898 -0.73947829 0 11
3.9463387 0.86251605 -0.73236769 0 12
4.1709423 0.91160566 -0.73355728 0 13
4.4319921 0.96866089 -0.73657763 0 14
4.6757436 1.0219356 -0.73197287 0 15
5.0124197 1.0955199 -0.73645049 0 16
5.3632574 1.1721992 -0.73652989 0 17
5.7374434 1.2539818 -0.7329939 0 18
6.1293163 1.3396299 -0.72451878 0 19
6.1336675 1.3405809 -0.66657662 0 20
6.1473908 1.3435804 -0.60959506 0 21
6.1181655 1.3371929 -0.54860562 0 22
6.133956 1.340644 -0.49187395 0 23
6.1448345 1.3430216 -0.43457952 0 24
6.1379757 1.3415226 -0.37606642 0 25
6.1242962 1.3385328 -0.3173933 0 26
6.1247859 1.3386397 -0.25963289 0 27
6.120461 1.3376946 -0.20174855 0 28
6.1350589 1.340885 -0.14442536 0 29
6.1384354 1.3416229 -0.086693123 0 30
6.1296453 1.3397019 -0.028854702 0 31
6.1234374 1.3383451 0.028825479 0 32
6.127646 1.3392649 0.086540751 0 33
6.1422629 1.3424596 0.14459495 0 34
6.1242027 1.3385124 0.20187189 0 35
6.1326799 1.3403652 0.25996754 0 36
6.1251898 1.3387281 0.31743962 0 37
6.1188936 1.337352 0.37489727 0 38
6.1173625 1.3370173 0.43263662 0 39
6.1223383 1.3381048 0.49094236 0 40
6.1395793 1.341873 0.55052572 0 41
6.1187706 1.3373251 0.60675699 0 42
6.1242599 1.3385248 0.66555429 0 43
6.1379347 1.3415136 0.7255376 0 44
6.1218266 1.337993 0.78210121 0 45
6.1295133 1.339673 0.84175897 0 46
6.1277218 1.3392814 0.90031642 0 47
6.1382236 1.3415768 0.9609195 0 48
6.1349592 1.3408633 1.0196034 0 49
6.1268511 1.3390912 1.0775493 0 50
6.1424289 1.3424958 1.1399215 0 51
6.1369314 1.3412944 1.1986794 0 52
6.1199121 1.3375746 1.2551771 0 53
6.1210165 1.337816 1.3154573 0 54
6.1344194 1.3407453 1.3787558 0 55
6.1063185 1.3346035 1.4328247 0 56
6.1347675 1.3408214 1.5004226 0 57
6.1357908 1.3410451 1.561874 0 58
6.127831 1.3393054 1.6212497 0 59
6.1386867 1.341678 1.6859256 0 60
6.1290221 1.3395658 1.7452832 0 61
0 0 0 0 62
0 0 0 0 63
2.4045589 0.55660647 -0.73578542 0 0
2.4782801 0.5736714 -0.73293638 0 1
2.5748863 0.59603375 -0.7352488 0 2
2.6742001 0.61902291 -0.73647571 0 3
2.7662313 0.64032626 -0.73389375 0 4
2.8697951 0.66429913 -0.73253417 0 5
2.9901896 0.692168 -0.73335761 0 6
3.1295321 0.72442305 -0.73636752 0 7
3.2675273 0.75636607 -0.73643547 0 8
3.4299114 0.79395467 -0.73915869 0 9
3.5635009 0.82487798 -0.73288912 0 10
3.7449715 0.86688471 -0.73350298 0 11
3.9554355 0.9156028 -0.73608959 0 12
4.1815848 0.96795183 -0.73746657 0 13
4.3874817 1.0156128 -0.73120052 0 14
4.6729231 1.0816866 -0.73355806 0 15
4.9899158 1.155064 -0.73517537 0 16
5.3542595 1.2394022 -0.73733145 0 17
5.723649 1.3249084 -0.73325753 0 18
6.116437 1.4158307 -0.72499955 0 19
6.1300535 1.4189826 -0.66802961 0 20
6.1279926 1.4185057 -0.60935503 0 21
6.135952 1.420348 -0.55172485 0 22
6.1274424 1.4183782 -0.49271294 0 23
6.1220431 1.4171284 -0.43416724 0 24
6.1249619 1.417804 -0.37630877 0 25
6.1388564 1.4210204 -0.31902933 0 26
6.1279321 1.4184916 -0.26048595 0 27
6.1391673 1.4210923 -0.20292583 0 28
6.1287026 1.4186699 -0.14467546 0 29
6.1258154 1.4180017 -0.086754598 0 30
6.101841 1.4124521 -0.028803397 0 31
6.1197996 1.416609 0.02888817 0 32
6.1359744 1.4203533 0.086898468 0 33
6.1173191 1.4160349 0.14440674 0 34
6.1312971 1.4192705 0.20266569 0 35
6.1152654 1.4155595 0.25994751 0 36
6.1237154 1.4175155 0.31824246 0 37
6.1328077 1.4196203 0.37679082 0 38
6.1350093 1.4201298 0.43508676 0 39
6.1155581 1.4156274 0.49175736 0 40
6.1222148 1.4171681 0.55048966 0 41
6.1331344 1.4196959 0.60986638 0 42
6.1177926 1.4161445 0.66669345 0 43
6.1250019 1.4178134 0.72601479 0 44
6.1213789 1.4169748 0.7842108 0 45
6.125567 1.4179442 0.8435477 0 46
6.117044 1.4159713 0.90123767 0 47
6.1248999 1.4177897 0.96149015 0 48
6.1222157 1.4171684 1.0203044 0 49
6.1209092 1.4168659 1.0794868 0 50
6.129581 1.4188732 1.1406888 0 51
6.124979 1.4178081 1.1996595 0 52
6.1215048 1.4170039 1.2589823 0 53
6.1275382 1.4184004 1.3205074 0 54
6.1289673 1.4187312 1.3813471 0 55
6.1281786 1.4185487 1.441938 0 56
6.1351819 1.4201698 1.5046812 0 57
6.1246223 1.4177254 1.5633504 0 58
6.1242237 1.4176332 1.6247845 0 59
6.1227169 1.4172844 1.6861985 0 60
6.1277461 1.4184486 1.7497542 0 61
0 0 0 0 62
0 0 0 0 63
2.3905571 0.5844242 -0.73364437 0 0
2.48279 0.60697263 -0.73642182 0 1
2.5733814 0.62911969 -0.73697239 0 2
2.6702886 0.65281075 -0.73755342 0 3
2.7717688 0.67761987 -0.73751777 0 4
2.8753662 0.70294648 -0.73610699 0 5
3.006891 0.73510063 -0.73961473 0 6
3.1187549 0.76244825 -0.73598206 0 7
3.2435484 0.79295671 -0.73317325 0 8
3.3767734 0.82552648 -0.72983968 0 9
3.5674915 0.87215173 -0.73585987 0 10
3.7401624 0.91436493 -0.73470765 0 11
3.9547825 0.96683353 -0.73812473 0 12
4.1451745 1.013379 -0.73318738 0 13
4.3883643 1.0728321 -0.73349065 0 14
4.665339 1.1405448 -0.73451364 0 15
4.9985967 1.2220168 -0.73861235 0 16
5.2917981 1.2936964 -0.7308653 0 17
5.7287083 1.4005086 -0.73605621 0 18
6.129271 1.498435 -0.72864974 0 19
6.1289148 1.498348 -0.66986269 0 20
6.1071177 1.4930192 -0.60905886 0 21
6.1234031 1.4970006 -0.55220991 0 22
6.1327634 1.4992888 -0.4945859 0 23
6.1127434 1.4943945 -0.43477803 0 24
6.1317482 1.4990406 -0.37782964 0 25
6.1204376 1.4962755 -0.31900418 0 26
6.1136389 1.4946135 -0.26063991 0 27
6.1387672 1.5007566 -0.20350721 0 28
6.1303353 1.4986954 -0.14513807 0 29
6.126678 1.4978012 -0.087021068 0 30
6.1295514 1.4985036 -0.029018989 0 31
6.1243997 1.4972441 0.028994599 0 32
6.1129317 1.4944407 0.086825818 0 33
6.1291585 1.4984076 0.1451102 0 34
6.1111507 1.4940051 0.20259169 0 35
6.1155763 1.4950871 0.26072249 0 36
6.1214118 1.4965137 0.31905496 0 37
6.1166553 1.4953508 0.37689966 0 38
6.1293287 1.4984492 0.4359577 0 39
6.1253257 1.4974705 0.49398607 0 40
6.1191068 1.4959501 0.55182248 0 41
6.1101642 1.4937639 0.60936266 0 42
6.1227112 1.4968314 0.66918468 0 43
6.1201687 1.4962099 0.72756767 0 44
6.1306801 1.4987795 0.78770381 0 45
6.1304483 1.4987229 0.84669375 0 46
6.123456 1.4970134 0.90482605 0 47
6.1240225 1.4971519 0.9641695 0 48
6.111207 1.4940189 1.0214542 0 49
6.1086078 1.4933835 1.0804743 0 50
6.1217723 1.4966018 1.142574 0 51
6.1381884 1.5006151 1.2057697 0 52
6.121635 1.4965683 1.2626984 0 53
6.1142631 1.4947661 1.3215077 0 54
6.1239882 1.4971435 1.3842694 0 55
6.1325445 1.4992353 1.4471936 0 56
6.1161962 1.4952387 1.5044205 0 57
6.1177931 1.4956291 1.5661832 0 58
6.1229129 1.4968807 1.6291968 0 59
6.1213126 1.4964895 1.6907518 0 60
6.1341743 1.4996338 1.7567225 0 61
0 0 0 0 62
0 0 0 0 63
2.3950481 0.61682707 -0.73729467 0 0
2.4714746 0.63651019 -0.73533154 0 1
2.5526726 0.65742213 -0.7333014 0 2
2.6506031 0.68264341 -0.73437911 0 3
2.7562582 0.70985413 -0.73565757 0 4
2.8649342 0.7378428 -0.73570341 0 5
2.9704084 0.7650069 -0.73289937 0 6
3.1079185 0.8004216 -0.73569185 0 7
3.2347119 0.83307636 -0.73343599 0 8
3.3982191 0.87518644 -0.73674518 0 9
3.5608208 0.9170633 -0.73675424 0 10
3.731818 0.96110237 -0.73533446 0 11
3.9171102 1.008823 -0.73335338 0 12
4.1408253 1.0664392 -0.73468208 0 13
4.3753376 1.1268362 -0.73357385 0 14
4.675148 1.2040501 -0.73833305 0 15
4.9396429 1.2721689 -0.73215729 0 16
5.2876711 1.361801 -0.73255277 0 17
5.7160783 1.4721341 -0.73670363 0 18
6.1098161 1.5735383 -0.72858202 0 19
6.1278052 1.5781714 -0.67181164 0 20
6.1289291 1.5784608 -0.61312342 0 21
6.1080575 1.5730854 -0.55252868 0 22
6.1165237 1.5752658 -0.49480096 0 23
6.1314535 1.5791109 -0.43745682 0 24
6.1259351 1.5776896 -0.37863824 0 25
6.1206737 1.5763346 -0.32000256 0 26
6.1252236 1.5775065 -0.26194099 0 27
6.11619 1.5751799 -0.20338547 0 28
6.1291981 1.5785301 -0.14555968 0 29
6.1149707 1.5748658 -0.087123245 0 30
6.1125894 1.5742526 -0.029028136 0 31
6.1163802 1.5752289 0.029046141 0 32
6.1058407 1.5725145 0.086993165 0 33
6.1164026 1.5752348 0.1452558 0 34
6.1182423 1.5757085 0.20345373 0 35
6.1165433 1.5752708 0.26156974 0 36
6.1198502 1.5761225 0.31995952 0 37
6.1165934 1.5752839 0.37806085 0 38
6.1190624 1.5759197 0.43657279 0 39
6.1215854 1.5765694 0.49521044 0 40
6.1168098 1.5753396 0.55332041 0 41
6.1180849 1.5756679 0.61203855 0 42
6.1263819 1.5778048 0.6716556 0 43
6.1159978 1.5751303 0.72931916 0 44
6.1047807 1.5722415 0.78680068 0 45
6.1056948 1.5724769 0.84588152 0 46
6.133173 1.5795537 0.90906316 0 47
6.111136 1.5738783 0.96511471 0 48
6.1230831 1.5769551 1.0266027 0 49
6.1151638 1.5749155 1.0849771 0 50
6.1153517 1.574964 1.1449037 0 51
6.1220932 1.5767002 1.2063252 0 52
6.1016264 1.5714291 1.2624614 0 53
6.1111875 1.5738915 1.3249257 0 54
6.1085916 1.573223 1.3850572 0 55
6.1248732 1.5774162 1.4498512 0 56
6.1157327 1.5750622 1.5089564 0 57
6.1158113 1.5750823 1.5705154 0 58
6.1240945 1.5772157 1.6345481 0 59
6.1294169 1.5785863 1.6982232 0 60
6.110868 1.5738093 1.7554574 0 61
0 0 0 0 62
0 0 0 0 63
2.3781843 0.64376599 -0.73448467 0 0
2.4687827 0.66829056 -0.73691982 0 1
2.5497639 0.69021195 -0.73484838 0 2
2.647017 0.71653795 -0.73577106 0 3
2.7547827 0.74570972 -0.73765534 0 4
2.8606811 0.77437609 -0.73700076 0 5
2.9812143 0.80700397 -0.73795819 0 6
3.0899587 0.83644068 -0.73381966 0 7
3.2411754 0.87737453 -0.73729199 0 8
3.3669312 0.91141617 -0.73233622 0 9
3.554919 0.96230376 -0.73792565 0 10
3.7031555 1.0024309 -0.73206019 0 11
3.9120138 1.0589681 -0.73478156 0 12
4.1366863 1.119786 -0.73633504 0 13
4.3737373 1.183955 -0.73569083 0 14
4.6374478 1.2553405 -0.73476154 0 15
4.9461169 1.3388962 -0.73550159 0 16
5.3032942 1.4355826 -0.73710698 0 17
5.7259846 1.5500034 -0.74038088 0 18
6.1071687 1.6531886 -0.73063523 0 19
6.1302686 1.6594416 -0.67426783 0 20
6.1204648 1.6567878 -0.61426824 0 21
6.1044044 1.6524403 -0.55399436 0 22
6.1264052 1.6583959 -0.49721241 0 23
6.112864 1.6547303 -0.4375492 0 24
6.1277714 1.6587657 -0.37998372 0 25
6.1063108 1.6529564 -0.32029009 0 26
6.105217 1.6526603 -0.26193464 0 27
6.1035194 1.6522008 -0.20362434 0 28
6.1163015 1.6556607 -0.14572588 0 29
6.1190257 1.6563982 -0.087464601 0 30
6.1040988 1.6523576 -0.029082106 0 31
6.1158156 1.6555293 0.02913793 0 32
6.1083431 1.6535064 0.087311901 0 33
6.1152587 1.6553786 0.14570104 0 34
6.1156254 1.6554778 0.2040282 0 35
6.1106386 1.6541278 0.26216725 0 36
6.1170454 1.6558622 0.32085317 0 37
6.113481 1.6548972 0.37909758 0 38
6.1185446 1.656268 0.43795577 0 39
6.11869 1.6563073 0.49658623 0 40
6.1100736 1.6539749 0.55450886 0 41
6.1075921 1.6533033 0.61297631 0 42
6.1105447 1.6541024 0.6720984 0 43
6.1102777 1.6540302 0.73100722 0 44
6.1115265 1.6543682 0.79023212 0 45
6.1222639 1.6572748 0.85093594 0 46
6.0972128 1.6504936 0.90667278 0 47
6.1005573 1.6513989 0.96657789 0 48
6.1165695 1.6557333 1.0288464 0 49
6.124445 1.6578652 1.0901585 0 50
6.1234241 1.6575888 1.150144 0 51
6.1218762 1.6571698 1.2102062 0 52
6.0948157 1.6498446 1.2651542 0 53
6.1231852 1.6575242 1.3318449 0 54
6.1159892 1.6555763 1.3912452 0 55
6.0924096 1.6491934 1.4468576 0 56
6.1065235 1.6530139 1.511585 0 57
6.1143665 1.6551371 1.5752517 0 58
6.1156063 1.6554725 1.637592 0 59
6.1191278 1.6564258 1.7008872 0 60
6.1089258 1.6536642 1.7606077 0 61
0 0 0 0 62
0 0 0 0 63
2.3735659 0.67394549 -0.73556209 0 0
2.452107 0.69624633 -0.73444217 0 1
2.5348072 0.71972811 -0.73303306 0 2
2.6421025 0.75019324 -0.73691344 0 3
2.7266603 0.77420241 -0.73261875 0 4
2.8440943 0.80754644 -0.73523021 0 5
2.9662783 0.84223908 -0.7367689 0 6
3.0759904 0.87339056 -0.73299754 0 7
3.2229698 0.91512358 -0.73565477 0 8
3.3639932 0.95516545 -0.73419636 0 9
3.5437908 1.0062169 -0.73812824 0 10
3.7205937 1.0564178 -0.73801965 0 11
3.9127223 1.1109705 -0.73742479 0 12
4.0982218 1.1636409 -0.73197997 0 13
4.3547835 1.2364885 -0.7350046 0 14
4.6237307 1.3128529 -0.73509037 0 15
4.9385624 1.4022455 -0.7368865 0 16
5.2879505 1.5014501 -0.73748475 0 17
5.6485515 1.6038383 -0.73286325 0 18
6.1102977 1.7349457 -0.73350638 0 19
6.1183829 1.7372413 -0.67525905 0 20
6.1027508 1.7328029 -0.61458242 0 21
6.1086326 1.7344729 -0.55627161 0 22
6.1080074 1.7342954 -0.49741244 0 23
6.1137218 1.7359179 -0.43910527 0 24
6.1065679 1.7338866 -0.37996227 0 25
6.1075168 1.7341561 -0.32144755 0 26
6.1144972 1.7361381 -0.26322883 0 27
6.1143618 1.7360996 -0.20468278 0 28
6.0988889 1.7317063 -0.14580733 0 29
6.1109581 1.7351332 -0.087647639 0 30
6.1107473 1.7350733 -0.029213224 0 31
6.1094909 1.7347165 0.029207215 0 32
6.1099772 1.7348547 0.087633565 0 33
6.1241627 1.7388824 0.14641155 0 34
6.0997939 1.7319633 0.20419511 0 35
6.1182809 1.7372124 0.2633917 0 36
6.1181836 1.7371848 0.32200894 0 37
6.1164842 1.7367022 0.38057926 0 38
6.1100559 1.7348771 0.438842 0 39
6.1112733 1.7352227 0.4976784 0 40
6.1117482 1.7353575 0.55655533 0 41
6.1029148 1.7328492 0.61459893 0 42
6.1290731 1.7402767 0.67643887 0 43
6.100585 1.7321879 0.73234046 0 44
6.1079807 1.7342877 0.79247123 0 45
6.1001048 1.7320515 0.85075194 0 46
6.1258216 1.7393534 0.91403824 0 47
6.1017947 1.7325313 0.97007602 0 48
6.1075954 1.7341784 1.0308459 0 49
6.1066084 1.7338982 1.0906962 0 50
6.0946641 1.7305068 1.1486521 0 51
6.1068673 1.7339716 1.2113626 0 52
6.1141758 1.7360467 1.2735078 0 53
6.0983334 1.7315484 1.33097 0 54
6.1073761 1.7341161 1.3940312 0 55
6.1099372 1.7348433 1.4559761 0 56
6.1100111 1.7348644 1.5176142 0 57
6.1109614 1.7351341 1.5797518 0 58
6.1182208 1.7371953 1.6438878 0 59
6.1149983 1.7362803 1.7055449 0 60
0 0 0 0 61
0 0 0 0 62
0 0 0 0 63
2.3632877 0.7025401 -0.73499846 0 0
2.4370468 0.72446662 -0.73254424 0 1
2.5261998 0.75096935 -0.73315883 0 2
2.6292782 0.7816118 -0.73596168 0 3
2.7157118 0.80730605 -0.73228896 0 4
2.8316057 0.84175807 -0.73462194 0 5
2.9552007 0.87849951 -0.73664486 0 6
3.0743015 0.91390491 -0.73521739 0 7
3.2289956 0.95989114 -0.73966837 0 8
3.3678365 1.0011648 -0.73766625 0 9
3.5208812 1.0466607 -0.73598146 0 10
3.679184 1.0937197 -0.73241794 0 11
3.8774343 1.1526541 -0.73338991 0 12
4.1058774 1.2205639 -0.7359724 0 13
4.3403406 1.2902633 -0.73518914 0 14
4.6193714 1.3732115 -0.7370261 0 15
4.8715897 1.4481889 -0.72949535 0 16
5.2328348 1.5555773 -0.73241037 0 17
5.6447296 1.6780221 -0.73498887 0 18
6.1018066 1.8138986 -0.73510909 0 19
