# .PCD v0.7 - Point Cloud Data file format
VERSION 0.7
FIELDS x y z intensity ring
SIZE 4 4 4 4 2
TYPE F F F F U
COUNT 1 1 1 1 1
WIDTH 1387
HEIGHT 1
VIEWPOINT 0 0 0 1 0 0 0
POINTS 1387
DATA ascii
-7.3778162 -6.3821192 0.04486255 0 32
-7.3826213 -6.3862758 0.13468291 0 33
-7.3983889 -6.3999157 0.2249763 0 34
-7.3823557 -6.3860459 0.31433743 0 35
-7.3815131 -6.3853173 0.40419325 0 36
-7.3799477 -6.3839631 0.49404863 0 37
-7.3794475 -6.3835301 0.58403397 0 38
-7.3852468 -6.3885469 0.67468172 0 39
-7.3787098 -6.3828921 0.76430815 0 40
-7.3903913 -6.3929973 0.85601491 0 41
-7.395565 -6.3974724 0.94732028 0 42
-7.3921847 -6.3945484 1.0377136 0 43
-7.3871078 -6.3901567 1.1279424 0 44
-7.385129 -6.3884449 1.2187507 0 45
-7.382369 -6.3860579 1.309581 0 46
-7.3836684 -6.3871818 1.4013391 0 47
-7.4022269 -6.4032354 1.4968612 0 48
-7.3930945 -6.3953357 1.58716 0 49
-7.366138 -6.3720169 1.673457 0 50
-7.3826609 -6.3863101 1.7697935 0 51
0 0 0 0 52
0 0 0 0 53
0 0 0 0 54
0 0 0 0 55
0 0 0 0 56
0 0 0 0 57
0 0 0 0 58
0 0 0 0 59
0 0 0 0 60
0 0 0 0 61
0 0 0 0 62
0 0 0 0 63
-1.8408818 -1.6324402 -0.73348641 0 0
-1.9151615 -1.6983092 -0.73751646 0 1
-1.9801327 -1.7559239 -0.73624277 0 2
-2.0557506 -1.8229795 -0.73720008 0 3
-2.1268969 -1.88607 -0.73475337 0 4
-2.2138357 -1.9631648 -0.73582214 0 5
-2.2945006 -2.0346961 -0.73274982 0 6
-2.3901322 -2.1194992 -0.73229748 0 7
-2.5091882 -2.2250748 -0.73637521 0 8
-2.6193311 -2.3227463 -0.73501402 0 9
-2.7451229 -2.4342947 -0.73514611 0 10
-2.8839223 -2.5573781 -0.73550791 0 11
-3.0281641 -2.6852875 -0.73378062 0 12
-3.2004392 -2.8380558 -0.73495615 0 13
-3.3999085 -3.0149395 -0.7378003 0 14
-3.6025734 -3.1946568 -0.73639214 0 15
-3.8520124 -3.4158521 -0.73898536 0 16
-4.0730629 -3.6118734 -0.73035651 0 17
-4.4011273 -3.902791 -0.73417211 0 18
-4.7647371 -4.2252297 -0.73540843 0 19
-5.1914368 -4.6036143 -0.736664 0 20
-5.7148442 -5.0677571 -0.73995793 0 21
-6.1730938 -5.4741192 -0.72275966 0 22
-6.1722579 -5.4733782 -0.646263 0 23
-6.1789913 -5.4793491 -0.57059592 0 24
-6.1633968 -5.4655199 -0.49307334 0 25
-6.1813312 -5.4814239 -0.41828817 0 26
-6.1779075 -5.4783878 -0.3419497 0 27
-6.1720028 -5.4731522 -0.2656467 0 28
-6.1754761 -5.4762316 -0.18982229 0 29
-6.1630425 -5.4652061 -0.11365124 0 30
-6.1642294 -5.4662585 -0.037888903 0 31
-6.1647692 -5.4667373 0.037892222 0 32
-6.1713729 -5.4725933 0.11380486 0 33
-6.1661129 -5.4679289 0.18953449 0 34
-6.1686525 -5.4701805 0.26550248 0 35
-6.170979 -5.4722438 0.34156618 0 36
-6.1675978 -5.4692454 0.41735885 0 37
-6.1674452 -5.4691105 0.49339724 0 38
-6.1721869 -5.4733152 0.56996763 0 39
-6.1716037 -5.4727979 0.64619446 0 40
-6.1813869 -5.4814734 0.72373068 0 41
-6.1747756 -5.4756107 0.79950982 0 42
-6.1703644 -5.4716992 0.87557375 0 43
-6.1832538 -5.483129 0.95434797 0 44
-6.1719961 -5.473146 1.0295788 0 45
-6.1801505 -5.4803767 1.1081865 0 46
-6.168046 -5.4696431 1.1833025 0 47
-6.175096 -5.4758945 1.2622344 0 48
-6.1780753 -5.4785366 1.340679 0 49
-6.1669307 -5.4686537 1.416188 0 50
-6.17804 -5.4785056 1.4970543 0 51
-6.1724553 -5.4735527 1.5742067 0 52
-6.1681767 -5.469759 1.6518426 0 53
-6.1685886 -5.4701242 1.7309761 0 54
0 0 0 0 55
0 0 0 0 56
0 0 0 0 57
0 0 0 0 58
0 0 0 0 59
0 0 0 0 60
0 0 0 0 61
0 0 0 0 62
0 0 0 0 63
-1.82534 -1.6591955 -0.73536748 0 0
-1.8762205 -1.7054448 -0.73054111 0 1
-1.9499737 -1.7724849 -0.73307759 0 2
-2.0243485 -1.84009 -0.7339977 0 3
-2.1030953 -1.9116693 -0.73459595 0 4
-2.1973729 -1.9973656 -0.7384578 0 5
-2.2678087 -2.0613904 -0.73226523 0 6
-2.3913252 -2.1736641 -0.74079615 0 7
-2.4808872 -2.255074 -0.73615181 0 8
-2.6029317 -2.36601 -0.73852038 0 9
-2.7240744 -2.476126 -0.73760736 0 10
-2.867924 -2.6068823 -0.73954719 0 11
-2.9919472 -2.7196169 -0.73305273 0 12
-3.1563683 -2.8690722 -0.7328819 0 13
-3.3397191 -3.0357342 -0.73278403 0 14
-3.5447731 -3.2221239 -0.73262072 0 15
-3.7909942 -3.4459336 -0.73535275 0 16
-4.0719924 -3.7013555 -0.73826998 0 17
-4.3894992 -3.9899619 -0.74036074 0 18
-4.6831689 -4.2569017 -0.73084271 0 19
-5.1237555 -4.6573858 -0.73513103 0 20
-5.6223817 -5.1106262 -0.73606706 0 21
-6.0058131 -5.459157 -0.71097982 0 22
-6.0092263 -5.4622598 -0.63617736 0 23
-6.0075274 -5.4607158 -0.56092048 0 24
-6.0060158 -5.4593415 -0.48581657 0 25
-6.0147834 -5.4673114 -0.41153619 0 26
-6.0042238 -5.4577131 -0.33602542 0 27
-6.0158534 -5.4682841 -0.26180023 0 28
-6.0143623 -5.4669285 -0.18692216 0 29
-6.0165601 -5.4689264 -0.11218163 0 30
-6.0091953 -5.4622316 -0.037345998 0 31
-6.0203609 -5.4723811 0.037415389 0 32
-6.0074453 -5.4606409 0.11201168 0 33
-6.0151601 -5.4676533 0.18694696 0 34
-6.0154791 -5.4679437 0.26178393 0 35
-6.016973 -5.4693017 0.33673894 0 36
-6.0028095 -5.4564271 0.41071689 0 37
-6.0077915 -5.4609561 0.48596022 0 38
-6.0116467 -5.4644599 0.56130511 0 39
-6.0141635 -5.4667478 0.63670009 0 40
-6.0167046 -5.4690576 0.71226925 0 41
-6.0241346 -5.4758115 0.78866351 0 42
-6.0184932 -5.4706831 0.86350352 0 43
-6.0230236 -5.4748015 0.93993688 0 44
-6.0115237 -5.4643483 1.0139418 0 45
-6.0201263 -5.472168 1.0914751 0 46
-6.0075378 -5.4607253 1.1653038 0 47
-6.0145068 -5.4670596 1.2430562 0 48
-6.0075827 -5.4607658 1.318153 0 49
-6.0112958 -5.4641414 1.3957719 0 50
-6.0194826 -5.4715829 1.4748249 0 51
-6.012814 -5.4655209 1.5505152 0 52
-6.0082579 -5.4613795 1.6268775 0 53
-6.0095997 -5.4625993 1.7050819 0 54
0 0 0 0 55
0 0 0 0 56
0 0 0 0 57
0 0 0 0 58
0 0 0 0 59
0 0 0 0 60
0 0 0 0 61
0 0 0 0 62
0 0 0 0 63
-1.8099741 -1.6863331 -0.7374751 0 0
-1.8655 -1.738066 -0.73463297 0 1
-1.9337386 -1.8016431 -0.73524714 0 2
-1.9949054 -1.8586316 -0.73155349 0 3
-2.0885379 -1.9458679 -0.737813 0 4
-2.1554468 -2.0082061 -0.73261124 0 5
-2.2376599 -2.0848033 -0.73075271 0 6
-2.3357716 -2.1762128 -0.73182094 0 7
-2.4420793 -2.2752585 -0.7328828 0 8
-2.5668662 -2.3915212 -0.73657554 0 9
-2.6817863 -2.4985912 -0.73442066 0 10
-2.8177724 -2.6252878 -0.73488355 0 11
-2.959883 -2.7576904 -0.73344946 0 12
-3.1362541 -2.9220135 -0.73649859 0 13
-3.3135529 -3.0872011 -0.73531651 0 14
-3.4984338 -3.2594526 -0.7312718 0 15
-3.7319684 -3.4770343 -0.73214138 0 16
-4.0045624 -3.7310073 -0.73430705 0 17
-4.3203435 -4.0252166 -0.73698908 0 18
-4.6855879 -4.3655114 -0.73954159 0 19
-5.0358186 -4.6918168 -0.73073643 0 20
-5.5477881 -5.1688137 -0.73456687 0 21
-5.8548565 -5.454906 -0.70099694 0 22
-5.8533273 -5.4534812 -0.62672478 0 23
-5.8682199 -5.4673562 -0.55414867 0 24
-5.8565664 -5.4564991 -0.47911891 0 25
-5.85987 -5.4595771 -0.40549958 0 26
-5.8604665 -5.4601326 -0.33171248 0 27
-5.8507729 -5.4511008 -0.2575137 0 28
-5.8536172 -5.4537511 -0.18399663 0 29
-5.8583407 -5.4581518 -0.11047461 0 30
-5.8552337 -5.4552569 -0.03680326 0 31
-5.8519812 -5.4522271 0.03678282 0 32
-5.8530536 -5.4532261 0.11037491 0 33
-5.8527112 -5.4529071 0.18396817 0 34
-5.8511462 -5.4514489 0.25753015 0 35
-5.8549075 -5.4549537 0.33139786 0 36
-5.8599343 -5.4596367 0.40550402 0 37
-5.8421621 -5.443079 0.47794053 0 38
-5.8599839 -5.4596829 0.55337095 0 39
-5.8575301 -5.457397 0.62717474 0 40
-5.8540902 -5.4541922 0.7009052 0 41
-5.8473058 -5.4478707 0.77422512 0 42
-5.8566022 -5.4565325 0.84983861 0 43
-5.8525133 -5.4527225 0.92372119 0 44
-5.8491449 -5.4495845 0.99778092 0 45
-5.8568759 -5.4567871 1.0739613 0 46
-5.8565998 -5.4565301 1.1489538 0 47
-5.8542099 -5.4543033 1.2236956 0 48
-5.845932 -5.4465909 1.2972814 0 49
-5.8547788 -5.4548335 1.3749002 0 50
-5.8633113 -5.4627829 1.4529097 0 51
-5.8583112 -5.4581246 1.5278653 0 52
-5.8600101 -5.4597077 1.6047932 0 53
-5.8519807 -5.4522266 1.6792563 0 54
-5.8623247 -5.4618635 1.7593191 0 55
0 0 0 0 56
0 0 0 0 57
0 0 0 0 58
0 0 0 0 59
0 0 0 0 60
0 0 0 0 61
0 0 0 0 62
0 0 0 0 63
-1.7766907 -1.6966075 -0.73235875 0 0
-1.8461159 -1.7629035 -0.73548049 0 1
-1.9254601 -1.8386713 -0.74063998 0 2
-1.9931405 -1.9033009 -0.73943281 0 3
-2.0611973 -1.9682901 -0.73664892 0 4
-2.1377213 -2.0413649 -0.73506278 0 5
-2.2336357 -2.1329558 -0.73794794 0 6
-2.3267829 -2.2219045 -0.73750907 0 7
-2.4264424 -2.3170722 -0.73668498 0 8
-2.5351105 -2.4208422 -0.73594952 0 9
-2.6539538 -2.5343285 -0.73527718 0 10
-2.7774198 -2.6522293 -0.73280966 0 11
-2.9259071 -2.7940238 -0.73348838 0 12
-3.0850291 -2.9459734 -0.73292071 0 13
-3.2716854 -3.1242163 -0.73449528 0 14
-3.4899609 -3.3326533 -0.73801082 0 15
-3.737776 -3.5692983 -0.741835 0 16
-3.9525321 -3.774374 -0.73322123 0 17
-4.2506356 -4.0590405 -0.73355669 0 18
-4.6116543 -4.4037867 -0.73636353 0 19
-5.0408587 -4.8136454 -0.74000102 0 20
-5.4616423 -5.2154622 -0.73159671 0 21
-5.7052565 -5.4480953 -0.69105411 0 22
-5.7125292 -5.4550409 -0.61878461 0 23
-5.7137299 -5.4561872 -0.54585421 0 24
-5.6995525 -5.4426489 -0.47171322 0 25
-5.6979022 -5.4410729 -0.39889118 0 26
-5.7073822 -5.4501257 -0.32681626 0 27
-5.7070117 -5.4497719 -0.25411654 0 28
-5.7141185 -5.4565582 -0.18170708 0 29
-5.7005129 -5.4435658 -0.10875238 0 30
-5.6905088 -5.4340129 -0.036185138 0 31
-5.6994076 -5.4425101 0.036241721 0 32
-5.699018 -5.4421387 0.10872388 0 33
-5.692637 -5.4360447 0.18102397 0 34
-5.7076888 -5.4504185 0.2541467 0 35
-5.7030349 -5.4459739 0.32656729 0 36
-5.7031698 -5.4461031 0.39925995 0 37
-5.7061667 -5.4489646 0.47226059 0 38
-5.7096982 -5.4523373 0.54546905 0 39
-5.7055082 -5.4483361 0.61802411 0 40
-5.7054191 -5.4482508 0.69107383 0 41
-5.708077 -5.450789 0.76460707 0 42
-5.7079749 -5.4506917 0.83793402 0 43
-5.7095423 -5.4521885 0.91166824 0 44
-5.6968136 -5.4400334 0.983132 0 45
-5.7078638 -5.4505858 1.0588472 0 46
-5.7096114 -5.4522543 1.1331844 0 47
-5.7033067 -5.4462337 1.2060599 0 48
-5.7040911 -5.4469829 1.2805718 0 49
-5.7100348 -5.4526587 1.3565521 0 50
-5.7046461 -5.4475131 1.4300836 0 51
-5.7021098 -5.4450908 1.504476 0 52
-5.6940155 -5.4373612 1.5775254 0 53
-5.7037582 -5.4466648 1.6558166 0 54
-5.7108202 -5.4534087 1.7338451 0 55
0 0 0 0 56
0 0 0 0 57
0 0 0 0 58
0 0 0 0 59
0 0 0 0 60
0 0 0 0 61
0 0 0 0 62
0 0 0 0 63
-1.7556813 -1.7183105 -0.73235273 0 0
-1.8217531 -1.782976 -0.73445356 0 1
-1.8884755 -1.8482783 -0.73510027 0 2
-1.9484613 -1.9069871 -0.73150146 0 3
-2.0265031 -1.9833677 -0.73291034 0 4
-2.0978074 -2.0531542 -0.72996414 0 5
-2.1876926 -2.1411264 -0.73141235 0 6
-2.2798388 -2.2313111 -0.73127085 0 7
-2.3903136 -2.3394341 -0.73439425 0 8
-2.4937947 -2.4407127 -0.73261261 0 9
-2.6260467 -2.5701497 -0.73624563 0 10
-2.7555778 -2.6969237 -0.73574096 0 11
-2.9120412 -2.8500566 -0.73874205 0 12
-3.0677791 -3.0024796 -0.73753804 0 13
-3.2240584 -3.1554322 -0.73245835 0 14
-3.43926 -3.3660533 -0.73598641 0 15
-3.6620846 -3.5841348 -0.73550391 0 16
-3.9281044 -3.8444922 -0.73740363 0 17
-4.1849241 -4.0958457 -0.73085302 0 18
-4.529057 -4.432653 -0.73182273 0 19
-4.9584889 -4.8529444 -0.73661351 0 20
-5.4613872 -5.3451385 -0.74031079 0 21
-5.5546122 -5.4363785 -0.68085277 0 22
-5.5549645 -5.4367237 -0.60891259 0 23
-5.5592566 -5.4409242 -0.53744775 0 24
-5.5600257 -5.4416771 -0.46566829 0 25
-5.5655856 -5.4471188 -0.39428738 0 26
-5.5539956 -5.4357753 -0.32183611 0 27
-5.5555954 -5.4373412 -0.25033256 0 28
-5.5509367 -5.4327817 -0.1786288 0 29
-5.5572686 -5.4389791 -0.10728744 0 30
-5.5524163 -5.4342299 -0.035729237 0 31
-5.5498586 -5.4317265 0.035712779 0 32
-5.5553446 -5.4370956 0.10725029 0 33
-5.5600839 -5.4417343 0.17892317 0 34
-5.5583739 -5.4400606 0.25045776 0 35
-5.5544834 -5.4362531 0.3218644 0 36
-5.5611143 -5.4427428 0.39397064 0 37
-5.550148 -5.4320097 0.46484101 0 38
-5.5507407 -5.43259 0.53662449 0 39
-5.5570025 -5.4387183 0.60913599 0 40
-5.5560412 -5.4377775 0.68102795 0 41
-5.5468273 -5.4287596 0.75189245 0 42
-5.5663304 -5.4478474 0.82691205 0 43
-5.556396 -5.4381247 0.89782417 0 44
-5.5520291 -5.4338508 0.96960348 0 45
-5.5596704 -5.4413295 1.0436895 0 46
-5.56036 -5.4420042 1.1167592 0 47
-5.5524931 -5.4343052 1.1882089 0 48
-5.5513 -5.4331369 1.2611732 0 49
-5.5594969 -5.4411597 1.3365827 0 50
-5.5651717 -5.4467134 1.4118022 0 51
-5.5527391 -5.4345455 1.4825847 0 52
-5.5657816 -5.4473104 1.5604378 0 53
-5.5542374 -5.4360118 1.6316918 0 54
-5.5517349 -5.4335628 1.7057018 0 55
0 0 0 0 56
0 0 0 0 57
0 0 0 0 58
0 0 0 0 59
0 0 0 0 60
0 0 0 0 61
0 0 0 0 62
0 0 0 0 63
-1.7468392 -1.7522242 -0.73759627 0 0
-1.8066673 -1.8122368 -0.73729986 0 1
-1.8689601 -1.8747215 -0.73642135 0 2
-1.9355619 -1.9415286 -0.73556596 0 3
-2.0136638 -2.0198712 -0.73719388 0 4
-2.0831966 -2.0896187 -0.7337656 0 5
-2.1765852 -2.183295 -0.73661882 0 6
-2.2634873 -2.2704649 -0.73492545 0 7
-2.3757119 -2.3830357 -0.73885518 0 8
-2.4830174 -2.4906719 -0.738388 0 9
-2.5801373 -2.5880909 -0.73224139 0 10
-2.7155554 -2.7239268 -0.73394263 0 11
-2.8606319 -2.8694503 -0.73459578 0 12
-3.0205665 -3.0298781 -0.73508894 0 13
-3.2085989 -3.2184899 -0.73788148 0 14
-3.3807304 -3.3911521 -0.73232937 0 15
-3.606231 -3.6173477 -0.73316431 0 16
-3.8710685 -3.8830016 -0.73560429 0 17
-4.1823101 -4.1952028 -0.73934948 0 18
-4.4751239 -4.4889193 -0.73197174 0 19
-4.8775964 -4.8926325 -0.73347849 0 20
-5.3808184 -5.3974056 -0.73833007 0 21
-5.4088922 -5.4255657 -0.67111808 0 22
-5.415379 -5.4320731 -0.60088819 0 23
-5.4194555 -5.436162 -0.53035462 0 24
-5.4103289 -5.4270072 -0.45868513 0 25
-5.4106326 -5.4273119 -0.38800851 0 26
-5.4160604 -5.4327564 -0.31769028 0 27
-5.4131136 -5.4298005 -0.24690226 0 28
-5.4188333 -5.4355378 -0.17651522 0 29
-5.4150858 -5.4317784 -0.10582395 0 30
-5.4105453 -5.4272246 -0.035243087 0 31
-5.4162335 -5.43293 0.035280135 0 32
-5.4134736 -5.4301615 0.10579244 0 33
-5.4133282 -5.4300156 0.17633589 0 34
-5.4203997 -5.437109 0.24723458 0 35
-5.413064 -5.4297504 0.31751451 0 36
-5.4119844 -5.428668 0.38810545 0 37
-5.4181428 -5.4348454 0.45934761 0 38
-5.4076242 -5.424294 0.5291968 0 39
-5.3994608 -5.4161057 0.59912193 0 40
-5.4116654 -5.4283481 0.67146224 0 41
-5.4056387 -5.4223027 0.74173588 0 42
-5.4117894 -5.428472 0.8138088 0 43
-5.4107785 -5.4274583 0.88501179 0 44
-5.4150567 -5.4317493 0.95727468 0 45
-5.4115853 -5.4282675 1.0283427 0 46
-5.4160709 -5.4327674 1.1011137 0 47
-5.4095325 -5.426208 1.1718057 0 48
-5.4072051 -5.4238734 1.243495 0 49
-5.4084787 -5.4251513 1.3162142 0 50
-5.4158931 -5.4325886 1.3907739 0 51
-5.4052539 -5.421917 1.4608967 0 52
-5.4077234 -5.4243937 1.5347086 0 53
-5.4100118 -5.4266891 1.6088037 0 54
-5.4117055 -5.4283881 1.6830604 0 55
-5.4099474 -5.4266248 1.756541 0 56
0 0 0 0 57
0 0 0 0 58
0 0 0 0 59
0 0 0 0 60
0 0 0 0 61
0 0 0 0 62
0 0 0 0 63
-1.7140864 -1.7621831 -0.73286062 0 0
-1.7762003 -1.8260398 -0.73397416 0 1
-1.8303071 -1.8816649 -0.73025274 0 2
-1.9058466 -1.9593239 -0.73337382 0 3
-1.9867336 -2.0424805 -0.73647374 0 4
-2.0540941 -2.1117313 -0.7326057 0 5
-2.1440749 -2.2042367 -0.7347337 0 6
-2.2375698 -2.3003552 -0.73563904 0 7
-2.3341749 -2.3996708 -0.73505837 0 8
-2.454911 -2.5237949 -0.73920268 0 9
-2.5649683 -2.6369405 -0.73708296 0 10
-2.697896 -2.773598 -0.73833168 0 11
-2.818927 -2.898025 -0.73298174 0 12
-2.9809179 -3.0645614 -0.73455513 0 13
-3.1435525 -3.2317595 -0.73200631 0 14
-3.3581018 -3.4523289 -0.73656768 0 15
-3.5454407 -3.6449244 -0.72986221 0 16
-3.8074653 -3.9143014 -0.73260897 0 17
-4.1217256 -4.2373796 -0.73779476 0 18
-4.4690361 -4.5944352 -0.7401607 0 19
-4.8038907 -4.9386864 -0.73147166 0 20
-5.2738299 -5.4218121 -0.73274231 0 21
-5.267652 -5.4154606 -0.66180587 0 22
-5.2694354 -5.4172935 -0.59204102 0 23
-5.2777457 -5.425837 -0.52297634 0 24
-5.2739124 -5.4218965 -0.4527379 0 25
-5.2733655 -5.4213343 -0.38291639 0 26
-5.2702641 -5.4181461 -0.31302261 0 27
-5.2763014 -5.4243522 -0.24368589 0 28
-5.2633595 -5.4110475 -0.17360502 0 29
-5.2756214 -5.4236536 -0.10439391 0 30
-5.2778745 -5.4259701 -0.034810867 0 31
-5.2748342 -5.4228439 0.034790814 0 32
-5.2746406 -5.4226451 0.1043745 0 33
-5.2693954 -5.4172525 0.1738041 0 34
-5.2716389 -5.419559 0.24347056 0 35
-5.2743878 -5.4223852 0.31326753 0 36
-5.2734551 -5.4214268 0.38292292 0 37
-5.271606 -5.4195251 0.45253986 0 38
-5.2649627 -5.4126954 0.52170968 0 39
-5.2747445 -5.4227519 0.59263754 0 40
-5.2629495 -5.4106259 0.66121507 0 41
-5.2658753 -5.4136338 0.73163706 0 42
-5.2671237 -5.4149175 0.8020066 0 43
-5.2759461 -5.4239874 0.87380099 0 44
-5.2727356 -5.4206867 0.94382715 0 45
-5.2722306 -5.4201674 1.0144501 0 46
-5.2704453 -5.4183321 1.0849706 0 47
-5.2693105 -5.4171653 1.1557732 0 48
-5.2714658 -5.4193811 1.2275113 0 49
-5.268548 -5.4163814 1.2982708 0 50
-5.2766929 -5.4247551 1.3720539 0 51
-5.2618585 -5.4095039 1.4400098 0 52
-5.2686338 -5.4164701 1.5140227 0 53
-5.2610283 -5.4086509 1.5841577 0 54
-5.2713475 -5.4192595 1.6600076 0 55
-5.2662826 -5.4140525 1.7313795 0 56
0 0 0 0 57
0 0 0 0 58
0 0 0 0 59
0 0 0 0 60
0 0 0 0 61
0 0 0 0 62
0 0 0 0 63
-1.6999648 -1.7912123 -0.7361843 0 0
-1.7513041 -1.8453074 -0.73300743 0 1
-1.821633 -1.9194113 -0.73615301 0 2
-1.8913659 -1.9928871 -0.73717564 0 3
-1.9531384 -2.0579753 -0.73334551 0 4
-2.0384126 -2.1478267 -0.73637664 0 5
-2.1194174 -2.2331796 -0.73563856 0 6
-2.2073009 -2.3257802 -0.73503435 0 7
-2.2983296 -2.421695 -0.73309237 0 8
-2.393764 -2.5222521 -0.73007423 0 9
-2.5122905 -2.6471405 -0.73124373 0 10
-2.6463208 -2.7883651 -0.73354501 0 11
-2.8005152 -2.9508359 -0.73757333 0 12
-2.9508638 -3.1092548 -0.73651487 0 13
-3.1081669 -3.2750013 -0.73308843 0 14
-3.3123486 -3.4901426 -0.73588985 0 15
-3.5410223 -3.7310908 -0.73834151 0 16
-3.7566788 -3.9583228 -0.73214704 0 17
-4.0556722 -4.273365 -0.73532152 0 18
-4.3922997 -4.6280613 -0.73682117 0 19
-4.7276263 -4.9813871 -0.72913086 0 20
-5.2087569 -5.4883432 -0.73302233 0 21
-5.2654176 -5.5480447 -0.6700455 0 22
-5.2627716 -5.5452571 -0.59890813 0 23
-5.2726879 -5.5557055 -0.52920467 0 24
-5.2630324 -5.5455322 -0.45762309 0 25
-5.2591133 -5.5414023 -0.38680011 0 26
-5.2717204 -5.5546861 -0.31714192 0 27
-5.259407 -5.5417118 -0.24603423 0 28
-5.2664671 -5.5491509 -0.17594488 0 29
-5.2672329 -5.5499573 -0.10557035 0 30
-5.2662706 -5.5489435 -0.035181705 0 31
-5.2741165 -5.5572109 0.035234123 0 32
-5.2650304 -5.547637 0.10552622 0 33
-5.2631249 -5.5456295 0.17583321 0 34
-5.2643986 -5.5469713 0.24626774 0 35
-5.2593822 -5.5416856 0.31639966 0 36
-5.2654886 -5.54812 0.38726899 0 37
-5.2609735 -5.5433621 0.45744404 0 38
-5.2694645 -5.552309 0.52888113 0 39
-5.260191 -5.5425382 0.59861445 0 40
-5.2671437 -5.5498638 0.6702652 0 41
-5.2662725 -5.5489459 0.7411164 0 42
-5.2577677 -5.5399847 0.81089342 0 43
-5.271431 -5.5543809 0.88429803 0 44
-5.2674999 -5.5502391 0.95503432 0 45
-5.2746625 -5.557786 1.0279901 0 46
-5.2613163 -5.5437236 1.0970415 0 47
-5.2609754 -5.5433645 1.1688076 0 48
-5.2702804 -5.5531688 1.2430419 0 49
-5.2631636 -5.54567 1.3136486 0 50
-5.2589259 -5.5412049 1.3850465 0 51
-5.263577 -5.5461054 1.4590335 0 52
-5.2673922 -5.5501256 1.5331618 0 53
-5.2629066 -5.5453992 1.6051344 0 54
-5.2643242 -5.5468926 1.6791482 0 55
-5.2634726 -5.5459952 1.7527438 0 56
0 0 0 0 57
0 0 0 0 58
0 0 0 0 59
0 0 0 0 60
0 0 0 0 61
0 0 0 0 62
0 0 0 0 63
-1.6795808 -1.8138889 -0.73696029 0 0
-1.7291768 -1.8674507 -0.73330176 0 1
-1.7957647 -1.9393635 -0.73528069 0 2
-1.8568724 -2.0053577 -0.7332871 0 3
-1.9226824 -2.0764301 -0.73144168 0 4
-2.0076237 -2.1681638 -0.73482984 0 5
-2.0738521 -2.2396879 -0.72932702 0 6
-2.1814268 -2.355865 -0.73600924 0 7
-2.2797728 -2.4620752 -0.73677433 0 8
-2.3839629 -2.5745971 -0.73668486 0 9
-2.5092452 -2.7098975 -0.74000043 0 10
-2.6134951 -2.8224838 -0.73401088 0 11
-2.7591147 -2.9797478 -0.73626405 0 12
-2.9086566 -3.1412477 -0.73556542 0 13
-3.0866358 -3.3334591 -0.7376222 0 14
-3.2596962 -3.5203586 -0.73375392 0 15
-3.4786122 -3.7567799 -0.73490494 0 16
-3.7259457 -4.0238914 -0.73574495 0 17
-3.9861362 -4.3048882 -0.73225629 0 18
-4.3308382 -4.6771545 -0.73610312 0 19
-4.7288461 -5.1069894 -0.73894835 0 20
-5.123085 -5.5327539 -0.73048484 0 21
-5.2590542 -5.6795955 -0.6780718 0 22
-5.2455869 -5.6650515 -0.60483414 0 23
-5.2621746 -5.6829658 -0.53512269 0 24
-5.2583766 -5.6788635 -0.46325496 0 25
-5.2537079 -5.6738219 -0.39150429 0 26
-5.2491698 -5.668921 -0.31995466 0 27
-5.2517734 -5.6717324 -0.24892086 0 28
-5.23803 -5.6568899 -0.17730531 0 29
-5.2555895 -5.6758537 -0.10672778 0 30
-5.257947 -5.6784 -0.035589878 0 31
-5.2509303 -5.6708217 0.03554238 0 32
-5.252037 -5.6720171 0.10665563 0 33
-5.2450776 -5.6645017 0.17754388 0 34
-5.2552366 -5.6754727 0.24908499 0 35
-5.2575321 -5.6779518 0.32046437 0 36
-5.2464795 -5.6660156 0.39096561 0 37
-5.2656894 -5.6867614 0.46389922 0 38
-5.2535744 -5.6736774 0.53424811 0 39
-5.2518802 -5.6718478 0.60555977 0 40
-5.260705 -5.6813779 0.67828465 0 41
-5.2458844 -5.6653724 0.74799436 0 42
-5.2522659 -5.6722641 0.82073998 0 43
-5.2493539 -5.6691198 0.89222121 0 44
-5.2552896 -5.67553 0.96540076 0 45
-5.2568574 -5.6772227 1.0380468 0 46
-5.2484345 -5.6681266 1.1088045 0 47
-5.2591758 -5.6797266 1.1838344 0 48
-5.2578645 -5.6783104 1.2564869 0 49
-5.2555065 -5.6757641 1.3290565 0 50
-5.2512045 -5.6711178 1.401273 0 51
-5.2506375 -5.670506 1.4746633 0 52
-5.2443376 -5.663702 1.5466052 0 53
-5.257566 -5.6779885 1.6246768 0 54
-5.248198 -5.6678715 1.6961067 0 55
0 0 0 0 56
0 0 0 0 57
0 0 0 0 58
0 0 0 0 59
0 0 0 0 60
0 0 0 0 61
0 0 0 0 62
0 0 0 0 63
-1.6521553 -1.8288728 -0.73473853 0 0
-1.7204386 -1.90446 -0.73947126 0 1
-1.7749627 -1.964816 -0.73660004 0 2
-1.8395506 -2.0363123 -0.73627919 0 3
-1.9100029 -2.1143005 -0.73645294 0 4
-1.9796129 -2.1913559 -0.73438454 0 5
-2.0696287 -2.2910001 -0.73769319 0 6
-2.1417167 -2.3707988 -0.73239183 0 7
-2.2377894 -2.4771473 -0.73299485 0 8
-2.3455331 -2.5964158 -0.7346198 0 9
-2.4701879 -2.7344038 -0.73834211 0 10
-2.5870886 -2.8638084 -0.73642904 0 11
-2.7024848 -2.9915476 -0.73091334 0 12
-2.8573537 -3.1629815 -0.73237187 0 13
-3.0252573 -3.3488445 -0.73273969 0 14
-3.2314701 -3.5771141 -0.73724568 0 15
-3.4245522 -3.7908487 -0.73327649 0 16
-3.680042 -4.0736661 -0.7365163 0 17
-3.9744086 -4.3995185 -0.73998392 0 18
-4.2615223 -4.7173424 -0.73412532 0 19
-4.6562343 -5.1542735 -0.73744988 0 20
-5.0454326 -5.5851011 -0.72914994 0 21
-5.2399096 -5.8003802 -0.68474782 0 22
-5.2550874 -5.8171816 -0.61413091 0 23
-5.2535024 -5.8154268 -0.54147178 0 24
-5.2496543 -5.8111668 -0.46874636 0 25
-5.2465873 -5.8077717 -0.39626551 0 26
-5.2382059 -5.7984939 -0.32360795 0 27
-5.2417359 -5.8024015 -0.25180784 0 28
-5.2505074 -5.8121114 -0.18013324 0 29
-5.2467208 -5.80792 -0.10798981 0 30
-5.2488203 -5.8102441 -0.036008976 0 31
-5.2569675 -5.8192625 0.036064867 0 32
-5.2556863 -5.8178444 0.10817434 0 33
-5.2506781 -5.8123002 0.18013908 0 34
-5.2487187 -5.8101315 0.25214329 0 35
-5.2444582 -5.8054152 0.32399422 0 36
-5.2481976 -5.8095546 0.39638713 0 37
-5.2447085 -5.8056922 0.46830475 0 38
-5.243113 -5.803926 0.54040098 0 39
-5.2465644 -5.8077464 0.61313486 0 40
-5.2411041 -5.8017025 0.68490386 0 41
-5.2463636 -5.8075242 0.75818783 0 42
-5.2504206 -5.8120155 0.83155656 0 43
-5.2498884 -5.8114266 0.90438956 0 44
-5.2445211 -5.8054848 0.9764626 0 45
-5.2448454 -5.8058434 1.0496929 0 46
-5.2472863 -5.8085456 1.1235663 0 47
-5.2451868 -5.806222 1.1966664 0 48
-5.2458506 -5.8069563 1.2705837 0 49
-5.2387872 -5.7991376 1.3427601 0 50
-5.2524037 -5.8142104 1.4205637 0 51
-5.2632694 -5.8262382 1.4982187 0 52
-5.2498546 -5.8113885 1.5691878 0 53
-5.2532969 -5.8151989 1.6453298 0 54
-5.2570181 -5.8193188 1.7219527 0 55
0 0 0 0 56
0 0 0 0 57
0 0 0 0 58
0 0 0 0 59
0 0 0 0 60
0 0 0 0 61
0 0 0 0 62
0 0 0 0 63
-1.6237621 -1.8424886 -0.73213184 0 0
-1.6847359 -1.9116759 -0.73417383 0 1
-1.7476616 -1.9830779 -0.73533428 0 2
-1.8119258 -2.0559988 -0.73528564 0 3
-1.8803165 -2.1336019 -0.73506683 0 4
-1.9540135 -2.2172263 -0.73494655 0 5
-2.037559 -2.3120258 -0.73634017 0 6
-2.120827 -2.4065099 -0.73531193 0 7
-2.2151003 -2.5134823 -0.73563105 0 8
-2.3066933 -2.617413 -0.73248011 0 9
-2.4226894 -2.7490346 -0.73419321 0 10
-2.5509896 -2.8946171 -0.73622954 0 11
-2.6830947 -3.0445173 -0.73573864 0 12
-2.8082161 -3.1864929 -0.72976512 0 13
-2.9915802 -3.394557 -0.73463732 0 14
-3.17554 -3.6032965 -0.73453856 0 15
-3.3641703 -3.8173363 -0.73034304 0 16
-3.6226907 -4.1106801 -0.73509884 0 17
-3.912761 -4.4398241 -0.7386148 0 18
-4.1997709 -4.7654953 -0.73352683 0 19
-4.5902858 -5.2086139 -0.73709309 0 20
-5.0464854 -5.726265 -0.73942202 0 21
-5.2271285 -5.9312415 -0.69255602 0 22
-5.2423973 -5.9485669 -0.62114912 0 23
-5.2385759 -5.944231 -0.54742557 0 24
-5.2317986 -5.9365406 -0.4736343 0 25
-5.231935 -5.9366951 -0.40064213 0 26
-5.237999 -5.9435763 -0.32808542 0 27
-5.2299786 -5.9344759 -0.25472933 0 28
-5.2408161 -5.9467731 -0.18229569 0 29
-5.2322841 -5.9370918 -0.10918704 0 30
-5.2315273 -5.9362326 -0.03638836 0 31
-5.2491846 -5.9562688 0.036511179 0 32
-5.2303939 -5.934947 0.10914759 0 33
-5.234437 -5.9395347 0.1820738 0 34
-5.242002 -5.9481187 0.25531495 0 35
-5.2366576 -5.9420543 0.32800141 0 36
-5.2282639 -5.9325299 0.40036103 0 37
-5.2295251 -5.9339609 0.47342849 0 38
-5.2432632 -5.9495497 0.5479154 0 39
-5.2350268 -5.9402037 0.6202758 0 40
-5.2345653 -5.9396801 0.69354141 0 41
-5.2387276 -5.9444032 0.76758981 0 42
-5.2324176 -5.937243 0.84020448 0 43
-5.237534 -5.943049 0.91478127 0 44
-5.2327795 -5.9376535 0.98779565 0 45
-5.22823 -5.9324918 1.0608872 0 46
-5.2289047 -5.9332571 1.1351666 0 47
-5.2301378 -5.9346561 1.2097905 0 48
-5.2337666 -5.9387736 1.2852472 0 49
-5.2374158 -5.942915 1.3610362 0 50
-5.2423573 -5.9485216 1.437521 0 51
-5.2349653 -5.940134 1.5108396 0 52
-5.2392998 -5.9450526 1.5877637 0 53
-5.237711 -5.9432497 1.6632116 0 54
-5.2291384 -5.9335222 1.736588 0 55
0 0 0 0 56
0 0 0 0 57
0 0 0 0 58
0 0 0 0 59
0 0 0 0 60
0 0 0 0 61
0 0 0 0 62
0 0 0 0 63
-1.6108574 -1.8737983 -0.73664647 0 0
-1.6672425 -1.9393872 -0.73688716 0 1
-1.726288 -2.0080707 -0.73667485 0 2
-1.7915939 -2.0840366 -0.73737836 0 3
-1.8429235 -2.1437447 -0.7306987 0 4
-1.9127878 -2.225013 -0.72967613 0 5
-1.9964606 -2.3223436 -0.73175234 0 6
-2.0894129 -2.4304688 -0.73472667 0 7
-2.1903741 -2.54791 -0.73776853 0 8
-2.2846773 -2.6576061 -0.73581052 0 9
-2.3768446 -2.764818 -0.73054761 0 10
-2.511539 -2.9214988 -0.73515618 0 11
-2.6444318 -3.0760834 -0.73545325 0 12
-2.8022356 -3.2596457 -0.73857123 0 13
-2.9370043 -3.4164128 -0.73149616 0 14
-3.1298509 -3.6407378 -0.73427004 0 15
-3.3569088 -3.9048586 -0.73913467 0 16
-3.5544722 -4.1346703 -0.73151761 0 17
-3.8324308 -4.4580002 -0.73374337 0 18
-4.1770034 -4.8588176 -0.73992956 0 19
-4.5008926 -5.2355752 -0.73302102 0 20
-4.9678588 -5.7787647 -0.73825729 0 21
-5.2308741 -6.084712 -0.70291233 0 22
-5.2388182 -6.0939531 -0.62955606 0 23
-5.2387657 -6.0938916 -0.55523384 0 24
-5.237092 -6.0919447 -0.48085871 0 25
-5.2360883 -6.0907774 -0.40666464 0 26
-5.2306452 -6.084446 -0.33228594 0 27
-5.2224612 -6.0749264 -0.25798202 0 28
-5.2335434 -6.0878172 -0.18463264 0 29
-5.2420516 -6.0977139 -0.11094715 0 30
-5.2269726 -6.0801735 -0.036873925 0 31
-5.233808 -6.0881252 0.036922146 0 32
-5.2355108 -6.090106 0.11080873 0 33
-5.2384095 -6.0934772 0.18480431 0 34
-5.2304621 -6.0842328 0.25837722 0 35
-5.2331629 -6.0873742 0.33244586 0 36
-5.2311087 -6.0849848 0.40627787 0 37
-5.2345114 -6.088943 0.48062176 0 38
-5.2389789 -6.0941396 0.55525643 0 39
-5.2345114 -6.088943 0.62903851 0 40
-5.2301369 -6.0838542 0.70281327 0 41
-5.2314305 -6.0853596 0.77742589 0 42
-5.2303524 -6.0841055 0.85182172 0 43
-5.2320385 -6.0860667 0.9268223 0 44
-5.2339001 -6.088232 1.0020636 0 45
-5.2280445 -6.0814204 1.0759422 0 46
-5.2281461 -6.0815387 1.1511496 0 47
-5.2276082 -6.0809131 1.2264087 0 48
-5.2372031 -6.0920744 1.3043883 0 49
-5.2262897 -6.0793791 1.377467 0 50
-5.2395463 -6.0947995 1.4571906 0 51
-5.2361498 -6.0908484 1.5326809 0 52
-5.227572 -6.0808711 1.606748 0 53
-5.2305617 -6.0843487 1.6845716 0 54
-5.2303176 -6.084065 1.7616916 0 55
0 0 0 0 56
0 0 0 0 57
0 0 0 0 58
0 0 0 0 59
0 0 0 0 60
0 0 0 0 61
0 0 0 0 62
0 0 0 0 63
-1.5875106 -1.8932416 -0.73656034 0 0
-1.6433079 -1.9597847 -0.73690385 0 1
-1.6962214 -2.0228884 -0.73440361 0 2
-1.7576375 -2.0961325 -0.73395568 0 3
-1.8315768 -2.1843114 -0.73679358 0 4
-1.8996285 -2.2654688 -0.73522741 0 5
-1.9829574 -2.3648455 -0.7374056 0 6
-2.0457354 -2.4397137 -0.7298618 0 7
-2.1403439 -2.5525424 -0.73143381 0 8
-2.2481601 -2.6811225 -0.73461199 0 9
-2.3604827 -2.8150768 -0.7361024 0 10
-2.4692469 -2.9447875 -0.73332059 0 11
-2.599736 -3.1004066 -0.7335701 0 12
-2.7514019 -3.2812812 -0.73575199 0 13
-2.9174974 -3.4793642 -0.73723787 0 14
-3.0941322 -3.6900163 -0.73647958 0 15
-3.2921882 -3.9262149 -0.73545885 0 16
-3.4988689 -4.1726995 -0.73057872 0 17
-3.781482 -4.5097394 -0.7345503 0 18
-4.1079869 -4.8991246 -0.73831934 0 19
-4.42836 -5.2811966 -0.73172915 0 20
-4.8844361 -5.8251066 -0.73644888 0 21
-5.2180462 -6.2229643 -0.71141738 0 22
-5.2186775 -6.2237177 -0.63628435 0 23
-5.2192993 -6.2244592 -0.56124032 0 24
-5.224782 -6.2309976 -0.48672664 0 25
-5.2270064 -6.2336502 -0.41188136 0 26
-5.2244296 -6.2305775 -0.33673266 0 27
-5.2244821 -6.2306404 -0.26184669 0 28
-5.2188773 -6.2239561 -0.18680109 0 29
-5.2245445 -6.2307143 -0.1121897 0 30
-5.226244 -6.2327414 -0.037406623 0 31
-5.216857 -6.2215462 0.037339434 0 32
-5.2168212 -6.2215037 0.11202385 0 33
-5.2223659 -6.228116 0.18692595 0 34
-5.230938 -6.2383394 0.26217026 0 35
-5.2186508 -6.2236857 0.33636019 0 36
-5.2221289 -6.2278337 0.41149706 0 37
-5.2225509 -6.2283368 0.4865188 0 38
-5.2259016 -6.2323327 0.56195027 0 39
-5.2176533 -6.222496 0.63615942 0 40
-5.2239161 -6.2299647 0.71221769 0 41
-5.2220936 -6.2277913 0.78735906 0 42
-5.2202806 -6.2256293 0.86258382 0 43
-5.2222753 -6.2280087 0.93858796 0 44
-5.2163906 -6.2209902 1.0132803 0 45
-5.2227373 -6.228559 1.0905297 0 46
-5.2236757 -6.2296786 1.1669438 0 47
-5.2245827 -6.2307601 1.2435793 0 48
-5.2157116 -6.220181 1.3179858 0 49
-5.2085934 -6.2116914 1.3928292 0 50
-5.2276011 -6.2343597 1.4750775 0 51
-5.222302 -6.2280402 1.5509269 0 52
-5.2207823 -6.2262278 1.6280698 0 53
-5.2206035 -6.2260146 1.7058918 0 54
0 0 0 0 55
0 0 0 0 56
0 0 0 0 57
0 0 0 0 58
0 0 0 0 59
0 0 0 0 60
0 0 0 0 61
0 0 0 0 62
0 0 0 0 63
-1.5568322 -1.9037157 -0.73313212 0 0
-1.6134915 -1.9729997 -0.73435712 0 1
-1.671476 -2.0439038 -0.73451585 0 2
-1.7312281 -2.1169696 -0.7337423 0 3
-1.7970122 -2.1974113 -0.73370326 0 4
-1.8749248 -2.2926838 -0.73652178 0 5
-1.9482396 -2.3823342 -0.7353332 0 6
-2.0351572 -2.4886181 -0.7369498 0 7
-2.1133981 -2.5842922 -0.7330296 0 8
-2.2176201 -2.7117364 -0.73547292 0 9
-2.3237195 -2.841476 -0.73547828 0 10
-2.4366469 -2.9795654 -0.73446429 0 11
-2.5547588 -3.1239944 -0.73166293 0 12
-2.7118587 -3.3160982 -0.73602611 0 13
-2.8776543 -3.5188351 -0.73804778 0 14
-3.0266752 -3.7010603 -0.7312004 0 15
-3.2390256 -3.9607251 -0.73440707 0 16
-3.4889326 -4.2663145 -0.73940206 0 17
-3.7196372 -4.5484233 -0.73334587 0 18
-4.0364861 -4.9358711 -0.73632145 0 19
-4.348803 -5.3177762 -0.72933304 0 20
-4.806108 -5.8769746 -0.73547924 0 21
-5.1234164 -6.2649841 -0.7089653 0 22
-5.11519 -6.2549243 -0.63299644 0 23
-5.1240754 -6.2657895 -0.55924344 0 24
-5.1230655 -6.2645545 -0.48439047 0 25
-5.117444 -6.2576809 -0.40928042 0 26
-5.1197114 -6.2604532 -0.3349196 0 27
-5.1312022 -6.2745047 -0.26101875 0 28
-5.1159916 -6.2559047 -0.18585783 0 29
-5.1172838 -6.2574849 -0.11153029 0 30
-5.1183915 -6.2588391 -0.037182711 0 31
-5.1277833 -6.2703238 0.037250936 0 32
-5.1258245 -6.2679286 0.11171643 0 33
-5.1194816 -6.2601724 0.18598463 0 34
-5.1172376 -6.2574286 0.26030841 0 35
-5.121635 -6.2628059 0.33504546 0 36
-5.1243606 -6.2661386 0.40983358 0 37
-5.1283722 -6.2710443 0.48489225 0 38
-5.1204309 -6.261333 0.55884564 0 39
-5.1204004 -6.2612963 0.63364124 0 40
-5.1197295 -6.2604756 0.70845509 0 41
-5.1254725 -6.267498 0.78435165 0 42
-5.1284885 -6.2711864 0.86009336 0 43
-5.1208177 -6.261806 0.93412125 0 44
-5.1242957 -6.2660589 1.0102816 0 45
-5.1142778 -6.2538095 1.083858 0 46
-5.1215734 -6.2627301 1.1612504 0 47
-5.1171288 -6.2572951 1.2362233 0 48
-5.121408 -6.2625279 1.3135157 0 49
-5.1205754 -6.2615104 1.3897765 0 50
-5.1260428 -6.2681956 1.4680585 0 51
-5.1187363 -6.2592616 1.5429109 0 52
-5.1229544 -6.2644191 1.6214615 0 53
-5.1235828 -6.2651877 1.6992345 0 54
0 0 0 0 55
0 0 0 0 56
0 0 0 0 57
0 0 0 0 58
0 0 0 0 59
0 0 0 0 60
0 0 0 0 61
0 0 0 0 62
0 0 0 0 63
-1.5357718 -1.9258045 -0.73431051 0 0
-1.5930758 -1.9976616 -0.73618954 0 1
-1.6488326 -2.0675788 -0.73568207 0 2
-1.7108526 -2.1453497 -0.73623157 0 3
-1.7678983 -2.2168829 -0.7328909 0 4
-1.8372406 -2.3038356 -0.73279142 0 5
-1.9154885 -2.4019558 -0.73406404 0 6
-2.0033259 -2.5121012 -0.73655325 0 7
-2.0883734 -2.6187477 -0.73546326 0 8
-2.1757636 -2.7283318 -0.73266232 0 9
-2.2907135 -2.8724749 -0.73615545 0 10
-2.4047322 -3.0154505 -0.73596543 0 11
-2.533361 -3.1767464 -0.73666626 0 12
-2.6624415 -3.338609 -0.73370051 0 13
-2.8219273 -3.5385985 -0.73485947 0 14
-3.0095305 -3.7738466 -0.73821342 0 15
-3.1840448 -3.9926815 -0.73301733 0 16
-3.4285736 -4.2993121 -0.73775834 0 17
-3.6458006 -4.5717072 -0.72981668 0 18
-3.9730489 -4.9820652 -0.73586893 0 19
-4.3389988 -5.4409533 -0.73885345 0 20
-4.7261791 -5.9264641 -0.73434424 0 21
-5.0014915 -6.2716966 -0.70271218 0 22
-4.9848261 -6.2507982 -0.62632835 0 23
-4.9985461 -6.268003 -0.55391318 0 24
-4.9892969 -6.2564049 -0.4789803 0 25
-4.9914103 -6.2590547 -0.40532529 0 26
-4.9959226 -6.2647128 -0.33183593 0 27
-4.9922047 -6.2600508 -0.25784433 0 28
-4.9932661 -6.2613816 -0.18418249 0 29
-4.9904599 -6.2578635 -0.11043494 0 30
-4.9881129 -6.25492 -0.036792256 0 31
-4.9957018 -6.2644362 0.036848232 0 32
-4.9861426 -6.2524495 0.1103394 0 33
-4.9963107 -6.2651997 0.1842948 0 34
-4.9912415 -6.2588434 0.25779459 0 35
-4.9960833 -6.264915 0.33184659 0 36
-4.9907885 -6.2582755 0.40527484 0 37
-5.0007401 -6.2707543 0.48007888 0 38
-4.9844017 -6.2502661 0.55234575 0 39
-4.9940295 -6.2623391 0.6274848 0 40
-4.9987226 -6.2682242 0.70232314 0 41
-4.9874306 -6.2540641 0.77493697 0 42
-4.9887657 -6.2557387 0.84949708 0 43
-4.9900484 -6.2573476 0.92423272 0 44
-4.9885902 -6.2555189 0.9986164 0 45
-4.9950843 -6.2636619 1.0748392 0 46
-4.9916306 -6.2593307 1.149152 0 47
-4.9843941 -6.2502565 1.2226315 0 48
-4.9992042 -6.2688284 1.3018453 0 49
-4.9951057 -6.2636886 1.3765229 0 50
-4.9950442 -6.2636118 1.4524897 0 51
-4.9904566 -6.2578588 1.5273232 0 52
-4.9948883 -6.2634163 1.605183 0 53
-4.9975214 -6.2667179 1.6828554 0 54
-4.9898968 -6.2571568 1.7572938 0 55
0 0 0 0 56
0 0 0 0 57
0 0 0 0 58
0 0 0 0 59
0 0 0 0 60
0 0 0 0 61
0 0 0 0 62
0 0 0 0 63
-1.5130144 -1.9458764 -0.73481441 0 0
-1.5619968 -2.008872 -0.7331872 0 1
-1.6255982 -2.0906694 -0.73672998 0 2
-1.6769761 -2.1567461 -0.73301059 0 3
-1.7482266 -2.2483811 -0.7361415 0 4
-1.8224421 -2.3438289 -0.73832846 0 5
-1.8797954 -2.4175906 -0.73172271 0 6
-1.9586198 -2.5189662 -0.73144931 0 7
-2.042321 -2.6266134 -0.73056412 0 8
-2.1520147 -2.7676899 -0.73606968 0 9
-2.2499027 -2.8935828 -0.73441923 0 10
-2.3684952 -3.0461037 -0.73628294 0 11
-2.4916773 -3.2045274 -0.73594791 0 12
-2.6144686 -3.362448 -0.73181903 0 13
-2.7725871 -3.5658031 -0.73337352 0 14
-2.9551742 -3.8006272 -0.73628819 0 15
-3.1328914 -4.0291877 -0.73259163 0 16
-3.3653045 -4.3280926 -0.73554045 0 17
-3.6303463 -4.6689606 -0.73815989 0 18
-3.9047873 -5.0219173 -0.7346077 0 19
-4.2752757 -5.4983997 -0.73945957 0 20
-4.6434102 -5.9718547 -0.73283821 0 21
-4.8595209 -6.2497931 -0.69351029 0 22
-4.8527279 -6.241056 -0.61932635 0 23
-4.8617578 -6.2526698 -0.5472337 0 24
-4.8611722 -6.2519164 -0.47402453 0 25
-4.8584704 -6.2484422 -0.40073898 0 26
-4.8583994 -6.2483506 -0.32778001 0 27
-4.860435 -6.2509685 -0.25498924 0 28
-4.8491483 -6.2364531 -0.18168148 0 29
-4.8646998 -6.2564535 -0.10934614 0 30
-4.8468175 -6.2334552 -0.036312684 0 31
-4.8673563 -6.2598701 0.036466565 0 32
-4.8523045 -6.2405119 0.10906753 0 33
-4.8598957 -6.2502751 0.18208416 0 34
-4.8643837 -6.2560468 0.25519639 0 35
-4.8591213 -6.249279 0.32782871 0 36
-4.8494873 -6.2368884 0.39999798 0 37
-4.8537202 -6.2423329 0.47329789 0 38
-4.860199 -6.2506652 0.54705828 0 39
-4.8549876 -6.2439623 0.61961472 0 40
-4.8520417 -6.2401738 0.69244295 0 41
-4.8621068 -6.2531185 0.76735359 0 42
-4.8583908 -6.2483397 0.8403163 0 43
-4.8588214 -6.2488933 0.91409016 0 44
-4.8587766 -6.2488356 0.98793721 0 45
-4.8576083 -6.2473326 1.061707 0 46
-4.8610468 -6.2517557 1.1367015 0 47
-4.8602972 -6.2507911 1.2109537 0 48
-4.8577814 -6.2475557 1.2849256 0 49
-4.8559713 -6.2452278 1.3592408 0 50
-4.8605046 -6.2510581 1.4356105 0 51
-4.8536897 -6.2422934 1.5088437 0 52
-4.8665709 -6.2588596 1.5885589 0 53
-4.8665791 -6.2588706 1.6645523 0 54
-4.8578587 -6.2476554 1.7377177 0 55
0 0 0 0 56
0 0 0 0 57
0 0 0 0 58
0 0 0 0 59
0 0 0 0 60
0 0 0 0 61
0 0 0 0 62
0 0 0 0 63
-1.4863634 -1.9608879 -0.73352587 0 0
-1.5472914 -2.0412674 -0.73801076 0 1
-1.5887985 -2.0960257 -0.73167771 0 2
-1.6570308 -2.1860411 -0.73598641 0 3
-1.7199941 -2.2691057 -0.73594666 0 4
-1.7883341 -2.3592634 -0.73620772 0 5
-1.8629957 -2.4577608 -0.73689163 0 6
-1.9292898 -2.5452194 -0.73212856 0 7
-2.0204377 -2.6654665 -0.73440504 0 8
-2.1277997 -2.8071041 -0.7395376 0 9
-2.2152357 -2.9224544 -0.73477787 0 10
-2.3287287 -3.07218 -0.73560882 0 11
-2.4488297 -3.2306235 -0.73497009 0 12
-2.5935471 -3.4215422 -0.73768383 0 13
-2.7215388 -3.5903955 -0.73149335 0 14
-2.9089963 -3.8376994 -0.73648471 0 15
-3.067909 -4.0473452 -0.72897881 0 16
-3.2940304 -4.3456564 -0.73158646 0 17
-3.5737138 -4.7146292 -0.73837668 0 18
-3.8333936 -5.0572124 -0.73282003 0 19
-4.1938429 -5.5327358 -0.73708624 0 20
-4.5571656 -6.0120502 -0.73083895 0 21
-4.7297258 -6.2397003 -0.68588489 0 22
-4.7329826 -6.2439966 -0.61379641 0 23
-4.7292104 -6.2390199 -0.54090869 0 24
-4.7284064 -6.2379603 -0.46852252 0 25
-4.7321811 -6.2429395 -0.39662415 0 26
-4.7335892 -6.2447968 -0.32451561 0 27
-4.7284188 -6.2379761 -0.25206846 0 28
-4.7335739 -6.2447767 -0.18021467 0 29
-4.7346344 -6.2461758 -0.10814083 0 30
-4.7347565 -6.2463369 -0.036045838 0 31
-4.7370915 -6.2494173 0.036063615 0 32
-4.7301946 -6.2403188 0.10803942 0 33
-4.7364182 -6.2485294 0.18032297 0 34
-4.7290869 -6.2388577 0.25210407 0 35
-4.7382812 -6.2509871 0.3248373 0 36
-4.7335443 -6.2447376 0.39673841 0 37
-4.730969 -6.2413402 0.4687764 0 38
-4.7372136 -6.249579 0.5418241 0 39
-4.7296605 -6.239614 0.61336559 0 40
-4.7282734 -6.2377839 0.68567425 0 41
-4.734024 -6.2453709 0.759202 0 42
-4.7293062 -6.2391472 0.83119631 0 43
-4.7364097 -6.248518 0.90544724 0 44
-4.7283964 -6.2379465 0.97694951 0 45
-4.7445054 -6.2591982 1.0537291 0 46
-4.7337289 -6.2449813 1.1248013 0 47
-4.7325869 -6.243475 1.198172 0 48
-4.7314439 -6.2419672 1.2717143 0 49
-4.7347689 -6.2463531 1.3467125 0 50
-4.744483 -6.2591686 1.4239671 0 51
-4.7359667 -6.2479334 1.4960176 0 52
-4.7324815 -6.2433362 1.5697303 0 53
-4.7395983 -6.2527246 1.6472937 0 54
-4.7442679 -6.2588849 1.7244848 0 55
0 0 0 0 56
0 0 0 0 57
0 0 0 0 58
0 0 0 0 59
0 0 0 0 60
0 0 0 0 61
0 0 0 0 62
0 0 0 0 63
-1.4717284 -1.9919922 -0.73833573 0 0
-1.5205112 -2.0580199 -0.73725206 0 1
-1.564483 -2.1175361 -0.73241568 0 2
-1.625102 -2.1995842 -0.73376274 0 3
-1.6823475 -2.2770662 -0.73176378 0 4
-1.7525953 -2.3721468 -0.73344767 0 5
-1.832332 -2.4800711 -0.73676962 0 6
-1.9133508 -2.5897305 -0.73810863 0 7
-1.9811677 -2.6815209 -0.73206091 0 8
-2.0688622 -2.800216 -0.73096544 0 9
-2.1756659 -2.9447751 -0.73360801 0 10
-2.2790415 -3.0846946 -0.7318399 0 11
-2.4129686 -3.2659657 -0.73620462 0 12
-2.5411038 -3.4393973 -0.73474103 0 13
-2.688035 -3.6382694 -0.73445731 0 14
-2.8472362 -3.8537493 -0.73279053 0 15
-3.0455399 -4.1221542 -0.73565215 0 16
-3.2552118 -4.4059463 -0.73494202 0 17
-3.51316 -4.7550807 -0.73789054 0 18
-3.766062 -5.0973849 -0.73187542 0 19
-4.1272101 -5.5862007 -0.73739213 0 20
-4.4795976 -6.063159 -0.73030061 0 21
-4.5951514 -6.2195616 -0.67740887 0 22
-4.6031857 -6.2304358 -0.60685331 0 23
-4.6047683 -6.2325783 -0.53540069 0 24
-4.6048527 -6.2326922 -0.46383891 0 25
-4.6078639 -6.2367682 -0.39260268 0 26
-4.6051903 -6.2331491 -0.32094336 0 27
-4.6018782 -6.2286663 -0.24938679 0 28
-4.6029415 -6.2301059 -0.17814444 0 29
-4.6009803 -6.2274508 -0.10682906 0 30
-4.6043615 -6.2320275 -0.035633847 0 31
-4.6131525 -6.243926 0.035701882 0 32
-4.6068459 -6.2353902 0.10696525 0 33
-4.6030812 -6.2302947 0.17814983 0 34
-4.5931697 -6.2168794 0.24891487 0 35
-4.6091323 -6.2384849 0.3212181 0 36
-4.6017547 -6.2284994 0.39208215 0 37
-4.6075606 -6.2363577 0.46411172 0 38
-4.5976634 -6.2229619 0.53457463 0 39
-4.5931764 -6.2168884 0.60553378 0 40
-4.6047196 -6.232512 0.67881942 0 41
-4.6061273 -6.2344174 0.75092852 0 42
-4.6045327 -6.2322593 0.82267344 0 43
-4.606566 -6.2350111 0.89521426 0 44
-4.593339 -6.2171087 0.96476716 0 45
-4.6045389 -6.2322679 1.0395849 0 46
-4.5995774 -6.2255521 1.1110309 0 47
-4.6076603 -6.2364926 1.1858692 0 48
-4.5999255 -6.2260232 1.256847 0 49
-4.6012993 -6.2278829 1.3304311 0 50
-4.5986691 -6.2243228 1.403069 0 51
-4.6054158 -6.2334547 1.4788792 0 52
-4.6047893 -6.2326064 1.5526789 0 53
-4.601819 -6.2285867 1.6259037 0 54
-4.6024909 -6.229496 1.7006656 0 55
0 0 0 0 56
0 0 0 0 57
0 0 0 0 58
0 0 0 0 59
0 0 0 0 60
0 0 0 0 61
0 0 0 0 62
0 0 0 0 63
-1.4381416 -1.9974606 -0.73375255 0 0
-1.4969684 -2.0791664 -0.73817748 0 1
-1.5457723 -2.146951 -0.73595971 0 2
-1.606686 -2.231555 -0.73778152 0 3
-1.6441739 -2.2836227 -0.72731858 0 4
-1.7225589 -2.392493 -0.73313397 0 5
-1.7934976 -2.4910212 -0.7334156 0 6
-1.871542 -2.5994182 -0.73425514 0 7
-1.9616535 -2.7245758 -0.73717403 0 8
-2.0403018 -2.833812 -0.73313081 0 9
-2.1437166 -2.9774463 -0.73512471 0 10
-2.2544703 -3.1312742 -0.73625815 0 11
-2.3577602 -3.2747355 -0.73159087 0 12
-2.4919343 -3.4610922 -0.73277432 0 13
-2.6569781 -3.6903248 -0.73831451 0 14
-2.8032055 -3.8934226 -0.73372453 0 15
-3.000669 -4.1676831 -0.73713672 0 16
-3.1911588 -4.4322577 -0.73273009 0 17
-3.4506786 -4.7927094 -0.73708963 0 18
-3.6847637 -5.1178346 -0.72825104 0 19
-4.0556402 -5.6329517 -0.73692471 0 20
-4.4046493 -6.1176968 -0.73029071 0 21
-4.4784851 -6.2202487 -0.671435 0 22
-4.4854202 -6.2298808 -0.6013816 0 23
-4.4892974 -6.2352662 -0.53084934 0 24
-4.4893928 -6.2353983 -0.45989725 0 25
-4.4915838 -6.2384415 -0.38920182 0 26
-4.4798398 -6.2221303 -0.31751564 0 27
-4.4824433 -6.2257457 -0.24704434 0 28
-4.4736075 -6.2134743 -0.17608261 0 29
-4.485971 -6.2306457 -0.10592959 0 30
-4.4856558 -6.2302084 -0.035305392 0 31
-4.4846077 -6.2287521 0.03529714 0 32
-4.4945664 -6.2425842 0.10613255 0 33
-4.4938469 -6.2415848 0.17687923 0 34
-4.4788275 -6.2207236 0.24684505 0 35
-4.4839091 -6.2277822 0.31780404 0 36
-4.4798884 -6.2221975 0.38818842 0 37
-4.4786968 -6.2205424 0.45880154 0 38
-4.4838276 -6.2276688 0.53020257 0 39
-4.4912624 -6.2379951 0.60216492 0 40
-4.4821548 -6.2253456 0.67198521 0 41
-4.4834213 -6.2271047 0.7433511 0 42
-4.4867506 -6.2317281 0.81525898 0 43
-4.4892249 -6.2351656 0.88724357 0 44
-4.4825597 -6.2259073 0.95750678 0 45
-4.4837475 -6.2275577 1.0295247 0 46
-4.4788094 -6.2206984 1.100253 0 47
-4.4868298 -6.2318382 1.1744045 0 48
-4.4845924 -6.2287307 1.2461673 0 49
-4.4807963 -6.2234588 1.3176161 0 50
-4.487793 -6.2331762 1.3925201 0 51
-4.4844155 -6.2284851 1.464507 0 52
-4.4814291 -6.2243371 1.5367746 0 53
-4.4848847 -6.2291369 1.6115297 0 54
-4.4823351 -6.225596 1.6844264 0 55
-4.4862304 -6.2310061 1.7600663 0 56
0 0 0 0 57
0 0 0 0 58
0 0 0 0 59
0 0 0 0 60
0 0 0 0 61
0 0 0 0 62
0 0 0 0 63
-1.418829 -2.0226276 -0.73653287 0 0
-1.4642414 -2.0873659 -0.73464066 0 1
-1.5210633 -2.1683691 -0.73683453 0 2
-1.5761826 -2.2469449 -0.73640615 0 3
-1.6345029 -2.3300841 -0.7356593 0 4
-1.7003025 -2.4238853 -0.73629111 0 5
-1.7655792 -2.5169413 -0.73459953 0 6
-1.8465668 -2.6323941 -0.7371003 0 7
-1.9293455 -2.7504003 -0.73768651 0 8
-2.0055542 -2.8590405 -0.73322219 0 9
-2.1049643 -3.0007555 -0.73443353 0 10
-2.2104263 -3.1510983 -0.73447287 0 11
-2.3164759 -3.3022783 -0.73132521 0 12
-2.4561663 -3.5014157 -0.73486161 0 13
-2.6051729 -3.7138336 -0.73655313 0 14
-2.7581098 -3.9318545 -0.73452026 0 15
-2.951241 -4.2071748 -0.73764729 0 16
-3.1327279 -4.4658957 -0.73186737 0 17
-3.3885951 -4.8306503 -0.73646069 0 18
-3.6318846 -5.177474 -0.73032743 0 19
-3.98033 -5.6742043 -0.73586285 0 20
-4.3674345 -6.2260456 -0.73675817 0 21
-4.3666453 -6.2249207 -0.66609305 0 22
-4.359787 -6.2151437 -0.59473902 0 23
-4.3750243 -6.2368655 -0.52636564 0 24
-4.3636599 -6.2206645 -0.45481861 0 25
-4.3723731 -6.2330856 -0.38548431 0 26
-4.3565674 -6.2105536 -0.31416744 0 27
-4.3746371 -6.2363133 -0.24531056 0 28
-4.370842 -6.2309031 -0.1750402 0 29
-4.3639059 -6.2210155 -0.10484563 0 30
-4.3751769 -6.237083 -0.035036832 0 31
-4.3736115 -6.2348514 0.035024293 0 32
-4.3620405 -6.2183561 0.10480081 0 33
-4.3696432 -6.2291946 0.1749922 0 34
-4.372242 -6.2328992 0.24517627 0 35
-4.3682113 -6.2271528 0.31500712 0 36
-4.3721356 -6.2327471 0.38546339 0 37
-4.3615384 -6.2176399 0.45459747 0 38
-4.3631492 -6.2199368 0.52493691 0 39
-4.3595867 -6.2148576 0.5947116 0 40
-4.3519239 -6.2039342 0.66384739 0 41
-4.3714237 -6.2317328 0.73743117 0 42
-4.3547726 -6.2079954 0.80508792 0 43
-4.3606396 -6.2163591 0.87687117 0 44
-4.3670282 -6.2254663 0.94910854 0 45
-4.3632135 -6.2200284 1.0193332 0 46
-4.3686371 -6.2277603 1.0919181 0 47
-4.372541 -6.2333255 1.1644642 0 48
-4.3680921 -6.2269831 1.2349782 0 49
-4.3587723 -6.213697 1.3041033 0 50
-4.3665671 -6.2248087 1.3785511 0 51
-4.3633909 -6.2202816 1.4498527 0 52
-4.3653293 -6.2230444 1.5230873 0 53
-4.3682504 -6.2272086 1.5970138 0 54
-4.365345 -6.2230668 1.6690925 0 55
-4.3690748 -6.228384 1.7440183 0 56
0 0 0 0 57
0 0 0 0 58
0 0 0 0 59
0 0 0 0 60
0 0 0 0 61
0 0 0 0 62
0 0 0 0 63
-1.3887542 -2.0324588 -0.73383892 0 0
-1.4430054 -2.111856 -0.73695928 0 1
-1.4877921 -2.177402 -0.73363185 0 2
-1.5419637 -2.2566826 -0.73332804 0 3
-1.6040559 -2.3475554 -0.73489255 0 4
-1.6721332 -2.4471874 -0.73706794 0 5
-1.7327385 -2.5358841 -0.73385412 0 6
-1.8083187 -2.6464965 -0.73476732 0 7
-1.8939416 -2.7718067 -0.73712599 0 8
-1.9761438 -2.8921108 -0.73541588 0 9
-2.0658565 -3.023406 -0.73370451 0 10
-2.178411 -3.1881313 -0.73680544 0 11
-2.2933624 -3.3563638 -0.73700202 0 12
-2.4104662 -3.5277467 -0.73411161 0 13
-2.5620649 -3.7496133 -0.73734528 0 14
-2.7113221 -3.9680531 -0.73499876 0 15
-2.8992345 -4.2430649 -0.73763359 0 16
-3.0740988 -4.4989815 -0.7310394 0 17
-3.3264048 -4.8682342 -0.73589909 0 18
-3.6102681 -5.2836714 -0.73898953 0 19
-3.8959908 -5.7018299 -0.73317724 0 20
-4.251123 -6.2215705 -0.72998756 0 21
-4.2418365 -6.2079792 -0.65864915 0 22
-4.2513781 -6.2219434 -0.59034258 0 23
-4.2382965 -6.2027988 -0.51905292 0 24
-4.2489758 -6.2184281 -0.45080099 0 25
-4.2404966 -6.2060184 -0.38055679 0 26
-4.245811 -6.2137961 -0.31166688 0 27
-4.2463431 -6.2145748 -0.24238323 0 28
-4.2465506 -6.214879 -0.17311004 0 29
-4.2438579 -6.210938 -0.10378846 0 30
-4.2439551 -6.2110801 -0.03459499 0 31
-4.2482615 -6.2173824 0.034630094 0 32
-4.2490358 -6.2185159 0.10391509 0 33
-4.2472672 -6.2159276 0.17313926 0 34
-4.2412558 -6.2071295 0.24209285 0 35
-4.2420793 -6.2083349 0.31139293 0 36
-4.2473679 -6.2160749 0.38117346 0 37
-4.2469478 -6.2154598 0.45058578 0 38
-4.2504759 -6.220623 0.52054447 0 39
-4.2471824 -6.2158031 0.58975995 0 40
-4.2535067 -6.225059 0.66046125 0 41
-4.2489963 -6.2184577 0.72962242 0 42
-4.2522817 -6.2232656 0.80022675 0 43
-4.2420139 -6.2082391 0.86830223 0 44
-4.2437863 -6.2108335 0.938851 0 45
-4.2425694 -6.2090526 1.0089089 0 46
-4.2507706 -6.221055 1.0814962 0 47
-4.2482758 -6.2174034 1.1516438 0 48
-4.2463799 -6.2146287 1.22208 0 49
-4.245111 -6.2127719 1.2928559 0 50
-4.2487903 -6.2181563 1.3654045 0 51
-4.2428961 -6.2095304 1.4350775 0 52
-4.2411122 -6.2069197 1.506263 0 53
-4.2411108 -6.2069173 1.5783163 0 54
-4.247232 -6.2158761 1.6530315 0 55
-4.2531528 -6.2245407 1.7281673 0 56
0 0 0 0 57
0 0 0 0 58
0 0 0 0 59
0 0 0 0 60
0 0 0 0 61
0 0 0 0 62
0 0 0 0 63
-1.3680458 -2.0559733 -0.73619962 0 0
-1.4070812 -2.1146379 -0.73183686 0 1
-1.4682672 -2.2065914 -0.73732781 0 2
-1.5201102 -2.2845039 -0.73623902 0 3
-1.5810301 -2.3760576 -0.73767334 0 4
-1.6401551 -2.4649138 -0.73627681 0 5
-1.6914194 -2.5419564 -0.72953743 0 6
-1.7708952 -2.6613972 -0.73280305 0 7
-1.8598124 -2.7950268 -0.73716354 0 8
-1.9419886 -2.9185257 -0.73600489 0 9
-2.0176809 -3.0322802 -0.72978199 0 10
