# .PCD v0.7 - Point Cloud Data file format
VERSION 0.7
FIELDS x y z intensity ring
SIZE 4 4 4 4 2
TYPE F F F F U
COUNT 1 1 1 1 1
WIDTH 1288
HEIGHT 1
VIEWPOINT 0 0 0 1 0 0 0
POINTS 1288
DATA ascii
1.7504227 -2.7388268 -0.3148877 0 21
1.7507819 -2.7393887 -0.28479555 0 22
1.7426246 -2.7266252 -0.25350073 0 23
1.7414628 -2.7248075 -0.22342689 0 24
1.737445 -2.7185209 -0.19311349 0 25
1.7428526 -2.7269819 -0.16385676 0 26
1.7449728 -2.7302995 -0.13418983 0 27
1.7408066 -2.7237806 -0.10409718 0 28
1.7523429 -2.7418311 -0.074835211 0 29
1.7568592 -2.7488976 -0.04501177 0 30
1.7477628 -2.7346649 -0.014925397 0 31
1.7419521 -2.7255728 0.014875774 0 32
1.7397591 -2.7221417 0.044573657 0 33
1.7459595 -2.7318432 0.074562602 0 34
1.7453172 -2.7308383 0.10436691 0 35
1.744563 -2.7296581 0.13415831 0 36
1.7496172 -2.7375662 0.16449274 0 37
1.7470592 -2.7335639 0.19418208 0 38
1.7403735 -2.723103 0.22328714 0 39
1.746766 -2.7331052 0.25410315 0 40
1.7542669 -2.7448416 0.28536245 0 41
1.7418189 -2.7253644 0.31333995 0 42
1.7495912 -2.7375257 0.34492815 0 43
1.7518679 -2.7410879 0.37566537 0 44
1.7529938 -2.7428496 0.40627912 0 45
1.7458408 -2.7316575 0.43493921 0 46
1.7501527 -2.7384043 0.4664813 0 47
1.7403865 -2.7231233 0.49425623 0 48
1.7487965 -2.7362823 0.52725536 0 49
1.7429214 -2.7270896 0.5560832 0 50
1.7469537 -2.7333989 0.58813685 0 51
1.7479182 -2.7349081 0.61934847 0 52
1.7541337 -2.7446332 0.65265656 0 53
1.741026 -2.7241242 0.67876691 0 54
1.7426366 -2.7266438 0.71053076 0 55
1.7436432 -2.728219 0.7422213 0 56
1.7504903 -2.7389324 0.77667153 0 57
1.7464966 -2.7326837 0.80650181 0 58
1.7530099 -2.7428749 0.84137511 0 59
1.743083 -2.7273424 0.86844665 0 60
1.7392464 -2.7213395 0.89845842 0 61
1.7420577 -2.7257383 0.93204951 0 62
1.7430984 -2.7273664 0.9649353 0 63
1.3505257 -2.0569396 -0.73355991 0 0
1.3963417 -2.1267202 -0.73303479 0 1
1.4488066 -2.2066278 -0.73435104 0 2
1.5060674 -2.2938397 -0.73625106 0 3
1.5650313 -2.3836458 -0.73702925 0 4
1.6113186 -2.4541442 -0.73008835 0 5
1.6860508 -2.5679662 -0.73401469 0 6
1.739592 -2.649513 -0.72657359 0 7
1.744776 -2.6574087 -0.69802696 0 8
1.7384547 -2.6477809 -0.66502076 0 9
1.7441597 -2.6564701 -0.63674372 0 10
1.7371502 -2.6457939 -0.60395938 0 11
1.7365805 -2.6449263 -0.57365173 0 12
1.7318025 -2.6376493 -0.54214668 0 13
1.7417909 -2.6528623 -0.51526922 0 14
1.7399225 -2.6500165 -0.48483366 0 15
1.7378657 -2.6468837 -0.45449692 0 16
1.7382194 -2.6474226 -0.42489824 0 17
1.7435018 -2.655468 -0.39648151 0 18
1.7423729 -2.6537488 -0.36660412 0 19
1.7382766 -2.6475096 -0.33625391 0 20
1.7448249 -2.6574831 -0.30797896 0 21
1.7391146 -2.6487861 -0.2775785 0 22
1.7371058 -2.6457267 -0.24794655 0 23
1.7347525 -2.6421423 -0.21838117 0 24
1.7416919 -2.6527114 -0.18994562 0 25
1.7358036 -2.6437433 -0.16012558 0 26
1.745985 -2.6592503 -0.1317431 0 27
1.7322754 -2.6383696 -0.10163933 0 28
1.7456648 -2.6587625 -0.073148288 0 29
1.73777 -2.6467381 -0.043685555 0 30
1.7395767 -2.6494899 -0.01457617 0 31
1.7472895 -2.661237 0.014640797 0 32
1.7413756 -2.6522295 0.043776195 0 33
1.7309511 -2.6363525 0.072531745 0 34
1.7430153 -2.654727 0.10226949 0 35
1.7438265 -2.6559625 0.13158023 0 36
1.7378817 -2.646908 0.16031727 0 37
1.7376099 -2.6464942 0.18950045 0 38
1.7405057 -2.6509047 0.21910542 0 39
1.7441376 -2.6564364 0.24895023 0 40
1.7411727 -2.6519206 0.27790698 0 41
1.7451987 -2.6580524 0.30804494 0 42
1.7356479 -2.6435061 0.33574539 0 43
1.7388703 -2.6484139 0.36586714 0 44
1.7437181 -2.6557975 0.39653069 0 45
1.7347572 -2.6421494 0.42405194 0 46
1.7390678 -2.6487148 0.4548113 0 47
1.7364529 -2.6447322 0.48386687 0 48
1.7386454 -2.6480715 0.51433867 0 49
1.7412544 -2.652045 0.54510564 0 50
1.7409892 -2.6516411 0.57510811 0 51
1.7477154 -2.6618855 0.60763264 0 52
1.7347715 -2.6421711 0.63331634 0 53
1.7387898 -2.6482913 0.66514891 0 54
1.7445344 -2.6570408 0.69793028 0 55
1.7435335 -2.6555164 0.72821987 0 56
1.7423463 -2.653708 0.75852263 0 57
1.7394118 -2.6492388 0.78812748 0 58
1.735365 -2.6430752 0.81724548 0 59
1.7454573 -2.6584463 0.8532784 0 60
1.7365274 -2.6448455 0.88018698 0 61
1.7444988 -2.6569865 0.91580617 0 62
1.7438508 -2.6559997 0.94720083 0 63
1.3822068 -2.0498061 -0.73702157 0 0
1.4211622 -2.1075768 -0.73240447 0 1
1.4825556 -2.1986232 -0.73769826 0 2
1.5218989 -2.256969 -0.73036808 0 3
1.5826732 -2.3470969 -0.73169047 0 4
1.6436369 -2.437506 -0.73109591 0 5
1.716603 -2.5457141 -0.73363221 0 6
1.738914 -2.5788014 -0.71299213 0 7
1.7396244 -2.5798547 -0.68322295 0 8
1.7385759 -2.5783 -0.65288985 0 9
1.7352158 -2.5733168 -0.6218797 0 10
1.7417393 -2.5829911 -0.59446728 0 11
1.7392012 -2.5792272 -0.56399816 0 12
1.7398793 -2.5802329 -0.53470224 0 13
1.739557 -2.5797548 -0.50518596 0 14
1.7367154 -2.575541 -0.47507918 0 15
1.746491 -2.5900378 -0.44838959 0 16
1.7328064 -2.5697439 -0.4158195 0 17
1.7413288 -2.5823824 -0.3887369 0 18
1.7363847 -2.5750506 -0.3586548 0 19
1.7418396 -2.5831401 -0.3307738 0 20
1.7381142 -2.5776153 -0.30117711 0 21
1.7318994 -2.5683987 -0.27136555 0 22
1.7294147 -2.564714 -0.24232899 0 23
1.738634 -2.5783861 -0.21486233 0 24
1.7316687 -2.5680566 -0.18539466 0 25
1.7403595 -2.580945 -0.15760629 0 26
1.7394437 -2.5795867 -0.12884636 0 27
1.7350163 -2.5730212 -0.09993621 0 28
1.7354091 -2.5736036 -0.071387082 0 29
1.7366664 -2.5754683 -0.042858448 0 30
1.7345724 -2.5723627 -0.014268119 0 31
1.7313126 -2.5675285 0.014241305 0 32
1.7347747 -2.5726628 0.042811763 0 33
1.7368754 -2.575778 0.071447402 0 34
1.7319238 -2.568435 0.099758081 0 35
1.7341204 -2.5716925 0.12845206 0 36
1.7373438 -2.5764728 0.1573332 0 37
1.7439507 -2.5862708 0.1867096 0 38
1.7395291 -2.5797136 0.21497296 0 39
1.7372018 -2.5762622 0.24342012 0 40
1.7320236 -2.568583 0.27138501 0 41
1.737501 -2.5767059 0.30107084 0 42
1.7311642 -2.5673084 0.32874653 0 43
1.7360237 -2.5745149 0.3585802 0 44
1.7338084 -2.5712297 0.38705802 0 45
1.7375728 -2.5768123 0.41696325 0 46
1.7366925 -2.5755069 0.44587398 0 47
1.739417 -2.5795472 0.47581816 0 48
1.7304287 -2.5662177 0.50253505 0 49
1.7345251 -2.5722926 0.5330568 0 50
1.734611 -2.5724201 0.5625096 0 51
1.72782 -2.5623491 0.58971655 0 52
1.7381052 -2.5776017 0.62291515 0 53
1.7352337 -2.5733433 0.65163469 0 54
1.7280377 -2.5626719 0.67867237 0 55
1.7303131 -2.5660462 0.70946556 0 56
1.7364389 -2.5751307 0.7421096 0 57
1.7394109 -2.5795381 0.77369654 0 58
1.7375978 -2.5768495 0.80331415 0 59
1.74245 -2.5840452 0.8362118 0 60
1.7379618 -2.5773892 0.86478466 0 61
1.7393415 -2.5794353 0.89638013 0 62
1.7395869 -2.5797994 0.92758417 0 63
1.4000787 -2.0222178 -0.73323667 0 0
1.4513092 -2.0962131 -0.73460156 0 1
1.5067217 -2.1762488 -0.73635179 0 2
1.5529002 -2.2429471 -0.73195446 0 3
1.6183639 -2.3375003 -0.73484695 0 4
1.6861795 -2.4354506 -0.7366426 0 5
1.7326787 -2.5026119 -0.72729582 0 6
1.7372031 -2.5091469 -0.69958717 0 7
1.7295592 -2.4981062 -0.66715527 0 8
1.7400234 -2.5132203 -0.64177954 0 9
1.7373583 -2.509371 -0.61154276 0 10
1.7336724 -2.5040472 -0.5811609 0 11
1.7433653 -2.5180473 -0.55526567 0 12
1.7327017 -2.502645 -0.52299941 0 13
1.7322035 -2.5019255 -0.49407864 0 14
1.7299523 -2.4986739 -0.46478915 0 15
1.7331071 -2.5032306 -0.4370178 0 16
1.7310195 -2.5002155 -0.40798229 0 17
1.7240244 -2.4901121 -0.37800968 0 18
1.73184 -2.5014007 -0.35133627 0 19
1.7308736 -2.5000048 -0.32282919 0 20
1.729665 -2.4982591 -0.29436773 0 21
1.7293164 -2.4977555 -0.2661283 0 22
1.7294767 -2.497987 -0.23801564 0 23
1.7315321 -2.5009558 -0.21016829 0 24
1.7359115 -2.5072811 -0.18253432 0 25
1.7343497 -2.5050254 -0.15426087 0 26
1.7337201 -2.5041161 -0.12613201 0 27
1.7303087 -2.4991887 -0.097887546 0 28
1.7351053 -2.5061169 -0.070101634 0 29
1.7317173 -2.5012233 -0.04197412 0 30
1.7312733 -2.500582 -0.013986996 0 31
1.7245344 -2.4908485 0.013932552 0 32
1.7335932 -2.5039327 0.042019587 0 33
1.7428237 -2.5172651 0.070413478 0 34
1.7336849 -2.5040653 0.098078549 0 35
1.7328548 -2.5028663 0.12606907 0 36
1.7354685 -2.5066414 0.15436038 0 37
1.7409865 -2.5146115 0.18306798 0 38
1.7316258 -2.501091 0.21017967 0 39
1.7328275 -2.5028269 0.23847678 0 40
1.7297785 -2.4984231 0.26619941 0 41
1.7249885 -2.4915044 0.29357183 0 42
1.737957 -2.5102355 0.32415032 0 43
1.7413611 -2.5151525 0.35326782 0 44
1.7337153 -2.5041091 0.38013452 0 45
1.7275163 -2.4951556 0.40715662 0 46
1.7274495 -2.495059 0.43559119 0 47
1.730551 -2.4995389 0.46495003 0 48
1.7346195 -2.5054152 0.49476776 0 49
1.7306169 -2.499634 0.52237016 0 50
1.7337985 -2.5042293 0.55221862 0 51
1.7271616 -2.4946434 0.57897842 0 52
1.7318385 -2.5013983 0.60959977 0 53
1.7271402 -2.4946125 0.6370278 0 54
1.7295682 -2.4981194 0.66715872 0 55
1.735369 -2.5064976 0.69884849 0 56
1.7330712 -2.5031788 0.72746062 0 57
1.7296453 -2.4982305 0.75563151 0 58
1.7327323 -2.5026894 0.78677797 0 59
1.7303237 -2.4992104 0.81558245 0 60
1.7324685 -2.5023084 0.84667677 0 61
1.7355549 -2.5067663 0.87847674 0 62
1.7373593 -2.5093722 0.9098742 0 63
1.4310443 -2.0135841 -0.73643094 0 0
1.4738297 -2.0737863 -0.73303789 0 1
1.5262761 -2.1475823 -0.73294711 0 2
1.587128 -2.2332053 -0.73508865 0 3
1.6348284 -2.3003232 -0.72942412 0 4
1.7064527 -2.401104 -0.73254538 0 5
1.7382556 -2.445853 -0.7169584 0 6
1.7298936 -2.4340868 -0.68453836 0 7
1.7302363 -2.4345694 -0.65581924 0 8
1.7291079 -2.4329815 -0.62667179 0 9
1.7194282 -2.4193614 -0.5947147 0 10
1.7241637 -2.4260244 -0.56793034 0 11
1.7313918 -2.4361951 -0.54186982 0 12
1.7284894 -2.4321113 -0.51266229 0 13
1.7234185 -2.4249761 -0.48303115 0 14
1.7293246 -2.4332864 -0.45654711 0 15
1.7312686 -2.4360218 -0.42896852 0 16
1.7267758 -2.4296999 -0.39991024 0 17
1.7278212 -2.4311709 -0.37225932 0 18
1.723153 -2.4246025 -0.34349963 0 19
1.7287816 -2.4325223 -0.31683621 0 20
1.7394743 -2.4475677 -0.29089311 0 21
1.7347298 -2.4408917 -0.26232257 0 22
1.7269086 -2.4298868 -0.23353252 0 23
1.7247273 -2.4268177 -0.20570475 0 24
1.7326897 -2.4380214 -0.17902966 0 25
1.7278246 -2.4311757 -0.15101011 0 26
1.7328953 -2.4383104 -0.12388134 0 27
1.7278951 -2.4312751 -0.09605246 0 28
1.728178 -2.431673 -0.068608515 0 29
1.7213588 -2.4220779 -0.040998053 0 30
1.7332342 -2.4387875 -0.01375952 0 31
1.7313256 -2.4361019 0.013744369 0 32
1.7317756 -2.4367352 0.04124615 0 33
1.7280483 -2.4314907 0.068603367 0 34
1.7266196 -2.4294803 0.095981553 0 35
1.7278057 -2.4311492 0.12351751 0 36
1.7301683 -2.4344735 0.15121494 0 37
1.7361042 -2.4428258 0.17938247 0 38
1.7332021 -2.4387422 0.20671552 0 39
1.7255319 -2.4279497 0.23334634 0 40
1.7255116 -2.4279211 0.2609286 0 41
1.732917 -2.4383409 0.2897965 0 42
1.7300469 -2.4343026 0.3170681 0 43
1.7309005 -2.4355037 0.34504405 0 44
1.7318466 -2.4368351 0.37312657 0 45
1.7343384 -2.440341 0.40166169 0 46
1.7304047 -2.4348061 0.42875445 0 47
1.7257026 -2.42819 0.4555909 0 48
1.7246046 -2.4266448 0.48336357 0 49
1.738355 -2.4459929 0.5155884 0 50
1.7308749 -2.4354677 0.54170805 0 51
1.7341866 -2.4401276 0.57123184 0 52
1.7205945 -2.4210026 0.59511817 0 53
1.7298772 -2.4340639 0.62695056 0 54
1.7240455 -2.4258583 0.65347266 0 55
1.7301086 -2.4343896 0.68462348 0 56
1.7301571 -2.4344578 0.7136181 0 57
1.722597 -2.42382 0.73947573 0 58
1.7290297 -2.4328713 0.77145463 0 59
1.7237936 -2.4255037 0.79838616 0 60
1.7340047 -2.4398715 0.83270234 0 61
1.723364 -2.4248993 0.85714859 0 62
1.7246187 -2.4266648 0.8875075 0 63
1.4519999 -1.9907713 -0.73456198 0 0
1.5027285 -2.060323 -0.73475498 0 1
1.5650395 -2.1457548 -0.73883551 0 2
1.6114042 -2.2093234 -0.73369431 0 3
1.6868684 -2.312789 -0.73989832 0 4
1.7257003 -2.3660295 -0.7282635 0 5
1.7223074 -2.3613777 -0.69835126 0 6
1.7264563 -2.3670661 -0.67160964 0 7
1.7278633 -2.3689952 -0.6438297 0 8
1.72688 -2.3676469 -0.61526626 0 9
1.7308114 -2.3730371 -0.58851469 0 10
1.7320446 -2.3747277 -0.56086528 0 11
1.7187967 -2.3565643 -0.52881902 0 12
1.7249323 -2.3649766 -0.50294399 0 13
1.7237111 -2.3633022 -0.4749324 0 14
1.7204865 -2.358881 -0.44652241 0 15
1.723401 -2.3628771 -0.41978818 0 16
1.7316655 -2.3742082 -0.39425161 0 17
1.7297256 -2.3715484 -0.36635903 0 18
1.7200404 -2.3582695 -0.33707303 0 19
1.7177529 -2.3551333 -0.30948406 0 20
1.7282631 -2.3695433 -0.2841242 0 21
1.7225065 -2.3616507 -0.25606346 0 22
1.7142416 -2.3503191 -0.22789402 0 23
1.7323215 -2.3751075 -0.20311187 0 24
1.7251023 -2.3652096 -0.17522737 0 25
1.7242056 -2.3639803 -0.14814204 0 26
1.7244545 -2.3643215 -0.12119041 0 27
1.7169369 -2.3540144 -0.093827114 0 28
1.7361697 -2.3803837 -0.067758635 0 29
1.7251761 -2.3653109 -0.040393192 0 30
1.7242541 -2.3640468 -0.013456442 0 31
1.7284069 -2.3697405 0.013488851 0 32
1.7293352 -2.3710132 0.040490571 0 33
1.7319781 -2.3746367 0.067595042 0 34
1.7199914 -2.3582025 0.093994036 0 35
1.7311397 -2.3734872 0.12166023 0 36
1.7229285 -2.3622293 0.14803231 0 37
1.7231468 -2.3625286 0.17502874 0 38
1.7264864 -2.3671074 0.20242772 0 39
1.7267348 -2.3674479 0.22955488 0 40
1.7253389 -2.3655341 0.25648454 0 41
1.7262986 -2.3668497 0.2838012 0 42
1.7306494 -2.3728149 0.31180757 0 43
1.7211461 -2.3597856 0.33728972 0 44
1.7164693 -2.3533733 0.36355132 0 45
1.7274301 -2.3684011 0.39328733 0 46
1.7184104 -2.3560345 0.41857255 0 47
1.7393993 -2.3848116 0.45143092 0 48
1.7241145 -2.3638554 0.47504354 0 49
1.7231071 -2.3624742 0.50241184 0 50
1.7213186 -2.3600221 0.5295949 0 51
1.7286379 -2.3700571 0.55976218 0 52
1.7263197 -2.3668787 0.58698738 0 53
1.7181549 -2.3556845 0.61215764 0 54
1.712157 -2.347461 0.6379773 0 55
1.7222396 -2.3612847 0.66996932 0 56
1.7234273 -2.3629131 0.69880533 0 57
1.7234145 -2.3628957 0.72729892 0 58
1.7221431 -2.3611524 0.75537062 0 59
1.7254791 -2.3657262 0.78563422 0 60
1.7250847 -2.3651855 0.81439078 0 61
1.726481 -2.3670998 0.84415817 0 62
1.7196085 -2.3576775 0.86994433 0 63
1.4679273 -1.9614894 -0.73036253 0 0
1.5301476 -2.0446298 -0.7358129 0 1
1.5729282 -2.1017947 -0.73030347 0 2
1.643278 -2.1957982 -0.73585749 0 3
1.698657 -2.2697976 -0.73277152 0 4
1.7226169 -2.3018134 -0.71496356 0 5
1.7218649 -2.3008087 -0.68664831 0 6
1.7198043 -2.2980549 -0.65797955 0 7
1.7231153 -2.3024793 -0.63146317 0 8
1.7143167 -2.2907224 -0.60070884 0 9
1.726666 -2.3072238 -0.57741481 0 10
1.7189221 -2.2968762 -0.54742891 0 11
1.7226996 -2.301924 -0.52127171 0 12
1.7145649 -2.291054 -0.4916698 0 13
1.7159857 -2.2929525 -0.46500003 0 14
1.7285743 -2.3097739 -0.44121686 0 15
1.7238358 -2.303442 -0.41296363 0 16
1.7269895 -2.307656 -0.38669738 0 17
1.7258136 -2.3060849 -0.35949728 0 18
1.7310162 -2.3130367 -0.33362496 0 19
1.7200962 -2.2984452 -0.30479118 0 20
1.7210292 -2.2996917 -0.278265 0 21
1.7235192 -2.303019 -0.25198513 0 22
1.7213517 -2.300123 -0.22506221 0 23
1.7180808 -2.295752 -0.19811732 0 24
1.7239951 -2.3036549 -0.1722246 0 25
1.7149694 -2.2915945 -0.14491645 0 26
1.7280146 -2.309026 -0.1194362 0 27
1.7149436 -2.2915602 -0.092171341 0 28
1.7157862 -2.292686 -0.065857872 0 29
1.7178972 -2.2955067 -0.039558873 0 30
1.7176951 -2.2952366 -0.013183996 0 31
1.7259107 -2.3062146 0.013247055 0 32
1.7246847 -2.3045764 0.039715175 0 33
1.7225984 -2.3017886 0.066119343 0 34
1.7217536 -2.3006599 0.092537351 0 35
1.7259916 -2.3063228 0.11929637 0 36
1.7150527 -2.2917058 0.14492349 0 37
1.7121813 -2.287869 0.17104441 0 38
1.7190332 -2.2970247 0.19822714 0 39
1.7169875 -2.2942913 0.2244916 0 40
1.7292387 -2.3106616 0.25282133 0 41
1.7110702 -2.2863843 0.27665478 0 42
1.7098414 -2.2847424 0.30297408 0 43
1.7060738 -2.2797079 0.3288177 0 44
1.7216241 -2.3004868 0.35862458 0 45
1.7199814 -2.2982917 0.38512817 0 46
1.7168468 -2.2941031 0.41128933 0 47
1.7254949 -2.3056591 0.44043085 0 48
1.7246159 -2.3044846 0.46733871 0 49
1.7209729 -2.2996166 0.49350736 0 50
1.7283474 -2.3094707 0.52298063 0 51
1.7157775 -2.2926743 0.54642749 0 52
1.7244422 -2.3042524 0.57667118 0 53
1.7098631 -2.2847712 0.59914827 0 54
1.7194418 -2.2975707 0.63011694 0 55
1.7209293 -2.2995582 0.65840995 0 56
1.725371 -2.3054936 0.68804646 0 57
1.7206928 -2.2992423 0.71416491 0 58
1.7201123 -2.2984667 0.74202698 0 59
1.7155662 -2.292392 0.76822811 0 60
1.7238041 -2.3033998 0.80035454 0 61
1.7188429 -2.2967703 0.82655215 0 62
1.7209442 -2.2995782 0.85625023 0 63
1.5071137 -1.9630642 -0.73779362 0 0
1.5466285 -2.0145335 -0.73177075 0 1
1.6073738 -2.0936563 -0.7342878 0 2
1.6693087 -2.1743283 -0.73548585 0 3
1.7194382 -2.2396238 -0.72980094 0 4
1.7146962 -2.2334471 -0.70022458 0 5
1.7233931 -2.2447751 -0.67619908 0 6
1.7090697 -2.2261186 -0.6433512 0 7
1.7194552 -2.239646 -0.6199826 0 8
1.7244225 -2.2461159 -0.59452707 0 9
1.7250402 -2.2469206 -0.56758875 0 10
1.7189686 -2.239012 -0.53863484 0 11
1.7173148 -2.2368579 -0.51128078 0 12
1.7191802 -2.2392876 -0.48506057 0 13
1.7161031 -2.2352798 -0.45754907 0 14
1.7149886 -2.2338281 -0.43070534 0 15
1.7250633 -2.2469506 -0.40660799 0 16
1.7183639 -2.2382245 -0.37857473 0 17
1.7155548 -2.2345655 -0.35161006 0 18
1.720651 -2.2412035 -0.32629105 0 19
1.7168561 -2.2362607 -0.29932192 0 20
1.7128832 -2.2310858 -0.27249157 0 21
1.7122388 -2.2302463 -0.24630775 0 22
1.7319793 -2.2559588 -0.2228079 0 23
1.711769 -2.2296343 -0.1942133 0 24
1.7192783 -2.2394154 -0.16898972 0 25
1.7207818 -2.241374 -0.14306787 0 26
1.7247301 -2.2465167 -0.117291 0 27
1.7137465 -2.2322102 -0.090624914 0 28
1.7179986 -2.2377486 -0.064881712 0 29
1.7184649 -2.2383561 -0.038935199 0 30
1.7150149 -2.2338622 -0.012951613 0 31
1.7163221 -2.2355649 0.012961484 0 32
1.712366 -2.230412 0.038797013 0 33
1.7273253 -2.249897 0.065233938 0 34
1.7255802 -2.2476239 0.091250695 0 35
1.721694 -2.2425621 0.11708452 0 36
1.721278 -2.2420201 0.14310911 0 37
1.7123214 -2.2303541 0.16830592 0 38
1.7164987 -2.235795 0.19474992 0 39
1.7225748 -2.2437093 0.22159809 0 40
1.7162905 -2.2355237 0.24689059 0 41
1.7241498 -2.2457609 0.27428392 0 42
1.7146397 -2.2333736 0.29893547 0 43
1.7238643 -2.245389 0.32690039 0 44
1.718845 -2.2388511 0.35228437 0 45
1.7145674 -2.2332795 0.37773833 0 46
1.7183038 -2.2381461 0.40501472 0 47
1.7242303 -2.2458656 0.43302631 0 48
1.7185886 -2.238517 0.45821175 0 49
1.7216206 -2.2424662 0.4857491 0 50
1.7153147 -2.2342527 0.51068527 0 51
1.7207596 -2.2413449 0.53919607 0 52
1.7237871 -2.2452884 0.56717646 0 53
1.7256045 -2.2476556 0.59493458 0 54
1.7155052 -2.2345011 0.61855841 0 55
1.7226461 -2.2438023 0.64846182 0 56
1.7215481 -2.242372 0.67547518 0 57
1.7208346 -2.2414427 0.70273125 0 58
1.725358 -2.2473345 0.73231357 0 59
1.7224352 -2.2435274 0.75889301 0 60
1.7173903 -2.2369564 0.78454608 0 61
1.7238795 -2.2454088 0.81563514 0 62
1.7149973 -2.2338393 0.8395611 0 63
1.524196 -1.9355712 -0.73444921 0 0
1.5798556 -2.006253 -0.73576385 0 1
1.6352679 -2.0766208 -0.7353099 0 2
1.7019583 -2.1613107 -0.73810577 0 3
1.712159 -2.1742647 -0.7153095 0 4
1.7079985 -2.1689813 -0.68654609 0 5
1.7222024 -2.1870186 -0.6651299 0 6
1.7288344 -2.1954408 -0.64058065 0 7
1.7162991 -2.179522 -0.60913515 0 8
1.7174004 -2.1809206 -0.58281612 0 9
1.7206423 -2.1850376 -0.55725914 0 10
1.7186583 -2.1825182 -0.53008819 0 11
1.7092493 -2.1705694 -0.50089532 0 12
1.7162415 -2.1794491 -0.476634 0 13
1.7117894 -2.1737952 -0.44923818 0 14
1.7101216 -2.1716774 -0.42274457 0 15
1.7150755 -2.1779683 -0.39791119 0 16
1.718802 -2.1827006 -0.37273005 0 17
1.7128947 -2.1751988 -0.34555674 0 18
1.7075667 -2.168433 -0.31872937 0 19
1.7119603 -2.1740122 -0.29378548 0 20
1.7159315 -2.1790555 -0.26869363 0 21
1.7190176 -2.1829743 -0.24340311 0 22
1.7153637 -2.1783345 -0.21720819 0 23
1.7164544 -2.1797192 -0.1916894 0 24
1.7140247 -2.1766338 -0.16583005 0 25
1.7144028 -2.177114 -0.14030114 0 26
1.719897 -2.1840911 -0.11512721 0 27
1.7209975 -2.1854885 -0.089580461 0 28
1.7133417 -2.1757667 -0.063690625 0 29
1.7137476 -2.1762819 -0.038219117 0 30
1.7145311 -2.1772768 -0.01274481 0 31
1.7198466 -2.184027 0.012784323 0 32
1.7171445 -2.1805956 0.03829487 0 33
1.7156183 -2.1786575 0.063775249 0 34
1.7207853 -2.185219 0.089569412 0 35
1.7127721 -2.1750431 0.11465029 0 36
1.7122643 -2.1743984 0.14012614 0 37
1.7145618 -2.177316 0.16588202 0 38
1.7091556 -2.1704504 0.19087429 0 39
1.7200066 -2.1842303 0.21779609 0 40
1.7125448 -2.1747546 0.2424866 0 41
1.7183145 -2.1820815 0.26906675 0 42
1.7177547 -2.1813707 0.29477987 0 43
1.7058307 -2.1662283 0.31840536 0 44
1.7210555 -2.1855621 0.34720311 0 45
1.7142375 -2.176904 0.37174019 0 46
1.7106962 -2.1724072 0.39689517 0 47
1.7084147 -2.1695096 0.42232263 0 48
1.7141562 -2.176801 0.44985935 0 49
1.7175335 -2.1810896 0.47699279 0 50
1.713115 -2.1754787 0.50202817 0 51
1.7075782 -2.1684475 0.52667069 0 52
1.7135268 -2.1760015 0.55495471 0 53
1.7102225 -2.1718056 0.58038026 0 54
1.7159485 -2.1790769 0.6090107 0 55
1.7162547 -2.1794658 0.63591951 0 56
1.7065021 -2.1670809 0.65906632 0 57
1.7210171 -2.1855135 0.69177902 0 58
1.7146693 -2.1774526 0.71635824 0 59
1.7146291 -2.1774013 0.74360085 0 60
1.7107862 -2.1725214 0.76926726 0 61
1.721779 -2.186481 0.80185986 0 62
1.7122184 -2.17434 0.82504964 0 63
1.5486782 -1.9176726 -0.734828 0 0
1.6062788 -1.9889975 -0.73662359 0 1
1.6634231 -2.0597572 -0.73652554 0 2
1.7104888 -2.118037 -0.73045516 0 3
1.7167281 -2.1257629 -0.70624441 0 4
1.7046705 -2.1108325 -0.67472416 0 5
1.7097639 -2.1171393 -0.6502226 0 6
1.7060126 -2.1124942 -0.62245256 0 7
1.7091134 -2.1163337 -0.59730363 0 8
1.7177901 -2.1270781 -0.57402885 0 9
1.7083997 -2.1154501 -0.54482836 0 10
1.721332 -2.1314638 -0.52278942 0 11
1.7126225 -2.1206791 -0.4942047 0 12
1.7173054 -2.1264777 -0.46963212 0 13
1.7234157 -2.1340439 -0.44536904 0 14
1.7076595 -2.1145337 -0.41567695 0 15
1.7103795 -2.1179016 -0.39075002 0 16
1.7121031 -2.1200359 -0.36559653 0 17
1.7082444 -2.115258 -0.33934572 0 18
1.7157278 -2.1245244 -0.31535262 0 19
1.7151506 -2.1238096 -0.28982946 0 20
1.707001 -2.1137183 -0.26320538 0 21
1.7154179 -2.1241405 -0.23917696 0 22
1.7239635 -2.1347222 -0.21495703 0 23
1.7182008 -2.1275866 -0.18894848 0 24
1.7144357 -2.1229243 -0.16333188 0 25
1.7165819 -2.125582 -0.13833003 0 26
1.7097842 -2.1171644 -0.1126991 0 27
1.7218711 -2.1321313 -0.088254593 0 28
1.7136647 -2.1219695 -0.062727936 0 29
1.7114198 -2.1191897 -0.037583217 0 30
1.7164416 -2.1254082 -0.01256379 0 31
1.7018107 -2.1072912 0.012456696 0 32
1.706893 -2.1135843 0.037483804 0 33
1.7246616 -2.1355867 0.063130468 0 34
1.7148379 -2.1234224 0.087894104 0 35
1.7147272 -2.1232853 0.11302492 0 36
1.7137631 -2.1220915 0.13810289 0 37
1.7089714 -2.116158 0.16281131 0 38
1.7199092 -2.1297021 0.18913634 0 39
1.7183362 -2.1277542 0.21425536 0 40
1.7146462 -2.1231849 0.23906936 0 41
1.7110043 -2.1186752 0.26382264 0 42
1.7173165 -2.1264915 0.29019547 0 43
1.7076999 -2.1145837 0.31387708 0 44
1.7042381 -2.110297 0.33854982 0 45
1.7155845 -2.124347 0.36633995 0 46
1.7168406 -2.1259022 0.39222613 0 47
1.7178326 -2.1271305 0.41815326 0 48
1.7079921 -2.1149454 0.44138321 0 49
1.7146764 -2.1232224 0.46891311 0 50
1.7177413 -2.1270175 0.49568179 0 51
1.7103025 -2.1178062 0.51943964 0 52
1.7023317 -2.1079364 0.54289323 0 53
1.7098186 -2.1172071 0.571365 0 54
1.7089247 -2.1161001 0.59723771 0 55
1.7063537 -2.1129167 0.62257701 0 56
1.7158095 -2.1246254 0.65252167 0 57
1.7109834 -2.1186495 0.67722291 0 58
1.7136855 -2.1219954 0.70499271 0 59
1.7114463 -2.1192226 0.73086405 0 60
1.704715 -2.1108875 0.75480866 0 61
1.7113219 -2.1190686 0.78479534 0 62
1.7073284 -2.1141236 0.81010556 0 63
1.5770438 -1.9044077 -0.73712009 0 0
1.6251993 -1.9625593 -0.73417789 0 1
1.6847689 -2.0344944 -0.73484445 0 2
1.7045871 -2.0584266 -0.71707153 0 3
1.7051482 -2.0591042 -0.69101202 0 4
1.7083616 -2.0629845 -0.66609412 0 5
1.7109267 -2.066082 -0.64095455 0 6
1.7159051 -2.072094 -0.61671889 0 7
1.7144247 -2.0703063 -0.59021837 0 8
1.7038217 -2.0575023 -0.56086421 0 9
1.7074584 -2.0618939 -0.53640193 0 10
1.7147812 -2.0707366 -0.51302773 0 11
1.7050196 -2.058949 -0.48466825 0 12
1.7097242 -2.06463 -0.46058127 0 13
1.7149806 -2.0709777 -0.43657532 0 14
1.7155132 -2.0716207 -0.41135684 0 15
1.7070115 -2.0613542 -0.38416073 0 16
1.7039526 -2.0576603 -0.35842612 0 17
1.7117317 -2.0670543 -0.33496392 0 18
1.7097117 -2.064615 -0.3095572 0 19
1.7003094 -2.0532608 -0.28303373 0 20
1.7097967 -2.0647175 -0.25970209 0 21
1.7069883 -2.0613263 -0.23444983 0 22
1.7086349 -2.0633144 -0.20986634 0 23
1.7136787 -2.0694053 -0.18563884 0 24
1.7026776 -2.0561206 -0.15979095 0 25
1.7134911 -2.0691788 -0.13602032 0 26
1.7155356 -2.0716479 -0.11139069 0 27
1.7128055 -2.068351 -0.086479805 0 28
1.7110945 -2.0662847 -0.061699137 0 29
1.7107418 -2.0658588 -0.037007678 0 30
1.706109 -2.0602643 -0.012301792 0 31
1.7062262 -2.060406 0.012302638 0 32
1.7168278 -2.0732081 0.03713933 0 33
1.6984714 -2.0510414 0.06124397 0 34
1.7002672 -2.05321 0.085846744 0 35
1.7090559 -2.063823 0.11096996 0 36
1.7055727 -2.0596168 0.13539174 0 37
1.7029579 -2.0564592 0.15981725 0 38
1.7016809 -2.0549171 0.18433915 0 39
1.703434 -2.057034 0.20922755 0 40
1.7201253 -2.0771902 0.23625417 0 41
1.7023761 -2.0557566 0.25857499 0 42
1.7095546 -2.0644252 0.28457269 0 43
1.708671 -2.0633581 0.30936876 0 44
1.7105099 -2.0655789 0.33472481 0 45
1.7073236 -2.0617311 0.35913518 0 46
1.7062863 -2.0604784 0.38399753 0 47
1.7094491 -2.0642979 0.40990275 0 48
1.713999 -2.0697923 0.43632543 0 49
1.7024134 -2.0558016 0.45861182 0 50
1.7031375 -2.0566761 0.48413324 0 51
1.7132403 -2.068876 0.51256675 0 52
1.7119213 -2.0672832 0.53780401 0 53
1.7141647 -2.0699923 0.56426895 0 54
1.7124074 -2.0678701 0.58952385 0 55
1.7088087 -2.0635245 0.61416835 0 56
1.7101512 -2.0651457 0.6406641 0 57
1.714748 -2.0706966 0.66858423 0 58
1.7061095 -2.0602651 0.69140166 0 59
1.7073207 -2.0617275 0.71822155 0 60
1.7043037 -2.0580842 0.74336493 0 61
1.702408 -2.055795 0.76905662 0 62
1.7065829 -2.0608368 0.79766756 0 63
1.6008017 -1.8854166 -0.7373327 0 0
1.6562819 -1.950761 -0.7373274 0 1
1.7110227 -2.0152345 -0.73543155 0 2
1.7061101 -2.0094483 -0.70726436 0 3
1.7201343 -2.0259659 -0.68693757 0 4
1.7014914 -2.0040085 -0.65375793 0 5
1.7203819 -2.0262575 -0.63511467 0 6
1.6984084 -2.0003772 -0.60154414 0 7
1.7083358 -2.0120697 -0.5795607 0 8
1.7137054 -2.018394 -0.55590576 0 9
1.7083619 -2.0121005 -0.52887309 0 10
1.7036823 -2.0065889 -0.50228727 0 11
1.7071862 -2.0107157 -0.47821975 0 12
1.7029642 -2.005743 -0.45208192 0 13
1.7111356 -2.0153673 -0.42925543 0 14
1.7110045 -2.015213 -0.40430325 0 15
1.7106643 -2.0148122 -0.3793785 0 16
1.7077208 -2.0113454 -0.35398951 0 17
1.705566 -2.0088074 -0.32889879 0 18
1.7085468 -2.0123181 -0.30484304 0 19
1.7007425 -2.0031264 -0.27898461 0 20
1.7017407 -2.004302 -0.25471574 0 21
1.7108968 -2.0150862 -0.23156591 0 22
1.7077241 -2.0113494 -0.20670106 0 23
1.7059209 -2.0092256 -0.18210831 0 24
1.7152691 -2.0202358 -0.15862931 0 25
1.7037039 -2.0066142 -0.13327461 0 26
1.7032018 -2.0060229 -0.10897996 0 27
1.708921 -2.012759 -0.08502762 0 28
1.7023904 -2.0050673 -0.060491689 0 29
1.7057689 -2.0090466 -0.036362939 0 30
1.7087198 -2.012522 -0.012141263 0 31
1.7012355 -2.0037072 0.012088085 0 32
1.7107323 -2.0148923 0.036468748 0 33
1.7095269 -2.0134726 0.060745269 0 34
1.7166034 -2.0218072 0.085409865 0 35
1.7017293 -2.0042887 0.10888575 0 36
1.7116534 -2.0159771 0.13389648 0 37
1.7005624 -2.0029142 0.15726921 0 38
1.6955736 -1.9970385 0.18100372 0 39
1.7063507 -2.0097318 0.20653482 0 40
1.7088506 -2.0126762 0.23128895 0 41
1.705525 -2.0087593 0.25528219 0 42
1.7086122 -2.0123954 0.28027552 0 43
1.70289 -2.0056558 0.30383375 0 44
1.706376 -2.0097616 0.32905498 0 45
1.7094907 -2.0134299 0.35435641 0 46
1.7043538 -2.0073798 0.37797901 0 47
1.6992472 -2.0013654 0.40152505 0 48
1.7163628 -2.021524 0.43056673 0 49
1.7104458 -2.014555 0.45406803 0 50
1.7138538 -2.0185688 0.48008746 0 51
1.7063365 -2.0097151 0.50306982 0 52
1.7125221 -2.0170004 0.53016108 0 53
1.7123559 -2.0168045 0.55546796 0 54
1.7100433 -2.014081 0.58013999 0 55
1.7067236 -2.0101709 0.60448927 0 56
1.700243 -2.002538 0.62768 0 57
1.7034378 -2.0063009 0.65450579 0 58
1.7116461 -2.0159686 0.68354779 0 59
1.7053329 -2.008533 0.7069422 0 60
1.7029494 -2.0057256 0.73196149 0 61
1.6993446 -2.0014799 0.75649762 0 62
1.6989238 -2.0009844 0.78252792 0 63
1.6214253 -1.8627908 -0.73622578 0 0
1.674058 -1.9232584 -0.73465723 0 1
1.7125206 -1.9674466 -0.72562206 0 2
1.7080685 -1.9623318 -0.69802046 0 3
1.7031707 -1.9567049 -0.6705038 0 4
1.7120429 -1.9668978 -0.64847022 0 5
1.7041849 -1.9578701 -0.62020063 0 6
1.7032614 -1.9568092 -0.59469581 0 7
1.7111651 -1.9658893 -0.57227629 0 8
1.6993887 -1.95236 -0.54343289 0 9
1.7038714 -1.95751 -0.51999193 0 10
1.6973615 -1.9500308 -0.49331698 0 11
1.6949831 -1.9472985 -0.46805853 0 12
1.6952953 -1.9476571 -0.44365478 0 13
1.7106482 -1.9652956 -0.42303884 0 14
1.7119747 -1.9668195 -0.39878756 0 15
1.7121974 -1.9670752 -0.37432596 0 16
1.698877 -1.951772 -0.34715518 0 17
1.7033786 -1.9569436 -0.3238121 0 18
1.7009721 -1.954179 -0.29918155 0 19
1.6901881 -1.9417896 -0.27331588 0 20
1.7081639 -1.9624413 -0.25204617 0 21
1.699495 -1.952482 -0.22675602 0 22
1.7000084 -1.9530718 -0.20284495 0 23
1.7047148 -1.9584789 -0.17939518 0 24
1.7025433 -1.955984 -0.15521635 0 25
1.7011111 -1.9543388 -0.13118199 0 26
1.7039889 -1.9576449 -0.10748194 0 27
1.7033451 -1.9569052 -0.083546624 0 28
1.7099993 -1.96455 -0.059899144 0 29
1.6984737 -1.9513086 -0.035693225 0 30
1.7032286 -1.9567715 -0.011930376 0 31
1.6992193 -1.9521654 0.011902293 0 32
1.696279 -1.9487873 0.035647102 0 33
1.7015408 -1.9548323 0.059602857 0 34
1.7105933 -1.9652325 0.083902135 0 35
1.7109412 -1.9656322 0.10792048 0 36
1.7009115 -1.9541094 0.13116659 0 37
1.7129086 -1.9678924 0.15616135 0 38
1.700857 -1.9540468 0.1789892 0 39
1.7008995 -1.9540956 0.20295128 0 40
1.7045476 -1.9582868 0.22743018 0 41
1.7047895 -1.9585646 0.25154826 0 42
1.7040749 -1.9577436 0.27556148 0 43
1.700578 -1.9537262 0.29911223 0 44
1.7066411 -1.9606919 0.32443231 0 45
1.7025837 -1.9560305 0.34791261 0 46
1.6985961 -1.9514494 0.3713524 0 47
1.7027773 -1.9562529 0.3966451 0 48
1.7125456 -1.9674754 0.42350808 0 49
1.6962743 -1.948782 0.44391099 0 50
1.7026472 -1.9561034 0.47017491 0 51
1.7048395 -1.9586221 0.49549037 0 52
1.7006915 -1.9538566 0.51902145 0 53
1.7000256 -1.9530916 0.54363656 0 54
1.7017553 -1.9550788 0.56912935 0 55
1.712297 -1.9671897 0.59785062 0 56
1.7066331 -1.9606826 0.62109154 0 57
1.6994821 -1.9524671 0.64371252 0 58
1.7020208 -1.9553838 0.6700511 0 59
1.693442 -1.945528 0.69204324 0 60
1.7108274 -1.9655014 0.7249046 0 61
1.7111635 -1.9658875 0.75094098 0 62
1.6980902 -1.950868 0.77103633 0 63
1.6375648 -1.8352698 -0.73325175 0 0
1.7026768 -1.9082429 -0.73686343 0 1
1.6906158 -1.8947258 -0.7064153 0 2
1.693547 -1.8980108 -0.68249685 0 3
1.700763 -1.9060981 -0.66027886 0 4
1.7154946 -1.9226083 -0.64077455 0 5
1.7033583 -1.9090067 -0.61131066 0 6
1.7073613 -1.9134932 -0.58786762 0 7
1.702497 -1.9080415 -0.56148833 0 8
1.7100881 -1.916549 -0.53927737 0 9
1.7035767 -1.9092516 -0.51269847 0 10
1.7036353 -1.9093173 -0.48827994 0 11
1.70262 -1.9081794 -0.46365297 0 12
1.7040312 -1.909761 -0.43976218 0 13
1.6992705 -1.9044254 -0.41440269 0 14
1.6942799 -1.8988323 -0.38919738 0 15
1.7010612 -1.9064324 -0.36673856 0 16
1.704927 -1.9107648 -0.3435643 0 17
1.7029792 -1.9085819 -0.31925064 0 18
1.6977476 -1.9027187 -0.2944769 0 19
1.6925055 -1.8968437 -0.26989847 0 20
1.7038261 -1.909531 -0.24792273 0 21
1.7054957 -1.9114022 -0.22440375 0 22
1.6980692 -1.9030792 -0.19980624 0 23
1.7098194 -1.9162478 -0.17743929 0 24
1.7079521 -1.9141551 -0.15355203 0 25
1.7054304 -1.911329 -0.12969285 0 26
1.7005471 -1.9058561 -0.10577863 0 27
1.6974739 -1.9024118 -0.082105048 0 28
1.6968032 -1.9016602 -0.058613367 0 29
1.7020992 -1.9075956 -0.035273809 0 30
1.703611 -1.9092901 -0.011767716 0 31
1.7007723 -1.9061085 0.011748106 0 32
1.6919433 -1.8962137 0.035063341 0 33
1.6960555 -1.9008223 0.058587544 0 34
1.7133037 -1.9201528 0.082870714 0 35
1.6969591 -1.901835 0.10555544 0 36
1.7021534 -1.9076564 0.12944365 0 37
1.7017214 -1.9071723 0.15299186 0 38
1.7082067 -1.9144405 0.17727193 0 39
1.6992732 -1.9044284 0.19994791 0 40
1.7008606 -1.9062074 0.22379388 0 41
1.7043819 -1.9101539 0.2480036 0 42
1.7035896 -1.9092659 0.27166602 0 43
1.6984745 -1.9035333 0.29460299 0 44
1.6950314 -1.8996745 0.31776068 0 45
1.6958246 -1.9005635 0.34173006 0 46
1.6956615 -1.9003807 0.36557442 0 47
1.6951823 -1.8998437 0.38940468 0 48
1.6968898 -1.9017574 0.41382211 0 49
1.7017014 -1.9071498 0.43916091 0 50
1.6956668 -1.9003866 0.46175945 0 51
1.6946341 -1.8992293 0.4857001 0 52
1.7028326 -1.9084175 0.51247448 0 53
1.7001969 -1.9054636 0.53615814 0 54
1.7043236 -1.9100885 0.56209075 0 55
1.7043082 -1.9100713 0.58681637 0 56
1.7122128 -1.9189302 0.61448842 0 57
1.6933591 -1.8978003 0.63250649 0 58
1.6895008 -1.8934761 0.65590656 0 59
1.6996149 -1.9048114 0.68494225 0 60
1.6996919 -1.9048977 0.7102077 0 61
1.7002615 -1.9055361 0.73581815 0 62
1.6968173 -1.9016759 0.75978321 0 63
1.6611625 -1.8162601 -0.73376232 0 0
1.7078161 -1.8672698 -0.72909576 0 1
1.70095 -1.8597625 -0.70112491 0 2
1.6946924 -1.8529207 -0.67372543 0 3
1.7034237 -1.8624673 -0.65237147 0 4
1.6985912 -1.8571836 -0.62588346 0 5
1.7029346 -1.8619325 -0.60289633 0 6
1.6995384 -1.858219 -0.577263 0 7
1.7077187 -1.8671633 -0.55559635 0 8
1.7032437 -1.8622705 -0.52985758 0 9
1.7019591 -1.860866 -0.50528699 0 10
1.6956261 -1.8539416 -0.47941434 0 11
1.6965193 -1.8549181 -0.45574588 0 12
1.6966139 -1.8550216 -0.43192863 0 13
1.6961662 -1.8545321 -0.40805352 0 14
1.7024509 -1.8614036 -0.38578737 0 15
1.6889582 -1.8466511 -0.3592065 0 16
1.6953192 -1.853606 -0.3370097 0 17
1.6967748 -1.8551977 -0.31378728 0 18
1.6892138 -1.8469305 -0.28903565 0 19
1.7071227 -1.8665115 -0.26854911 0 20
1.7002059 -1.8589489 -0.24405138 0 21
1.6969707 -1.8554116 -0.22026348 0 22
1.7002603 -1.8590084 -0.19735937 0 23
1.7038186 -1.8628989 -0.17442614 0 24
1.7058243 -1.8650919 -0.15128742 0 25
1.6988951 -1.8575157 -0.12744924 0 26
1.697463 -1.85595 -0.10415935 0 27
1.697227 -1.8556919 -0.080983281 0 28
1.6980674 -1.8566109 -0.057864051 0 29
1.6984286 -1.8570058 -0.034721896 0 30
1.6942639 -1.8524523 -0.011544934 0 31
1.6907536 -1.8486142 0.011521014 0 32
1.6848882 -1.8422011 0.034445085 0 33
1.702189 -1.8611171 0.058004495 0 34
1.703465 -1.8625124 0.081280924 0 35
1.6828421 -1.8399639 0.10326218 0 36
1.7031837 -1.8622048 0.12777096 0 37
1.6947179 -1.8529485 0.15030241 0 38
1.7024196 -1.8613694 0.17428292 0 39
1.6922822 -1.8502854 0.19643331 0 40
1.6926011 -1.8506341 0.21969631 0 41
1.7048798 -1.8640592 0.24472228 0 42
1.7058232 -1.8650907 0.2683447 0 43
1.6934679 -1.8515818 0.28976354 0 44
1.6999718 -1.858693 0.31437847 0 45
1.690063 -1.8478591 0.33596483 0 46
1.6940935 -1.8522658 0.36029866 0 47
1.6986178 -1.8572127 0.38491878 0 48
1.6962095 -1.8545794 0.40806395 0 49
1.7010537 -1.8598759 0.43305895 0 50
1.7040795 -1.8631842 0.45777684 0 51
1.7043115 -1.8634379 0.48187 0 52
1.6974204 -1.8559034 0.50393951 0 53
1.7040186 -1.8631176 0.53009868 0 54
1.7002236 -1.8589683 0.55315787 0 55
1.6973946 -1.8558753 0.57653487 0 56
1.6967584 -1.8551795 0.60070968 0 57
1.6982596 -1.8568209 0.62576127 0 58
1.6961865 -1.8545544 0.64959979 0 59
1.698243 -1.8568028 0.67513704 0 60
1.7035518 -1.8626072 0.70219737 0 61
1.6995494 -1.8582312 0.72556657 0 62
1.7024505 -1.8614031 0.75199991 0 63
1.6833392 -1.7956665 -0.73374945 0 0
1.6986524 -1.8120015 -0.71561724 0 1
1.7004561 -1.8139255 -0.69167507 0 2
1.6990966 -1.8124752 -0.66656572 0 3
1.693049 -1.8060241 -0.63984472 0 4
1.6903772 -1.803174 -0.6146403 0 5
1.6972433 -1.8104984 -0.59295481 0 6
1.6996678 -1.8130846 -0.56969136 0 7
1.6925925 -1.8055372 -0.54341084 0 8
1.6959755 -1.8091459 -0.52063674 0 9
1.6899931 -1.8027644 -0.49511579 0 10
1.6915381 -1.8044124 -0.47194952 0 11
1.7046381 -1.8183866 -0.45188609 0 12
1.6895291 -1.8022693 -0.42445093 0 13
1.7033099 -1.8169696 -0.40436655 0 14
1.6942482 -1.8073033 -0.37886396 0 15
1.6992979 -1.8126899 -0.35663801 0 16
1.7025131 -1.8161198 -0.3339752 0 17
1.7051473 -1.8189297 -0.31117579 0 18
1.7057225 -1.8195432 -0.28801027 0 19
1.688944 -1.8016452 -0.26218456 0 20
1.7032858 -1.8169441 -0.24126823 0 21
1.6862307 -1.7987508 -0.2159822 0 22
1.6960334 -1.8092076 -0.1942717 0 23
1.6924148 -1.8053476 -0.17097314 0 24
1.6837127 -1.7960649 -0.14735653 0 25
1.6922133 -1.8051326 -0.12527333 0 26
1.6993945 -1.812793 -0.10290227 0 27
1.6969452 -1.8101803 -0.07990171 0 28
1.7015207 -1.8150611 -0.057216849 0 29
1.7028869 -1.8165185 -0.0343538 0 30
1.6997563 -1.8131789 -0.01142957 0 31
1.688049 -1.8006904 0.011350847 0 32
1.6964868 -1.8096913 0.034224685 0 33
1.7026916 -1.81631 0.057256222 0 34
1.6927481 -1.805703 0.079704084 0 35
1.6904088 -1.8032078 0.10235817 0 36
1.696929 -1.810163 0.12562244 0 37
1.6926708 -1.8056207 0.14814052 0 38
1.6932399 -1.8062278 0.17105649 0 39
1.6939962 -1.8070346 0.19403836 0 40
1.6966888 -1.8099067 0.21732174 0 41
1.6985627 -1.8119057 0.2405992 0 42
1.6977558 -1.8110451 0.26355246 0 43
1.7056754 -1.8194931 0.28800231 0 44
1.6953518 -1.8084806 0.30938822 0 45
1.7071123 -1.821026 0.3348774 0 46
1.7050699 -1.8188472 0.35784942 0 47
1.7033827 -1.8170474 0.38090661 0 48
1.6853786 -1.7978418 0.40010962 0 49
1.6940947 -1.8071395 0.42559791 0 50
1.6917137 -1.8045998 0.44845995 0 51
1.6999264 -1.8133605 0.47428989 0 52
1.6890829 -1.8017933 0.49484912 0 53
1.6994165 -1.8128165 0.52169305 0 54
1.6862212 -1.7987407 0.54136533 0 55
1.6934836 -1.8064877 0.56761855 0 56
1.7036997 -1.8173856 0.59521043 0 57
1.7059197 -1.8197536 0.62029177 0 58
1.6973705 -1.810634 0.641478 0 59
1.6874106 -1.8000095 0.66198123 0 60
1.6936526 -1.806668 0.68890768 0 61
1.6900318 -1.8028055 0.71198553 0 62
1.7001348 -1.8135828 0.74107045 0 63
1.6870182 -1.7558155 -0.72588718 0 0
1.6868317 -1.7556214 -0.70148969 0 1
1.6908116 -1.7597636 -0.67889899 0 2
1.6844964 -1.7531909 -0.65233129 0 3
1.6941335 -1.763221 -0.6320129 0 4
1.7010398 -1.7704089 -0.61055547 0 5
1.6923299 -1.7613438 -0.58362746 0 6
1.6897141 -1.7586212 -0.55906463 0 7
1.6972852 -1.7665012 -0.53790295 0 8
1.6925412 -1.7615638 -0.51289409 0 9
1.6914152 -1.7603917 -0.48915362 0 10
1.69537 -1.7645078 -0.46692967 0 11
1.6932719 -1.7623242 -0.44309488 0 12
1.6865174 -1.7552942 -0.41824028 0 13
1.6942445 -1.7633365 -0.39703691 0 14
1.6989282 -1.7682111 -0.37502009 0 15
1.6963812 -1.7655604 -0.35144293 0 16
1.6944404 -1.7635404 -0.32811287 0 17
1.6999311 -1.769255 -0.30623055 0 18
1.6975222 -1.7667478 -0.28293607 0 19
1.6938245 -1.7628994 -0.25955746 0 20
1.6858188 -1.7545671 -0.23572016 0 21
1.6994387 -1.7687424 -0.21487194 0 22
1.6896981 -1.7586046 -0.1910546 0 23
1.6951803 -1.7643105 -0.16904806 0 24
1.6891831 -1.7580687 -0.14593227 0 25
1.6913693 -1.760344 -0.12359907 0 26
1.693664 -1.7627323 -0.10123513 0 27
1.6958418 -1.7649989 -0.07882189 0 28
1.6954566 -1.764598 -0.056279033 0 29
1.6933739 -1.7624303 -0.033722136 0 30
1.68925 -1.7581383 -0.011212705 0 31
1.7057117 -1.7752714 0.011321972 0 32
1.6868236 -1.755613 0.033591691 0 33
1.693453 -1.7625126 0.056212522 0 34
1.6887066 -1.7575728 0.07849025 0 35
1.6931274 -1.7621739 0.10120306 0 36
1.7014029 -1.7707868 0.12433229 0 37
1.6874321 -1.7562462 0.14578098 0 38
1.6915623 -1.7605449 0.16868725 0 39
1.6962067 -1.7653787 0.19179054 0 40
1.6919231 -1.7609204 0.2139217 0 41
1.6934009 -1.7624584 0.2367803 0 42
1.6972075 -1.7664204 0.26007584 0 43
1.6913757 -1.7603507 0.28191161 0 44
1.7024585 -1.7718855 0.30668581 0 45
1.6905161 -1.759456 0.32735297 0 46
1.6977201 -1.7669537 0.3517203 0 47
1.6926688 -1.7616966 0.37363839 0 48
1.696319 -1.7654957 0.39752305 0 49
1.6942536 -1.763346 0.4201588 0 50
1.6967543 -1.7659488 0.44400617 0 51
1.6981949 -1.7674479 0.46770769 0 52
1.6958675 -1.7650257 0.49044123 0 53
1.6957667 -1.7649208 0.51387149 0 54
1.6959747 -1.7651373 0.53748769 0 55
1.6774931 -1.7459019 0.55502117 0 56
1.6855811 -1.7543198 0.58130008 0 57
1.6991217 -1.7684126 0.60986704 0 58
1.6956313 -1.7647798 0.6325717 0 59
1.6889237 -1.7577987 0.65404582 0 60
1.6814944 -1.7500664 0.6751579 0 61
1.6924511 -1.76147 0.70382655 0 62
1.693984 -1.7630653 0.7288844 0 63
1.6816412 -1.7076862 -0.71448439 0 0
1.6977919 -1.724087 -0.69717854 0 1
1.6912948 -1.7174892 -0.67056251 0 2
1.6908691 -1.7170569 -0.6465739 0 3
1.6990602 -1.7253748 -0.62588871 0 4
1.693051 -1.7192726 -0.6000545 0 5
1.6927662 -1.7189834 -0.5764448 0 6
1.694517 -1.7207613 -0.5536111 0 7
1.6979945 -1.7242926 -0.53136802 0 8
1.6865895 -1.7127111 -0.50467044 0 9
1.6957389 -1.7220023 -0.48424381 0 10
1.6918372 -1.71804 -0.46010354 0 11
1.6978921 -1.7241887 -0.43872273 0 12
1.6868123 -1.7129374 -0.41305876 0 13
1.682827 -1.7088902 -0.38940746 0 14
1.6884434 -1.7145936 -0.3680239 0 15
1.7001816 -1.7265137 -0.34780571 0 16
1.689764 -1.7159348 -0.32309708 0 17
1.6860029 -1.7121153 -0.29990622 0 18
1.6878421 -1.7139831 -0.27778879 0 19
1.6904165 -1.7165973 -0.25578132 0 20
1.6908586 -1.7170463 -0.23345497 0 21
1.6991994 -1.7255163 -0.21214296 0 22
1.6800265 -1.7060463 -0.18757482 0 23
1.6878769 -1.7140185 -0.16620539 0 24
1.7003394 -1.726674 -0.14505084 0 25
1.6981546 -1.7244552 -0.12253609 0 26
1.6899695 -1.7161435 -0.099745408 0 27
1.7027229 -1.7290943 -0.078147575 0 28
1.6875863 -1.7137233 -0.055314116 0 29
1.6866144 -1.7127364 -0.033165611 0 30
1.6953871 -1.721645 -0.01111208 0 31
1.6959522 -1.7222188 0.011115784 0 32
1.6910268 -1.7172171 0.033252381 0 33
1.6813617 -1.7074022 0.055110089 0 34
1.6837956 -1.7098739 0.07727889 0 35
1.6866469 -1.7127694 0.099549301 0 36
1.6933025 -1.719528 0.12218597 0 37
1.6982528 -1.724555 0.14487283 0 38
1.6893466 -1.7155108 0.1663501 0 39
1.6885654 -1.7147175 0.1885282 0 40
1.6951376 -1.7213916 0.21163584 0 41
1.6936752 -1.7199064 0.23384385 0 42
1.6922516 -1.7184608 0.25605899 0 43
1.6826323 -1.7086927 0.27693135 0 44
1.7012105 -1.7275586 0.30261138 0 45
1.6859753 -1.7120873 0.32237265 0 46
1.6907651 -1.7169514 0.34587938 0 47
1.6852316 -1.7113321 0.36732385 0 48
1.6943263 -1.7205676 0.39206842 0 49
1.6906854 -1.7168704 0.41400719 0 50
1.6910883 -1.7172796 0.43696469 0 51
1.6855969 -1.7117031 0.45840648 0 52
1.6875427 -1.713679 0.48190323 0 53
1.694526 -1.7207705 0.50704521 0 54
1.6920257 -1.7182314 0.52950013 0 55
1.6913087 -1.7175033 0.55256295 0 56
1.6874884 -1.7136239 0.57464749 0 57
1.6910669 -1.7172577 0.59935129 0 58
1.6840254 -1.7101072 0.6203503 0 59
1.6874211 -1.7135556 0.64525539 0 60
1.6970015 -1.7232844 0.6728251 0 61
1.6891084 -1.715269 0.69361275 0 62
1.6914104 -1.7176067 0.71863502 0 63
1.6860409 -1.6705614 -0.7075724 0 0
1.686637 -1.6711521 -0.6841079 0 1
1.6980896 -1.6824995 -0.66500354 0 2
1.6853477 -1.6698745 -0.63656253 0 3
1.6911696 -1.6756431 -0.61534536 0 4
1.6882156 -1.6727163 -0.59100616 0 5
1.6925576 -1.6770183 -0.5693084 0 6
1.6892574 -1.6737484 -0.54512751 0 7
1.6803935 -1.6649659 -0.51941389 0 8
1.6852638 -1.6697915 -0.4980922 0 9
1.6866819 -1.6711965 -0.47575313 0 10
1.6857507 -1.670274 -0.45282853 0 11
1.6847163 -1.6692491 -0.42998198 0 12
1.6944929 -1.6789359 -0.40985313 0 13
1.6873748 -1.6718831 -0.38567349 0 14
1.6842579 -1.6687948 -0.36261144 0 15
1.6823179 -1.6668726 -0.33993262 0 16
1.6791205 -1.6637046 -0.3171263 0 17
1.682238 -1.6667935 -0.29556841 0 18
1.6898323 -1.6743181 -0.27470711 0 19
1.690132 -1.674615 -0.25260338 0 20
1.6911445 -1.6756182 -0.23063222 0 21
1.6834354 -1.66798 -0.20759846 0 22
1.6885338 -1.6730314 -0.18621367 0 23
1.6904899 -1.6749696 -0.16442214 0 24
1.6808183 -1.6653868 -0.14162789 0 25
1.6941584 -1.6786044 -0.12074918 0 26
1.688687 -1.6731833 -0.098447934 0 27
1.6874642 -1.6719717 -0.076497898 0 28
1.694208 -1.6786536 -0.05485044 0 29
1.6940217 -1.6784691 -0.032902934 0 30
1.6932662 -1.6777204 -0.010962135 0 31
1.6832191 -1.6677655 0.01089709 0 32
1.6914963 -1.6759667 0.032853883 0 33
1.6802931 -1.6648663 0.054399941 0 34
1.690593 -1.6750717 0.076639734 0 35
1.6830651 -1.6676129 0.098120183 0 36
1.6932153 -1.6776699 0.12068196 0 37
1.6778022 -1.6623985 0.14137375 0 38
1.6885914 -1.6730886 0.16423748 0 39
1.6930109 -1.6774676 0.18670744 0 40
1.696672 -1.6810949 0.20923077 0 41
1.6980286 -1.6824391 0.23157105 0 42
1.680689 -1.6652586 0.25119203 0 43
1.6839097 -1.6684498 0.27374429 0 44
1.6872283 -1.671738 0.29644522 0 45
1.683357 -1.6679022 0.31792644 0 46
1.6853681 -1.6698948 0.34054896 0 47
1.6865866 -1.6711022 0.36311281 0 48
1.6880623 -1.6725643 0.38583061 0 49
1.6771003 -1.661703 0.40564632 0 50
1.679175 -1.6637586 0.42856768 0 51
1.6809626 -1.6655297 0.45154232 0 52
1.6906996 -1.6751775 0.47688639 0 53
1.6860104 -1.6705313 0.49831289 0 54
1.6879505 -1.6724534 0.52174973 0 55
1.6901757 -1.6746583 0.54542381 0 56
1.6981682 -1.6825774 0.5711956 0 57
1.686345 -1.6708628 0.59035128 0 58
1.6846944 -1.6692274 0.61298931 0 59
1.6828314 -1.6673814 0.63561213 0 60
1.6955937 -1.6800267 0.66402614 0 61
1.6908287 -1.6753052 0.685808 0 62
1.6861879 -1.6707071 0.70763415 0 63
1.6927177 -1.6364249 -0.70187676 0 0
1.6839615 -1.62796 -0.67485219 0 1
1.6880612 -1.6319234 -0.65316832 0 2
1.6728647 -1.6172322 -0.62428933 0 3
1.6877214 -1.6315948 -0.60674477 0 4
1.6855378 -1.6294839 -0.5830102 0 5
1.6807375 -1.6248432 -0.55856997 0 6
1.685017 -1.6289804 -0.53725457 0 7
1.6828276 -1.6268637 -0.51394391 0 8
1.6927798 -1.636485 -0.49432877 0 9
1.6872014 -1.6310921 -0.47020683 0 10
1.6760169 -1.6202796 -0.44482824 0 11
1.6833622 -1.6273806 -0.42449698 0 12
1.6939034 -1.6375712 -0.40480947 0 13
1.6910294 -1.6347928 -0.38188529 0 14
1.6808697 -1.624971 -0.35755309 0 15
1.6838284 -1.6278312 -0.33616784 0 16
1.6736181 -1.6179605 -0.31230599 0 17
1.6889391 -1.6327721 -0.29319605 0 18
1.6842443 -1.6282334 -0.27052346 0 19
1.6830475 -1.6270764 -0.2485355 0 20
1.6823173 -1.6263703 -0.2266839 0 21
1.6944017 -1.6380529 -0.20645128 0 22
1.6911733 -1.6349319 -0.18427375 0 23
1.688517 -1.6323639 -0.16226569 0 24
1.6829903 -1.6270211 -0.14011453 0 25
1.6898996 -1.6337006 -0.11900485 0 26
1.6983442 -1.6418644 -0.09782654 0 27
1.6801667 -1.6242914 -0.075255953 0 28
1.6829978 -1.6270285 -0.053835716 0 29
1.6764387 -1.6206872 -0.032171909 0 30
1.6965625 -1.640142 -0.010852088 0 31
1.6941651 -1.6378243 0.010836753 0 32
1.6924877 -1.6362027 0.032479901 0 33
1.6768494 -1.6210845 0.053639039 0 34
1.6933665 -1.6370523 0.075847186 0 35
1.6862166 -1.6301401 0.097127974 0 36
1.6871547 -1.6310469 0.11881154 0 37
1.6986449 -1.6421551 0.14141783 0 38
1.6869589 -1.6308577 0.16211596 0 39
1.688488 -1.632336 0.18398117 0 40
1.6774814 -1.6216954 0.20438966 0 41
1.6770416 -1.6212703 0.22597305 0 42
1.6787239 -1.6228966 0.24789704 0 43
1.6832495 -1.6272717 0.27036366 0 44
1.6980176 -1.6415486 0.29477206 0 45
1.6867031 -1.6306105 0.31474772 0 46
1.6946789 -1.6383209 0.33833408 0 47
1.6764907 -1.6207377 0.35662159 0 48
1.6766618 -1.620903 0.37864065 0 49
1.6835032 -1.6275169 0.40232402 0 50
1.6920074 -1.6357384 0.42667702 0 51
1.6877191 -1.6315926 0.44793409 0 52
1.678733 -1.6229054 0.46784681 0 53
1.6834699 -1.6274848 0.49161008 0 54
1.6808876 -1.6249883 0.51335144 0 55
1.6865462 -1.6304587 0.53774208 0 56
1.6773137 -1.6215333 0.55743212 0 57
1.6775517 -1.6217633 0.58024788 0 58
1.6955706 -1.639183 0.60956663 0 59
1.6858314 -1.6297677 0.6291284 0 60
1.6877253 -1.6315986 0.65303832 0 61
1.6927531 -1.6364592 0.67837548 0 62
1.6784424 -1.6226244 0.69595754 0 63
1.6853557 -1.5896864 -0.69066668 0 0
1.6726247 -1.5776781 -0.66248429 0 1
1.6790947 -1.5837809 -0.64211482 0 2
1.6792002 -1.5838803 -0.61933863 0 3
1.6748955 -1.57982 -0.59510499 0 4
1.6841557 -1.5885545 -0.57573211 0 5
1.6805264 -1.5851312 -0.55198032 0 6
1.6826825 -1.587165 -0.53024739 0 7
1.6927197 -1.5966325 -0.51093042 0 8
1.6822362 -1.5867441 -0.48551536 0 9
1.6894658 -1.5935632 -0.46534172 0 10
1.673641 -1.5786366 -0.43901247 0 11
1.6885533 -1.5927025 -0.42083549 0 12
1.6811442 -1.5857141 -0.39707047 0 13
1.672804 -1.5778472 -0.37335968 0 14
1.6763821 -1.5812222 -0.35243583 0 15
1.6777298 -1.5824934 -0.33104035 0 16
1.6696603 -1.574882 -0.30793047 0 17
1.6825901 -1.5870779 -0.28868422 0 18
1.6814559 -1.586008 -0.26692295 0 19
1.6813718 -1.5859287 -0.24538974 0 20
1.6782267 -1.5829622 -0.22349305 0 21
1.6884412 -1.5925968 -0.20332356 0 22
1.6840074 -1.5884147 -0.18135101 0 23
1.685199 -1.5895387 -0.1600564 0 24
1.6791691 -1.583851 -0.13816454 0 25
1.6836231 -1.5880522 -0.11717884 0 26
1.6922772 -1.596215 -0.096339203 0 27
1.680815 -1.5854034 -0.074406169 0 28
