# .PCD v0.7 - Point Cloud Data file format
VERSION 0.7
FIELDS x y z intensity ring
SIZE 4 4 4 4 2
TYPE F F F F U
COUNT 1 1 1 1 1
WIDTH 1292
HEIGHT 1
VIEWPOINT 0 0 0 1 0 0 0
POINTS 1292
DATA ascii
1.8947289 -1.2191639 -0.45144331 0 10
1.8887198 -1.2152973 -0.42856392 0 11
1.8784544 -1.2086921 -0.40497833 0 12
1.8707873 -1.2037587 -0.38222629 0 13
1.8983996 -1.2215258 -0.3665249 0 14
1.889829 -1.216011 -0.34368697 0 15
1.8911852 -1.2168837 -0.32279477 0 16
1.8869528 -1.2141603 -0.30103645 0 17
1.8949733 -1.2193211 -0.28124273 0 18
1.8793064 -1.2092403 -0.25806645 0 19
1.8886168 -1.2152311 -0.238435 0 20
1.8861798 -1.213663 -0.21728511 0 21
1.9040716 -1.2251755 -0.19834377 0 22
1.8864731 -1.2138517 -0.17573574 0 23
1.892287 -1.2175927 -0.15546849 0 24
1.8889174 -1.2154245 -0.13444623 0 25
1.8916141 -1.2171596 -0.11388601 0 26
1.8904481 -1.2164094 -0.09309575 0 27
1.9001881 -1.2226766 -0.072764434 0 28
1.8826071 -1.2113642 -0.051485002 0 29
1.8908597 -1.2166743 -0.031022916 0 30
1.8847921 -1.2127701 -0.010307207 0 31
1.889338 -1.2156951 0.010332067 0 32
1.8744774 -1.2061331 0.030754134 0 33
1.8860141 -1.2135564 0.051578175 0 34
1.8857642 -1.2133956 0.0722121 0 35
1.890343 -1.2163417 0.093090564 0 36
1.8824749 -1.2112792 0.11333578 0 37
1.8920066 -1.2174124 0.13466612 0 38
1.881377 -1.2105726 0.15457213 0 39
1.8902086 -1.2162553 0.17608371 0 40
1.883128 -1.2116994 0.19616212 0 41
1.8782853 -1.2085832 0.21637569 0 42
1.8854643 -1.2132026 0.23803701 0 43
1.8950576 -1.2193754 0.26022938 0 44
1.8863771 -1.2137899 0.27996695 0 45
1.8873837 -1.2144376 0.3011052 0 46
1.9019486 -1.2238094 0.3246319 0 47
1.8943323 -1.2189088 0.34450597 0 48
1.8928955 -1.2179842 0.36546224 0 49
1.8817406 -1.2108066 0.38446417 0 50
1.8936886 -1.2184944 0.40826264 0 51
1.8928796 -1.2179739 0.42950779 0 52
1.8939266 -1.2186477 0.45125216 0 53
1.894188 -1.2188159 0.47290358 0 54
1.8824896 -1.2112885 0.49152178 0 55
1.89784 -1.2211658 0.5173322 0 56
1.8872104 -1.2143261 0.53620654 0 57
1.8839874 -1.2122523 0.55712128 0 58
1.887071 -1.2142364 0.57999957 0 59
1.8838339 -1.2121536 0.60103786 0 60
1.8881552 -1.214934 0.62460965 0 61
1.8975763 -1.220996 0.65014446 0 62
1.891849 -1.2173108 0.6706515 0 63
1.9271034 -1.2067508 -0.67783749 0 0
1.9157002 -1.1996101 -0.65125084 0 1
1.9351454 -1.2117866 -0.63517696 0 2
1.942679 -1.2165042 -0.61499333 0 3
1.9312844 -1.2093688 -0.58897352 0 4
1.9411764 -1.2155632 -0.56956971 0 5
1.9282409 -1.207463 -0.54360473 0 6
1.9361819 -1.2124356 -0.52368027 0 7
1.9289021 -1.207877 -0.49972439 0 8
1.9358865 -1.2122506 -0.47955623 0 9
1.937373 -1.2131816 -0.45801482 0 10
1.9292215 -1.2080771 -0.43435049 0 11
1.9284936 -1.2076212 -0.4125337 0 12
1.940771 -1.2153093 -0.39344186 0 13
1.9455798 -1.2183206 -0.37271342 0 14
1.9312146 -1.2093251 -0.34848273 0 15
1.9307611 -1.2090411 -0.32698748 0 16
1.9384146 -1.2138337 -0.30684203 0 17
1.9271574 -1.2067846 -0.28379554 0 18
1.9478563 -1.2197461 -0.26540005 0 19
1.9384199 -1.2138371 -0.24281985 0 20
1.9278932 -1.2072452 -0.22036366 0 21
1.9331194 -1.2105179 -0.19980398 0 22
1.9458548 -1.2184927 -0.17985812 0 23
1.9384719 -1.2138697 -0.15802471 0 24
1.9419475 -1.2160461 -0.13714604 0 25
1.951828 -1.2222332 -0.11659758 0 26
1.9296585 -1.2083508 -0.094287843 0 27
1.9382598 -1.2137369 -0.073645242 0 28
1.9353068 -1.2118877 -0.052514713 0 29
1.941401 -1.2157038 -0.031604484 0 30
1.9486705 -1.2202561 -0.010573679 0 31
1.9419112 -1.2160234 0.010537002 0 32
1.9493366 -1.2206732 0.031733669 0 33
1.9364519 -1.2126048 0.052545786 0 34
1.9331607 -1.2105438 0.073451504 0 35
1.9458261 -1.2184747 0.09507782 0 36
1.9396231 -1.2145905 0.11586849 0 37
1.9423021 -1.2162682 0.1371711 0 38
1.9450773 -1.2180059 0.15856318 0 39
1.9240741 -1.2048538 0.1778449 0 40
1.9366887 -1.2127529 0.20017289 0 41
1.9300381 -1.2085884 0.22060885 0 42
1.938629 -1.213968 0.24284603 0 43
1.9443386 -1.2175434 0.26492074 0 44
1.9404845 -1.21513 0.28575811 0 45
1.9321789 -1.209929 0.30585495 0 46
1.9319729 -1.2097999 0.32719269 0 47
1.9333084 -1.2106363 0.34886053 0 48
1.9313194 -1.2093908 0.36998159 0 49
1.9309739 -1.2091744 0.39145574 0 50
1.9383467 -1.2137913 0.41464147 0 51
1.9389561 -1.2141728 0.43654215 0 52
1.9362838 -1.2124995 0.45775732 0 53
1.9404588 -1.2151139 0.48068887 0 54
1.9498922 -1.2210209 0.5051623 0 55
1.9420168 -1.2160895 0.52525848 0 56
1.9477222 -1.2196622 0.54909682 0 57
1.9411504 -1.215547 0.56956208 0 58
1.9389918 -1.2141953 0.59132403 0 59
1.9258792 -1.2059841 0.60967505 0 60
1.9437174 -1.2171544 0.63799059 0 61
1.9214281 -1.2031968 0.65319806 0 62
1.9390045 -1.2142032 0.68202358 0 63
1.9817326 -1.2072949 -0.69177872 0 0
1.9749315 -1.2031516 -0.66630691 0 1
1.9887286 -1.211557 -0.64782578 0 2
1.9834722 -1.2083547 -0.62315637 0 3
1.9720211 -1.2013786 -0.59684652 0 4
1.9863187 -1.2100888 -0.57840544 0 5
1.9930648 -1.2141986 -0.55762839 0 6
1.9902545 -1.2124866 -0.53423238 0 7
1.9978591 -1.2171193 -0.51367301 0 8
1.9874398 -1.2107718 -0.48860192 0 9
1.9849038 -1.2092268 -0.46570113 0 10
2.0008891 -1.2189653 -0.44707745 0 11
1.9794626 -1.205912 -0.42023295 0 12
1.9905378 -1.2126591 -0.40047762 0 13
1.989758 -1.2121842 -0.37829259 0 14
1.9782768 -1.2051896 -0.35427403 0 15
1.9819779 -1.2074444 -0.33312172 0 16
1.9766154 -1.2041775 -0.31052169 0 17
1.9794466 -1.2059022 -0.28929019 0 18
1.9767572 -1.2042639 -0.26730001 0 19
1.9853292 -1.209486 -0.24681433 0 20
1.977201 -1.2045342 -0.22428973 0 21
1.989325 -1.2119204 -0.20405759 0 22
1.9768521 -1.2043216 -0.18134072 0 23
1.9792051 -1.2057551 -0.16012453 0 24
1.9876989 -1.2109298 -0.13931504 0 25
1.970497 -1.2004501 -0.11682218 0 26
1.9894161 -1.2119758 -0.096472248 0 27
1.9815962 -1.2072119 -0.074722163 0 28
1.9800825 -1.2062896 -0.053323176 0 29
1.9781113 -1.2050887 -0.03195845 0 30
1.9958565 -1.2158993 -0.010747775 0 31
1.98061 -1.206611 0.010665672 0 32
1.9837482 -1.2085228 0.032049518 0 33
2.000536 -1.2187501 0.053873982 0 34
1.9888941 -1.2116578 0.074997351 0 35
1.9844654 -1.2089598 0.096232176 0 36
1.9795324 -1.2059546 0.11735785 0 37
1.9924853 -1.2138456 0.13965049 0 38
1.9790667 -1.2056708 0.16011333 0 39
1.9774898 -1.2047102 0.18139923 0 40
1.9841781 -1.2087847 0.20352963 0 41
1.9935286 -1.2144812 0.22614191 0 42
1.9931026 -1.2142216 0.24778071 0 43
1.9910433 -1.2129672 0.2692318 0 44
1.9912149 -1.2130717 0.29101011 0 45
1.9951048 -1.2154415 0.31342632 0 46
1.9989533 -1.217786 0.33597487 0 47
1.9823316 -1.2076598 0.35500017 0 48
1.976122 -1.203877 0.37570012 0 49
1.9856364 -1.2096732 0.39949152 0 50
1.9913065 -1.2131275 0.42274737 0 51
1.9928784 -1.2140851 0.44528759 0 52
1.9936762 -1.2145711 0.46775931 0 53
1.9842889 -1.2088523 0.4878273 0 54
1.9878958 -1.2110497 0.51111132 0 55
1.9752825 -1.2033654 0.53021353 0 56
1.9788373 -1.205531 0.55364776 0 57
1.9913597 -1.2131599 0.57987332 0 58
1.9835957 -1.2084299 0.60034966 0 59
1.9882557 -1.2112689 0.62465924 0 60
1.9852296 -1.2094253 0.64668596 0 61
1.9829384 -1.2080295 0.66900831 0 62
1.980009 -1.2062448 0.69117701 0 63
2.0353012 -1.2058691 -0.70524889 0 0
2.0380228 -1.2074816 -0.68253183 0 1
2.0361588 -1.2063774 -0.65839416 0 2
2.0310318 -1.2033397 -0.63340175 0 3
2.0427163 -1.2102624 -0.61369234 0 4
2.0312676 -1.2034794 -0.58714068 0 5
2.0406833 -1.2090578 -0.56674886 0 6
2.0436826 -1.210835 -0.54453605 0 7
2.0429053 -1.2103745 -0.52138883 0 8
2.0352483 -1.2058378 -0.49667257 0 9
2.0475166 -1.2131065 -0.47685555 0 10
2.0438817 -1.2109529 -0.45332232 0 11
2.0410237 -1.2092596 -0.43011287 0 12
2.0406811 -1.2090567 -0.40754408 0 13
2.0331872 -1.2046167 -0.38370416 0 14
2.0244007 -1.1994109 -0.35986561 0 15
2.046772 -1.2126653 -0.34147993 0 16
2.0303299 -1.2029239 -0.31661242 0 17
2.0471025 -1.2128612 -0.29697582 0 18
2.038271 -1.2076287 -0.27358931 0 19
2.0307271 -1.2031592 -0.25059998 0 20
2.0488939 -1.2139226 -0.23071173 0 21
2.0377073 -1.2072948 -0.207482 0 22
2.0561533 -1.2182236 -0.18722691 0 23
2.033432 -1.2047617 -0.16330081 0 24
2.0472553 -1.2129517 -0.14243311 0 25
2.0458891 -1.2121423 -0.1203991 0 26
2.0356324 -1.2060654 -0.097986832 0 27
2.0350642 -1.2057288 -0.076173514 0 28
2.0344615 -1.2053716 -0.054384328 0 29
2.0412035 -1.2093662 -0.032735042 0 30
2.0334477 -1.204771 -0.010869607 0 31
2.0461061 -1.2122709 0.010937272 0 32
2.033005 -1.2045087 0.032603558 0 33
2.029372 -1.2023563 0.054248285 0 34
2.03966 -1.2084516 0.076345526 0 35
2.0362906 -1.2064553 0.09801852 0 36
2.0253096 -1.1999494 0.119188 0 37
2.0437262 -1.2108607 0.14218758 0 38
2.0431867 -1.2105411 0.16408418 0 39
2.0406456 -1.2090356 0.18581481 0 40
2.0508368 -1.2150736 0.20881884 0 41
2.040597 -1.2090069 0.22977747 0 42
2.0311615 -1.2034166 0.25065359 0 43
2.0309811 -1.2033097 0.27261081 0 44
2.0349419 -1.2056563 0.2952117 0 45
2.036974 -1.2068602 0.3176485 0 46
2.0379953 -1.2074653 0.34001562 0 47
2.038085 -1.2075185 0.36229816 0 48
2.0471866 -1.2129109 0.38634613 0 49
2.0343595 -1.2053113 0.40628156 0 50
2.0263371 -1.2005582 0.42701793 0 51
2.0323415 -1.2041156 0.45076278 0 52
2.033798 -1.2049785 0.47366053 0 53
2.0329072 -1.2044508 0.49610132 0 54
2.0417271 -1.2096763 0.52108812 0 55
2.0348978 -1.2056301 0.54219532 0 56
2.0483623 -1.2136077 0.56888157 0 57
2.0338902 -1.2050332 0.58789873 0 58
2.0328312 -1.2044057 0.6107226 0 59
2.0346081 -1.2054586 0.63451707 0 60
2.0347641 -1.205551 0.65794313 0 61
2.0466523 -1.2125945 0.68542188 0 62
2.0445421 -1.2113441 0.70845091 0 63
2.1208816 -1.2215945 -0.72964305 0 0
2.1333916 -1.2288001 -0.70935684 0 1
2.1223187 -1.2224222 -0.68134207 0 2
2.1172237 -1.2194875 -0.65555567 0 3
2.1167443 -1.2192115 -0.63138086 0 4
2.1369989 -1.2308778 -0.61328119 0 5
2.121424 -1.2219068 -0.58495551 0 6
2.1335199 -1.2288738 -0.56440413 0 7
2.1158602 -1.2187023 -0.53614318 0 8
2.1221645 -1.2223334 -0.51417643 0 9
2.1206801 -1.2214785 -0.49035984 0 10
2.1269033 -1.2250628 -0.46835959 0 11
2.1212683 -1.2218173 -0.44382352 0 12
2.1253638 -1.2241762 -0.42141792 0 13
2.1232545 -1.2229612 -0.39783365 0 14
2.127466 -1.225387 -0.37548 0 15
2.1157508 -1.2186393 -0.35046169 0 16
2.1293778 -1.2264881 -0.32968134 0 17
2.1268911 -1.2250558 -0.30634236 0 18
2.1227789 -1.2226874 -0.28289306 0 19
2.1122503 -1.2166231 -0.25879458 0 20
2.1333504 -1.2287763 -0.23850237 0 21
2.1115394 -1.2162135 -0.21346076 0 22
2.1217356 -1.2220864 -0.19181578 0 23
2.1240985 -1.2234473 -0.16936107 0 24
2.1241057 -1.2234515 -0.14672205 0 25
2.113658 -1.2174337 -0.12349692 0 26
2.1241755 -1.2234917 -0.10151707 0 27
2.1334028 -1.2288065 -0.079282805 0 28
2.1179154 -1.2198861 -0.056209955 0 29
2.1227725 -1.2226835 -0.033799503 0 30
2.1213603 -1.2218702 -0.01125837 0 31
2.1317124 -1.2278328 0.011313311 0 32
2.1288536 -1.2261863 0.033896331 0 33
2.1026123 -1.2110716 0.055803806 0 34
2.1204271 -1.2213328 0.078800604 0 35
2.1129839 -1.2170455 0.1009822 0 36
2.1135552 -1.2173746 0.12349092 0 37
2.1229684 -1.2227964 0.14664349 0 38
2.1268816 -1.2250503 0.16958298 0 39
2.1386914 -1.2318527 0.19334866 0 40
2.1200836 -1.2211349 0.21432453 0 41
2.1200724 -1.2211283 0.2370179 0 42
2.1254237 -1.2242106 0.26040855 0 43
2.1317301 -1.227843 0.28408593 0 44
2.1214743 -1.2219359 0.30556217 0 45
2.1215284 -1.2219671 0.32846606 0 46
2.1272624 -1.2252697 0.3523685 0 47
2.1226482 -1.222612 0.37462971 0 48
2.1175587 -1.2196805 0.39676642 0 49
2.1231902 -1.2229241 0.42098692 0 50
2.1175456 -1.2196729 0.4430446 0 51
2.1362314 -1.2304357 0.47041371 0 52
2.1251032 -1.2240261 0.4913826 0 53
2.1334934 -1.2288586 0.51692128 0 54
2.121305 -1.2218384 0.53752279 0 55
2.1082814 -1.2143369 0.55772752 0 56
2.1215751 -1.2219939 0.58499724 0 57
2.1253228 -1.2241524 0.60993028 0 58
2.12535 -1.2241682 0.63394773 0 59
2.1362529 -1.2304481 0.6614477 0 60
2.1272833 -1.2252818 0.68293589 0 61
2.1332753 -1.2287329 0.70931816 0 62
2.1211679 -1.2217594 0.72974157 0 63
2.147007 -1.2017303 -0.73349172 0 0
2.1871586 -1.2242042 -0.72217464 0 1
2.188494 -1.2249515 -0.69769835 0 2
2.1805294 -1.2204936 -0.67045939 0 3
2.1788318 -1.2195435 -0.64537841 0 4
2.188586 -1.2250031 -0.6237157 0 5
2.1849895 -1.2229899 -0.59829098 0 6
2.1829059 -1.2218238 -0.57345092 0 7
2.1875432 -1.2244194 -0.55045038 0 8
2.1761105 -1.2180203 -0.52357852 0 9
2.1923404 -1.2271044 -0.50340259 0 10
2.1751916 -1.2175059 -0.47566032 0 11
2.2011957 -1.2320611 -0.45734203 0 12
2.177547 -1.2188243 -0.42876074 0 13
2.1941786 -1.2281334 -0.40826219 0 14
2.1977811 -1.2301497 -0.3851912 0 15
2.1877208 -1.2245188 -0.35986173 0 16
2.1670539 -1.2129511 -0.33318016 0 17
2.1810546 -1.2207875 -0.31195799 0 18
2.1844051 -1.2226629 -0.28908026 0 19
2.1899917 -1.2257898 -0.26645258 0 20
2.1825497 -1.2216244 -0.242305 0 21
2.1690769 -1.2140834 -0.21775173 0 22
2.1792989 -1.2198049 -0.19564898 0 23
2.1736307 -1.2166322 -0.1721046 0 24
2.1755412 -1.2177016 -0.14922938 0 25
2.1724622 -1.2159783 -0.12604959 0 26
2.1662288 -1.2124891 -0.10280653 0 27
2.1784694 -1.2193406 -0.08039432 0 28
2.1773896 -1.2187362 -0.057386335 0 29
2.1804638 -1.2204568 -0.034476526 0 30
2.1728084 -1.216172 -0.011451181 0 31
2.1776392 -1.2188759 0.011476641 0 32
2.1834719 -1.2221406 0.034524087 0 33
2.17033 -1.2147847 0.057200275 0 34
2.1791508 -1.2197219 0.080419466 0 35
2.1776059 -1.2188573 0.10334648 0 36
2.1770666 -1.2185555 0.12631674 0 37
2.1774859 -1.2187902 0.14936277 0 38
2.1697049 -1.2144349 0.17179376 0 39
2.1788561 -1.219557 0.19560923 0 40
2.1698992 -1.2145436 0.21783426 0 41
2.1790583 -1.2196702 0.24191737 0 42
2.1642609 -1.2113876 0.26332197 0 43
2.1809993 -1.2207566 0.28862956 0 44
2.1905653 -1.2261111 0.31331834 0 45
2.1730692 -1.2163179 0.33410498 0 46
2.1728883 -1.2162167 0.3574219 0 47
2.1860194 -1.2235665 0.38312981 0 48
2.172653 -1.216085 0.40425703 0 49
2.1860578 -1.223588 0.43043652 0 50
2.1819901 -1.2213112 0.45335168 0 51
2.1854815 -1.2232654 0.47791046 0 52
2.1810584 -1.2207897 0.50081205 0 53
2.1865568 -1.2238673 0.52609193 0 54
2.179801 -1.2200859 0.54850221 0 55
2.171082 -1.2152057 0.57034481 0 56
2.1848366 -1.2229044 0.59824914 0 57
2.1792588 -1.2197825 0.62105763 0 58
2.1739776 -1.2168264 0.64394057 0 59
2.1698112 -1.2144943 0.66716385 0 60
2.1709962 -1.2151576 0.69211996 0 61
2.1724308 -1.2159606 0.71731162 0 62
2.180877 -1.2206881 0.74506289 0 63
2.1626744 -1.1758138 -0.73384935 0 0
2.233645 -1.2143995 -0.73253781 0 1
2.3206055 -1.2616786 -0.73481435 0 2
2.4037597 -1.3068882 -0.73410064 0 3
2.4925373 -1.3551552 -0.73330796 0 4
2.6023736 -1.4148717 -0.73662537 0 5
2.7031124 -1.4696418 -0.73515886 0 6
2.8226032 -1.5346073 -0.73648697 0 7
2.9360232 -1.596272 -0.73379546 0 8
3.0788605 -1.6739305 -0.7357747 0 9
3.223489 -1.7525629 -0.73516977 0 10
3.3895576 -1.8428519 -0.73620105 0 11
3.5682714 -1.9400159 -0.73636699 0 12
3.7388821 -2.0327744 -0.73121184 0 13
3.9899085 -2.1692538 -0.73736775 0 14
4.2152176 -2.2917509 -0.73378009 0 15
4.4693551 -2.4299216 -0.7302013 0 16
4.8123679 -2.6164126 -0.73488975 0 17
5.0003433 -2.7186122 -0.71036804 0 18
4.9980555 -2.7173684 -0.65696216 0 19
4.9975224 -2.7170784 -0.60392946 0 20
4.9863615 -2.7110105 -0.54983956 0 21
4.9928532 -2.7145398 -0.49783957 0 22
4.9840131 -2.7097335 -0.44442037 0 23
4.9849138 -2.7102232 -0.39202914 0 24
4.9941082 -2.7152221 -0.34025064 0 25
4.984045 -2.7097509 -0.28722689 0 26
4.9991097 -2.7179413 -0.23564762 0 27
4.9841666 -2.7098172 -0.18269239 0 28
4.9927568 -2.7144873 -0.13069734 0 29
4.9866195 -2.7111506 -0.078313179 0 30
4.9959531 -2.7162251 -0.026151778 0 31
4.9971848 -2.7168946 0.026158223 0 32
4.9830585 -2.7092144 0.078257248 0 33
4.9954939 -2.7159755 0.130769 0 34
4.986136 -2.7108877 0.18276456 0 35
4.9896126 -2.7127781 0.23519996 0 36
4.9967265 -2.7166457 0.28795773 0 37
4.9983034 -2.7175028 0.34053645 0 38
4.9954691 -2.7159622 0.39285925 0 39
4.9966369 -2.7165968 0.44554603 0 40
4.9919868 -2.7140687 0.4977532 0 41
4.9973483 -2.7169838 0.55105108 0 42
4.995934 -2.7162149 0.60373753 0 43
4.9959836 -2.7162416 0.65668976 0 44
4.9712143 -2.702775 0.70622981 0 45
4.9899535 -2.7129633 0.76200861 0 46
4.992651 -2.7144299 0.81569719 0 47
4.9972053 -2.7169058 0.8699075 0 48
4.9840045 -2.7097287 0.92108476 0 49
4.9773011 -2.7060843 0.973409 0 50
4.9967074 -2.7166355 1.0311465 0 51
4.9869533 -2.7113318 1.0831501 0 52
4.9891014 -2.7125001 1.1378468 0 53
4.9900236 -2.7130013 1.1924974 0 54
4.9992456 -2.7180152 1.2494532 0 55
4.9988785 -2.7178156 1.3043311 0 56
4.9787536 -2.7068739 1.3540595 0 57
4.9799228 -2.7075095 1.4096122 0 58
4.9999471 -2.7183967 1.4709914 0 59
4.9834466 -2.7094254 1.5219288 0 60
4.9984589 -2.7175875 1.5827504 0 61
5.0034866 -2.7203209 1.6409248 0 62
4.9907527 -2.7133977 1.6934868 0 63
2.2011316 -1.1618886 -0.74199474 0 0
2.2662289 -1.1962508 -0.73834401 0 1
2.3357227 -1.2329338 -0.73474503 0 2
2.4241724 -1.2796228 -0.73547363 0 3
2.5308034 -1.335909 -0.73967713 0 4
2.6140778 -1.3798661 -0.73508 0 5
2.7182519 -1.4348555 -0.73442233 0 6
2.8286004 -1.4931041 -0.7332058 0 7
2.9534509 -1.5590075 -0.73330444 0 8
3.1134064 -1.6434417 -0.73914516 0 9
3.2392571 -1.7098731 -0.73391527 0 10
3.396982 -1.7931297 -0.73296911 0 11
3.5877876 -1.8938483 -0.73553312 0 12
3.7911351 -2.0011873 -0.73656279 0 13
3.9942408 -2.1083984 -0.73332161 0 14
4.2554426 -2.2462766 -0.73591846 0 15
4.5269647 -2.3896019 -0.7347573 0 16
4.8235674 -2.5461664 -0.73176354 0 17
4.9866257 -2.6322384 -0.70376778 0 18
4.9773865 -2.6273615 -0.64994961 0 19
4.9848061 -2.631278 -0.59843749 0 20
4.9913917 -2.6347542 -0.54678041 0 21
4.9945178 -2.6364045 -0.49473572 0 22
4.9827824 -2.6302097 -0.44139332 0 23
4.9803543 -2.6289282 -0.38909891 0 24
4.9811621 -2.6293545 -0.33714035 0 25
4.9874053 -2.6326501 -0.2855334 0 26
4.9911852 -2.6346452 -0.23372927 0 27
4.9927497 -2.6354709 -0.18180537 0 28
4.9895201 -2.6337664 -0.12975502 0 29
4.9827852 -2.6302114 -0.077739157 0 30
4.9881721 -2.6330547 -0.025939604 0 31
4.9962726 -2.6373305 0.025981728 0 32
4.9946103 -2.6364532 0.077923648 0 33
4.9859533 -2.6318836 0.12966228 0 34
4.980207 -2.6288502 0.18134865 0 35
4.9852862 -2.6315315 0.23345305 0 36
4.9894285 -2.633718 0.28564921 0 37
4.991457 -2.6347885 0.33783713 0 38
5.0005207 -2.6395731 0.39067441 0 39
4.9840045 -2.6308548 0.44150159 0 40
4.9878974 -2.6329098 0.49407992 0 41
4.9981856 -2.6383405 0.54752463 0 42
4.9806437 -2.6290808 0.59793782 0 43
4.9830456 -2.6303487 0.65068859 0 44
4.9779768 -2.6276731 0.70254719 0 45
4.9885311 -2.6332443 0.75678951 0 46
4.9842329 -2.6309755 0.8089751 0 47
4.9859891 -2.6319025 0.86225611 0 48
4.9862666 -2.6320488 0.9154523 0 49
4.9800353 -2.6287596 0.96754891 0 50
4.9862156 -2.6320221 1.0222251 0 51
4.9913545 -2.6347346 1.076988 0 52
4.9853497 -2.6315649 1.1295257 0 53
4.9807239 -2.6291232 1.1824597 0 54
4.9977837 -2.6381283 1.2408863 0 55
4.977654 -2.6275027 1.2902653 0 56
4.9831061 -2.6303806 1.3463448 0 57
4.9868832 -2.6323745 1.4023141 0 58
4.9839678 -2.6308353 1.4566627 0 59
4.9807634 -2.629144 1.511122 0 60
4.9847517 -2.6312494 1.5680465 0 61
4.9926128 -2.6353989 1.6266079 0 62
4.9868684 -2.6323664 1.681058 0 63
2.1964829 -1.1251228 -0.7357083 0 0
2.2736075 -1.1646289 -0.73602653 0 1
2.3459709 -1.2016962 -0.73326504 0 2
2.4386392 -1.2491645 -0.73514694 0 3
2.5144379 -1.2879915 -0.73020995 0 4
2.6289825 -1.3466656 -0.73455924 0 5
2.7403331 -1.4037037 -0.73566914 0 6
2.8471265 -1.4584073 -0.73330402 0 7
2.9806466 -1.5268015 -0.73533982 0 8
3.1259444 -1.6012285 -0.73739153 0 9
3.2640789 -1.6719863 -0.73482537 0 10
3.4273818 -1.7556363 -0.73481488 0 11
3.6154983 -1.8519969 -0.73648971 0 12
3.8137841 -1.9535664 -0.73624039 0 13
4.0140481 -2.0561492 -0.73226082 0 14
4.2500114 -2.1770189 -0.73029459 0 15
4.5661626 -2.3389635 -0.7363956 0 16
4.8781633 -2.4987824 -0.73532915 0 17
4.976593 -2.5492017 -0.6978752 0 18
4.9837518 -2.5528688 -0.64663279 0 19
4.9836836 -2.5528338 -0.59448928 0 20
4.9748845 -2.5483265 -0.54149854 0 21
4.9803476 -2.551125 -0.49018764 0 22
4.9772296 -2.5495279 -0.43809122 0 23
4.9848948 -2.5534542 -0.38697129 0 24
4.983964 -2.5529773 -0.3351799 0 25
4.970984 -2.5463285 -0.28277928 0 26
5.0097361 -2.5661788 -0.23310269 0 27
4.9753385 -2.5485592 -0.18001662 0 28
4.9739385 -2.547842 -0.12852536 0 29
4.9652529 -2.5433929 -0.076971874 0 30
4.9766612 -2.5492368 -0.025714792 0 31
4.9785533 -2.5502059 0.025724569 0 32
4.9785509 -2.5502045 0.077178016 0 33
4.9873352 -2.5547042 0.12887153 0 34
4.981205 -2.5515642 0.18022889 0 35
4.9873877 -2.5547314 0.23206285 0 36
4.9728589 -2.5472891 0.28288594 0 37
4.9762664 -2.5490346 0.33466223 0 38
4.9679322 -2.5447652 0.38565451 0 39
4.9904552 -2.5563023 0.4392553 0 40
4.9738388 -2.547791 0.48954701 0 41
4.9735136 -2.5476243 0.54134935 0 42
4.9842215 -2.5531094 0.59455341 0 43
4.9822068 -2.5520775 0.6464324 0 44
4.980567 -2.5512373 0.69843245 0 45
4.9802871 -2.5510941 0.75072318 0 46
4.9782472 -2.5500491 0.80285352 0 47
4.9830265 -2.5524971 0.85625112 0 48
4.9802442 -2.5510719 0.90851873 0 49
4.9742961 -2.5480251 0.96027392 0 50
4.9797955 -2.550842 1.0144018 0 51
4.9736652 -2.5477021 1.0663309 0 52
4.9761658 -2.5489829 1.1202588 0 53
4.9819674 -2.5519545 1.1752162 0 54
4.980185 -2.5510416 1.2286355 0 55
4.9777575 -2.5497983 1.2820679 0 56
4.9786592 -2.5502601 1.3365697 0 57
4.9692869 -2.5454593 1.3884594 0 58
4.9735966 -2.5476668 1.4443663 0 59
4.9921985 -2.5571954 1.5049375 0 60
4.9749722 -2.5483713 1.5549952 0 61
4.9686275 -2.5451214 1.6084753 0 62
4.9831233 -2.5525467 1.6690888 0 63
2.2110913 -1.098498 -0.7360214 0 0
2.2923074 -1.1388471 -0.73749107 0 1
2.35396 -1.169477 -0.73121214 0 2
2.4650912 -1.2246883 -0.73852557 0 3
2.5544488 -1.2690823 -0.73724174 0 4
2.6566901 -1.3198771 -0.73771048 0 5
2.7470622 -1.3647751 -0.73291498 0 6
2.8829758 -1.4322987 -0.73794538 0 7
3.007915 -1.49437 -0.73747796 0 8
3.1266816 -1.5533748 -0.73300421 0 9
3.2880707 -1.6335549 -0.73564887 0 10
3.4491503 -1.7135813 -0.73490888 0 11
3.6170709 -1.7970062 -0.73225343 0 12
3.852874 -1.9141562 -0.73918688 0 13
4.0594311 -2.0167763 -0.73596019 0 14
4.3007565 -2.1366699 -0.73444402 0 15
4.5570335 -2.2639916 -0.73037851 0 16
4.8691006 -2.4190304 -0.72942412 0 17
4.9611335 -2.4647536 -0.69140488 0 18
4.9770842 -2.4726779 -0.64177412 0 19
4.9849324 -2.4765773 -0.59096092 0 20
4.9673562 -2.467845 -0.53733546 0 21
4.9696846 -2.4690018 -0.48611319 0 22
4.9659028 -2.467123 -0.43439117 0 23
4.9718161 -2.4700608 -0.38356918 0 24
4.971796 -2.4700508 -0.33229384 0 25
4.9702382 -2.4692769 -0.28098837 0 26
4.9845762 -2.4764004 -0.23049772 0 27
4.9698939 -2.4691057 -0.17870758 0 28
4.971664 -2.4699852 -0.12767212 0 29
4.9734182 -2.4708567 -0.076621667 0 30
4.9799943 -2.4741237 -0.025572883 0 31
4.9903908 -2.4792888 0.02562627 0 32
4.976398 -2.472337 0.07666757 0 33
4.9850554 -2.4766381 0.12801602 0 34
4.984633 -2.4764283 0.17923757 0 35
4.9784632 -2.4733632 0.23021504 0 36
4.9662547 -2.4672978 0.28076315 0 37
4.9692211 -2.4687715 0.33212173 0 38
4.9782128 -2.4732389 0.38406271 0 39
4.9614148 -2.4648931 0.43399858 0 40
4.9771762 -2.4727237 0.486846 0 41
4.9761958 -2.4722366 0.53829163 0 42
4.9611545 -2.4647639 0.58814204 0 43
4.9851403 -2.4766803 0.64281291 0 44
4.991899 -2.4800382 0.69569248 0 45
4.9808569 -2.4745522 0.74616593 0 46
4.9756808 -2.4719808 0.79747719 0 47
4.9743152 -2.4713023 0.84946829 0 48
4.9750919 -2.4716883 0.90196621 0 49
4.9666991 -2.4675186 0.95287794 0 50
4.9694724 -2.4688964 1.0060387 0 51
4.9677076 -2.4680197 1.0584673 0 52
4.9721355 -2.4702196 1.1124293 0 53
4.9744987 -2.4713936 1.1661977 0 54
4.9742212 -2.4712555 1.2195752 0 55
4.9721246 -2.4702141 1.2726976 0 56
4.9812169 -2.4747312 1.3289865 0 57
4.9660773 -2.4672096 1.3789817 0 58
4.9745746 -2.4714313 1.4357164 0 59
4.9760246 -2.4721515 1.4907851 0 60
4.9854097 -2.4768143 1.5486211 0 61
4.9738674 -2.4710801 1.6002142 0 62
4.9725504 -2.4704256 1.6552474 0 63
2.2152159 -1.0667907 -0.73297232 0 0
2.3032863 -1.1092031 -0.73657948 0 1
2.3874433 -1.1497309 -0.73716575 0 2
2.4628012 -1.1860213 -0.73341477 0 3
2.5588207 -1.2322619 -0.73407483 0 4
2.6671154 -1.2844138 -0.73616403 0 5
2.76476 -1.331437 -0.73321331 0 6
2.9025545 -1.3977952 -0.73850149 0 7
3.0166812 -1.4527557 -0.73519188 0 8
3.1586533 -1.5211258 -0.73605889 0 9
3.3243117 -1.6009027 -0.73929703 0 10
3.4851899 -1.6783774 -0.73813462 0 11
3.6481955 -1.7568766 -0.73412544 0 12
3.8378882 -1.8482277 -0.73189628 0 13
4.0602608 -1.9553165 -0.73169631 0 14
4.3394656 -2.0897744 -0.73661047 0 15
4.6130404 -2.2215209 -0.73492122 0 16
4.9339585 -2.3760669 -0.73470777 0 17
4.9800582 -2.3982673 -0.68988025 0 18
4.9806733 -2.3985636 -0.63838559 0 19
4.9869547 -2.4015884 -0.58765531 0 20
4.9885736 -2.4023681 -0.5363946 0 21
4.9695292 -2.3931968 -0.483183 0 22
4.9584866 -2.3878789 -0.43114135 0 23
4.9577966 -2.3875468 -0.38019392 0 24
4.9645004 -2.3907752 -0.32981646 0 25
4.9794555 -2.3979771 -0.27982131 0 26
4.9775043 -2.3970373 -0.22879039 0 27
4.9653606 -2.3911893 -0.17747389 0 28
4.9642444 -2.3906517 -0.12671711 0 29
4.9757266 -2.3961813 -0.076197527 0 30
4.9848342 -2.4005673 -0.025444232 0 31
4.974812 -2.395741 0.025393074 0 32
4.9743524 -2.3955195 0.076176479 0 33
4.9713182 -2.3940585 0.12689768 0 34
4.9788227 -2.3976724 0.17795505 0 35
4.9660583 -2.3915253 0.22826427 0 36
4.9715943 -2.3941913 0.27937955 0 37
4.9774184 -2.396996 0.33067468 0 38
4.974421 -2.3955526 0.38146877 0 39
4.9641514 -2.3906069 0.43163392 0 40
4.9755139 -2.3960788 0.48376486 0 41
4.9798203 -2.3981526 0.53545338 0 42
4.9740977 -2.3953969 0.58614028 0 43
4.9647784 -2.390909 0.63634825 0 44
4.9770441 -2.3968158 0.68946272 0 45
4.9682112 -2.3925622 0.73980832 0 46
4.9714003 -2.394098 0.79201293 0 47
4.9631553 -2.3901272 0.84247983 0 48
4.973762 -2.3952353 0.89631772 0 49
4.9792285 -2.3978677 0.94955313 0 50
4.983994 -2.4001627 1.0029278 0 51
4.9822516 -2.3993237 1.0552001 0 52
4.9846063 -2.4004574 1.1085316 0 53
4.9757957 -2.3962147 1.1595064 0 54
4.9711018 -2.393954 1.2115015 0 55
4.9718132 -2.3942969 1.2649863 0 56
4.9660382 -2.3915155 1.3169913 0 57
4.9859042 -2.4010825 1.3761848 0 58
4.9654956 -2.3912542 1.424502 0 59
4.9808779 -2.3986621 1.4832904 0 60
4.9824853 -2.3994362 1.5384314 0 61
4.974885 -2.395776 1.5909433 0 62
4.9805198 -2.3984897 1.6479582 0 63
2.2400386 -1.045012 -0.73687822 0 0
2.3181791 -1.0814657 -0.73703372 0 1
2.3927925 -1.1162739 -0.73452365 0 2
2.486218 -1.1598583 -0.73608536 0 3
2.5793529 -1.2033072 -0.73566467 0 4
2.6803546 -1.2504259 -0.73551869 0 5
2.7858775 -1.299654 -0.73451984 0 6
2.8927352 -1.3495048 -0.73172575 0 7
3.0320666 -1.414505 -0.73464698 0 8
3.1780131 -1.4825912 -0.73626631 0 9
3.3106289 -1.5444585 -0.73197526 0 10
3.5035751 -1.6344708 -0.73771608 0 11
3.6867015 -1.7199022 -0.73756254 0 12
3.8823156 -1.811159 -0.73606598 0 13
4.0878854 -1.9070605 -0.73239326 0 14
4.3542213 -2.0313101 -0.73481977 0 15
4.6159196 -2.1533964 -0.73110616 0 16
4.9400353 -2.3046012 -0.73133755 0 17
4.9578614 -2.3129175 -0.68281394 0 18
4.9649029 -2.3162024 -0.63266593 0 19
4.9738169 -2.3203609 -0.58270091 0 20
4.9627967 -2.3152196 -0.53052169 0 21
4.9635377 -2.3155656 -0.47979575 0 22
4.9704447 -2.3187876 -0.42966944 0 23
4.9760303 -2.3213935 -0.3793745 0 24
4.9766812 -2.3216972 -0.32870421 0 25
4.9711299 -2.3191073 -0.27772993 0 26
4.9834232 -2.3248425 -0.22773124 0 27
4.9666028 -2.3169954 -0.17648661 0 28
4.9724913 -2.3197424 -0.12618996 0 29
4.9647975 -2.3161533 -0.075588301 0 30
4.9653678 -2.3164194 -0.025197575 0 31
4.9836488 -2.3249476 0.025290342 0 32
4.970974 -2.3190346 0.075682335 0 33
4.9685817 -2.3179185 0.12609075 0 34
4.9680748 -2.317682 0.17653891 0 35
4.9533195 -2.3107986 0.22635558 0 36
4.9720707 -2.3195462 0.2777825 0 37
4.9649396 -2.3162193 0.32792866 0 38
4.9731126 -2.3200324 0.37915206 0 39
4.9718313 -2.3194346 0.4297893 0 40
4.9693427 -2.3182735 0.48035687 0 41
4.9725275 -2.3197594 0.53156191 0 42
4.962038 -2.3148658 0.58132094 0 43
4.9746737 -2.3207605 0.63391095 0 44
4.9722552 -2.3196323 0.68479633 0 45
4.9778862 -2.3222594 0.7369411 0 46
4.9622502 -2.3149648 0.78596073 0 47
4.9663906 -2.3168964 0.83812964 0 48
4.9611869 -2.3144686 0.88885558 0 49
4.9673877 -2.3173616 0.94178969 0 50
4.9717827 -2.319412 0.99465621 0 51
4.9626541 -2.3151534 1.0449412 0 52
4.9667878 -2.3170817 1.0981495 0 53
4.9614682 -2.3146 1.1494484 0 54
4.9622059 -2.314944 1.2023052 0 55
4.9601951 -2.3140061 1.2546958 0 56
4.9748807 -2.3208573 1.3116689 0 57
4.9735899 -2.3202548 1.3648076 0 58
4.9623346 -2.3150043 1.4153218 0 59
4.966826 -2.3170996 1.4705098 0 60
4.9669814 -2.3171718 1.5247312 0 61
4.9786606 -2.3226206 1.5828979 0 62
4.9679804 -2.3176379 1.6342559 0 63
2.2551153 -1.018473 -0.73766226 0 0
2.319289 -1.0474555 -0.73323607 0 1
2.4075599 -1.0873213 -0.73489702 0 2
2.5005653 -1.129325 -0.73616606 0 3
2.575207 -1.1630354 -0.73034817 0 4
2.695585 -1.2174014 -0.73553467 0 5
2.7888868 -1.2595391 -0.73117453 0 6
2.9160743 -1.3169805 -0.73347759 0 7
3.0591395 -1.3815928 -0.73703456 0 8
3.1915727 -1.4414033 -0.73524588 0 9
3.3366776 -1.5069367 -0.73358214 0 10
3.5013409 -1.5813032 -0.73309594 0 11
3.6780512 -1.6611106 -0.73169023 0 12
3.9186614 -1.7697768 -0.73877507 0 13
4.1320667 -1.8661566 -0.73614192 0 14
4.3962917 -1.9854881 -0.73774362 0 15
4.6784024 -2.1128969 -0.73683184 0 16
4.9726667 -2.245795 -0.73202479 0 17
4.9686022 -2.2439594 -0.68044156 0 18
4.9814062 -2.249742 -0.63119608 0 19
4.9734473 -2.2461476 -0.57937807 0 20
4.9670625 -2.2432642 -0.52798903 0 21
4.9609475 -2.2405024 -0.47684619 0 22
4.9564719 -2.238481 -0.42604992 0 23
4.9709544 -2.2450218 -0.37685433 0 24
4.9647379 -2.2422142 -0.32606965 0 25
4.9654417 -2.242532 -0.27585071 0 26
4.9660139 -2.2427905 -0.22565833 0 27
4.9590945 -2.2396655 -0.17522794 0 28
4.9666681 -2.2430859 -0.12533274 0 29
4.9571218 -2.2387745 -0.075046644 0 30
4.9632401 -2.2415378 -0.025045011 0 31
4.9617853 -2.2408807 0.025037667 0 32
4.9582953 -2.2393045 0.075064406 0 33
4.9621644 -2.2410519 0.12521909 0 34
4.9609394 -2.2404988 0.17529312 0 35
4.9726539 -2.2457893 0.22596006 0 36
4.9801292 -2.2491653 0.27666664 0 37
4.9547286 -2.2376938 0.32541227 0 38
4.974503 -2.2466245 0.37712336 0 39
4.9612517 -2.2406399 0.4264608 0 40
4.9758978 -2.2472544 0.47828323 0 41
4.9703412 -2.2447448 0.52833754 0 42
4.9602056 -2.2401671 0.5778355 0 43
4.9657264 -2.2426605 0.62920922 0 44
4.9777575 -2.2480941 0.68169534 0 45
4.9765077 -2.2475297 0.7325902 0 46
4.9706078 -2.2448652 0.78285319 0 47
4.9733715 -2.2461133 0.83458358 0 48
4.965282 -2.24246 0.8845821 0 49
4.9658246 -2.2427049 0.93619406 0 50
4.9720855 -2.2455325 0.98911792 0 51
4.968668 -2.243989 1.0403187 0 52
4.9554267 -2.238009 1.0894707 0 53
4.9647803 -2.2422335 1.1437417 0 54
4.9714594 -2.2452497 1.1977674 0 55
4.9710259 -2.245054 1.2503577 0 56
4.9670072 -2.2432389 1.3022218 0 57
4.9603214 -2.2402196 1.3535051 0 58
4.9718637 -2.2454324 1.410058 0 59
4.9563718 -2.238436 1.4591552 0 60
4.9614182 -2.2407148 1.5144509 0 61
4.9694948 -2.2443624 1.5710905 0 62
4.9670877 -2.2432756 1.6247654 0 63
2.258759 -0.98686337 -0.73482919 0 0
2.3301389 -1.0180496 -0.7326532 0 1
2.4317613 -1.062449 -0.73824072 0 2
2.5092764 -1.0963156 -0.73470628 0 3
2.6045942 -1.1379606 -0.73465854 0 4
2.7220092 -1.1892596 -0.73869872 0 5
2.8147383 -1.2297736 -0.73393208 0 6
2.9378247 -1.2835507 -0.73492306 0 7
3.0702672 -1.3414154 -0.73568588 0 8
3.2171624 -1.4055946 -0.73710364 0 9
3.3566518 -1.4665383 -0.73395336 0 10
3.5315113 -1.5429354 -0.73538494 0 11
3.724787 -1.6273785 -0.73695099 0 12
3.9202147 -1.7127618 -0.7350418 0 13
4.1418424 -1.809592 -0.73386383 0 14
4.3921843 -1.9189677 -0.73303914 0 15
4.6663857 -2.0387678 -0.73093557 0 16
4.9660044 -2.1696727 -0.72706157 0 17
4.9574018 -2.1659141 -0.67520928 0 18
4.9594073 -2.1667905 -0.62498528 0 19
4.9652524 -2.1693442 -0.57527238 0 20
4.9637489 -2.1686873 -0.52476251 0 21
4.9693222 -2.1711223 -0.47504911 0 22
4.9611125 -2.1675353 -0.4241257 0 23
4.9654365 -2.1694245 -0.37438536 0 24
4.9757924 -2.1739492 -0.32501546 0 25
4.9613018 -2.1676183 -0.27411926 0 26
4.9602842 -2.1671736 -0.2241701 0 27
4.9746799 -2.1734631 -0.17482106 0 28
4.9587831 -2.1665177 -0.12445209 0 29
4.9648204 -2.1691554 -0.074753731 0 30
4.9595704 -2.1668615 -0.024890158 0 31
4.9548559 -2.1648018 0.024866499 0 32
4.9632878 -2.1684859 0.074730657 0 33
4.9593272 -2.1667554 0.12446574 0 34
4.957787 -2.1660826 0.17422742 0 35
4.9600334 -2.167064 0.22415878 0 36
4.95928 -2.1667349 0.27400756 0 37
4.955348 -2.1650169 0.32368001 0 38
4.9522028 -2.1636426 0.37338755 0 39
4.9535108 -2.1642141 0.42347583 0 40
4.9696169 -2.1712511 0.4750773 0 41
4.9670758 -2.1701407 0.52511418 0 42
4.9660015 -2.1696713 0.57535917 0 43
4.9597955 -2.16696 0.62503415 0 44
4.969717 -2.1712947 0.67688662 0 45
4.9625154 -2.1681483 0.72655082 0 46
4.95858 -2.166429 0.77670449 0 47
4.9505 -2.1628988 0.82621998 0 48
4.9659419 -2.1696455 0.87988025 0 49
4.9541836 -2.1645081 0.92891139 0 50
4.9547324 -2.164748 0.98029625 0 51
4.9642229 -2.1688943 1.0337259 0 52
4.9760456 -2.1740596 1.0880442 0 53
4.9557714 -2.1652019 1.1354469 0 54
4.9594455 -2.1668072 1.1883637 0 55
4.9630051 -2.1683621 1.2415398 0 56
4.957427 -2.165925 1.2926298 0 57
4.9628277 -2.1682847 1.346812 0 58
4.9669948 -2.1701055 1.4010034 0 59
4.9662228 -2.1697681 1.4540907 0 60
4.9433856 -2.1597905 1.5007266 0 61
4.9667778 -2.1700106 1.5616776 0 62
4.9585781 -2.1664281 1.6131458 0 63
2.2822173 -0.96387094 -0.73854911 0 0
2.344023 -0.98997384 -0.73313576 0 1
2.422632 -1.0231736 -0.73159438 0 2
2.5252836 -1.0665275 -0.73549771 0 3
2.62257 -1.1076154 -0.73583162 0 4
2.7048137 -1.1423501 -0.730165 0 5
2.8318484 -1.1960019 -0.73450327 0 6
2.9496322 -1.2457466 -0.73398924 0 7
3.0880287 -1.304197 -0.73604345 0 8
3.2067051 -1.3543187 -0.73083693 0 9
3.3691361 -1.4229199 -0.73280191 0 10
3.5527604 -1.5004717 -0.73591208 0 11
3.7396171 -1.5793887 -0.73598707 0 12
3.9472528 -1.6670815 -0.73621219 0 13
4.1838298 -1.7669972 -0.73739773 0 14
4.4345632 -1.8728919 -0.73621273 0 15
4.7326145 -1.998771 -0.73740405 0 16
4.956728 -2.0934229 -0.72188014 0 17
4.9484434 -2.0899241 -0.67043823 0 18
4.9580112 -2.0939648 -0.62151748 0 19
4.9618883 -2.0956023 -0.57185388 0 20
4.9671245 -2.0978136 -0.5223527 0 21
4.9603367 -2.0949469 -0.47169188 0 22
4.9616232 -2.0954902 -0.42193463 0 23
4.961246 -2.095331 -0.37209862 0 24
4.9550896 -2.092731 -0.32195792 0 25
4.9573159 -2.0936713 -0.27245602 0 26
4.95046 -2.0907757 -0.22254743 0 27
4.96732 -2.0978963 -0.17364275 0 28
4.9377522 -2.0854087 -0.12327138 0 29
4.9659257 -2.0973074 -0.074376449 0 30
4.9510169 -2.0910108 -0.024716323 0 31
4.9558659 -2.0930588 0.024740532 0 32
4.9561777 -2.0931904 0.074230447 0 33
4.9724655 -2.1000695 0.12413801 0 34
4.9391785 -2.0860109 0.17265901 0 35
4.9565573 -2.0933506 0.22282152 0 36
4.9606161 -2.0950649 0.27263737 0 37
4.9509721 -2.090992 0.32169038 0 38
4.9635835 -2.0963182 0.37227395 0 39
4.9450526 -2.0884919 0.42052549 0 40
4.9560866 -2.0931518 0.4712877 0 41
4.9514389 -2.0911889 0.5207032 0 42
4.9540448 -2.0922897 0.57094991 0 43
4.9615116 -2.0954432 0.62195635 0 44
4.9697385 -2.0989177 0.67332339 0 45
4.9406228 -2.086621 0.71953464 0 46
4.9658604 -2.09728 0.77374685 0 47
4.9458385 -2.0888238 0.82109314 0 48
4.9631019 -2.0961149 0.87474406 0 49
4.9458451 -2.0888264 0.92246217 0 50
4.9627228 -2.0959547 0.97670418 0 51
4.9574199 -2.0937152 1.0268706 0 52
4.9531283 -2.0919025 1.0773273 0 53
4.9568095 -2.0934575 1.1297015 0 54
4.9593239 -2.0945194 1.1820738 0 55
4.9599786 -2.0947957 1.2342457 0 56
4.9648905 -2.0968702 1.2877554 0 57
4.9619193 -2.0956154 1.3394711 0 58
4.9513607 -2.091156 1.3892356 0 59
4.9573073 -2.0936675 1.4438331 0 60
4.9649935 -2.0969138 1.4993452 0 61
4.9572763 -2.0936544 1.5504782 0 62
4.9416885 -2.0870709 1.5991814 0 63
2.2721951 -0.92688459 -0.7315622 0 0
2.3561189 -0.96111917 -0.73316717 0 1
2.4414005 -0.99590766 -0.73350865 0 2
2.5312033 -1.0325404 -0.73346841 0 3
2.6248181 -1.0707282 -0.73271286 0 4
2.7442772 -1.1194586 -0.73704654 0 5
2.8412571 -1.159019 -0.73319161 0 6
2.9710546 -1.2119666 -0.73555595 0 7
3.1048703 -1.2665534 -0.73628992 0 8
3.2395415 -1.3214891 -0.73456168 0 9
3.3899806 -1.3828568 -0.73358172 0 10
3.5647304 -1.4541416 -0.73463213 0 11
3.7416553 -1.5263138 -0.73263907 0 12
3.9523237 -1.6122506 -0.73340493 0 13
4.1875958 -1.7082239 -0.73430389 0 14
4.4241543 -1.804722 -0.73074526 0 15
4.7316971 -1.9301761 -0.73350745 0 16
4.9527559 -2.0203516 -0.71762931 0 17
4.9456611 -2.0174575 -0.66664988 0 18
4.9523706 -2.0201945 -0.61764973 0 19
4.955636 -2.0215263 -0.5682255 0 20
4.9529743 -2.0204408 -0.51821285 0 21
4.9523687 -2.0201936 -0.46853653 0 22
4.9593439 -2.0230389 -0.41959363 0 23
4.9665618 -2.0259833 -0.37060085 0 24
4.9626169 -2.0243742 -0.32080537 0 25
4.9506269 -2.0194831 -0.27070308 0 26
4.9588175 -2.0228243 -0.22178818 0 27
4.9470625 -2.018029 -0.17205414 0 28
4.9551282 -2.0213194 -0.12307536 0 29
4.9566317 -2.0219326 -0.073859289 0 30
4.9616523 -2.0239806 -0.024643309 0 31
4.947237 -2.0181005 0.024571715 0 32
4.9489226 -2.0187879 0.073744416 0 33
4.9485703 -2.0186441 0.12291247 0 34
4.9538608 -2.0208023 0.17229059 0 35
4.9474902 -2.0182037 0.22128156 0 36
4.942996 -2.0163703 0.27028582 0 37
4.9526696 -2.0203164 0.3201623 0 38
4.9603715 -2.0234582 0.37013891 0 39
4.957252 -2.0221858 0.41941667 0 40
4.9501567 -2.0192912 0.46832725 0 41
4.9616714 -2.0239885 0.51912278 0 42
4.9622378 -2.0242195 0.56898248 0 43
4.957377 -2.0222366 0.61827409 0 44
4.9560876 -2.0217106 0.6680553 0 45
4.9642377 -2.0250354 0.719293 0 46
4.9433036 -2.0164957 0.76631069 0 47
4.9585638 -2.0227208 0.81901461 0 48
4.958045 -2.0225091 0.86940372 0 49
4.9623632 -2.0242708 0.92083085 0 50
4.9562945 -2.021795 0.97047281 0 51
4.963161 -2.024596 1.0228256 0 52
4.9442244 -2.0168715 1.0699155 0 53
4.9506102 -2.0194762 1.1225441 0 54
4.9482021 -2.0184941 1.1734182 0 55
4.9515419 -2.0198565 1.2258732 0 56
4.9609714 -2.0237029 1.2801877 0 57
4.9609194 -2.0236816 1.332383 0 58
4.9543724 -2.0210111 1.3830035 0 59
4.9421115 -2.0160096 1.432079 0 60
4.9455495 -2.0174119 1.4858698 0 61
4.9536977 -2.0207357 1.5414708 0 62
4.9701948 -2.0274653 1.6002176 0 63
2.3044198 -0.90714329 -0.73829007 0 0
2.3776765 -0.93598109 -0.7362383 0 1
2.4536803 -0.96590024 -0.73357409 0 2
2.5550218 -1.0057937 -0.73673087 0 3
2.6530473 -1.0443819 -0.73695236 0 4
2.7437801 -1.0800991 -0.73329049 0 5
2.8584504 -1.1252395 -0.73400241 0 6
2.9797301 -1.1729817 -0.73407745 0 7
3.1009636 -1.2207057 -0.73174858 0 8
3.2537286 -1.2808422 -0.73415178 0 9
3.4288929 -1.3497963 -0.73835474 0 10
3.5857735 -1.4115529 -0.73533618 0 11
3.7770169 -1.4868366 -0.73592752 0 12
3.9819856 -1.5675232 -0.73527676 0 13
4.2172656 -1.6601421 -0.73587126 0 14
4.4667549 -1.7583545 -0.73415494 0 15
4.7639022 -1.8753277 -0.73486966 0 16
4.9561882 -1.9510218 -0.71459651 0 17
4.962976 -1.9536936 -0.66569519 0 18
4.9543986 -1.9503173 -0.61486518 0 19
4.9489589 -1.9481758 -0.56467038 0 20
4.9369822 -1.9434612 -0.51400042 0 21
4.9679046 -1.9556339 -0.46769589 0 22
4.9567204 -1.9512311 -0.41731012 0 23
4.942615 -1.9456785 -0.36700094 0 24
4.9533157 -1.9498909 -0.31863001 0 25
4.9427347 -1.9457257 -0.26894295 0 26
4.9430361 -1.9458443 -0.21999553 0 27
4.9426613 -1.9456968 -0.17105606 0 28
4.9438386 -1.9461603 -0.12219132 0 29
4.9523392 -1.9495065 -0.073432565 0 30
4.9594874 -1.9523205 -0.02451147 0 31
4.9363346 -1.9432062 0.02439704 0 32
4.9454656 -1.9468007 0.073330641 0 33
4.9564128 -1.9511101 0.1225021 0 34
4.9417949 -1.9453558 0.17102607 0 35
4.9434872 -1.946022 0.22001563 0 36
4.9482932 -1.9479138 0.26924539 0 37
4.9468446 -1.9473436 0.31821376 0 38
4.9508796 -1.9489319 0.3676146 0 39
4.9468417 -1.9473424 0.41647843 0 40
4.9437408 -1.9461217 0.46542105 0 41
4.9514694 -1.9491643 0.51550877 0 42
4.9461045 -1.9470522 0.5643447 0 43
4.943172 -1.9458977 0.61347187 0 44
4.9310961 -1.9411441 0.66141909 0 45
4.9482899 -1.9479126 0.71345764 0 46
4.9479928 -1.9477955 0.76326704 0 47
4.9469395 -1.9473809 0.81307799 0 48
4.9467635 -1.9473115 0.86316144 0 49
4.9474115 -1.9475669 0.91354346 0 50
4.9549036 -1.950516 0.96543121 0 51
4.9443631 -1.9463667 1.0139427 0 52
4.953825 -1.9500914 1.0667233 0 53
4.9408484 -1.9449831 1.1148233 0 54
4.9450107 -1.9466217 1.1668968 0 55
4.943747 -1.9461242 1.2179267 0 56
4.9342337 -1.9423791 1.2670289 0 57
4.9528413 -1.9497041 1.3236743 0 58
4.9444427 -1.946398 1.3734466 0 59
4.9530897 -1.9498019 1.4282047 0 60
4.956111 -1.9509914 1.4817231 0 61
4.9352889 -1.9427947 1.528193 0 62
4.9499903 -1.9485819 1.5858781 0 63
2.3035791 -0.87425458 -0.73452109 0 0
2.3988652 -0.91041768 -0.73927695 0 1
2.4731874 -0.93862438 -0.73589987 0 2
2.5574789 -0.97061467 -0.73394239 0 3
2.6574516 -1.0085564 -0.73467535 0 4
2.7669473 -1.0501121 -0.73597544 0 5
2.8832171 -1.0942389 -0.73685127 0 6
3.0035779 -1.1399182 -0.73644364 0 7
3.1165259 -1.1827842 -0.73193353 0 8
3.2756164 -1.2431624 -0.73558569 0 9
3.4205527 -1.2981685 -0.73306602 0 10
3.5925558 -1.3634472 -0.73323345 0 11
3.7692726 -1.4305148 -0.73093599 0 12
3.9783933 -1.5098803 -0.73112994 0 13
4.2121811 -1.5986074 -0.73149878 0 14
4.489696 -1.7039299 -0.73442626 0 15
4.7653217 -1.8085355 -0.73160279 0 16
4.9308977 -1.8713748 -0.70757872 0 17
4.9554281 -1.8806847 -0.66153091 0 18
4.9378166 -1.8740007 -0.60990131 0 19
4.9384565 -1.8742435 -0.56080008 0 20
4.9451609 -1.876788 -0.51241052 0 21
4.9357858 -1.87323 -0.46246865 0 22
4.9428487 -1.8759105 -0.41416892 0 23
4.9666228 -1.8849334 -0.36703482 0 24
4.9403725 -1.8749708 -0.31629047 0 25
4.9379416 -1.8740482 -0.26740807 0 26
4.9402714 -1.8749324 -0.21882986 0 27
4.9462104 -1.8771864 -0.17036715 0 28
4.9482403 -1.8779566 -0.12172016 0 29
4.9492946 -1.8783568 -0.073039412 0 30
4.9513497 -1.8791368 -0.024355209 0 31
4.9482665 -1.8779668 0.024340043 0 32
4.9494843 -1.8784289 0.073042214 0 33
4.9599829 -1.8824134 0.12200902 0 34
4.9472976 -1.877599 0.1704046 0 35
4.9538107 -1.8800709 0.2194296 0 36
4.948184 -1.8779354 0.26796272 0 37
4.9491897 -1.8783171 0.31685495 0 38
4.9410996 -1.8752468 0.36514863 0 39
4.9442101 -1.8764272 0.41428298 0 40
4.9366078 -1.873542 0.46254566 0 41
4.9524012 -1.8795359 0.51316077 0 42
4.9412313 -1.8752967 0.56111521 0 43
4.9340844 -1.8725843 0.60944039 0 44
4.9406438 -1.8750737 0.65955722 0 45
4.9494133 -1.8784019 0.71023566 0 46
4.9367452 -1.873594 0.7579208 0 47
4.9552083 -1.8806013 0.81057501 0 48
4.9474182 -1.8776448 0.85918206 0 49
4.9413018 -1.8753235 0.90808862 0 50
4.9374161 -1.8738488 0.95746201 0 51
4.9385033 -1.8742613 1.0079386 0 52
4.9505386 -1.8788289 1.0609607 0 53
4.9412031 -1.875286 1.1096165 0 54
4.9480753 -1.877894 1.1620831 0 55
4.9488926 -1.8782043 1.213413 0 56
4.9325781 -1.8720126 1.2605976 0 57
4.9633994 -1.88371 1.3202059 0 58
4.9538212 -1.8800747 1.3695264 0 59
4.949635 -1.8784862 1.4204408 0 60
4.9404316 -1.8749931 1.4700313 0 61
4.9488034 -1.8781705 1.5251112 0 62
4.9503202 -1.878746 1.5784631 0 63
2.3116672 -0.84495568 -0.73373163 0 0
2.4005761 -0.87745345 -0.73642337 0 1
2.4945819 -0.91181421 -0.73887378 0 2
2.5770404 -0.94195431 -0.73617649 0 3
2.6672702 -0.97493494 -0.73402005 0 4
2.7646301 -1.0105217 -0.73199862 0 5
2.8994997 -1.0598189 -0.73762619 0 6
3.0129063 -1.1012712 -0.73535502 0 7
3.1470666 -1.1503091 -0.73572856 0 8
3.3048437 -1.2079794 -0.73875755 0 9
3.4463055 -1.2596862 -0.73521 0 10
3.6352725 -1.328757 -0.73856127 0 11
3.8225601 -1.3972139 -0.73788202 0 12
4.0283651 -1.4724394 -0.73693037 0 13
4.2400637 -1.5498191 -0.73297602 0 14
4.5331011 -1.6569294 -0.73813784 0 15
4.8168836 -1.760657 -0.73613942 0 16
4.9369926 -1.804559 -0.70521581 0 17
4.9489002 -1.8089114 -0.65764034 0 18
4.9500751 -1.8093408 -0.60862136 0 19
4.9388285 -1.80523 -0.5582794 0 20
4.9518399 -1.809986 -0.5107578 0 21
4.9289842 -1.8016318 -0.45972088 0 22
4.9472609 -1.8083122 -0.41264424 0 23
4.9442344 -1.8072059 -0.36371055 0 24
4.941915 -1.8063582 -0.31494334 0 25
4.9416289 -1.8062537 -0.26638481 0 26
4.9428916 -1.8067151 -0.21794537 0 27
4.9359918 -1.8041931 -0.16923824 0 28
4.9515905 -1.8098948 -0.12124595 0 29
4.9384494 -1.8050915 -0.072546326 0 30
4.9365058 -1.804381 -0.024171226 0 31
4.9529867 -1.810405 0.024251923 0 32
4.946897 -1.8081793 0.072670415 0 33
4.9467683 -1.8081321 0.12112787 0 34
4.9597645 -1.8128824 0.17005332 0 35
4.931716 -1.8026303 0.21745262 0 36
4.9390035 -1.805294 0.26624328 0 37
4.9226313 -1.7993097 0.31371444 0 38
4.9484229 -1.8087369 0.36401868 0 39
4.9424057 -1.8065376 0.41223928 0 40
4.9285583 -1.8014761 0.45968115 0 41
4.922471 -1.7992511 0.50772852 0 42
4.9457846 -1.8077725 0.5590657 0 43
4.9524193 -1.8101978 0.60890967 0 44
4.9450359 -1.8074989 0.65712678 0 45
4.9343448 -1.8035913 0.70483756 0 46
4.9478679 -1.8085341 0.7561571 0 47
4.9380169 -1.8049333 0.80407143 0 48
4.9433904 -1.8068975 0.85455942 0 49
4.947031 -1.8082281 0.9049868 0 50
4.9393454 -1.805419 0.95345896 0 51
4.9531941 -1.810481 1.0063173 0 52
4.937191 -1.8046316 1.0532649 0 53
4.9471936 -1.8082876 1.1058849 0 54
4.9546084 -1.810998 1.1582999 0 55
4.9359169 -1.8041658 1.2047009 0 56
4.9359708 -1.8041855 1.2557 0 57
4.9423847 -1.80653 1.3086087 0 58
4.947753 -1.8084921 1.361598 0 59
4.9548688 -1.811093 1.4154446 0 60
4.9378738 -1.8048811 1.4625559 0 61
4.9390326 -1.8053046 1.5151443 0 62
4.9500885 -1.8093457 1.5711762 0 63
2.3104212 -0.81243867 -0.73011011 0 0
2.3894 -0.84021086 -0.72977036 0 1
2.4911137 -0.87597746 -0.73460054 0 2
2.5698185 -0.90365326 -0.7308839 0 3
2.67591 -0.94095939 -0.73315811 0 4
2.7892268 -0.98080623 -0.73526227 0 5
2.9088869 -1.0228837 -0.73675889 0 6
3.0174561 -1.061061 -0.73322558 0 7
3.1382837 -1.1035489 -0.73044771 0 8
3.2900941 -1.1569318 -0.73222506 0 9
3.4482491 -1.2125455 -0.73238844 0 10
3.6300437 -1.276472 -0.7342546 0 11
3.8030794 -1.3373183 -0.730892 0 12
4.0268769 -1.4160148 -0.73341745 0 13
4.2678065 -1.5007353 -0.73452622 0 14
4.528995 -1.59258 -0.73422498 0 15
4.8340192 -1.699839 -0.73550826 0 16
4.9323788 -1.7344261 -0.70145726 0 17
4.9243021 -1.7315861 -0.65149289 0 18
4.9244919 -1.7316529 -0.60281229 0 19
4.9400253 -1.7371151 -0.55595815 0 20
4.943337 -1.7382796 -0.50763768 0 21
4.9341159 -1.735037 -0.45817497 0 22
4.9336596 -1.7348765 -0.40969944 0 23
4.935338 -1.7354668 -0.36145899 0 24
4.9359651 -1.7356873 -0.31318033 0 25
4.9409184 -1.737429 -0.26517481 0 26
4.9420948 -1.7378428 -0.21695162 0 27
4.9389291 -1.7367296 -0.16859399 0 28
4.9355769 -1.7355508 -0.12032218 0 29
4.9263992 -1.7323235 -0.072050937 0 30
4.9447365 -1.7387717 -0.024105016 0 31
4.9386067 -1.7366161 0.024075134 0 32
4.935977 -1.7356915 0.072191015 0 33
4.9344535 -1.7351557 0.12029479 0 34
4.9370856 -1.7360814 0.16853108 0 35
4.9421206 -1.7378517 0.21695274 0 36
4.9281502 -1.7329391 0.26448953 0 37
4.9378128 -1.7363371 0.31329757 0 38
4.9151335 -1.728362 0.35997921 0 39
4.9316907 -1.7341841 0.40953594 0 40
4.9441328 -1.7385594 0.45910513 0 41
4.9383292 -1.7365186 0.50712341 0 42
4.9322772 -1.7343905 0.55508614 0 43
4.9476399 -1.7397926 0.60564584 0 44
4.9348993 -1.7353125 0.65289485 0 45
4.9319997 -1.7342929 0.70140332 0 46
4.944674 -1.7387497 0.75234467 0 47
4.9448318 -1.7388052 0.80163896 0 48
4.9295034 -1.733415 0.84840995 0 49
4.9444609 -1.7386748 0.90053755 0 50
4.9376917 -1.7362944 0.94894665 0 51
4.9406338 -1.737329 0.99934965 0 52
4.9353852 -1.7354833 1.0482477 0 53
4.944509 -1.7386917 1.1004224 0 54
4.9396367 -1.7369784 1.1497196 0 55
4.9432297 -1.7382418 1.2011782 0 56
4.9380345 -1.736415 1.2506986 0 57
4.9429493 -1.7381433 1.3030007 0 58
4.9334054 -1.7347871 1.3516771 0 59
4.9347353 -1.7352549 1.4034916 0 60
4.9372849 -1.7361515 1.4559482 0 61
4.928813 -1.7331723 1.5053576 0 62
4.9478345 -1.739861 1.563552 0 63
2.3326809 -0.78817433 -0.73402619 0 0
2.4117689 -0.81489682 -0.73348635 0 1
2.4958792 -0.84331626 -0.73289251 0 2
2.5982378 -0.87790155 -0.7358408 0 3
2.7007258 -0.9125306 -0.73682725 0 4
2.7983851 -0.94552803 -0.73455608 0 5
2.9095175 -0.98307782 -0.73380136 0 6
3.043294 -1.0282787 -0.73637593 0 7
3.1654227 -1.069544 -0.73364782 0 8
3.323946 -1.1231064 -0.73662972 0 9
3.4824584 -1.1766651 -0.73652554 0 10
3.6499984 -1.2332741 -0.7351678 0 11
3.8488529 -1.3004637 -0.73656005 0 12
4.0517411 -1.3690163 -0.73482442 0 13
4.2885838 -1.4490415 -0.73497999 0 14
4.568697 -1.5436871 -0.73752826 0 15
4.8237047 -1.62985 -0.73083425 0 16
4.9516053 -1.6730654 -0.70121276 0 17
4.9411106 -1.6695195 -0.65095139 0 18
4.9377294 -1.6683772 -0.6018759 0 19
4.9279675 -1.6650786 -0.55225509 0 20
4.922976 -1.6633922 -0.50340831 0 21
