# .PCD v0.7 - Point Cloud Data file format
VERSION 0.7
FIELDS x y z intensity ring
SIZE 4 4 4 4 2
TYPE F F F F U
COUNT 1 1 1 1 1
WIDTH 1249
HEIGHT 1
VIEWPOINT 0 0 0 1 0 0 0
POINTS 1249
DATA ascii
0.41895342 -1.4929535 0.1935332 0 45
0.41814488 -1.4900724 0.20763297 0 46
0.41712531 -1.4864391 0.22160037 0 47
0.41641378 -1.4839036 0.23570955 0 48
0.41960835 -1.4952874 0.25215727 0 49
0.41772336 -1.4885702 0.26564178 0 50
0.41902572 -1.4932113 0.28117925 0 51
0.420421 -1.4981835 0.2969231 0 52
0.41703451 -1.4861155 0.30927131 0 53
0.41750109 -1.4877782 0.32442823 0 54
0.41842654 -1.4910761 0.34004855 0 55
0.41736808 -1.4873043 0.354112 0 56
0.41822857 -1.4903705 0.36985967 0 57
0.41680837 -1.4853096 0.38363627 0 58
0.41943723 -1.4946777 0.40125263 0 59
0.41576296 -1.4815843 0.41287303 0 60
0.41843489 -1.4911058 0.43083444 0 61
0.41840917 -1.4910141 0.44619355 0 62
0.41643772 -1.4839888 0.45948568 0 63
0.41306841 -1.4053233 -0.43666828 0 0
0.41534558 -1.4130706 -0.42436484 0 1
0.41269413 -1.4040499 -0.40711629 0 2
0.41242141 -1.4031221 -0.39239153 0 3
0.41370314 -1.4074827 -0.37918177 0 4
0.40924954 -1.3923309 -0.36089355 0 5
0.41621396 -1.4160249 -0.35265306 0 6
0.41558975 -1.4139012 -0.33782667 0 7
0.41182306 -1.4010863 -0.32065651 0 8
0.41561437 -1.413985 -0.30942774 0 9
0.4148078 -1.4112409 -0.29472855 0 10
0.41582024 -1.4146855 -0.28136683 0 11
0.4149873 -1.4118515 -0.26679954 0 12
0.40876552 -1.3906842 -0.24905175 0 13
0.41185325 -1.4011891 -0.23712511 0 14
0.41752392 -1.4204816 -0.22643372 0 15
0.4115659 -1.4002116 -0.20948409 0 16
0.41411445 -1.408882 -0.19701424 0 17
0.41344327 -1.4065986 -0.1829841 0 18
0.41616893 -1.4158717 -0.17042087 0 19
0.41091344 -1.3979918 -0.15470192 0 20
0.41546348 -1.4134716 -0.14272463 0 21
0.41574585 -1.4144323 -0.12914643 0 22
0.41184247 -1.4011524 -0.1144089 0 23
0.41139475 -1.3996292 -0.10079368 0 24
0.41343188 -1.4065598 -0.087752365 0 25
0.41633227 -1.4164275 -0.074747577 0 26
0.41485655 -1.4114068 -0.060923133 0 27
0.40890962 -1.3911744 -0.046694864 0 28
0.41218895 -1.4023311 -0.033615265 0 29
0.41771185 -1.421121 -0.020437101 0 30
0.41067493 -1.3971802 -0.0066972254 0 31
0.41275674 -1.4042629 0.0067311754 0 32
0.41040248 -1.3962533 0.02007948 0 33
0.41416523 -1.4090548 0.033776436 0 34
0.41134191 -1.3994493 0.046972614 0 35
0.41259435 -1.4037104 0.060590919 0 36
0.41209605 -1.4020152 0.073987015 0 37
0.41061732 -1.3969842 0.087154962 0 38
0.41546831 -1.4134881 0.10179172 0 39
0.41384459 -1.407964 0.11496508 0 40
0.40994182 -1.3946861 0.12734349 0 41
0.40974501 -1.3940166 0.14076017 0 42
0.41250378 -1.4034023 0.15530065 0 43
0.41107488 -1.398541 0.16833486 0 44
0.41431394 -1.4095608 0.18336944 0 45
0.41575253 -1.4144551 0.19779356 0 46
0.41469505 -1.4108574 0.2110768 0 47
0.41603729 -1.4154239 0.2256275 0 48
0.41047716 -1.3965074 0.23633283 0 49
0.41484457 -1.4113661 0.25275558 0 50
0.41375634 -1.4076637 0.26600814 0 51
0.41021475 -1.3956146 0.27757385 0 52
0.41293123 -1.4048566 0.29339525 0 53
0.41378763 -1.4077702 0.30806774 0 54
0.41568062 -1.4142103 0.32366011 0 55
0.41156673 -1.4002143 0.33455643 0 56
0.41023156 -1.3956718 0.34758422 0 57
0.41639549 -1.4166424 0.36719513 0 58
0.41383213 -1.4079216 0.37929997 0 59
0.40983704 -1.3943297 0.38993266 0 60
0.41068336 -1.3972089 0.40513271 0 61
0.41489726 -1.4115453 0.4239068 0 62
0.4153963 -1.4132431 0.43912914 0 63
0.40895534 -1.3306348 -0.41499189 0 0
0.41221821 -1.3412514 -0.4042882 0 1
0.40891773 -1.3305124 -0.38722217 0 2
0.4148111 -1.3496879 -0.37884617 0 3
0.41316673 -1.3443376 -0.36351141 0 4
0.41199628 -1.3405292 -0.34875327 0 5
0.41036958 -1.3352363 -0.33376458 0 6
0.41018111 -1.3346231 -0.3200655 0 7
0.40975332 -1.3332312 -0.30625695 0 8
0.41183996 -1.3400205 -0.2943278 0 9
0.40632251 -1.3220682 -0.27712792 0 10
0.40747267 -1.3258106 -0.26466703 0 11
0.40820915 -1.3282069 -0.25192261 0 12
0.41068962 -1.3362777 -0.24019454 0 13
0.41094837 -1.3371196 -0.22712053 0 14
0.41079512 -1.3366209 -0.21385486 0 15
0.40920305 -1.3314408 -0.19993305 0 16
0.40484518 -1.3172613 -0.18488441 0 17
0.41204834 -1.3406986 -0.17505708 0 18
0.40898654 -1.3307363 -0.16076675 0 19
0.41248295 -1.3421127 -0.14906834 0 20
0.41325888 -1.3446374 -0.13627695 0 21
0.40752319 -1.3259749 -0.12151808 0 22
0.41039169 -1.3353083 -0.10943628 0 23
0.41202044 -1.3406079 -0.096900813 0 24
0.41310468 -1.3441356 -0.084168397 0 25
0.40772122 -1.3266193 -0.070267491 0 26
0.40772298 -1.326625 -0.057475604 0 27
0.41294801 -1.3436259 -0.045265906 0 28
0.41293994 -1.3435997 -0.032326687 0 29
0.40695009 -1.3241102 -0.019112509 0 30
0.41326922 -1.344671 -0.0064693983 0 31
0.41495398 -1.3501529 0.0064957719 0 32
0.41008407 -1.3343073 0.019259697 0 33
0.41037464 -1.3352529 0.032125864 0 34
0.40922466 -1.3315111 0.044857766 0 35
0.41320211 -1.3444526 0.05824798 0 36
0.41178215 -1.3398324 0.070967354 0 37
0.40695217 -1.3241171 0.082914852 0 38
0.41462451 -1.3490808 0.097513244 0 39
0.40836164 -1.328703 0.10889494 0 40
0.41034287 -1.3351495 0.12235887 0 41
0.41001585 -1.3340855 0.13520752 0 42
0.41126785 -1.3381591 0.14862922 0 43
0.41313526 -1.3442352 0.16239755 0 44
0.40865451 -1.329656 0.17361523 0 45
0.40933406 -1.331867 0.1869344 0 46
0.40884128 -1.3302637 0.19975629 0 47
0.4072834 -1.3251947 0.2120267 0 48
0.40966827 -1.3329544 0.22641306 0 49
0.40938634 -1.3320371 0.23943232 0 50
0.4110648 -1.3374984 0.25368494 0 51
0.40911603 -1.3311576 0.26573443 0 52
0.4086833 -1.3297496 0.27873808 0 53
0.41134 -1.3383938 0.2939705 0 54
0.41029236 -1.334985 0.30665985 0 55
0.41113666 -1.3377323 0.32081112 0 56
0.40706024 -1.3244686 0.33107302 0 57
0.41209665 -1.3408558 0.34883824 0 58
0.40769565 -1.3265361 0.35869783 0 59
0.41048002 -1.3355957 0.3748906 0 60
0.40798751 -1.3274857 0.3863413 0 61
0.41516283 -1.3508323 0.40717617 0 62
0.40884092 -1.3302624 0.41487578 0 63
0.40416819 -1.2596892 -0.39438587 0 0
0.40368208 -1.2581741 -0.380714 0 1
0.40657675 -1.2671962 -0.37022212 0 2
0.40657547 -1.2671921 -0.35706657 0 3
0.40457356 -1.2609526 -0.34228328 0 4
0.40605834 -1.2655803 -0.33052853 0 5
0.40633628 -1.2664466 -0.31779435 0 6
0.4069238 -1.2682778 -0.30533162 0 7
0.40654379 -1.2670934 -0.29219067 0 8
0.40480477 -1.2616732 -0.27819154 0 9
0.40765202 -1.2705474 -0.26735881 0 10
0.40174496 -1.2521367 -0.25092694 0 11
0.40622297 -1.2660934 -0.24107066 0 12
0.40800601 -1.2716508 -0.22946239 0 13
0.40348086 -1.2575469 -0.214431 0 14
0.4081777 -1.2721858 -0.20433307 0 15
0.40596923 -1.2653027 -0.19073674 0 16
0.40952364 -1.2763808 -0.1798398 0 17
0.40667221 -1.2674936 -0.16613898 0 18
0.40288976 -1.2557046 -0.15228914 0 19
0.40558714 -1.2641118 -0.14094807 0 20
0.40676787 -1.2677917 -0.12898593 0 21
0.40295571 -1.2559102 -0.1155424 0 22
0.40373027 -1.2583244 -0.10352604 0 23
0.41144487 -1.2823688 -0.093049876 0 24
0.40456367 -1.2609218 -0.079263151 0 25
0.40378579 -1.2584974 -0.066917188 0 26
0.40949672 -1.2762969 -0.055509117 0 27
0.40819651 -1.2722445 -0.043026958 0 28
0.41048971 -1.2793918 -0.03090097 0 29
0.40569663 -1.2644529 -0.018322024 0 30
0.40586019 -1.2649627 -0.0061094593 0 31
0.40939927 -1.2759932 0.0061627338 0 32
0.40505454 -1.2624518 0.018293027 0 33
0.40710431 -1.2688403 0.030646123 0 34
0.40593633 -1.2652001 0.042788722 0 35
0.4047932 -1.2616372 0.054871529 0 36
0.40354925 -1.2577602 0.066877984 0 37
0.41333133 -1.2882484 0.080980934 0 38
0.41043299 -1.2792151 0.092821039 0 39
0.4061003 -1.2657111 0.10413377 0 40
0.40724036 -1.2692643 0.11677098 0 41
0.40820357 -1.2722665 0.12944119 0 42
0.40515068 -1.2627513 0.14079639 0 43
0.40479702 -1.2616491 0.15301007 0 44
0.40475765 -1.2615263 0.16535681 0 45
0.41064927 -1.2798891 0.18033412 0 46
0.4019914 -1.2529048 0.18886784 0 47
0.40910828 -1.2750862 0.20479891 0 48
0.41125795 -1.2817862 0.21856418 0 49
0.40665993 -1.2674553 0.22870535 0 50
0.40243813 -1.2542971 0.23882459 0 51
0.40592143 -1.2651536 0.25353554 0 52
0.40559432 -1.264134 0.26600927 0 53
0.4085502 -1.2733468 0.2807655 0 54
0.40498739 -1.2622424 0.29107204 0 55
0.40286013 -1.2556123 0.30228248 0 56
0.40797153 -1.2715433 0.31907329 0 57
0.40900546 -1.2747658 0.3329275 0 58
0.40681735 -1.267946 0.3441816 0 59
0.40390909 -1.2588817 0.35472488 0 60
0.40663645 -1.2673821 0.37027645 0 61
0.40406924 -1.2593808 0.38107914 0 62
0.40411097 -1.2595109 0.39433005 0 63
0.41799068 -1.2497345 -0.39284873 0 0
0.41928947 -1.2536178 -0.38086662 0 1
0.42094663 -1.2585725 -0.36918697 0 2
0.42274642 -1.2639536 -0.35759175 0 3
0.42113993 -1.2591504 -0.34317383 0 4
0.42312965 -1.2650993 -0.33173668 0 5
0.4206858 -1.2577926 -0.31689689 0 6
0.42286661 -1.2643129 -0.30560583 0 7
0.41965446 -1.254709 -0.29050282 0 8
0.42200801 -1.2617458 -0.27933061 0 9
0.41938642 -1.2539076 -0.26492247 0 10
0.42221987 -1.2623793 -0.25400078 0 11
0.42223415 -1.262422 -0.24134193 0 12
0.42052886 -1.2573234 -0.22779295 0 13
0.41934681 -1.2537892 -0.21465328 0 14
0.4259893 -1.2736493 -0.20539393 0 15
0.42031261 -1.2566768 -0.19020116 0 16
0.42209524 -1.2620066 -0.17853232 0 17
0.4236823 -1.2667518 -0.16671202 0 18
0.42378831 -1.2670686 -0.15428768 0 19
0.42144722 -1.2600691 -0.14106448 0 20
0.4207314 -1.257929 -0.12849912 0 21
0.41981041 -1.2551754 -0.11594094 0 22
0.42270422 -1.2638273 -0.10439853 0 23
0.42275727 -1.263986 -0.092086248 0 24
0.42500684 -1.2707119 -0.080201022 0 25
0.41696206 -1.246659 -0.066555306 0 26
0.42535368 -1.2717489 -0.05553459 0 27
0.42394435 -1.2675352 -0.043040741 0 28
0.42322162 -1.2653743 -0.030685782 0 29
0.4209336 -1.2585335 -0.018309869 0 30
0.4217732 -1.2610438 -0.006115118 0 31
0.41913936 -1.2531689 0.006076931 0 32
0.42161542 -1.260572 0.018339526 0 33
0.41934541 -1.253785 0.030404735 0 34
0.41984805 -1.2552879 0.042624868 0 35
0.41827059 -1.2505714 0.054609817 0 36
0.42060336 -1.2575461 0.067136534 0 37
0.41966906 -1.2547526 0.079193756 0 38
0.4177281 -1.2489494 0.090990782 0 39
0.41831037 -1.2506903 0.10331335 0 40
0.42005742 -1.2559137 0.11600916 0 41
0.41426387 -1.2385919 0.12652382 0 42
0.41981974 -1.2552031 0.14051974 0 43
0.41854393 -1.2513887 0.15237837 0 44
0.42315811 -1.2651844 0.16650575 0 45
0.42029348 -1.2566196 0.17777023 0 46
0.41668606 -1.2458339 0.18856007 0 47
0.41667047 -1.2457874 0.20090078 0 48
0.41764435 -1.2486991 0.21378183 0 49
0.42505863 -1.2708668 0.23024663 0 50
0.42067128 -1.2577492 0.24044862 0 51
0.42302451 -1.2647851 0.25448486 0 52
0.42280605 -1.2641319 0.26708263 0 53
0.41849056 -1.2512292 0.27700239 0 54
0.42478818 -1.2700582 0.29405659 0 55
0.42126477 -1.2595236 0.30444819 0 56
0.42315567 -1.2651771 0.31875741 0 57
0.41719887 -1.2473671 0.32708693 0 58
0.42101517 -1.2587774 0.34307215 0 59
0.42117143 -1.2592446 0.3562595 0 60
0.4223901 -1.2628882 0.37045294 0 61
0.4214232 -1.2599972 0.38280478 0 62
0.42313883 -1.2651268 0.39768723 0 63
0.44140339 -1.2677009 -0.40017229 0 0
0.43689317 -1.2547476 -0.3828131 0 1
0.43771246 -1.2571007 -0.37030607 0 2
0.43443063 -1.2476753 -0.35447091 0 3
0.43440562 -1.2476034 -0.3414568 0 4
0.44105607 -1.2667035 -0.33355424 0 5
0.43330452 -1.2444412 -0.31485164 0 6
0.43914515 -1.2612152 -0.3061392 0 7
0.43614805 -1.2526077 -0.29123601 0 8
0.43176591 -1.2400223 -0.27567589 0 9
0.43421459 -1.2470548 -0.26458272 0 10
0.43946177 -1.2621245 -0.25501755 0 11
0.43964267 -1.2626442 -0.24239957 0 12
0.43963552 -1.2626235 -0.22971524 0 13
0.43970552 -1.2628247 -0.21710944 0 14
0.43845442 -1.2592316 -0.20392288 0 15
0.43306541 -1.2437544 -0.18903702 0 16
0.43917832 -1.2613106 -0.17918427 0 17
0.43836337 -1.25897 -0.16638473 0 18
0.437915 -1.2576823 -0.15378879 0 19
0.43988213 -1.2633319 -0.14202455 0 20
0.43738413 -1.2561576 -0.12885784 0 21
0.44082144 -1.2660296 -0.11743537 0 22
0.43995366 -1.2635373 -0.10481353 0 23
0.43796688 -1.2578313 -0.092023253 0 24
0.44080374 -1.2659787 -0.080238327 0 25
0.44054833 -1.2652452 -0.067831643 0 26
0.44080058 -1.2659696 -0.055514723 0 27
0.43661502 -1.2539488 -0.042758472 0 28
0.43785194 -1.2575012 -0.030623106 0 29
0.43975461 -1.2629657 -0.018451625 0 30
0.43743303 -1.2562982 -0.0061177262 0 31
0.43761626 -1.2568244 0.0061202887 0 32
0.43849245 -1.2593408 0.018398667 0 33
0.43752444 -1.2565607 0.030600201 0 34
0.43636721 -1.2532371 0.042734202 0 35
0.43512827 -1.2496789 0.054800346 0 36
0.43946224 -1.262126 0.067664415 0 37
0.43988267 -1.2633334 0.080070667 0 38
0.43640617 -1.2533491 0.091695324 0 39
0.43819958 -1.2584996 0.10439564 0 40
0.44001228 -1.2637057 0.11721982 0 41
0.43280512 -1.2430068 0.12750882 0 42
0.44173044 -1.2686402 0.14262131 0 43
0.43765494 -1.2569355 0.15369746 0 44
0.43544915 -1.2506005 0.1652786 0 45
0.43364632 -1.2454227 0.17692721 0 46
0.43320993 -1.2441695 0.1891001 0 47
0.44251409 -1.2708908 0.20581101 0 48
0.43992585 -1.2634574 0.21721824 0 49
0.44018817 -1.2642108 0.23000403 0 50
0.43641314 -1.2533691 0.24061897 0 51
0.43926349 -1.2615552 0.25490251 0 52
0.43455681 -1.2480377 0.26479125 0 53
0.44152871 -1.2680608 0.28190929 0 54
0.43920821 -1.2613964 0.29327941 0 55
0.43894893 -1.2606517 0.30600241 0 56
0.43422154 -1.2470748 0.31551796 0 57
0.43634704 -1.2531792 0.32999298 0 58
0.43517527 -1.2498139 0.34206176 0 59
0.43911228 -1.2611209 0.35829085 0 60
0.44296134 -1.2721753 0.37474665 0 61
0.43894681 -1.2606457 0.38461253 0 62
0.43568134 -1.2512673 0.39498475 0 63
0.45547247 -1.258077 -0.3988722 0 0
0.45307168 -1.2514458 -0.38347644 0 1
0.45206213 -1.2486572 -0.36942843 0 2
0.4580757 -1.2652676 -0.36104196 0 3
0.45321757 -1.2518487 -0.34411794 0 4
0.45640287 -1.2606469 -0.33341202 0 5
0.45228684 -1.2492779 -0.31745848 0 6
0.45574492 -1.2588296 -0.30689719 0 7
0.45589492 -1.259244 -0.29406011 0 8
0.45141873 -1.2468801 -0.27841347 0 9
0.45444623 -1.2552425 -0.26748523 0 10
0.45496902 -1.2566864 -0.25502989 0 11
0.45742962 -1.2634829 -0.24362203 0 12
0.45684114 -1.2618575 -0.23058046 0 13
0.45181376 -1.2479712 -0.21549465 0 14
0.45272246 -1.2504812 -0.20339197 0 15
0.45508718 -1.2570128 -0.19188818 0 16
0.45657736 -1.2611289 -0.17994244 0 17
0.45697683 -1.2622323 -0.16754583 0 18
0.4546988 -1.2559401 -0.15424778 0 19
0.45937163 -1.2688471 -0.14326876 0 20
0.45512837 -1.2571266 -0.12952153 0 21
0.45841575 -1.2662067 -0.11796577 0 22
0.45497933 -1.2567149 -0.10470377 0 23
0.4581961 -1.2656001 -0.092996784 0 24
0.45747191 -1.2635998 -0.080438003 0 25
0.4548099 -1.2562469 -0.067643948 0 26
0.45626456 -1.2602649 -0.05550639 0 27
0.45415974 -1.254451 -0.042962778 0 28
0.45896819 -1.2677327 -0.031007361 0 29
0.45717531 -1.2627805 -0.018529652 0 30
0.45434117 -1.2549523 -0.006137914 0 31
0.44945037 -1.2414433 0.0060718423 0 32
0.45535153 -1.257743 0.018455733 0 33
0.459443 -1.2690442 0.031039437 0 34
0.4485603 -1.2389847 0.042433083 0 35
0.45584482 -1.2591056 0.055455331 0 36
0.45130199 -1.2465576 0.067122214 0 37
0.45929179 -1.2686266 0.080757998 0 38
0.45349744 -1.2526218 0.092043132 0 39
0.45346296 -1.2525265 0.10435481 0 40
0.4547171 -1.2559906 0.11701398 0 41
0.45552281 -1.2582161 0.12963378 0 42
0.45865497 -1.2668676 0.14304525 0 43
0.4544017 -1.2551194 0.15414698 0 44
0.46074304 -1.2726351 0.16892666 0 45
0.45293963 -1.251081 0.17850877 0 46
0.4526886 -1.2503877 0.19087681 0 47
0.45057002 -1.2445358 0.20242494 0 48
0.45223036 -1.2491219 0.21569335 0 49
0.45486441 -1.2563975 0.22958276 0 50
0.45461467 -1.2557077 0.24212283 0 51
0.45537075 -1.257796 0.25525507 0 52
0.4537257 -1.2532523 0.26706114 0 53
0.45015335 -1.243385 0.27763307 0 54
0.45588768 -1.2592239 0.29405543 0 55
0.45462447 -1.2557348 0.30614269 0 56
0.45907512 -1.2680281 0.32222316 0 57
0.45330206 -1.2520821 0.33114684 0 58
0.44944152 -1.2414187 0.34125087 0 59
0.45775941 -1.2643939 0.36079264 0 60
0.45364466 -1.2530284 0.37072167 0 61
0.45678991 -1.261716 0.38662353 0 62
0.45828465 -1.2658447 0.40133488 0 63
0.46975252 -1.2493119 -0.3978945 0 0
0.475618 -1.2649113 -0.38936532 0 1
0.47380459 -1.2600884 -0.37450588 0 2
0.47663987 -1.2676289 -0.3633607 0 3
0.4759928 -1.265908 -0.34956518 0 4
0.46993974 -1.2498099 -0.33204907 0 5
0.47016948 -1.2504208 -0.3191939 0 6
0.46907192 -1.2475019 -0.30551866 0 7
0.46522504 -1.2372711 -0.29024294 0 8
0.47123662 -1.2532588 -0.28111041 0 9
0.47220603 -1.2558371 -0.26882896 0 10
0.46812207 -1.2449757 -0.2538023 0 11
0.47178572 -1.2547193 -0.24303246 0 12
0.47000769 -1.2499906 -0.22945073 0 13
0.47244066 -1.256461 -0.2179473 0 14
0.47313443 -1.2583061 -0.20559545 0 15
0.47252434 -1.2566836 -0.19271033 0 16
0.46961504 -1.2489463 -0.17901458 0 17
0.47193632 -1.2551198 -0.16735937 0 18
0.47113359 -1.2529849 -0.15458465 0 19
0.47635761 -1.2668782 -0.14369698 0 20
0.47399193 -1.2605867 -0.13046867 0 21
0.47222087 -1.2558765 -0.11753544 0 22
0.47026363 -1.2506711 -0.10467409 0 23
0.47322714 -1.2585527 -0.092899501 0 24
0.4767175 -1.2678354 -0.081074663 0 25
0.47120526 -1.2531755 -0.067785427 0 26
0.47365946 -1.2597024 -0.055733927 0 27
0.46730366 -1.2427992 -0.042757284 0 28
0.47532913 -1.264143 -0.03106017 0 29
0.47434729 -1.2615317 -0.018595509 0 30
0.46710613 -1.2422738 -0.0061035352 0 31
0.47293177 -1.2577672 0.0061796573 0 32
0.47164229 -1.2543378 0.018489467 0 33
0.47410095 -1.2608765 0.030979915 0 34
0.47268173 -1.2571021 0.043249365 0 35
0.47507474 -1.2634665 0.055900462 0 36
0.47311744 -1.258261 0.068060502 0 37
0.46912754 -1.2476498 0.079783849 0 38
0.4757641 -1.2652998 0.093397535 0 39
0.47252336 -1.2566811 0.10517709 0 40
0.47192875 -1.2550995 0.11746273 0 41
0.46827084 -1.2453713 0.1288939 0 42
0.46810418 -1.2449281 0.14120726 0 43
0.47231305 -1.2561216 0.15497164 0 44
0.47267604 -1.257087 0.16762167 0 45
0.47031477 -1.2508072 0.17928131 0 46
0.46750888 -1.2433449 0.19066486 0 47
0.47479784 -1.26273 0.20631827 0 48
0.47380614 -1.2600925 0.21857722 0 49
0.47416884 -1.2610571 0.23148215 0 50
0.4697997 -1.2494373 0.24200937 0 51
0.47897229 -1.273832 0.25968498 0 52
0.4760786 -1.2661362 0.27103361 0 53
0.46879032 -1.246753 0.27965111 0 54
0.47385681 -1.2602273 0.29562807 0 55
0.47621232 -1.2664919 0.31016937 0 56
0.46864784 -1.246374 0.31816086 0 57
0.46952972 -1.2487195 0.33175936 0 58
0.46558136 -1.2382187 0.34191909 0 59
0.4686709 -1.2464353 0.35728565 0 60
0.47597921 -1.2658719 0.37622473 0 61
0.4710215 -1.2526869 0.38560238 0 62
0.46890754 -1.2470647 0.39717877 0 63
0.48691869 -1.2481601 -0.39940438 0 0
0.48771766 -1.2502081 -0.38665622 0 1
0.4906427 -1.2577062 -0.37556255 0 2
0.4908331 -1.2581942 -0.36235896 0 3
0.49188253 -1.2608843 -0.34982169 0 4
0.49034339 -1.2569389 -0.33551967 0 5
0.49259442 -1.2627091 -0.32385245 0 6
0.49144951 -1.2597743 -0.30998075 0 7
0.49562803 -1.2704854 -0.29944149 0 8
0.48744962 -1.249521 -0.28159514 0 9
0.48654169 -1.2471937 -0.26823914 0 10
0.48441511 -1.2417424 -0.25433823 0 11
0.48954865 -1.2549016 -0.24421531 0 12
0.49050328 -1.2573488 -0.23189105 0 13
0.49168792 -1.2603854 -0.21966018 0 14
0.49352834 -1.2651032 -0.20768188 0 15
0.49319929 -1.2642597 -0.19478737 0 16
0.4888418 -1.2530898 -0.18045641 0 17
0.48831835 -1.251748 -0.16769774 0 18
0.48562887 -1.2448537 -0.15430655 0 19
0.49224332 -1.2618091 -0.1437977 0 20
0.49258357 -1.2626814 -0.13130243 0 21
0.48484036 -1.2428325 -0.1168638 0 22
0.4893181 -1.2543107 -0.10547431 0 23
0.48651814 -1.2471333 -0.09249118 0 24
0.49079949 -1.258108 -0.080832444 0 25
0.49879202 -1.278596 -0.069486953 0 26
0.49289408 -1.2634773 -0.056164853 0 27
0.49432683 -1.26715 -0.043800864 0 28
0.49221617 -1.2617395 -0.031147474 0 29
0.49117711 -1.259076 -0.018646929 0 30
0.48495263 -1.2431203 -0.0061365287 0 31
0.48867267 -1.2526562 0.0061836019 0 32
0.49193358 -1.2610152 0.018675648 0 33
0.4933584 -1.2646675 0.031219754 0 34
0.48733374 -1.2492241 0.043181226 0 35
0.49529901 -1.2696421 0.056438893 0 36
0.49067301 -1.2577839 0.068355888 0 37
0.48720893 -1.2489041 0.080241099 0 38
0.49223146 -1.2617788 0.093577333 0 39
0.48958355 -1.2549912 0.10553153 0 40
0.49682561 -1.2735553 0.11975267 0 41
0.48692408 -1.2481738 0.12979384 0 42
0.49007124 -1.2562412 0.14316316 0 43
0.48835081 -1.2518312 0.15517144 0 44
0.48793226 -1.2507583 0.16756515 0 45
0.49196973 -1.2611078 0.18161109 0 46
0.48981592 -1.2555869 0.19345114 0 47
0.48772857 -1.250236 0.20524126 0 48
0.49085209 -1.2582428 0.21928677 0 49
0.49133188 -1.2594727 0.23228277 0 50
0.48611838 -1.2461085 0.24250409 0 51
0.49379539 -1.2657877 0.25926328 0 52
0.49243519 -1.262301 0.27148831 0 53
0.49071476 -1.2578908 0.28348139 0 54
0.48462954 -1.2422922 0.29279658 0 55
0.49114776 -1.2590008 0.30979043 0 56
0.49133652 -1.2594846 0.32302547 0 57
0.48773545 -1.2502538 0.33373517 0 58
0.48926821 -1.2541828 0.34796241 0 59
0.49007303 -1.2562459 0.36179781 0 60
0.4909569 -1.2585115 0.37580305 0 61
0.49005929 -1.2562107 0.38851264 0 62
0.48905265 -1.2536303 0.40115479 0 63
0.50657749 -1.2528338 -0.40286279 0 0
0.51046681 -1.2624527 -0.39235479 0 1
0.50378573 -1.2459295 -0.37386748 0 2
0.5092206 -1.2593708 -0.36447358 0 3
0.51037878 -1.262235 -0.35191101 0 4
0.50848883 -1.257561 -0.33732927 0 5
0.51206768 -1.2664119 -0.32639238 0 6
0.50882989 -1.2584045 -0.31115973 0 7
0.50487697 -1.2486284 -0.29573083 0 8
0.51135689 -1.264654 -0.28640097 0 9
0.50903654 -1.2589155 -0.27208585 0 10
0.51259464 -1.2677151 -0.26092938 0 11
0.50954211 -1.2601659 -0.24644049 0 12
0.5063073 -1.2521658 -0.23206583 0 13
0.50546438 -1.2500811 -0.218931 0 14
0.50853807 -1.2576827 -0.20747457 0 15
0.50806153 -1.2565042 -0.19454031 0 16
0.50602561 -1.251469 -0.18110539 0 17
0.50574225 -1.2507684 -0.16838692 0 18
0.5127368 -1.2680666 -0.1579535 0 19
0.51112479 -1.26408 -0.1447618 0 20
0.50027364 -1.2372438 -0.12928715 0 21
0.50774598 -1.2557238 -0.11865408 0 22
0.51085508 -1.2634131 -0.10675988 0 23
0.50328392 -1.2446885 -0.092761822 0 24
0.50953293 -1.2601432 -0.081359595 0 25
0.51119661 -1.2642577 -0.069044113 0 26
0.50806051 -1.2565017 -0.056128234 0 27
0.50793839 -1.2561996 -0.043634947 0 28
0.50785965 -1.2560049 -0.031157713 0 29
0.50900537 -1.2588384 -0.018734688 0 30
0.5075444 -1.2552253 -0.0062266211 0 31
0.50774175 -1.2557133 0.0062290425 0 32
0.5056904 -1.2506402 0.018612677 0 33
0.50312805 -1.2443031 0.030867428 0 34
0.50247306 -1.2426832 0.043165445 0 35
0.50658309 -1.2528478 0.055965014 0 36
0.50500607 -1.2489476 0.068208002 0 37
0.5033294 -1.244801 0.080369048 0 38
0.51022834 -1.261863 0.094041772 0 39
0.50951892 -1.2601085 0.10648064 0 40
0.51356465 -1.2701142 0.12001383 0 41
0.5090189 -1.2588719 0.13154723 0 42
0.50924218 -1.2594241 0.14422859 0 43
0.50653481 -1.2527285 0.15604293 0 44
0.50551677 -1.2502106 0.16831183 0 45
0.50532389 -1.2497336 0.18085425 0 46
0.50792712 -1.2561718 0.19448885 0 47
0.51071519 -1.263067 0.20836282 0 48
0.50651985 -1.2526914 0.21938817 0 49
0.50592321 -1.2512158 0.23188977 0 50
0.5105356 -1.262623 0.24692099 0 51
0.50653398 -1.2527263 0.2578443 0 52
0.50588953 -1.2511325 0.27040371 0 53
0.50533336 -1.2497571 0.28302732 0 54
0.50640184 -1.2523996 0.29662403 0 55
0.5104326 -1.2623681 0.31213981 0 56
0.5047279 -1.2482598 0.32171401 0 57
0.49854279 -1.2329631 0.33073109 0 58
0.51253039 -1.2675563 0.3533946 0 59
0.50698441 -1.2538404 0.36287305 0 60
0.5110842 -1.2639797 0.37928382 0 61
0.51066977 -1.2629547 0.3925108 0 62
0.5068633 -1.2535408 0.40309009 0 63
0.52524269 -1.2543898 -0.40540931 0 0
0.52172834 -1.2459968 -0.38920489 0 1
0.52417982 -1.2518516 -0.3775501 0 2
0.52501267 -1.2538406 -0.36471388 0 3
0.52989757 -1.2655067 -0.35461298 0 4
0.5230422 -1.2491345 -0.33676872 0 5
0.52432632 -1.2522014 -0.32436705 0 6
0.52246964 -1.2477673 -0.31009465 0 7
0.52066404 -1.2434551 -0.29599956 0 8
0.5249517 -1.2536949 -0.28535938 0 9
0.52558416 -1.2552054 -0.27266017 0 10
0.53015363 -1.2661183 -0.26192269 0 11
0.52173352 -1.2460092 -0.24490808 0 12
0.52540594 -1.2547797 -0.23372996 0 13
0.52218103 -1.2470779 -0.219513 0 14
0.52373856 -1.2507976 -0.20738551 0 15
0.52889758 -1.2631185 -0.19655645 0 16
0.52363014 -1.2505387 -0.1818888 0 17
0.52312469 -1.2493316 -0.1690467 0 18
0.52491736 -1.2536129 -0.15694523 0 19
0.52510327 -1.2540569 -0.14434248 0 20
0.52093536 -1.2441031 -0.13066342 0 21
0.51828277 -1.2377682 -0.11755074 0 22
0.5244025 -1.2523834 -0.1063647 0 23
0.52308756 -1.2492429 -0.093573533 0 24
0.52511835 -1.2540928 -0.081379712 0 25
0.52477103 -1.2532635 -0.068790898 0 26
0.52647924 -1.2573431 -0.05645074 0 27
0.52519065 -1.2542655 -0.043788776 0 28
0.52302402 -1.2490911 -0.031143393 0 29
0.52470636 -1.253109 -0.018744027 0 30
0.52555877 -1.2551447 -0.0062578064 0 31
0.5270437 -1.2586911 0.0062754871 0 32
0.52913028 -1.2636741 0.018902062 0 33
0.52400726 -1.2514395 0.031201942 0 34
0.52576989 -1.2556489 0.043837074 0 35
0.52726203 -1.2592124 0.056534667 0 36
0.52246594 -1.2477585 0.068488732 0 37
0.52178138 -1.2461236 0.080862567 0 38
0.52331132 -1.2497773 0.093613565 0 39
0.51947671 -1.2406194 0.10536559 0 40
0.52181602 -1.2462063 0.11835211 0 41
0.53134459 -1.2689624 0.1332743 0 42
0.5218308 -1.2462415 0.14344293 0 43
0.52724022 -1.2591604 0.15763976 0 44
0.52553958 -1.2550989 0.16982709 0 45
0.52914369 -1.2637062 0.18380399 0 46
0.52406251 -1.2515714 0.19475958 0 47
0.52340591 -1.2500032 0.20725378 0 48
0.52745205 -1.2596663 0.22172882 0 49
0.52844256 -1.2620318 0.23508082 0 50
0.52055615 -1.2431974 0.24435541 0 51
0.52929556 -1.2640688 0.26149872 0 52
0.53041744 -1.2667482 0.27516752 0 53
0.52719808 -1.2590597 0.28658047 0 54
0.52143186 -1.2452888 0.29643607 0 55
0.52008879 -1.2420813 0.30868155 0 56
0.52441788 -1.2524201 0.3244237 0 57
0.5265196 -1.2574394 0.33900771 0 58
0.52636588 -1.2570722 0.3522495 0 59
0.52189481 -1.2463944 0.36254796 0 60
0.52293569 -1.2488803 0.376654 0 61
0.52526212 -1.2544363 0.39184105 0 62
0.52485144 -1.2534554 0.40510732 0 63
0.5434677 -1.254395 -0.40753999 0 0
0.54028475 -1.2470484 -0.391579 0 1
0.54216039 -1.2513776 -0.37938908 0 2
0.540905 -1.24848 -0.3650617 0 3
0.54275048 -1.2527395 -0.35287887 0 4
0.54052329 -1.2475989 -0.33812103 0 5
0.54725611 -1.2631391 -0.32891861 0 6
0.54242581 -1.2519901 -0.31277806 0 7
0.54713583 -1.2628616 -0.3021979 0 8
0.54286975 -1.2530148 -0.28670233 0 9
0.53739607 -1.2403809 -0.27085486 0 10
0.5426023 -1.2523975 -0.26044482 0 11
0.54531306 -1.2586544 -0.24869271 0 12
0.5405308 -1.2476163 -0.23361602 0 13
0.54009283 -1.2466054 -0.22058214 0 14
0.54425007 -1.2562008 -0.20937514 0 15
0.5419125 -1.2508055 -0.19566253 0 16
0.54551727 -1.2591256 -0.1840995 0 17
0.54764783 -1.2640433 -0.17193556 0 18
0.5436042 -1.2547101 -0.15790752 0 19
0.54307264 -1.2534832 -0.1450341 0 20
0.54422128 -1.2561343 -0.13261983 0 21
0.54611534 -1.260506 -0.12033881 0 22
0.53954893 -1.2453499 -0.10632279 0 23
0.54110235 -1.2489355 -0.09404178 0 24
0.54263914 -1.2524825 -0.081702031 0 25
0.54457486 -1.2569504 -0.069355592 0 26
0.5435698 -1.2546306 -0.056624766 0 27
0.54666817 -1.2617821 -0.044282526 0 28
0.54248571 -1.2521284 -0.031383067 0 29
0.54117626 -1.249106 -0.018782271 0 30
0.54509622 -1.2581539 -0.0063057505 0 31
0.54007125 -1.2465554 0.0062476206 0 32
0.54243642 -1.2520148 0.018826006 0 33
0.53958988 -1.2454444 0.031215541 0 34
0.54063231 -1.2478505 0.043793596 0 35
0.54142439 -1.2496787 0.056401275 0 36
0.54622823 -1.2607666 0.06956616 0 37
0.54449415 -1.2567643 0.081981331 0 38
0.54535943 -1.2587614 0.094781652 0 39
0.54085714 -1.2483695 0.10658059 0 40
0.54769927 -1.2641621 0.12068784 0 41
0.54130757 -1.2494091 0.13190979 0 42
0.54376131 -1.2550727 0.14521803 0 43
0.54166597 -1.2502364 0.15734449 0 44
0.54340178 -1.2542429 0.17060249 0 45
0.54041672 -1.247353 0.18237819 0 46
0.54312438 -1.2536026 0.1961001 0 47
0.54485744 -1.2576028 0.20960881 0 48
0.5425759 -1.2523365 0.22159624 0 49
0.54245108 -1.2520486 0.23444597 0 50
0.54280537 -1.2528663 0.24754907 0 51
0.54380554 -1.2551749 0.26102239 0 52
0.54098785 -1.2486712 0.27266517 0 53
0.54346466 -1.254388 0.28701651 0 54
0.54080057 -1.2482389 0.29869875 0 55
0.54151624 -1.2498908 0.31225359 0 56
0.54213929 -1.2513288 0.32584324 0 57
0.54041278 -1.2473439 0.33805192 0 58
0.54449135 -1.2567577 0.35401076 0 59
0.54264873 -1.2525047 0.36623856 0 60
0.5387044 -1.2434007 0.37697068 0 61
0.5396859 -1.2456661 0.39114493 0 62
0.54212105 -1.2512867 0.40653014 0 63
0.56029105 -1.2508348 -0.40859082 0 0
0.55773431 -1.2451271 -0.39309946 0 1
0.56662923 -1.2649847 -0.38559774 0 2
0.56441152 -1.2600337 -0.37044144 0 3
0.56534058 -1.2621077 -0.35744897 0 4
0.55721247 -1.243962 -0.3389667 0 5
0.5662576 -1.264155 -0.33097127 0 6
0.56539243 -1.2622236 -0.31704754 0 7
0.56430674 -1.2597998 -0.30310279 0 8
0.56092054 -1.2522402 -0.28808147 0 9
0.55864388 -1.2471577 -0.27381399 0 10
0.5597747 -1.2496822 -0.26129183 0 11
0.56387138 -1.2588279 -0.25007808 0 12
0.55688572 -1.2432326 -0.23405972 0 13
0.56264538 -1.2560908 -0.22346786 0 14
0.56105804 -1.2525471 -0.20990019 0 15
0.55942261 -1.2488961 -0.19642507 0 16
0.56556982 -1.2626195 -0.18561316 0 17
0.5581944 -1.2461541 -0.17042299 0 18
0.56301832 -1.2569234 -0.15904534 0 19
0.56065643 -1.2516507 -0.14560875 0 20
0.55746233 -1.2445198 -0.13210732 0 21
0.56262857 -1.2560533 -0.12056508 0 22
0.56042677 -1.2511379 -0.10739717 0 23
0.55886459 -1.2476503 -0.094455317 0 24
0.55685186 -1.243157 -0.081534199 0 25
0.56236947 -1.2554748 -0.069650471 0 26
0.55726099 -1.2440703 -0.05645315 0 27
0.55335206 -1.2353438 -0.043590173 0 28
0.56040668 -1.251093 -0.031527448 0 29
0.56267786 -1.2561634 -0.01899099 0 30
0.55599767 -1.2412499 -0.006254822 0 31
0.55853504 -1.2469146 0.0062833671 0 32
0.56396246 -1.2590312 0.019034345 0 33
0.55940741 -1.2488621 0.03147123 0 34
0.56604755 -1.2636861 0.044590253 0 35
0.55839217 -1.2465957 0.056567747 0 36
0.56136191 -1.2532256 0.069525681 0 37
0.55889618 -1.247721 0.081833534 0 38
0.56076241 -1.2518872 0.094776079 0 39
0.56318253 -1.25729 0.10792527 0 40
0.56127167 -1.2530241 0.12027431 0 41
0.56594825 -1.2634643 0.13411832 0 42
0.5580613 -1.245857 0.14493476 0 43
0.56407601 -1.2592847 0.15934412 0 44
0.56211013 -1.2548959 0.17161851 0 45
0.56051141 -1.2513269 0.18395305 0 46
0.55941099 -1.2488703 0.196421 0 47
0.55519146 -1.2394502 0.20770542 0 48
0.56192416 -1.2544808 0.22318144 0 49
0.55800605 -1.2457337 0.23453061 0 50
0.56034768 -1.2509613 0.24851532 0 51
0.55551106 -1.2401636 0.25930163 0 52
0.55381775 -1.2363833 0.27144849 0 53
0.55975312 -1.249634 0.2874819 0 54
0.5597499 -1.2496268 0.30065519 0 55
0.5577296 -1.2451165 0.31275055 0 56
0.56335849 -1.2576828 0.32927677 0 57
0.55766124 -1.2449639 0.33923969 0 58
0.56639826 -1.264469 0.3581177 0 59
0.56159675 -1.2537498 0.36859402 0 60
0.55762422 -1.2448812 0.37946969 0 61
0.56421715 -1.2595997 0.39766863 0 62
0.55273855 -1.2339742 0.40308318 0 63
0.64211261 -1.3875142 -0.45578244 0 0
0.65135443 -1.4074845 -0.44685224 0 1
0.64658469 -1.3971778 -0.42828453 0 2
0.65135294 -1.4074813 -0.41611329 0 3
0.64531738 -1.3944393 -0.39714468 0 4
0.64793879 -1.4001037 -0.3836557 0 5
0.63973975 -1.3823868 -0.36395782 0 6
0.64417887 -1.3919791 -0.35160282 0 7
0.64789182 -1.4000022 -0.3387261 0 8
0.64343017 -1.3903612 -0.32165247 0 9
0.64546537 -1.3947591 -0.30793923 0 10
0.64712244 -1.3983397 -0.29401568 0 11
0.64280939 -1.3890198 -0.27749124 0 12
0.64817762 -1.4006197 -0.26517105 0 13
0.65040171 -1.4054258 -0.25143948 0 14
0.64766479 -1.3995117 -0.23584507 0 15
0.65069097 -1.4060508 -0.22238381 0 16
0.6460281 -1.3959751 -0.20636946 0 17
0.65051258 -1.4056654 -0.19331694 0 18
0.65109265 -1.4069188 -0.17902458 0 19
0.65007418 -1.404718 -0.16433311 0 20
0.6451714 -1.3941239 -0.14881887 0 21
0.64325219 -1.3899766 -0.1341691 0 22
0.64719999 -1.3985072 -0.1207213 0 23
0.64550948 -1.3948543 -0.10619252 0 24
0.64864993 -1.4016404 -0.092444703 0 25
0.65111858 -1.4069748 -0.078493528 0 26
0.65252602 -1.4100161 -0.06434264 0 27
0.65034598 -1.4053054 -0.049865823 0 28
0.64822513 -1.4007225 -0.03549628 0 29
0.64543688 -1.3946974 -0.021203766 0 30
0.64607579 -1.396078 -0.0070745195 0 31
0.64382106 -1.3912059 0.0070498302 0 32
0.6436733 -1.3908867 0.02114583 0 33
0.64896643 -1.4023243 0.035536874 0 34
0.64511174 -1.3939949 0.049464483 0 35
0.64512908 -1.3940324 0.063613258 0 36
0.64720243 -1.3985125 0.078021429 0 37
0.6479643 -1.4001589 0.092346981 0 38
0.64775133 -1.3996987 0.10656133 0 39
0.64849561 -1.401307 0.12096298 0 40
0.64833623 -1.4009625 0.13522953 0 41
0.65009904 -1.4047717 0.1499555 0 42
0.64419794 -1.3920202 0.16284762 0 43
0.65307689 -1.4112065 0.17957018 0 44
0.648987 -1.4023688 0.19286355 0 45
0.64288437 -1.3891819 0.2053652 0 46
0.64956373 -1.403615 0.22199856 0 47
0.65276855 -1.4105402 0.23770359 0 48
0.65103167 -1.406787 0.25168306 0 49
0.64764154 -1.3994614 0.26495174 0 50
0.64936054 -1.403176 0.28031927 0 51
0.64757138 -1.3993098 0.29421964 0 52
0.6383571 -1.3793991 0.30454803 0 53
0.64181119 -1.3868629 0.32084316 0 54
0.64860785 -1.4015495 0.33910042 0 55
0.64728183 -1.3986841 0.35329643 0 56
0.64524943 -1.3942924 0.36709237 0 57
0.64561206 -1.3950759 0.382278 0 58
0.65013558 -1.4048507 0.40010992 0 59
0.64963377 -1.4037664 0.41501498 0 60
0.65230972 -1.4095488 0.43207666 0 61
0.64424896 -1.3921306 0.44197765 0 62
0.64798558 -1.4002048 0.45995116 0 63
0.66740561 -1.3968465 -0.4615089 0 0
0.66514677 -1.3921189 -0.44453701 0 1
0.67042196 -1.4031595 -0.43261248 0 2
0.67091835 -1.4041985 -0.41755021 0 3
0.66305941 -1.3877503 -0.39753163 0 4
0.66478419 -1.39136 -0.38347074 0 5
0.6684925 -1.3991213 -0.37049994 0 6
0.66496491 -1.3917383 -0.35358062 0 7
0.66825223 -1.3986185 -0.34035367 0 8
0.67011243 -1.4025117 -0.32634503 0 9
0.66373879 -1.3891721 -0.30848438 0 10
0.6682812 -1.3986791 -0.29579249 0 11
0.66916215 -1.4005229 -0.2814118 0 12
0.6670559 -1.3961147 -0.26585093 0 13
0.66807687 -1.3982515 -0.25160667 0 14
0.66516644 -1.3921601 -0.2359667 0 15
0.6758973 -1.4146193 -0.22503652 0 16
0.66601217 -1.3939301 -0.20726216 0 17
0.66896975 -1.4001201 -0.19367097 0 18
0.66139889 -1.3842747 -0.1771647 0 19
0.66499293 -1.3917969 -0.16376573 0 20
0.66062719 -1.3826597 -0.14845102 0 21
0.66968 -1.4016067 -0.13607629 0 22
0.66642427 -1.3947927 -0.12109888 0 23
0.67302567 -1.408609 -0.10786159 0 24
0.664855 -1.3915082 -0.092308655 0 25
0.66471559 -1.3912164 -0.078064486 0 26
0.66578734 -1.3934597 -0.063955873 0 27
0.66606778 -1.3940464 -0.049753174 0 28
0.66731483 -1.3966565 -0.035598494 0 29
0.66924727 -1.400701 -0.021418532 0 30
0.66347474 -1.3886194 -0.0070775305 0 31
0.66573799 -1.3933563 0.0071016736 0 32
0.66883034 -1.3998283 0.021405188 0 33
0.66961968 -1.4014806 0.035721447 0 34
0.66851109 -1.3991603 0.049935687 0 35
0.66599375 -1.3938916 0.063975699 0 36
0.66420889 -1.3901559 0.078004986 0 37
0.66517955 -1.3921875 0.092353716 0 38
0.66537565 -1.392598 0.10663557 0 39
0.66509748 -1.3920157 0.12085778 0 40
0.66287333 -1.3873607 0.13469321 0 41
0.66749692 -1.3970376 0.14999472 0 42
0.66455263 -1.3908755 0.16365729 0 43
0.66516775 -1.3921628 0.17817424 0 44
0.66642749 -1.3947994 0.19293498 0 45
0.66541255 -1.3926752 0.20707557 0 46
0.66881478 -1.3997959 0.22267842 0 47
0.66665816 -1.3952823 0.2364959 0 48
0.66694635 -1.3958853 0.25118089 0 49
0.665681 -1.3932371 0.26530299 0 50
0.66398913 -1.389696 0.27923632 0 51
0.67043662 -1.4031903 0.29674652 0 52
0.67277759 -1.4080898 0.31268531 0 53
0.66663188 -1.3952271 0.32464999 0 54
0.66395354 -1.3896215 0.33816427 0 55
0.66887361 -1.399919 0.35565901 0 56
0.66771847 -1.3975013 0.37007096 0 57
0.66596162 -1.3938243 0.38414994 0 58
0.6697818 -1.4018198 0.40156201 0 59
0.67114049 -1.4046636 0.41768849 0 60
0.66246539 -1.3865069 0.42747822 0 61
0.67131013 -1.4050184 0.44865614 0 62
0.6700201 -1.4023186 0.46331686 0 63
0.68518966 -1.3898727 -0.46195358 0 0
0.68337506 -1.3861918 -0.44529399 0 1
0.69059795 -1.400843 -0.43448359 0 2
0.6815483 -1.3824863 -0.41355473 0 3
0.68743783 -1.3944329 -0.40183699 0 4
0.68811935 -1.3958154 -0.38700145 0 5
0.69124532 -1.4021562 -0.37352622 0 6
0.6825819 -1.384583 -0.35386842 0 7
0.68765432 -1.3948721 -0.34147388 0 8
0.69257587 -1.4048551 -0.32884705 0 9
0.68739069 -1.3943374 -0.31148481 0 10
0.68882358 -1.3972439 -0.29725772 0 11
0.68944305 -1.3985004 -0.28268749 0 12
0.68577611 -1.3910623 -0.26647446 0 13
0.69874972 -1.4173785 -0.25657517 0 14
0.68671769 -1.3929722 -0.23751767 0 15
0.68955851 -1.3987346 -0.22384152 0 16
0.6876362 -1.3948352 -0.20863822 0 17
0.68476188 -1.3890049 -0.19328357 0 18
0.68317264 -1.3857813 -0.17841917 0 19
0.68543512 -1.3903705 -0.16457717 0 20
0.68486863 -1.3892215 -0.15004838 0 21
0.68634188 -1.3922099 -0.13597307 0 22
0.68566144 -1.3908296 -0.12147762 0 23
0.68812674 -1.3958304 -0.10752288 0 24
0.69149458 -1.4026618 -0.093605541 0 25
0.68644929 -1.3924278 -0.078600161 0 26
0.69071919 -1.401089 -0.064690977 0 27
0.68540108 -1.3903015 -0.049916539 0 28
0.68092322 -1.3812184 -0.035415739 0 29
0.68521726 -1.3899286 -0.021381034 0 30
0.68907213 -1.3977481 -0.0071667018 0 31
0.68327874 -1.3859965 0.0071064476 0 32
0.68862569 -1.3968425 0.021487387 0 33
0.68851089 -1.3966095 0.035810381 0 34
0.68635887 -1.3922442 0.049986292 0 35
0.69016832 -1.3999716 0.064639382 0 36
0.68448901 -1.3884513 0.078375697 0 37
0.68930495 -1.3982203 0.093309134 0 38
0.68772238 -1.3950102 0.1074597 0 39
0.67980081 -1.3789417 0.12043931 0 40
0.69047147 -1.4005866 0.1367912 0 41
0.68894738 -1.3974949 0.15094198 0 42
0.68607152 -1.3916614 0.16472998 0 43
0.69145119 -1.4025738 0.18058121 0 44
0.68870646 -1.3970063 0.19439697 0 45
0.69124466 -1.4021549 0.20973308 0 46
0.69257444 -1.4048523 0.22482054 0 47
0.68560791 -1.3907211 0.23713383 0 48
0.67968673 -1.3787103 0.24957539 0 49
0.68812835 -1.3958336 0.26738846 0 50
0.68745726 -1.3944724 0.28187329 0 51
0.68887651 -1.3973513 0.29728058 0 52
0.68491858 -1.3893228 0.3103646 0 53
0.67905593 -1.3774307 0.32242757 0 54
0.69262302 -1.4049507 0.34394121 0 55
0.68965161 -1.3989235 0.35753351 0 56
0.68414479 -1.3877531 0.36968932 0 57
0.68806237 -1.3956997 0.38696942 0 58
0.68003452 -1.3794156 0.39750946 0 59
0.69031566 -1.4002706 0.41887465 0 60
0.68774307 -1.3950521 0.43268746 0 61
0.6974144 -1.41467 0.45444217 0 62
0.68244684 -1.3843089 0.46010438 0 63
0.70757484 -1.3918623 -0.46547157 0 0
0.71542233 -1.407299 -0.45486593 0 1
0.71270061 -1.4019451 -0.43751046 0 2
0.71402788 -1.4045559 -0.42275107 0 3
0.70725721 -1.3912374 -0.40339181 0 4
0.70646632 -1.3896817 -0.38768011 0 5
0.71332824 -1.4031798 -0.3761071 0 6
0.71302277 -1.4025788 -0.3606813 0 7
0.70775652 -1.3922197 -0.34292915 0 8
0.71143407 -1.3994538 -0.32960552 0 9
0.70660496 -1.3899543 -0.31242308 0 10
0.7124598 -1.4014715 -0.29999828 0 11
0.71208745 -1.400739 -0.28488839 0 12
0.70473993 -1.3862858 -0.26719931 0 13
0.70246994 -1.3818204 -0.25168303 0 14
0.70369804 -1.3842362 -0.23748556 0 15
0.70842159 -1.3935279 -0.22438537 0 16
0.7067104 -1.3901618 -0.2092232 0 17
0.70443231 -1.3856806 -0.19401164 0 18
0.70912957 -1.3949206 -0.18070486 0 19
0.71472472 -1.4059267 -0.1674462 0 20
0.70867074 -1.3940179 -0.15149619 0 21
0.70748329 -1.3916821 -0.13676086 0 22
0.71390605 -1.4043163 -0.12341298 0 23
0.70933056 -1.3953159 -0.10814697 0 24
0.71098906 -1.3985784 -0.093909368 0 25
0.71100676 -1.3986131 -0.079436824 0 26
0.70938349 -1.39542 -0.064827077 0 27
0.71475297 -1.4059823 -0.050791245 0 28
0.70955575 -1.3957589 -0.036009565 0 29
0.71317291 -1.4028741 -0.02171343 0 30
0.71183097 -1.4002345 -0.0072237835 0 31
0.71264416 -1.4018341 0.007232036 0 32
0.70847368 -1.3936304 0.021570357 0 33
0.70484334 -1.3864892 0.035770413 0 34
0.70468956 -1.3861866 0.050076123 0 35
0.70540452 -1.387593 0.064463459 0 36
0.70609576 -1.3889527 0.078888141 0 37
0.71399695 -1.4044951 0.094306655 0 38
0.71427125 -1.4050347 0.10890024 0 39
0.71130657 -1.3992028 0.12296361 0 40
0.71128207 -1.3991547 0.13749518 0 41
0.71469653 -1.4058713 0.15278436 0 42
0.70432889 -1.3854772 0.16501065 0 43
0.71282041 -1.4021808 0.18164538 0 44
0.7050404 -1.3868767 0.19417912 0 45
0.71128619 -1.3991629 0.21057788 0 46
0.70519292 -1.3871769 0.22336273 0 47
0.70163512 -1.3801783 0.23678938 0 48
0.70465779 -1.3861241 0.25246689 0 49
0.70857131 -1.3938224 0.26865196 0 50
0.70895135 -1.39457 0.28363371 0 51
0.70364958 -1.384141 0.29628852 0 52
0.7052995 -1.3873864 0.31184587 0 53
0.71330184 -1.4031278 0.33047086 0 54
0.7124384 -1.4014294 0.34519765 0 55
0.70000869 -1.376979 0.35409817 0 56
0.7076776 -1.3920645 0.37312776 0 57
0.70607388 -1.3889098 0.38746476 0 58
0.70700794 -1.3907471 0.40324965 0 59
0.70826393 -1.3932177 0.41933841 0 60
0.71505952 -1.4065853 0.43895856 0 61
0.71024334 -1.3971115 0.45157313 0 62
0.70447868 -1.3857719 0.46343479 0 63
0.72858405 -1.3905942 -0.46800819 0 0
0.73150027 -1.3961601 -0.45413861 0 1
0.72820473 -1.3898703 -0.43650365 0 2
0.73284179 -1.3987206 -0.42367497 0 3
0.73411119 -1.4011434 -0.40885058 0 4
0.72515935 -1.3840576 -0.38856933 0 5
0.73075563 -1.3947389 -0.37622473 0 6
0.73149562 -1.3961513 -0.36131418 0 7
0.73439872 -1.4016922 -0.34746051 0 8
0.73696744 -1.4065949 -0.33339658 0 9
0.73096472 -1.395138 -0.31558469 0 10
0.72791576 -1.3893186 -0.29929024 0 11
0.73242861 -1.3979321 -0.2861276 0 12
0.72445643 -1.3827162 -0.26820803 0 13
0.73097491 -1.3951575 -0.25573 0 14
0.73399979 -1.4009308 -0.24187995 0 15
0.73370028 -1.4003592 -0.22692089 0 16
0.73208749 -1.3972809 -0.21163349 0 17
0.73318219 -1.3993703 -0.19717574 0 18
0.73098427 -1.3951753 -0.18188854 0 19
0.73072922 -1.3946886 -0.16716525 0 20
0.72872853 -1.39087 -0.15211639 0 21
0.73066008 -1.3945566 -0.1379158 0 22
0.72755218 -1.3886248 -0.12281092 0 23
0.72417349 -1.3821762 -0.10781057 0 24
0.72439945 -1.3826073 -0.093428016 0 25
0.73358291 -1.4001352 -0.080029555 0 26
0.72814703 -1.3897601 -0.064975187 0 27
0.73039359 -1.3940479 -0.05068073 0 28
0.72614312 -1.3859354 -0.035983767 0 29
0.73605675 -1.4048567 -0.021882549 0 30
0.72294414 -1.3798296 -0.0071638357 0 31
0.73792624 -1.4084249 0.0073122974 0 32
0.72897285 -1.3913363 0.021671951 0 33
0.72244978 -1.3788862 0.035800744 0 34
0.73337853 -1.399745 0.050887849 0 35
0.73399347 -1.4009188 0.065496884 0 36
0.72629762 -1.3862302 0.079234771 0 37
0.73295265 -1.3989322 0.094531156 0 38
0.73187572 -1.3968767 0.10895723 0 39
0.73123944 -1.3956623 0.12343333 0 40
0.72801846 -1.3895148 0.1374172 0 41
0.72010696 -1.3744147 0.15031672 0 42
0.72964954 -1.3926278 0.16691826 0 43
0.73263663 -1.398329 0.18229967 0 44
0.73040354 -1.3940669 0.19642849 0 45
0.73141283 -1.3959934 0.21143846 0 46
0.73173994 -1.3966175 0.22631459 0 47
0.73387688 -1.4006963 0.24183945 0 48
0.73019719 -1.3936731 0.25545791 0 49
0.72361398 -1.3811082 0.26789612 0 50
0.72941267 -1.3921758 0.28494942 0 51
0.73028237 -1.3938357 0.30026329 0 52
0.7234726 -1.3808384 0.31235006 0 53
0.73077756 -1.3947808 0.33059636 0 54
0.7315377 -1.3962315 0.34610689 0 55
0.73272014 -1.3984885 0.36191902 0 56
0.73144054 -1.3960462 0.37657735 0 57
0.73282909 -1.3986963 0.3926791 0 58
0.72882569 -1.3910553 0.40590692 0 59
0.7453689 -1.4226302 0.4309172 0 60
0.73470092 -1.402269 0.44039759 0 61
0.72361702 -1.381114 0.44924447 0 62
0.72492999 -1.38362 0.46566099 0 63
0.752195 -1.3937001 -0.47213069 0 0
0.74811864 -1.3861473 -0.45383963 0 1
0.75105679 -1.3915911 -0.43991128 0 2
0.75493968 -1.3987856 -0.42647427 0 3
0.74710423 -1.3842677 -0.40657622 0 4
0.74756306 -1.3851178 -0.3914181 0 5
0.75272852 -1.3946886 -0.37867925 0 6
0.75254768 -1.3943535 -0.36321625 0 7
0.74601609 -1.3822515 -0.34488931 0 8
0.76362234 -1.4148731 -0.33755884 0 9
0.75549245 -1.3998097 -0.31871873 0 10
0.74665999 -1.3834445 -0.29997998 0 11
0.750687 -1.390906 -0.2865572 0 12
0.75237232 -1.3940287 -0.2721763 0 13
0.75674599 -1.4021323 -0.25869459 0 14
0.7475397 -1.3850745 -0.24071112 0 15
0.75159627 -1.3925906 -0.2271425 0 16
0.7535969 -1.3962976 -0.21287198 0 17
0.7507056 -1.3909404 -0.19727372 0 18
0.74968481 -1.3890491 -0.18227789 0 19
0.75096095 -1.3914136 -0.16786681 0 20
0.75057346 -1.3906956 -0.15309516 0 21
0.75065303 -1.390843 -0.13845094 0 22
0.75562549 -1.4000562 -0.12463425 0 23
0.74871153 -1.3872457 -0.10891588 0 24
0.75310719 -1.3953902 -0.094910398 0 25
0.74696887 -1.3840169 -0.079627246 0 26
0.74971521 -1.3891054 -0.065370642 0 27
0.7498799 -1.3894106 -0.050843522 0 28
0.74694395 -1.3839707 -0.03616849 0 29
0.75554311 -1.3999037 -0.021948451 0 30
0.74686313 -1.383821 -0.0072316919 0 31
0.75497037 -1.3988423 0.0073101916 0 32
0.74539453 -1.3810999 0.021653637 0 33
0.75514531 -1.3991666 0.036565617 0 34
0.74939662 -1.3885151 0.050810754 0 35
0.75376487 -1.3966088 0.065723747 0 36
0.74875361 -1.3873236 0.079817496 0 37
0.74432397 -1.3791162 0.093803495 0 38
0.75467157 -1.3982887 0.1097829 0 39
0.75019115 -1.3899872 0.1237379 0 40
0.74737704 -1.3847731 0.13784671 0 41
0.75193799 -1.3932239 0.15337348 0 42
0.7481547 -1.386214 0.16723952 0 43
0.75562942 -1.4000635 0.18372326 0 44
0.75139332 -1.3922148 0.19745445 0 45
0.75528097 -1.3994179 0.21334767 0 46
0.74975657 -1.389182 0.22658651 0 47
0.75099343 -1.3914737 0.24182324 0 48
0.74322665 -1.3770831 0.25407296 0 49
0.754462 -1.3979005 0.27293226 0 50
0.75176167 -1.3928972 0.28696746 0 51
0.75039905 -1.3903725 0.3014822 0 52
0.75515425 -1.399183 0.31857607 0 53
0.75296456 -1.3951259 0.33284757 0 54
0.75231236 -1.3939174 0.34780011 0 55
0.75491452 -1.398739 0.3643586 0 56
0.74475706 -1.3799187 0.37466899 0 57
0.75228357 -1.3938642 0.39388973 0 58
0.75097138 -1.3914329 0.40868071 0 59
0.7516076 -1.3926116 0.42459193 0 60
0.750781 -1.3910801 0.43974975 0 61
0.74839431 -1.386658 0.45400688 0 62
0.75111252 -1.3916944 0.47145125 0 63
0.78014457 -1.4039073 -0.47880206 0 0
0.77341521 -1.3917975 -0.45876873 0 1
0.76194888 -1.3711634 -0.4363825 0 2
0.77809078 -1.4002115 -0.42979363 0 3
0.76989079 -1.3854551 -0.40967458 0 4
0.77064776 -1.3868173 -0.39454645 0 5
0.76911074 -1.3840514 -0.37833032 0 6
0.77702063 -1.3982857 -0.36670172 0 7
0.7691623 -1.3841443 -0.34769517 0 8
0.77491856 -1.394503 -0.33494699 0 9
0.76769292 -1.3815001 -0.31667528 0 10
0.77126324 -1.387925 -0.30298504 0 11
0.77554494 -1.3956301 -0.28947333 0 12
0.77579403 -1.3960785 -0.27441829 0 13
0.76967883 -1.3850738 -0.257274 0 14
0.77059418 -1.386721 -0.24262568 0 15
0.77503383 -1.3947103 -0.22902535 0 16
0.77149814 -1.3883477 -0.21309017 0 17
0.77405447 -1.392948 -0.19889334 0 18
0.77174437 -1.3887908 -0.18347542 0 19
0.77144605 -1.3882539 -0.16861732 0 20
0.77304101 -1.3911241 -0.15417711 0 21
0.77199501 -1.3892419 -0.13922597 0 22
0.76584095 -1.3781674 -0.12351467 0 23
0.77181983 -1.3889266 -0.10978469 0 24
0.77039802 -1.386368 -0.094933897 0 25
0.76457781 -1.3758942 -0.0796948 0 26
0.76995581 -1.3855722 -0.065644957 0 27
0.76763642 -1.3813984 -0.050891899 0 28
0.76974565 -1.3851941 -0.036445066 0 29
0.76816034 -1.3823411 -0.021819543 0 30
0.77527434 -1.3951432 -0.0073401243 0 31
0.77270347 -1.3905168 0.0073157838 0 32
0.77721995 -1.3986444 0.022076881 0 33
0.77730507 -1.3987975 0.036802981 0 34
0.77453578 -1.3938141 0.051349301 0 35
0.77456379 -1.3938645 0.066037826 0 36
0.77091211 -1.3872931 0.080355056 0 37
0.76878864 -1.3834718 0.094735578 0 38
0.76976138 -1.3852223 0.10949189 0 39
0.76916862 -1.3841556 0.12405136 0 40
0.77197635 -1.3892083 0.13922262 0 41
0.77050406 -1.3865589 0.15367115 0 42
0.77468497 -1.3940825 0.16932526 0 43
0.77269787 -1.3905067 0.18370211 0 44
0.77537811 -1.39533 0.19923346 0 45
0.7744686 -1.3936932 0.21391062 0 46
0.77470678 -1.3941219 0.22892873 0 47
0.76670116 -1.3797153 0.24139996 0 48
0.76430398 -1.3754015 0.2554774 0 49
0.76913875 -1.3841019 0.27206412 0 50
0.77389044 -1.3926529 0.28885579 0 51
0.77490264 -1.3944744 0.30441478 0 52
0.77869564 -1.4013 0.32121393 0 53
0.77467012 -1.3940558 0.33483961 0 54
0.77616334 -1.3967429 0.35085994 0 55
0.76707244 -1.3803834 0.36200681 0 56
0.77926993 -1.4023334 0.38332769 0 57
0.77357125 -1.3920784 0.39604318 0 58
0.77979577 -1.4032797 0.41494521 0 59
0.7783857 -1.4007423 0.42995656 0 60
0.77863753 -1.4011954 0.44594041 0 61
0.77481943 -1.3943245 0.45960167 0 62
0.77346998 -1.3918961 0.47470564 0 63
0.80087769 -1.4003819 -0.48092198 0 0
0.79243863 -1.3856257 -0.45991147 0 1
0.79931706 -1.3976531 -0.44790724 0 2
0.79891241 -1.3969455 -0.4317739 0 3
0.78994876 -1.381272 -0.41127878 0 4
0.80340898 -1.404808 -0.4024449 0 5
0.79189122 -1.3846685 -0.38113192 0 6
0.79382598 -1.3880515 -0.36655 0 7
0.80170804 -1.4018338 -0.35458833 0 8
0.79787064 -1.3951238 -0.33742711 0 9
0.79985636 -1.398596 -0.32282424 0 10
0.79441053 -1.3890737 -0.30534518 0 11
0.79738176 -1.3942691 -0.29120269 0 12
0.78740203 -1.3768189 -0.27251515 0 13
