# .PCD v0.7 - Point Cloud Data file format
VERSION 0.7
FIELDS x y z intensity ring
SIZE 4 4 4 4 2
TYPE F F F F U
COUNT 1 1 1 1 1
WIDTH 1286
HEIGHT 1
VIEWPOINT 0 0 0 1 0 0 0
POINTS 1286
DATA ascii
3.5808823 0.022015275 -0.64923257 0 12
3.5713878 0.021956904 -0.61363804 0 13
3.5665939 0.021927431 -0.57909352 0 14
3.5897803 0.022069981 -0.54901928 0 15
3.5831912 0.022029471 -0.51432967 0 16
3.5868542 0.02205199 -0.48122805 0 17
3.5667589 0.021928445 -0.44517541 0 18
3.5831828 0.02202942 -0.41379198 0 19
3.5923607 0.022085845 -0.38140401 0 20
3.5863917 0.022049148 -0.34744316 0 21
3.5843558 0.022036631 -0.31399706 0 22
3.5613434 0.02189515 -0.27899888 0 23
3.5805011 0.022012932 -0.24738784 0 24
3.5780699 0.021997984 -0.21417247 0 25
3.5827231 0.022026593 -0.18139707 0 26
3.5767047 0.021989593 -0.14812465 0 27
3.5862768 0.022048442 -0.11549031 0 28
3.5759852 0.021985168 -0.082242422 0 29
3.5878158 0.022057902 -0.049503122 0 30
3.5837989 0.022033205 -0.016481636 0 31
3.5775504 0.02199479 0.016452899 0 32
3.5829782 0.022028161 0.049436375 0 33
3.5785055 0.022000663 0.082300387 0 34
3.5816915 0.022020251 0.11534264 0 35
3.5859277 0.022046294 0.1485066 0 36
3.5664632 0.021926627 0.18057381 0 37
3.5910695 0.022077907 0.21495059 0 38
3.5805488 0.022013225 0.24739112 0 39
3.5839469 0.022034116 0.28076968 0 40
3.5867758 0.022051509 0.31420904 0 41
3.5747852 0.02197779 0.34631875 0 42
3.5915475 0.022080844 0.38131768 0 43
3.5865884 0.022050356 0.41418526 0 44
3.583981 0.022034327 0.44732493 0 45
3.5787108 0.022001926 0.4801355 0 46
3.5964763 0.022111148 0.5162366 0 47
3.5770516 0.021991726 0.54707259 0 48
3.564894 0.02191698 0.57881749 0 49
3.5690813 0.021942724 0.61324179 0 50
3.5816653 0.02202009 0.64937454 0 51
3.5875771 0.022056434 0.6845867 0 52
3.5876424 0.022056837 0.71886021 0 53
3.5901337 0.022072153 0.75377077 0 54
3.5919406 0.022083262 0.78871208 0 55
3.5783377 0.021999631 0.82029563 0 56
3.583817 0.022033319 0.85632133 0 57
3.5856872 0.022044815 0.89170927 0 58
3.5783126 0.021999476 0.92490441 0 59
3.5718703 0.021959869 0.95837188 0 60
3.582365 0.022024391 0.99659795 0 61
3.5856085 0.022044331 1.0331243 0 62
3.5782506 0.021999096 1.0667443 0 63
2.464787 0.045465138 -0.73491085 0 0
2.5530994 0.047094133 -0.73573792 0 1
2.6357312 0.048618354 -0.73335952 0 2
2.7407291 0.050555129 -0.73547882 0 3
2.8336115 0.052268423 -0.73252851 0 4
2.9487703 0.054392628 -0.733428 0 5
3.0838916 0.05688506 -0.73698002 0 6
3.1975091 0.05898083 -0.73310554 0 7
3.3452983 0.06170693 -0.73466587 0 8
3.5032172 0.064619884 -0.73563331 0 9
3.5791569 0.066020653 -0.71726835 0 10
3.5722873 0.065893941 -0.68177217 0 11
3.5736194 0.065918513 -0.64801377 0 12
3.5842373 0.066114374 -0.61593902 0 13
3.5842791 0.066115141 -0.58205295 0 14
3.5688643 0.065830804 -0.54590297 0 15
3.5891349 0.066204712 -0.51526076 0 16
3.5759745 0.065961957 -0.4798409 0 17
3.580157 0.066039108 -0.44691521 0 18
3.58775 0.066179164 -0.41438204 0 19
3.5756481 0.065955937 -0.37968701 0 20
3.581085 0.066056222 -0.34698153 0 21
3.5866468 0.066158816 -0.31424525 0 22
3.5806351 0.066047922 -0.28055263 0 23
3.5790367 0.06601844 -0.24732403 0 24
3.5708203 0.06586688 -0.21377085 0 25
3.5667157 0.065791167 -0.18061389 0 26
3.5789616 0.066017054 -0.14824052 0 27
3.5837746 0.066105835 -0.11542717 0 28
3.5983148 0.066374041 -0.082768485 0 29
3.5824091 0.066080652 -0.049435996 0 30
3.5819478 0.066072136 -0.016475614 0 31
3.5960464 0.066332199 0.016540462 0 32
3.5780509 0.066000253 0.049375851 0 33
3.5739489 0.065924592 0.082208015 0 34
3.5854363 0.066136487 0.1154807 0 35
3.5845985 0.066121034 0.14847401 0 36
3.5789192 0.066016272 0.18123187 0 37
3.5810986 0.066056475 0.21438617 0 38
3.5879385 0.066182643 0.24793918 0 39
3.5692916 0.065838687 0.27966386 0 40
3.5684564 0.065823279 0.31265149 0 41
3.5949171 0.066311367 0.34832177 0 42
3.5866795 0.06615942 0.38085839 0 43
3.5803318 0.066042334 0.41352525 0 44
3.5687847 0.065829337 0.44549561 0 45
3.5798659 0.066033736 0.48036307 0 46
3.5839584 0.066109225 0.51451761 0 47
3.5799179 0.066034697 0.54759371 0 48
3.5742161 0.065929525 0.58041883 0 49
3.5723329 0.065894783 0.61389327 0 50
3.5866489 0.066158853 0.65037644 0 51
3.5905321 0.066230483 0.68525416 0 52
3.5735631 0.065917477 0.71614736 0 53
3.5835555 0.066101789 0.7525034 0 54
3.5933478 0.066282421 0.7891404 0 55
3.5711136 0.065872289 0.81876338 0 56
3.5732541 0.065911777 0.85392654 0 57
3.5859809 0.06614653 0.89191717 0 58
3.5749178 0.065942466 0.92416668 0 59
3.5810843 0.066056207 0.96098936 0 60
3.5929432 0.066274956 0.9996919 0 61
3.5862029 0.066150628 1.0334519 0 62
3.5796232 0.066029258 1.0673149 0 63
2.4664633 0.07584206 -0.73563313 0 0
2.5598156 0.078712575 -0.7378965 0 1
2.6242914 0.08069516 -0.73039746 0 2
2.7312443 0.083983891 -0.73315525 0 3
2.832979 0.087112159 -0.73258656 0 4
2.9589717 0.090986349 -0.73618799 0 5
3.09249 0.095091946 -0.73925835 0 6
3.1866009 0.097985789 -0.7308256 0 7
3.3339281 0.102516 -0.73239034 0 8
3.5142875 0.10806193 -0.73818117 0 9
3.5849459 0.11023463 -0.71864581 0 10
3.5698631 0.10977084 -0.68151563 0 11
3.5715623 0.10982309 -0.64783663 0 12
3.576257 0.10996745 -0.61475348 0 13
3.5674441 0.10969646 -0.57949436 0 14
3.5859416 0.11026524 -0.54868102 0 15
3.5763814 0.10997128 -0.51358515 0 16
3.5775657 0.11000769 -0.48019964 0 17
3.5846343 0.11022505 -0.44760948 0 18
3.5826781 0.11016489 -0.41392139 0 19
3.5661352 0.10965621 -0.37879139 0 20
3.5772092 0.10999673 -0.34671083 0 21
3.5834086 0.11018736 -0.31405652 0 22
3.5786884 0.11004221 -0.28048491 0 23
3.5709968 0.1098057 -0.2468431 0 24
3.5705376 0.10979158 -0.21381858 0 25
3.578258 0.11002898 -0.18125319 0 26
3.578589 0.11003915 -0.14826992 0 27
3.5663157 0.10966176 -0.11489961 0 28
3.5716405 0.10982549 -0.08217977 0 29
3.5820739 0.11014632 -0.049446322 0 30
3.5847356 0.11022816 -0.016493425 0 31
3.5670066 0.10968301 0.016411854 0 32
3.5862632 0.11027513 0.04950415 0 33
3.5869222 0.1102954 0.082531393 0 34
3.5782866 0.11002986 0.11528528 0 35
3.5788021 0.11004571 0.14827876 0 36
3.5791588 0.11005668 0.18129881 0 37
3.5750327 0.1099298 0.21408777 0 38
3.5681412 0.1097179 0.24664572 0 39
3.5781181 0.11002468 0.28044024 0 40
3.5786991 0.11004254 0.31364375 0 41
3.5815156 0.11012914 0.34712821 0 42
3.5802615 0.11009058 0.38029191 0 43
3.5859993 0.11026702 0.41430512 0 44
3.5862281 0.11027405 0.44780847 0 45
3.5808182 0.1101077 0.48063624 0 46
3.5896833 0.1103803 0.5154953 0 47
3.5727348 0.10985915 0.5466603 0 48
3.5778918 0.11001772 0.58119148 0 49
3.578696 0.11004245 0.6151728 0 50
3.5786479 0.11004097 0.64912188 0 51
3.5798721 0.11007861 0.68342638 0 52
3.565398 0.10963354 0.71472716 0 53
3.5719237 0.10983421 0.75028777 0 54
3.5762813 0.10996819 0.78562999 0 55
3.5832725 0.11018317 0.82179958 0 56
3.5847473 0.11022852 0.85693228 0 57
3.5844321 0.11021883 0.89180166 0 58
3.5827661 0.1101676 0.9264757 0 59
3.5808892 0.11010989 0.96122772 0 60
3.5778964 0.11001786 0.99580646 0 61
3.5870554 0.11029949 1.0340103 0 62
3.5820112 0.11014439 1.06835 0 63
2.4698882 0.10635849 -0.73698896 0 0
2.5481203 0.10972732 -0.73485857 0 1
2.6377261 0.11358593 -0.73446977 0 2
2.7372954 0.1178736 -0.73511308 0 3
2.849185 0.1226918 -0.73711169 0 4
2.9634542 0.12761247 -0.73763788 0 5
3.0726075 0.13231283 -0.73483884 0 6
3.2065761 0.13808179 -0.73574054 0 7
3.3494639 0.14423484 -0.73613715 0 8
3.5061684 0.15098286 -0.73681003 0 9
3.5722516 0.15382853 -0.71642613 0 10
3.5723255 0.15383172 -0.6822952 0 11
3.5773063 0.15404621 -0.64917302 0 12
3.5872793 0.15447566 -0.6169281 0 13
3.5775158 0.15405522 -0.5813942 0 14
3.5748723 0.15394139 -0.54723561 0 15
3.5770957 0.15403713 -0.51392084 0 16
3.5618255 0.15337957 -0.47830391 0 17
3.5872772 0.15447557 -0.44814277 0 18
3.572181 0.15382551 -0.41289595 0 19
3.5785282 0.15409881 -0.38028029 0 20
3.5675511 0.15362613 -0.34593168 0 21
3.584074 0.15433763 -0.31425738 0 22
3.5754554 0.1539665 -0.28035873 0 23
3.5716827 0.15380405 -0.24700257 0 24
3.5696704 0.15371738 -0.21386369 0 25
3.57406 0.1539064 -0.18112272 0 26
3.5764384 0.15400882 -0.14824808 0 27
3.5644412 0.1534922 -0.11489133 0 28
3.5752957 0.15395963 -0.082301214 0 29
3.5766795 0.15401922 -0.049394269 0 30
3.5692472 0.15369917 -0.016429616 0 31
3.5770977 0.15403722 0.016465751 0 32
3.5725393 0.15384093 0.049337093 0 33
3.5717237 0.15380581 0.082218982 0 34
3.5757103 0.15397748 0.11525457 0 35
3.5693355 0.15370296 0.14795364 0 36
3.5854819 0.15439826 0.18170154 0 37
3.5743442 0.15391865 0.21414369 0 38
3.5735245 0.15388335 0.24712993 0 39
3.5587912 0.15324891 0.27905205 0 40
3.5781035 0.15408053 0.31373391 0 41
3.5844085 0.15435204 0.34756628 0 42
3.5718939 0.15381314 0.37957531 0 43
3.5711825 0.1537825 0.41278055 0 44
3.5687811 0.15367909 0.44583213 0 45
3.5725787 0.15384261 0.47974789 0 46
3.5603426 0.15331571 0.51151395 0 47
3.589011 0.15455022 0.54939991 0 48
3.5825565 0.15427229 0.58221334 0 49
3.5704193 0.15374963 0.61402857 0 50
3.573343 0.15387554 0.64845383 0 51
3.5874906 0.15448475 0.68519163 0 52
3.5761032 0.1539944 0.71719855 0 53
3.5745139 0.15392596 0.7511726 0 54
3.590621 0.15461956 0.78913808 0 55
3.5807796 0.15419577 0.82160062 0 56
3.5953386 0.15482271 0.85985422 0 57
3.5838346 0.15432732 0.89205766 0 58
3.5854819 0.15439826 0.92759883 0 59
3.5833375 0.15430592 0.96232146 0 60
3.5860143 0.1544212 0.99851882 0 61
3.5681427 0.1536516 1.0290253 0 62
3.5674 0.15361962 1.0644751 0 63
2.4639661 0.13647382 -0.73566699 0 0
2.5493565 0.1412034 -0.7356602 0 1
2.6369112 0.14605288 -0.73468739 0 2
2.7338135 0.1514201 -0.73462248 0 3
2.8439624 0.15752101 -0.736206 0 4
2.9628711 0.16410711 -0.73793924 0 5
3.0661633 0.16982824 -0.73374164 0 6
3.19576 0.17700633 -0.73370278 0 7
3.3492751 0.1855092 -0.73654133 0 8
3.5031955 0.19403452 -0.73663098 0 9
3.5781279 0.19818486 -0.7180391 0 10
3.569922 0.19773036 -0.68224895 0 11
3.5754049 0.19803405 -0.64922076 0 12
3.5822332 0.19841225 -0.61643326 0 13
3.561259 0.19725055 -0.57910264 0 14
3.5738053 0.19794546 -0.54740351 0 15
3.5788937 0.19822729 -0.51449049 0 16
3.5768547 0.19811435 -0.4806129 0 17
3.5707018 0.19777355 -0.44634217 0 18
3.5717759 0.19783305 -0.41309908 0 19
3.5647123 0.1974418 -0.37904146 0 20
3.5792761 0.19824846 -0.34727874 0 21
3.5718467 0.19783698 -0.31337491 0 22
3.5531917 0.1968037 -0.27878165 0 23
3.5774162 0.19814545 -0.24754886 0 24
3.5823908 0.19842099 -0.21475571 0 25
3.5774713 0.19814849 -0.18140535 0 26
3.5743773 0.19797714 -0.14825235 0 27
3.5714295 0.19781387 -0.11518628 0 28
3.5727866 0.19788902 -0.082293242 0 29
3.5621026 0.19729726 -0.049222741 0 30
3.561666 0.19727309 -0.016404646 0 31
3.5826728 0.1984366 0.016501401 0 32
3.572125 0.19785237 0.049361233 0 33
3.557359 0.19703452 0.081937902 0 34
3.5743327 0.19797467 0.11527992 0 35
3.5768464 0.19811389 0.14835475 0 36
3.5724466 0.19787019 0.18115056 0 37
3.5599315 0.19717702 0.21340935 0 38
3.5601697 0.19719021 0.24635544 0 39
3.5600405 0.19718304 0.27931902 0 40
3.5804436 0.19831313 0.31412914 0 41
3.5819092 0.19839431 0.34753421 0 42
3.5686655 0.19766076 0.37946182 0 43
3.5722051 0.19785681 0.41314873 0 44
3.5782564 0.19819199 0.44728649 0 45
3.5686138 0.1976579 0.4795056 0 46
3.5672698 0.19758347 0.51281947 0 47
3.573364 0.19792101 0.54733592 0 48
3.5720744 0.19784959 0.58086133 0 49
3.5758491 0.19805865 0.61533469 0 50
3.5703962 0.19775662 0.64831132 0 51
3.5631778 0.19735682 0.68096006 0 52
3.5728519 0.19789265 0.71698034 0 53
3.5672534 0.19758256 0.75010073 0 54
3.5790114 0.19823381 0.78706282 0 55
3.5657251 0.1974979 0.81864172 0 56
3.5595553 0.19715618 0.85181177 0 57
3.5816195 0.19837826 0.89204603 0 58
3.5904016 0.1988647 0.929434 0 59
3.5734663 0.19792667 0.96025157 0 60
3.573607 0.19793446 0.99566644 0 61
3.5641203 0.19740902 1.0284876 0 62
3.5882573 0.19874592 1.0713469 0 63
2.4552562 0.16629565 -0.73362154 0 0
2.5355971 0.17173718 -0.73224378 0 1
2.633055 0.17833805 -0.73416853 0 2
2.7527173 0.18644282 -0.74026233 0 3
2.8316762 0.19179076 -0.73358059 0 4
2.9624262 0.2006465 -0.73838705 0 5
3.0636225 0.20750059 -0.73368877 0 6
3.198966 0.21666746 -0.73499495 0 7
3.3513889 0.22699115 -0.73756427 0 8
3.4996309 0.23703164 -0.73643863 0 9
3.5692968 0.24175014 -0.71680927 0 10
3.5645072 0.24142575 -0.68172997 0 11
3.5644886 0.24142449 -0.64772874 0 12
3.5831499 0.24268842 -0.61705792 0 13
3.5622773 0.24127471 -0.57970685 0 14
3.5721083 0.24194057 -0.54755783 0 15
3.5728877 0.24199335 -0.51401597 0 16
3.581785 0.24259596 -0.4816398 0 17
3.5634542 0.24135441 -0.44577348 0 18
3.5552866 0.24080122 -0.41150331 0 19
3.5683401 0.24168535 -0.37971452 0 20
3.5625677 0.24129437 -0.34591934 0 21
3.5661647 0.241538 -0.3131133 0 22
3.5650725 0.24146402 -0.27992561 0 23
3.5706723 0.2418433 -0.24726929 0 24
3.5824835 0.24264328 -0.21492389 0 25
3.5731399 0.24201044 -0.18132292 0 26
3.5626113 0.24129733 -0.14787622 0 27
3.5676105 0.24163593 -0.11515024 0 28
3.5761213 0.24221237 -0.082432427 0 29
3.5622137 0.24127039 -0.049261551 0 30
3.5754018 0.24216364 -0.016480379 0 31
3.5861886 0.24289423 0.0165301 0 32
3.5585384 0.24102147 0.049210723 0 33
3.5730793 0.24200633 0.082362302 0 34
3.5752749 0.24215503 0.11539761 0 35
3.5667331 0.24157649 0.1480473 0 36
3.5729668 0.2419987 0.18131413 0 37
3.5693653 0.24175479 0.21413688 0 38
3.573333 0.24202351 0.24745354 0 39
3.5710294 0.2418675 0.28039336 0 40
3.5602691 0.24113868 0.31259567 0 41
3.5687916 0.24171592 0.34652367 0 42
3.548351 0.24033147 0.37758744 0 43
3.5640383 0.24139398 0.4125163 0 44
3.5605726 0.24115925 0.44541299 0 45
3.5782189 0.24235444 0.48116028 0 46
3.5699482 0.24179426 0.51359308 0 47
3.5639334 0.24138686 0.5463047 0 48
3.559973 0.24111864 0.57933182 0 49
3.5672975 0.24161473 0.61432797 0 50
3.5652642 0.24147701 0.64786965 0 51
3.5583496 0.24100867 0.68055224 0 52
3.5728705 0.24199219 0.71752691 0 53
3.5695064 0.24176434 0.7511428 0 54
3.5641475 0.24140137 0.78438753 0 55
3.5657961 0.24151304 0.81927788 0 56
3.5714982 0.24189924 0.85531688 0 57
3.5685866 0.24170204 0.88947302 0 58
3.5704129 0.24182573 0.92495936 0 59
3.5781188 0.24234766 0.96222979 0 60
3.5684638 0.24169372 0.99498636 0 61
3.5616887 0.24123484 1.0285641 0 62
3.5871396 0.24295864 1.0718241 0 63
2.4475844 0.19603595 -0.73199415 0 0
2.5405121 0.20347887 -0.73433018 0 1
2.6297567 0.2106268 -0.73391551 0 2
2.7358408 0.21912347 -0.73639286 0 3
2.8558021 0.22873159 -0.74050331 0 4
2.9653106 0.23750253 -0.73977798 0 5
3.0628085 0.24531148 -0.73416066 0 6
3.2012873 0.25640276 -0.73619705 0 7
3.3489699 0.26823118 -0.73770195 0 8
3.4830203 0.2789678 -0.73360962 0 9
3.583061 0.28698042 -0.72022772 0 10
3.5699737 0.28593218 -0.68339622 0 11
3.569216 0.28587154 -0.64917749 0 12
3.585783 0.28719842 -0.61807281 0 13
3.5768957 0.2864866 -0.58261496 0 14
3.5717971 0.28607824 -0.54800797 0 15
3.574703 0.28631097 -0.5147447 0 16
3.5557899 0.28479618 -0.47857901 0 17
3.5643983 0.28548566 -0.44629699 0 18
3.5628128 0.28535867 -0.41274938 0 19
3.5747349 0.28631353 -0.38074088 0 20
3.5727875 0.28615758 -0.3472271 0 21
3.5747147 0.28631192 -0.31414938 0 22
3.5725555 0.28613898 -0.28076822 0 23
3.5643969 0.28548554 -0.24705914 0 24
3.586679 0.28727019 -0.21537124 0 25
3.5625479 0.28533745 -0.18094978 0 26
3.5639033 0.28544599 -0.14806435 0 27
3.5775917 0.28654236 -0.11557738 0 28
3.5721371 0.28610548 -0.082415454 0 29
3.5681922 0.28578952 -0.04938909 0 30
3.5609286 0.28520775 -0.01642859 0 31
3.5636075 0.2854223 0.016440948 0 32
3.5731437 0.2861861 0.049457628 0 33
3.5639272 0.28544793 0.082226038 0 34
3.5801413 0.28674656 0.11565974 0 35
3.5583589 0.28500193 0.147834 0 36
3.5826948 0.28695107 0.18197307 0 37
3.5639226 0.28544754 0.21400476 0 38
3.5519133 0.28448567 0.24619386 0 39
3.570215 0.28595152 0.28058428 0 40
3.5626817 0.28534815 0.3130919 0 41
3.5634046 0.28540605 0.34631518 0 42
3.5691178 0.28586364 0.3801426 0 43
3.5563865 0.28484395 0.41200489 0 44
3.5573857 0.284924 0.44541895 0 45
3.5607035 0.28518972 0.47924033 0 46
3.5711744 0.28602836 0.51423657 0 47
3.5575337 0.28493583 0.54581958 0 48
3.564693 0.28550923 0.58062732 0 49
3.5719521 0.28609067 0.6156888 0 50
3.5753276 0.28636101 0.65028906 0 51
3.5667663 0.28567532 0.68278223 0 52
3.5618336 0.28528023 0.71596086 0 53
3.5801644 0.28674841 0.75407052 0 54
3.5724099 0.28612733 0.78692067 0 55
3.5597601 0.28511414 0.81863469 0 56
3.5774775 0.28653321 0.85752773 0 57
3.5696802 0.2859087 0.89055455 0 58
3.5750027 0.28633499 0.92699051 0 59
3.5631256 0.2853837 0.95906901 0 60
3.5751688 0.28634831 0.99776226 0 61
3.567282 0.28571659 1.031116 0 62
3.5657034 0.28559017 1.0663878 0 63
2.449558 0.22653806 -0.73336202 0 0
2.5398765 0.23489082 -0.73492575 0 1
2.6251254 0.24277474 -0.7334007 0 2
2.731833 0.2526432 -0.73609465 0 3
2.8443727 0.263051 -0.73832262 0 4
2.929956 0.27096584 -0.73173374 0 5
3.0581524 0.2828216 -0.73382276 0 6
3.191628 0.2951656 -0.7347548 0 7
3.335371 0.3084591 -0.73548639 0 8
3.4651258 0.32045898 -0.73061532 0 9
3.5651991 0.32971388 -0.71739805 0 10
3.5595729 0.32919356 -0.68212855 0 11
3.5761361 0.33072534 -0.65112656 0 12
3.5742805 0.33055374 -0.61674416 0 13
3.5758724 0.33070096 -0.58306658 0 14
3.5667496 0.32985726 -0.54781443 0 15
3.5574131 0.32899383 -0.51279879 0 16
3.5681467 0.32998648 -0.4807519 0 17
3.5674667 0.3299236 -0.44715536 0 18
3.5623772 0.3294529 -0.41313699 0 19
3.5715289 0.33029926 -0.3808032 0 20
3.559377 0.32917544 -0.34629095 0 21
3.5786731 0.33095998 -0.31483108 0 22
3.5704453 0.33019906 -0.28090024 0 23
3.5662017 0.3298066 -0.24744663 0 24
3.5650859 0.32970339 -0.21430185 0 25
3.5668392 0.32986557 -0.18136005 0 26
3.5720849 0.3303507 -0.14856179 0 27
3.5778971 0.33088821 -0.11570995 0 28
3.5611315 0.32933772 -0.082248747 0 29
3.5649269 0.3296887 -0.049396269 0 30
3.5628061 0.32949257 -0.0164547 0 31
3.5787055 0.33096296 0.016528131 0 32
3.5722706 0.33036786 0.049498029 0 33
3.5724347 0.33038303 0.082509816 0 34
3.5666411 0.32984725 0.11534593 0 35
3.5707204 0.33022448 0.14850503 0 36
3.5710194 0.33025214 0.1815726 0 37
3.5507469 0.32837734 0.21343993 0 38
3.5640757 0.32960999 0.2472991 0 39
3.562165 0.32943326 0.28024879 0 40
3.569149 0.33007917 0.31399322 0 41
3.5582285 0.32906923 0.34617922 0 42
3.5678918 0.32996291 0.38041541 0 43
3.5723157 0.33037204 0.41428959 0 44
3.5589712 0.32913792 0.44609049 0 45
3.560955 0.32932138 0.47978297 0 46
3.568485 0.33001778 0.51439482 0 47
3.5553002 0.32879844 0.54605591 0 48
3.5882428 0.33184499 0.5850836 0 49
3.5569687 0.3289527 0.61375695 0 50
3.5680957 0.32998174 0.64966255 0 51
3.5737009 0.33050013 0.68483591 0 52
3.5528426 0.32857114 0.71491164 0 53
3.5670376 0.3298839 0.75210321 0 54
3.5476036 0.32808661 0.78228599 0 55
3.568059 0.32997835 0.82141417 0 56
3.5642133 0.32962269 0.85525519 0 57
3.5562618 0.32888734 0.88814873 0 58
3.5598128 0.32921574 0.92403162 0 59
3.5652559 0.32971913 0.96066111 0 60
3.5552294 0.32879189 0.99325079 0 61
3.5781355 0.33091027 1.0353512 0 62
3.5595033 0.32918712 1.0656636 0 63
2.452934 0.25730532 -0.73526448 0 0
2.5458386 0.26705074 -0.73754537 0 1
2.6391912 0.2768431 -0.73822558 0 2
2.739393 0.28735399 -0.73902792 0 3
2.8074036 0.29448807 -0.72961122 0 4
2.9378195 0.30816832 -0.73458844 0 5
3.0559397 0.32055876 -0.73418212 0 6
3.1901774 0.33463991 -0.73531258 0 7
3.3229568 0.34856805 -0.73363853 0 8
3.4757643 0.36459708 -0.73374826 0 9
3.56387 0.37383911 -0.71800131 0 10
3.5663862 0.37410304 -0.684264 0 11
3.5548618 0.3728942 -0.64803892 0 12
3.5652418 0.37398303 -0.61593145 0 13
3.5562856 0.37304354 -0.5805769 0 14
3.573514 0.37485075 -0.54951978 0 15
3.5672636 0.37419507 -0.51484311 0 16
3.5621324 0.37365684 -0.48052427 0 17
3.5753222 0.37504041 -0.4486841 0 18
3.5650442 0.37396228 -0.4139483 0 19
3.5662713 0.374091 -0.38070431 0 20
3.5773759 0.37525585 -0.34846467 0 21
3.5598047 0.37341267 -0.3135514 0 22
3.557543 0.37317544 -0.28022501 0 23
3.5755827 0.37506774 -0.24839878 0 24
3.547859 0.3721596 -0.21352527 0 25
3.5584149 0.37326688 -0.18115139 0 26
3.5601768 0.37345171 -0.14824632 0 27
3.5459621 0.37196064 -0.1148164 0 28
3.5502868 0.37241426 -0.082097836 0 29
3.5606999 0.37350658 -0.049397606 0 30
3.5586703 0.3732937 -0.016455555 0 31
3.5581832 0.37324259 0.016453303 0 32
3.5709391 0.37458065 0.049539655 0 33
3.5576999 0.37319189 0.082269259 0 34
3.5650012 0.37395778 0.11543287 0 35
3.5692029 0.37439853 0.14862216 0 36
3.5561438 0.37302867 0.18103577 0 37
3.5682075 0.3742941 0.21474992 0 38
3.5637553 0.37382707 0.24757712 0 39
3.5672221 0.37419075 0.28098741 0 40
3.5574234 0.37316287 0.31334162 0 41
3.5611141 0.37355003 0.34688061 0 42
3.5632477 0.37377384 0.38038152 0 43
3.577585 0.37527776 0.41540444 0 44
3.5704641 0.37453082 0.44807443 0 45
3.5725574 0.37475041 0.48193061 0 46
3.565392 0.37399879 0.51457298 0 47
3.5654783 0.37400782 0.54828405 0 48
3.5633121 0.37378061 0.58172399 0 49
3.5747652 0.374982 0.61757672 0 50
3.5700598 0.37448838 0.65080941 0 51
3.5806899 0.37560347 0.68700838 0 52
3.5578265 0.37320516 0.7167837 0 53
3.5631382 0.37376234 0.75219321 0 54
3.5587492 0.37330195 0.78569651 0 55
3.5611053 0.3735491 0.82080877 0 56
3.552191 0.37261403 0.8534053 0 57
3.5606599 0.37350237 0.89032686 0 58
3.5518525 0.3725785 0.92308474 0 59
3.55212 0.37260658 0.95828372 0 60
3.567029 0.37417048 0.99775726 0 61
3.5550084 0.37290958 1.0299082 0 62
3.5689871 0.37437588 1.0698001 0 63
2.465483 0.28931156 -0.74003631 0 0
2.5205836 0.29577735 -0.73122722 0 1
2.6276953 0.30834636 -0.73601496 0 2
2.7194307 0.31911102 -0.73464555 0 3
2.8056571 0.32922924 -0.73015422 0 4
2.941185 0.34513274 -0.73643547 0 5
3.0723236 0.36052114 -0.73912746 0 6
3.2012882 0.37565446 -0.73888236 0 7
3.3223381 0.38985905 -0.73450482 0 8
3.48314 0.4087283 -0.7363106 0 9
3.5578055 0.41748992 -0.71775949 0 10
3.5549376 0.41715339 -0.68299997 0 11
3.5521476 0.41682598 -0.64842945 0 12
3.5665145 0.41851187 -0.61699373 0 13
3.5573568 0.41743729 -0.58154583 0 14
3.5720387 0.4191601 -0.55004388 0 15
3.5534368 0.41697729 -0.51354873 0 16
3.5563433 0.41731834 -0.48039931 0 17
3.5550222 0.41716331 -0.4467465 0 18
3.5661705 0.41847149 -0.4146452 0 19
3.5605702 0.41781434 -0.38061538 0 20
3.5627172 0.41806629 -0.34751126 0 21
3.5521007 0.41682047 -0.31330055 0 22
3.5685232 0.41874757 -0.2814742 0 23
3.5606244 0.41782069 -0.2476978 0 24
3.5501688 0.41659379 -0.2139564 0 25
3.569139 0.41881984 -0.18194574 0 26
3.5594559 0.41768357 -0.14841893 0 27
3.5499685 0.41657031 -0.11510328 0 28
3.5659883 0.41845012 -0.082573667 0 29
3.5471566 0.41624033 -0.049277004 0 30
3.5501673 0.41659361 -0.016438682 0 31
3.5726206 0.4192284 0.016542649 0 32
3.5763748 0.41966894 0.0496829 0 33
3.5660806 0.41846097 0.082575805 0 34
3.557771 0.41748586 0.11535626 0 35
3.5555673 0.41722727 0.14825679 0 36
3.5596883 0.41771084 0.18146397 0 37
3.5772426 0.41977075 0.21558805 0 38
3.5569067 0.41738445 0.24743918 0 39
3.5653744 0.41837808 0.28122583 0 40
3.5602219 0.41777349 0.31401688 0 41
3.5669191 0.41855937 0.3479211 0 42
3.5606632 0.41782525 0.38062534 0 43
3.5563207 0.41731569 0.41349995 0 44
3.5667565 0.41854027 0.44822115 0 45
3.5610366 0.41786906 0.48103327 0 46
3.5521908 0.41683105 0.51336861 0 47
3.5569077 0.41738456 0.54771394 0 48
3.5509193 0.41668186 0.58049339 0 49
3.5613499 0.41790584 0.61610025 0 50
3.5550861 0.41717082 0.6489659 0 51
3.5639617 0.41821232 0.68473375 0 52
3.5712001 0.41906172 0.72046179 0 53
3.5608153 0.4178431 0.75273067 0 54
3.5608606 0.41784841 0.78723752 0 55
3.549969 0.41657037 0.81936067 0 56
3.5602791 0.41778019 0.85651797 0 57
3.5668736 0.41855401 0.89309996 0 58
3.5547445 0.41713074 0.92509943 0 59
3.5676327 0.41864309 0.96378458 0 60
3.5606666 0.41782564 0.99733925 0 61
3.5634494 0.41815218 1.033765 0 62
3.5565176 0.41733879 1.06752 0 63
2.4302526 0.31551626 -0.73057097 0 0
2.5317469 0.32869312 -0.73558253 0 1
2.6174052 0.33981404 -0.73424762 0 2
2.7112398 0.35199645 -0.73354667 0 3
2.8340688 0.36794317 -0.73866981 0 4
2.9406283 0.38177761 -0.73741579 0 5
3.0641656 0.3978163 -0.73828596 0 6
3.1663165 0.41107842 -0.73192203 0 7
3.3180029 0.43077162 -0.73466188 0 8
3.4723296 0.45080766 -0.73514163 0 9
3.554249 0.46144316 -0.71813244 0 10
3.5468504 0.4604826 -0.68248248 0 11
3.5535271 0.46134943 -0.64966774 0 12
3.544584 0.46018833 -0.61413234 0 13
3.5620871 0.46246073 -0.58320463 0 14
3.5490742 0.46077129 -0.54733878 0 15
3.5526893 0.46124065 -0.51422149 0 16
3.5482614 0.46066576 -0.48003644 0 17
3.5640533 0.46271601 -0.44856253 0 18
3.5673513 0.46314418 -0.41541326 0 19
3.5615234 0.46238756 -0.38129625 0 20
3.5619066 0.4624373 -0.34796053 0 21
3.5551448 0.46155944 -0.31404594 0 22
3.5603156 0.46223074 -0.28125387 0 23
3.5497849 0.46086356 -0.24731928 0 24
3.5536935 0.46137103 -0.21449453 0 25
3.5568643 0.46178266 -0.18159576 0 26
3.5649433 0.46283156 -0.14887379 0 27
3.5572114 0.46182775 -0.11551352 0 28
3.5654767 0.46290079 -0.08268737 0 29
3.5603104 0.46223006 -0.049534947 0 30
3.5535834 0.46135673 -0.016479522 0 31
3.5686665 0.46331495 0.016549468 0 32
3.5725262 0.46381605 0.049704909 0 33
3.5565469 0.46174148 0.082480282 0 34
3.5576284 0.46188188 0.11552706 0 35
3.5657842 0.46294072 0.14890891 0 36
3.5580456 0.46193606 0.18165608 0 37
3.5542066 0.46143764 0.21452549 0 38
3.575772 0.46423745 0.24912985 0 39
3.5574884 0.4618637 0.28103054 0 40
3.5687633 0.46332753 0.31524894 0 41
3.5668349 0.46307716 0.34844199 0 42
3.5585418 0.46200046 0.38097703 0 43
3.5528526 0.46126187 0.41372493 0 44
3.5526888 0.46124059 0.44713223 0 45
3.5502317 0.46092159 0.48030302 0 46
3.5543308 0.46145377 0.51445913 0 47
3.5496864 0.46085078 0.5474332 0 48
3.5540798 0.46142116 0.58189362 0 49
3.5558302 0.4616484 0.61608082 0 50
3.5747645 0.46410662 0.65355045 0 51
3.5638614 0.46269107 0.68575567 0 52
3.5693142 0.46339905 0.72117633 0 53
3.5506129 0.46097106 0.75171536 0 54
3.572983 0.46387532 0.7911188 0 55
3.5518169 0.4611274 0.82103384 0 56
3.5626326 0.46253157 0.85838753 0 57
3.5655754 0.4629136 0.89413255 0 58
3.5533588 0.46132755 0.92614508 0 59
3.5510759 0.46103117 0.96077067 0 60
3.5752244 0.46416634 1.0029398 0 61
3.5484908 0.46069553 1.0309908 0 62
3.557919 0.46191961 1.0695647 0 63
2.4387758 0.34716538 -0.73436093 0 0
2.5234261 0.35921556 -0.73439288 0 1
2.6210899 0.37311822 -0.73651266 0 2
2.7093303 0.38567945 -0.73425758 0 3
2.8372908 0.4038949 -0.74074805 0 4
2.916414 0.4151583 -0.73256838 0 5
3.0356765 0.43213558 -0.73264664 0 6
3.1827569 0.45307282 -0.73695445 0 7
3.3050373 0.47047973 -0.73301661 0 8
3.4802263 0.49541828 -0.73804742 0 9
3.5528796 0.50576061 -0.71905792 0 10
3.5711644 0.50836354 -0.68831176 0 11
3.5616536 0.50700963 -0.65224391 0 12
3.5542779 0.50595969 -0.61684322 0 13
3.5482106 0.50509602 -0.5819056 0 14
3.5417912 0.50418216 -0.54713035 0 15
3.5556736 0.50615841 -0.51551533 0 16
3.5657923 0.50759882 -0.48321605 0 17
3.5653713 0.50753886 -0.44947988 0 18
3.5466721 0.50487697 -0.41369686 0 19
3.5806487 0.50971365 -0.38398579 0 20
3.5525136 0.50570852 -0.34762412 0 21
3.5613136 0.50696123 -0.31511769 0 22
3.5643299 0.50739062 -0.28204253 0 23
3.552577 0.50571758 -0.24792831 0 24
3.5630829 0.50721312 -0.21542142 0 25
3.563309 0.5072453 -0.18222946 0 26
3.5420082 0.50421309 -0.14816374 0 27
3.5768313 0.50917023 -0.11634515 0 28
3.5406241 0.50401604 -0.082248524 0 29
3.5586355 0.50658 -0.049594563 0 30
3.5424647 0.50427806 -0.016455472 0 31
3.5568376 0.50632405 0.016522236 0 32
3.5696554 0.50814873 0.049748141 0 33
3.5458622 0.5047617 0.082370207 0 34
3.5592661 0.50666976 0.1157738 0 35
3.5493295 0.50525528 0.14846998 0 36
3.5584984 0.5065605 0.18198344 0 37
3.5651259 0.50750393 0.21554492 0 38
3.5712578 0.50837684 0.24923202 0 39
3.5585992 0.50657487 0.28158909 0 40
3.5713177 0.50838536 0.31600288 0 41
3.5602133 0.50680465 0.34837759 0 42
3.5537474 0.50588417 0.38110092 0 43
3.5544069 0.50597805 0.41459909 0 44
3.5522382 0.50566936 0.44782421 0 45
3.5546684 0.5060153 0.48170862 0 46
3.5401664 0.50395089 0.51326704 0 47
3.5527701 0.50574505 0.54882634 0 48
3.5586371 0.50658023 0.58361554 0 49
3.5595701 0.50671303 0.61776161 0 50
3.5545061 0.50599217 0.65093499 0 51
3.5475249 0.50499839 0.68375546 0 52
3.5632589 0.50723815 0.72115862 0 53
3.55844 0.50655216 0.75463408 0 54
3.5483387 0.50511426 0.78697789 0 55
3.5607116 0.50687551 0.82446831 0 56
3.5562263 0.50623709 0.85827893 0 57
3.5673237 0.50781679 0.89606911 0 58
3.5535119 0.50585067 0.9277361 0 59
3.5562463 0.50623989 0.96378088 0 60
3.55562 0.50615072 0.99911064 0 61
3.5561528 0.5062266 1.0349474 0 62
3.5613334 0.50696403 1.072384 0 63
2.4343066 0.37712267 -0.73435605 0 0
2.5235167 0.39094311 -0.73576266 0 1
2.6231179 0.40637332 -0.73843074 0 2
2.718605 0.42116618 -0.73811889 0 3
2.8009546 0.43392378 -0.7325992 0 4
2.9273951 0.45351192 -0.73667175 0 5
3.0440962 0.47159126 -0.73602259 0 6
3.1777451 0.49229616 -0.73713994 0 7
3.322794 0.51476711 -0.73830289 0 8
3.4396591 0.5328719 -0.73077875 0 9
3.5525424 0.55035973 -0.72030491 0 10
3.5517764 0.55024111 -0.68582714 0 11
3.5517495 0.55023688 -0.65161997 0 12
3.5585732 0.55129403 -0.61871833 0 13
3.5487511 0.54977238 -0.58305883 0 14
3.5620534 0.55183321 -0.55126697 0 15
3.5471468 0.54952383 -0.51521981 0 16
3.560544 0.55159932 -0.48338744 0 17
3.5455258 0.54927278 -0.44779566 0 18
3.5637734 0.55209965 -0.41645202 0 19
3.5640221 0.55213815 -0.38290188 0 20
3.5551946 0.55077064 -0.34852284 0 21
3.5415328 0.54865414 -0.31394064 0 22
3.5519736 0.55027163 -0.28157896 0 23
3.5463023 0.549393 -0.24794313 0 24
3.5595648 0.55144763 -0.21560237 0 25
3.5557356 0.55085444 -0.18217479 0 26
3.5538836 0.55056751 -0.14893241 0 27
3.5459824 0.54934347 -0.1155527 0 28
3.5641866 0.55216366 -0.082947336 0 29
3.5577197 0.55116183 -0.049672496 0 30
3.5457041 0.54930037 -0.016500648 0 31
3.5533619 0.55048668 0.016536284 0 32
3.5424616 0.54879802 0.049459465 0 33
3.5515552 0.55020678 0.082653366 0 34
3.5506752 0.55007046 0.11570563 0 35
3.5568848 0.55103248 0.14905819 0 36
3.5463281 0.54939699 0.18169279 0 37
3.5464306 0.54941291 0.21480684 0 38
3.5676825 0.55270523 0.24943796 0 39
3.555613 0.55083543 0.28186744 0 40
3.5374708 0.54802483 0.31358057 0 41
3.5647476 0.55225056 0.34945932 0 42
3.5574741 0.55112374 0.38219839 0 43
3.5550032 0.55074096 0.41542718 0 44
3.5502117 0.5499987 0.44838747 0 45
3.5764318 0.5540607 0.48554441 0 46
3.5572293 0.55108583 0.51668429 0 47
3.5586555 0.55130678 0.55074108 0 48
3.5595229 0.55144113 0.58482862 0 49
3.5577991 0.5511741 0.61858374 0 50
3.552572 0.55036432 0.65177089 0 51
3.5341694 0.54751337 0.68242729 0 52
3.546015 0.54934853 0.71898139 0 53
3.5524523 0.55034578 0.75474238 0 54
3.5576246 0.55114704 0.79048073 0 55
3.5472419 0.54953861 0.82285196 0 56
3.5634537 0.55205011 0.86159641 0 57
3.556278 0.55093843 0.89492863 0 58
3.5593388 0.55141264 0.9309572 0 59
3.5503232 0.55001593 0.96393573 0 60
3.544853 0.54916847 0.99790728 0 61
3.5503347 0.55001771 1.0351442 0 62
3.5458887 0.54932892 1.0696865 0 63
2.4337351 0.40773723 -0.73564053 0 0
2.5115275 0.42077026 -0.73372018 0 1
2.5997033 0.43554279 -0.73329157 0 2
2.7077234 0.45364001 -0.73662329 0 3
2.8037186 0.46972263 -0.73477727 0 4
2.9165401 0.48862424 -0.73539656 0 5
3.0486748 0.51076156 -0.73859239 0 6
3.1683483 0.53081107 -0.73641855 0 7
3.2977996 0.55249882 -0.73420334 0 8
3.4434941 0.57690781 -0.73304522 0 9
3.5389893 0.59290665 -0.71898079 0 10
3.5440595 0.59375608 -0.68569499 0 11
3.5663421 0.59748924 -0.6555956 0 12
3.5569875 0.59592199 -0.61966985 0 13
3.5446033 0.59384722 -0.58353299 0 14
3.5433862 0.59364325 -0.54946619 0 15
3.553797 0.59538746 -0.51721007 0 16
3.5520153 0.59508896 -0.48318651 0 17
3.5601296 0.59644842 -0.45053235 0 18
3.5576158 0.59602726 -0.41655743 0 19
3.5489533 0.59457594 -0.38203958 0 20
3.5526071 0.59518808 -0.34896025 0 21
3.5432441 0.59361953 -0.31471562 0 22
3.5562899 0.59580511 -0.28248054 0 23
3.559644 0.596367 -0.24936979 0 24
3.544662 0.59385705 -0.21512575 0 25
3.5596735 0.59637201 -0.18273844 0 26
3.5437348 0.59370166 -0.1488018 0 27
3.550221 0.59478837 -0.1159204 0 28
3.560118 0.59644645 -0.083017059 0 29
3.5509858 0.59491646 -0.049676858 0 30
3.5527687 0.5952152 -0.016566332 0 31
3.5587552 0.59621811 0.016594246 0 32
3.5510585 0.59492868 0.049677879 0 33
3.5517447 0.59504366 0.082821801 0 34
3.5472867 0.59429675 0.11582459 0 35
3.5453653 0.59397483 0.14887026 0 36
3.562665 0.59687316 0.18289201 0 37
3.5648572 0.59724045 0.2163514 0 38
3.5382106 0.59277618 0.24786828 0 39
3.5512879 0.59496707 0.28208321 0 40
3.5316801 0.59168208 0.31368846 0 41
3.5511196 0.59493887 0.34881416 0 42
3.5368757 0.59255254 0.38073945 0 43
3.5449474 0.59390485 0.41507408 0 44
3.5440574 0.59375572 0.4484984 0 45
3.546134 0.59410363 0.48238644 0 46
3.5553484 0.59564739 0.51743585 0 47
3.5576341 0.59603035 0.55167562 0 48
3.544347 0.5938043 0.58349079 0 49
3.5439422 0.59373641 0.61739719 0 50
3.5520444 0.59509385 0.65296727 0 51
3.5493405 0.59464085 0.68671674 0 52
3.5583205 0.59614533 0.72290814 0 53
3.5598798 0.59640652 0.7578212 0 54
3.5554442 0.59566343 0.79156387 0 55
3.5436795 0.59369242 0.82365668 0 56
3.5530658 0.59526497 0.86078948 0 57
3.5559361 0.59574586 0.89661825 0 58
3.5512695 0.59496403 0.93068981 0 59
3.5491583 0.59461033 0.96553165 0 60
3.5524259 0.59515774 1.0020236 0 61
3.5579648 0.59608573 1.0394274 0 62
3.5599065 0.59641105 1.0760462 0 63
2.428683 0.4376567 -0.73568457 0 0
2.5199239 0.45409858 -0.73774856 0 1
2.5914929 0.46699557 -0.73254007 0 2
2.6939619 0.48546079 -0.73444796 0 3
2.7986984 0.50433469 -0.73503137 0 4
2.9255221 0.52718872 -0.73923999 0 5
3.0150414 0.54332042 -0.73200732 0 6
3.1525443 0.56809884 -0.73431337 0 7
3.3055754 0.59567559 -0.73750949 0 8
3.4609146 0.62366819 -0.73833036 0 9
3.5478284 0.63933033 -0.72231907 0 10
3.5440483 0.63864917 -0.68716025 0 11
3.5676882 0.64290917 -0.65724659 0 12
3.5373225 0.63743716 -0.61756283 0 13
3.5343175 0.63689566 -0.58308488 0 14
3.5557063 0.64074993 -0.55255663 0 15
3.5525494 0.64018106 -0.51813495 0 16
3.5626676 0.64200443 -0.48567271 0 17
3.5485411 0.63945878 -0.45002684 0 18
3.5402973 0.63797319 -0.41541675 0 19
3.5565767 0.64090681 -0.38367957 0 20
3.5424786 0.63836628 -0.34871006 0 21
3.5501235 0.63974392 -0.31600147 0 22
3.5452268 0.63886154 -0.28220445 0 23
3.5512428 0.63994563 -0.24931367 0 24
3.5415576 0.63820034 -0.21539734 0 25
3.5475307 0.63927668 -0.18250482 0 26
3.5527506 0.64021736 -0.14949964 0 27
3.556515 0.64089572 -0.11637443 0 28
3.5430489 0.6384691 -0.082795843 0 29
3.5476587 0.63929975 -0.049736526 0 30
3.5470657 0.63919294 -0.016575137 0 31
3.5414298 0.63817728 0.016548799 0 32
3.5589974 0.64134306 0.049895491 0 33
3.5594325 0.64142144 0.083178699 0 34
3.5393319 0.63779926 0.11581217 0 35
3.5547645 0.64058024 0.14958438 0 36
3.5472264 0.63922191 0.18248917 0 37
3.5549493 0.64061356 0.21621181 0 38
3.527735 0.63570946 0.24766332 0 39
3.5375164 0.63747209 0.28159067 0 40
3.5596178 0.64145482 0.31684658 0 41
3.5606816 0.64164656 0.35050189 0 42
3.5598733 0.64150089 0.38403523 0 43
3.5470941 0.63919806 0.41621429 0 44
3.5400119 0.63792181 0.44894516 0 45
3.5514731 0.63998711 0.48414662 0 46
3.5444067 0.63871372 0.51694733 0 47
3.5522804 0.64013261 0.55202425 0 48
3.5593541 0.64140731 0.58721536 0 49
3.5610089 0.64170551 0.62169808 0 50
3.5550959 0.64064002 0.65492684 0 51
3.5460372 0.63900757 0.6875459 0 52
3.5369165 0.63736397 0.72009742 0 53
3.5515509 0.64000118 0.75766617 0 54
3.5411174 0.63812101 0.79006147 0 55
3.5530369 0.64026892 0.82759905 0 56
3.5540347 0.64044875 0.86286688 0 57
3.5646658 0.6423645 0.90074301 0 58
3.5516977 0.64002758 0.93279397 0 59
3.5428672 0.63843632 0.96588284 0 60
3.5393662 0.63780546 1.0004765 0 61
3.555016 0.6406256 1.0407885 0 62
3.5503287 0.63978094 1.0754478 0 63
2.4069324 0.46436286 -0.73077029 0 0
2.4990537 0.48213562 -0.73331875 0 1
2.5854287 0.49879968 -0.73250425 0 2
2.6920924 0.51937801 -0.73562378 0 3
2.770272 0.53446102 -0.72923648 0 4
2.8907411 0.55770278 -0.73212886 0 5
3.0180156 0.58225751 -0.73441219 0 6
3.1355264 0.60492849 -0.73202676 0 7
3.2943363 0.63556731 -0.73668993 0 8
3.4560993 0.66677576 -0.73899639 0 9
3.5217021 0.67943233 -0.71864653 0 10
3.5444796 0.68382674 -0.68882215 0 11
3.5452397 0.68397337 -0.65461099 0 12
3.5424652 0.68343812 -0.61988097 0 13
3.5544336 0.68574715 -0.58775026 0 14
3.5469282 0.68429917 -0.55245835 0 15
3.5411165 0.68317789 -0.51765358 0 16
3.5445178 0.68383414 -0.48430815 0 17
3.5365303 0.68229312 -0.44953364 0 18
3.5424099 0.68342745 -0.41661924 0 19
3.5440409 0.68374211 -0.38320526 0 20
3.5331922 0.68164909 -0.34859467 0 21
3.5416977 0.68329006 -0.31597549 0 22
3.5543957 0.68573982 -0.28358406 0 23
3.5386353 0.6826992 -0.24899907 0 24
3.5347247 0.68194479 -0.21547548 0 25
3.5656366 0.68790853 -0.18385758 0 26
3.5645878 0.68770617 -0.15034223 0 27
3.5517082 0.68522137 -0.11648405 0 28
3.5511382 0.68511134 -0.083175451 0 29
3.5379858 0.68257391 -0.04971483 0 30
3.5485926 0.68462026 -0.016620353 0 31
3.5440562 0.68374509 0.016599108 0 32
3.541744 0.68329895 0.049767639 0 33
3.5406408 0.68308616 0.082929589 0 34
3.559026 0.68663317 0.11672404 0 35
3.5469697 0.6843071 0.14959915 0 36
3.5516798 0.68521589 0.18313791 0 37
3.5487418 0.68464905 0.21632995 0 38
3.5590789 0.68664336 0.25043762 0 39
3.5368712 0.68235892 0.28218591 0 40
3.5370412 0.6823917 0.31556004 0 41
3.5405006 0.6830591 0.34931573 0 42
3.5537953 0.685624 0.38426 0 43
3.5388937 0.68274909 0.4162057 0 44
3.5511777 0.68511903 0.45139551 0 45
3.5539973 0.68566298 0.48560342 0 46
3.5419459 0.68333793 0.51777482 0 47
3.5493934 0.68477476 0.55284232 0 48
3.5683281 0.68842775 0.59004784 0 49
3.5506074 0.68500894 0.62130576 0 50
3.5435805 0.6836533 0.65430462 0 51
3.5538836 0.68564099 0.69064975 0 52
3.5577528 0.68638754 0.72600311 0 53
3.5443685 0.68380535 0.75787044 0 54
3.5484474 0.68459225 0.79351503 0 55
3.5392127 0.6828106 0.82627225 0 56
3.5408609 0.6831286 0.86164278 0 57
3.5482616 0.68455642 0.89865696 0 58
3.5473816 0.68438667 0.9338001 0 59
3.5570714 0.68625605 0.97198236 0 60
3.5396347 0.68289202 1.0028501 0 61
3.5447068 0.68387061 1.0401537 0 62
3.5498002 0.68485326 1.0777572 0 63
2.4121208 0.4962016 -0.7341426 0 0
2.4921432 0.51266313 -0.73308527 0 1
2.5823636 0.53122252 -0.7334311 0 2
2.6782935 0.55095643 -0.73364902 0 3
2.79633 0.57523793 -0.7379021 0 4
2.9066877 0.59793985 -0.73797399 0 5
3.0144613 0.62011009 -0.73534715 0 6
3.1478481 0.64754933 -0.73670667 0 7
3.2594669 0.67051065 -0.73068082 0 8
3.4158816 0.70268697 -0.73218912 0 9
3.5566823 0.73165137 -0.72756559 0 10
3.5360584 0.72740877 -0.68887186 0 11
3.5369868 0.72759974 -0.65468967 0 12
3.5409708 0.7284193 -0.62113988 0 13
3.5339096 0.72696674 -0.58579034 0 14
3.5424566 0.72872496 -0.55311579 0 15
3.551511 0.73058754 -0.52044702 0 16
3.5509021 0.73046225 -0.48637098 0 17
3.5492578 0.73012406 -0.45225847 0 18
3.5346901 0.72712731 -0.41673139 0 19
3.5423801 0.72870916 -0.38396552 0 20
3.5503008 0.73033857 -0.35114217 0 21
3.5233369 0.72479182 -0.31510872 0 22
3.5405982 0.72834265 -0.28317639 0 23
3.5449266 0.72923309 -0.25005385 0 24
3.5442767 0.72909939 -0.21658792 0 25
3.5309768 0.72636342 -0.18251713 0 26
3.5455511 0.72936153 -0.14990625 0 27
3.531405 0.72645146 -0.11610235 0 28
3.5411797 0.72846228 -0.083145723 0 29
3.5442026 0.72908413 -0.049924389 0 30
3.5446758 0.72918147 -0.016642746 0 31
3.5433521 0.72890913 0.01663653 0 32
3.5433738 0.72891361 0.049912713 0 33
3.5423822 0.7287097 0.08317396 0 34
3.548203 0.72990704 0.11665462 0 35
3.5389426 0.72800207 0.14962684 0 36
3.5389972 0.72801328 0.18293171 0 37
3.5394807 0.72811276 0.21629483 0 38
3.5500526 0.73028755 0.25041544 0 39
3.5487871 0.7300272 0.28383136 0 40
3.5575049 0.73182052 0.3181645 0 41
3.5416787 0.72856492 0.3502894 0 42
3.5620999 0.73276579 0.386103 0 43
3.5361817 0.7274341 0.41690722 0 44
3.5463874 0.72953355 0.4518927 0 45
3.5407767 0.72837937 0.4849841 0 46
3.5480216 0.72986972 0.51993567 0 47
3.5389564 0.72800493 0.55256927 0 48
3.5600224 0.73233843 0.59011889 0 49
3.5523536 0.73076087 0.62313658 0 50
3.5460207 0.72945809 0.65636182 0 51
3.5342705 0.72704101 0.68852353 0 52
3.5552099 0.73134845 0.72726434 0 53
3.530782 0.72632331 0.75681782 0 54
3.5466261 0.72958267 0.79505384 0 55
3.5500441 0.73028576 0.83083463 0 56
3.5440629 0.7290554 0.86453813 0 57
3.5436289 0.72896612 0.89968586 0 58
3.5461092 0.72947633 0.93575561 0 59
3.5519936 0.73068678 0.97297645 0 60
3.5448036 0.72920775 1.0067788 0 61
3.5386324 0.72793829 1.0409191 0 62
3.538203 0.7278499 1.076872 0 63
2.429008 0.53088665 -0.74121314 0 0
2.4894388 0.54409444 -0.73420233 0 1
2.5835979 0.56467396 -0.7356981 0 2
2.6860092 0.58705705 -0.73768413 0 3
2.7699165 0.60539597 -0.73284107 0 4
2.8989065 0.63358814 -0.73792064 0 5
3.0136032 0.65865636 -0.73705781 0 6
3.1073806 0.67915249 -0.72913522 0 7
3.2619736 0.71294045 -0.73315257 0 8
3.4163811 0.74668795 -0.73420876 0 9
3.5512516 0.77616537 -0.72835195 0 10
3.5482657 0.77551275 -0.69305533 0 11
3.540611 0.77383977 -0.65707213 0 12
3.5261776 0.7706852 -0.6201604 0 13
3.5476975 0.7753886 -0.58961183 0 14
3.5426362 0.77428234 -0.55458844 0 15
3.5425127 0.77425534 -0.52048421 0 16
3.5522852 0.77639133 -0.48783123 0 17
3.5287635 0.77125037 -0.45082137 0 18
3.5387743 0.77343827 -0.41830254 0 19
3.5253847 0.77051187 -0.38312137 0 20
3.5499108 0.77587235 -0.35202056 0 21
3.5353699 0.77269423 -0.31701067 0 22
3.5387647 0.77343625 -0.28376895 0 23
3.5304732 0.77162403 -0.24968474 0 24
3.5398917 0.77368253 -0.21688491 0 25
3.5356872 0.77276361 -0.18323793 0 26
3.5373621 0.77312964 -0.14995062 0 27
3.5407004 0.77385932 -0.11671199 0 28
3.5390744 0.7735039 -0.083313316 0 29
3.5470245 0.77524149 -0.050094631 0 30
3.5489607 0.77566469 -0.016706383 0 31
3.5367932 0.77300537 0.016649107 0 32
3.543046 0.77437192 0.050038442 0 33
3.539166 0.77352393 0.083315469 0 34
3.5464609 0.77511829 0.11690187 0 35
3.5394595 0.77358812 0.15003954 0 36
3.5299246 0.77150416 0.18293929 0 37
3.5546553 0.77690929 0.21778947 0 38
3.5280154 0.77108687 0.24951091 0 39
3.5313125 0.77180749 0.28317136 0 40
3.5475483 0.77535599 0.31810269 0 41
3.5444152 0.7746712 0.35147563 0 42
3.5558295 0.77716595 0.38642997 0 43
3.5514064 0.77619922 0.41979572 0 44
3.546773 0.77518654 0.4531222 0 45
3.5451765 0.77483755 0.48685497 0 46
3.5412829 0.77398664 0.52030355 0 47
3.5481517 0.77548784 0.55545193 0 48
3.5498579 0.77586079 0.58997083 0 49
3.5293417 0.77137673 0.62071687 0 50
3.5577185 0.77757877 0.66024697 0 51
3.531322 0.77180952 0.68974584 0 52
3.5371857 0.77309108 0.72546703 0 53
3.5427051 0.77429748 0.76135677 0 54
3.5397291 0.77364701 0.79558015 0 55
3.5557969 0.7771588 0.8343544 0 56
3.5396576 0.77363133 0.8657186 0 57
3.5379121 0.77324986 0.90058041 0 58
3.5456939 0.77495068 0.93808967 0 59
3.5486112 0.77558827 0.97458869 0 60
3.5327497 0.77212155 1.0059758 0 61
3.5368252 0.77301228 1.0431046 0 62
3.5454564 0.77489883 1.081898 0 63
2.4047551 0.55665189 -0.73584539 0 0
2.4777884 0.57355762 -0.73279101 0 1
2.576088 0.59631193 -0.73559195 0 2
2.6675596 0.61748582 -0.73464692 0 3
2.7712221 0.64148152 -0.73521781 0 4
2.8637371 0.66289687 -0.73098785 0 5
2.9979177 0.69395697 -0.73525298 0 6
3.1314268 0.72486156 -0.73681331 0 7
3.2652218 0.75583243 -0.7359159 0 8
3.4193056 0.79149967 -0.73687315 0 9
3.5440931 0.82038546 -0.72889763 0 10
3.5418813 0.81987345 -0.69372505 0 11
3.539113 0.8192327 -0.6586138 0 12
3.5478406 0.82125294 -0.6256991 0 13
3.5431433 0.82016557 -0.59048635 0 14
3.547786 0.82124025 -0.5569334 0 15
3.5480964 0.82131219 -0.52274895 0 16
3.5495749 0.82165438 -0.48880956 0 17
3.5440109 0.82036644 -0.45402375 0 18
3.5427999 0.82008612 -0.41993865 0 19
3.5534999 0.82256299 -0.38724673 0 20
3.5444126 0.82045943 -0.35244915 0 21
3.5410507 0.81968123 -0.31839976 0 22
3.5503535 0.82183456 -0.285487 0 23
3.5382609 0.81903541 -0.25092882 0 24
3.5458324 0.82078809 -0.2178508 0 25
3.5322168 0.81763631 -0.18356526 0 26
3.5365648 0.8186428 -0.1503322 0 27
3.5384765 0.8190853 -0.11696184 0 28
3.5323248 0.81766129 -0.083384812 0 29
3.5320117 0.81758887 -0.050020806 0 30
3.5438161 0.82032138 -0.016728384 0 31
3.5315156 0.81747401 0.01667032 0 32
3.5361965 0.81855756 0.050080072 0 33
3.5346985 0.81821084 0.083440848 0 34
3.5371556 0.81877959 0.11691818 0 35
3.5441232 0.82039243 0.15065348 0 36
3.5352635 0.81834161 0.18372358 0 37
3.5545738 0.82281154 0.21838787 0 38
3.5359967 0.81851131 0.25076821 0 39
3.5407908 0.81962103 0.28471807 0 40
3.5340669 0.81806463 0.31777179 0 41
3.5362391 0.81856745 0.35163641 0 42
3.5357609 0.81845671 0.3853136 0 43
3.5366404 0.81866032 0.41920856 0 44
3.524755 0.81590909 0.45155689 0 45
3.5373189 0.81881738 0.48712179 0 46
3.5254357 0.81606662 0.51941025 0 47
3.5435863 0.82026815 0.55627412 0 48
3.5365076 0.81862956 0.5893805 0 49
3.5349467 0.81826824 0.62342507 0 50
3.531143 0.81738776 0.6571306 0 51
3.5482225 0.82134134 0.69496703 0 52
3.5367124 0.81867701 0.72737968 0 53
3.5204484 0.8149122 0.75866979 0 54
3.548732 0.82145929 0.79981345 0 55
3.5449295 0.82057905 0.83410901 0 56
3.5272672 0.81649059 0.86507833 0 57
3.5454252 0.82069379 0.90499324 0 58
3.5227823 0.81545246 0.93461019 0 59
3.5455141 0.82071435 0.97643584 0 60
3.5355637 0.81841105 1.0095665 0 61
3.5486546 0.82144129 1.0494932 0 62
3.5409973 0.81966883 1.0835309 0 63
2.4155073 0.5905239 -0.74130148 0 0
2.4827936 0.60697347 -0.7364229 0 1
2.5709524 0.62852579 -0.73627675 0 2
2.6674368 0.65211356 -0.73676574 0 3
2.7725024 0.67779922 -0.73771298 0 4
2.8775814 0.70348805 -0.73667407 0 5
2.9865179 0.73012 -0.73460346 0 6
3.1071041 0.75959992 -0.73323256 0 7
3.2508874 0.79475093 -0.73483223 0 8
3.4014747 0.83156532 -0.73517853 0 9
3.5313756 0.86332238 -0.7284103 0 10
3.5278108 0.8624509 -0.69299388 0 11
3.5330758 0.86373806 -0.65941697 0 12
3.5408962 0.86564994 -0.62630427 0 13
3.5449591 0.86664319 -0.59252018 0 14
3.5274291 0.86235762 -0.55536044 0 15
3.5518477 0.86832726 -0.52483505 0 16
3.5292339 0.86279887 -0.48743257 0 17
3.5331929 0.86376673 -0.45396423 0 18
3.5229025 0.861251 -0.41880381 0 19
3.5281279 0.86252844 -0.38560843 0 20
3.5478854 0.86735862 -0.35382828 0 21
3.5394297 0.86529142 -0.3191866 0 22
3.5268254 0.86221004 -0.28442612 0 23
3.5364466 0.86456209 -0.25153506 0 24
3.5466931 0.8670671 -0.21854222 0 25
3.5431116 0.86619157 -0.18467101 0 26
3.5353453 0.86429286 -0.15072072 0 27
3.5239236 0.86150062 -0.11682213 0 28
3.5336196 0.86387104 -0.083659813 0 29
3.5445576 0.86654502 -0.050345585 0 30
3.5281274 0.86252832 -0.016703131 0 31
3.5179584 0.86004227 0.016654987 0 32
3.558399 0.86992884 0.050542179 0 33
3.5382836 0.86501122 0.08377023 0 34
3.5288832 0.8627131 0.11698654 0 35
3.5394025 0.8652848 0.15089369 0 36
3.5259991 0.86200798 0.18377908 0 37
3.5313675 0.86332047 0.21759787 0 38
3.5353999 0.86430627 0.25146061 0 39
3.5380678 0.86495847 0.2853328 0 40
3.532397 0.86357212 0.31855237 0 41
3.5523789 0.86845714 0.35427642 0 42
3.5355668 0.86434704 0.38642147 0 43
3.529129 0.86277318 0.41954398 0 44
3.5518444 0.86832649 0.4563607 0 45
3.5364163 0.86455476 0.48842457 0 46
3.5316405 0.86338717 0.52184916 0 47
3.5370679 0.86471403 0.55687797 0 48
3.5375566 0.86483347 0.5912829 0 49
3.5378673 0.86490947 0.62576854 0 50
3.5220511 0.8610428 0.6573593 0 51
3.5288932 0.86271554 0.69320649 0 52
3.5215342 0.86091644 0.72638035 0 53
3.5545154 0.86897945 0.76825601 0 54
3.5397696 0.86537451 0.80013126 0 55
3.5303316 0.86306721 0.83310831 0 56
3.5369143 0.86467648 0.86998624 0 57
3.5385904 0.8650862 0.90589541 0 58
3.5349455 0.86419517 0.94058532 0 59
3.5255373 0.86189508 0.97377938 0 60
3.5284019 0.86259544 1.010474 0 61
3.5386891 0.86511034 1.0496126 0 62
3.5239058 0.86149621 1.0814607 0 63
2.385541 0.61437857 -0.73436797 0 0
2.4727786 0.63684601 -0.73571944 0 1
2.5416203 0.65457571 -0.73012644 0 2
2.6448805 0.68116963 -0.73279363 0 3
2.7431858 0.70648742 -0.7321685 0 4
2.871793 0.73960924 -0.73746473 0 5
2.9859879 0.76901931 -0.73674339 0 6
3.0972934 0.79768521 -0.73317671 0 7
3.2427614 0.83514941 -0.73526108 0 8
3.3858473 0.87200016 -0.73406291 0 9
3.5479994 0.91376126 -0.73410141 0 10
3.5334039 0.91000229 -0.69623804 0 11
3.5370119 0.91093147 -0.66219211 0 12
3.5311892 0.90943193 -0.62651795 0 13
3.5434148 0.91258055 -0.59409279 0 14
3.532748 0.90983337 -0.55791706 0 15
3.5253198 0.9079203 -0.52252537 0 16
3.5260553 0.90810966 -0.48849887 0 17
