# .PCD v0.7 - Point Cloud Data file format
VERSION 0.7
FIELDS x y z intensity ring
SIZE 4 4 4 4 2
TYPE F F F F U
COUNT 1 1 1 1 1
WIDTH 1334
HEIGHT 1
VIEWPOINT 0 0 0 1 0 0 0
POINTS 1334
DATA ascii
-5.6819854 -6.1363463 0.65515238 0 40
-5.6746898 -6.1284676 0.73166144 0 41
-5.6829267 -6.137363 0.8103109 0 42
-5.6826959 -6.1371136 0.88800073 0 43
-5.6767325 -6.1306739 0.96486181 0 44
-5.6708503 -6.124321 1.0417396 0 45
-5.6746526 -6.1284275 1.1205469 0 46
-5.6715531 -6.1250801 1.1981941 0 47
-5.676259 -6.1301622 1.2777195 0 48
-5.6748571 -6.1286483 1.3561369 0 49
-5.670094 -6.1235042 1.433901 0 50
-5.6756787 -6.1295357 1.5145432 0 51
-5.6828928 -6.1373267 1.596064 0 52
-5.6715064 -6.1250296 1.6725816 0 53
-5.6714544 -6.1249733 1.7525754 0 54
0 0 0 0 55
0 0 0 0 56
0 0 0 0 57
0 0 0 0 58
0 0 0 0 59
0 0 0 0 60
0 0 0 0 61
0 0 0 0 62
0 0 0 0 63
-1.6524917 -1.8292453 -0.7348882 0 0
-1.7149098 -1.8983396 -0.73709488 0 1
-1.7633928 -1.9520085 -0.73179865 0 2
-1.8424227 -2.0394917 -0.73742872 0 3
-1.9137864 -2.1184886 -0.7379117 0 4
-1.9916775 -2.204711 -0.73886019 0 5
-2.0692008 -2.2905264 -0.73754066 0 6
-2.148385 -2.3781805 -0.73467213 0 7
-2.2373102 -2.4766171 -0.73283792 0 8
-2.3441448 -2.5948789 -0.73418498 0 9
-2.4631689 -2.7266338 -0.73624408 0 10
-2.5931745 -2.8705451 -0.73816139 0 11
-2.7060297 -2.9954717 -0.73187208 0 12
-2.8539019 -3.1591604 -0.73148715 0 13
-3.0412018 -3.3664947 -0.73660159 0 14
-3.2373087 -3.5835774 -0.73857778 0 15
-3.4182377 -3.7838588 -0.73192441 0 16
-3.6770873 -4.0703955 -0.73592496 0 17
-3.9591985 -4.3826814 -0.73715198 0 18
-4.2536387 -4.7086158 -0.73276728 0 19
-4.6581573 -5.1564021 -0.7377544 0 20
-5.0498123 -5.5899496 -0.72978288 0 21
-5.5338821 -6.1257968 -0.7231639 0 22
-5.5369387 -6.12918 -0.64706922 0 23
-5.5314651 -6.1231208 -0.57012105 0 24
-5.527925 -6.1192026 -0.49359342 0 25
-5.5308151 -6.1224017 -0.41773275 0 26
-5.5373945 -6.1296844 -0.34209135 0 27
-5.5266194 -6.1177573 -0.26549336 0 28
-5.5244331 -6.1153369 -0.18953101 0 29
-5.5269794 -6.1181555 -0.11375818 0 30
-5.5365009 -6.128695 -0.037982576 0 31
-5.5291271 -6.120533 0.037931994 0 32
-5.5337658 -6.1256676 0.11389787 0 33
-5.5263147 -6.1174197 0.18959557 0 34
-5.5265369 -6.1176653 0.2654894 0 35
-5.5259118 -6.1169734 0.34138194 0 36
-5.5314608 -6.123116 0.4177815 0 37
-5.5304365 -6.1219821 0.49381766 0 38
-5.5284157 -6.1197453 0.56980675 0 39
-5.5287423 -6.1201067 0.64611131 0 40
-5.5341372 -6.1260791 0.72319728 0 41
-5.5335727 -6.1254539 0.79969442 0 42
-5.5316586 -6.1233349 0.87609875 0 43
-5.5288744 -6.1202531 0.95244998 0 44
-5.525331 -6.1163311 1.0287459 0 45
-5.5328026 -6.1246014 1.1073241 0 46
-5.5239925 -6.1148491 1.1828157 0 47
-5.5293612 -6.1207919 1.2614994 0 48
-5.5295978 -6.1210537 1.3393095 0 49
-5.5323458 -6.1240959 1.4180025 0 50
-5.5307412 -6.1223192 1.4958428 0 51
-5.5322514 -6.123991 1.5747858 0 52
-5.5429668 -6.1358528 1.6567994 0 53
-5.5314751 -6.1231318 1.7324551 0 54
0 0 0 0 55
0 0 0 0 56
0 0 0 0 57
0 0 0 0 58
0 0 0 0 59
0 0 0 0 60
0 0 0 0 61
0 0 0 0 62
0 0 0 0 63
-1.624056 -1.8428222 -0.73226434 0 0
-1.6911827 -1.9189912 -0.73698324 0 1
-1.7503322 -1.9861082 -0.73645794 0 2
-1.8170612 -2.0618258 -0.7373696 0 3
-1.8745766 -2.1270888 -0.73282295 0 4
-1.9652647 -2.2299929 -0.73917836 0 5
-2.0272439 -2.3003209 -0.73261237 0 6
-2.1215494 -2.4073298 -0.73556238 0 7
-2.2192471 -2.5181878 -0.73700821 0 8
-2.3069365 -2.6176891 -0.73255736 0 9
-2.4276431 -2.7546551 -0.73569435 0 10
-2.549011 -2.8923719 -0.73565847 0 11
-2.6933732 -3.0561802 -0.73855716 0 12
-2.8214703 -3.2015326 -0.73320949 0 13
-2.9894433 -3.3921323 -0.73411256 0 14
-3.1805389 -3.608969 -0.73569489 0 15
-3.3665295 -3.8200133 -0.73085517 0 16
-3.6113946 -4.0978627 -0.73280674 0 17
-3.9035797 -4.4294057 -0.73688161 0 18
-4.1838121 -4.7473869 -0.73073947 0 19
-4.5771627 -5.1937232 -0.73498589 0 20
-5.052918 -5.7335639 -0.74036449 0 21
-5.3922391 -6.1185932 -0.714432 0 22
-5.3913579 -6.1175933 -0.63879883 0 23
-5.3940735 -6.1206746 -0.56367487 0 24
-5.394774 -6.1214695 -0.48838848 0 25
-5.39574 -6.1225657 -0.41318575 0 26
-5.404079 -6.1320276 -0.33848795 0 27
-5.3917646 -6.1180549 -0.26260921 0 28
-5.3917403 -6.1180272 -0.18754542 0 29
-5.38555 -6.1110029 -0.11238538 0 30
-5.3958068 -6.1226416 -0.037531022 0 31
-5.3923464 -6.1187148 0.037506953 0 32
-5.3878317 -6.1135921 0.11243299 0 33
-5.4040303 -6.1319723 0.1879729 0 34
-5.4009495 -6.1284766 0.26305658 0 35
-5.3990521 -6.1263237 0.33817309 0 36
-5.38731 -6.1130004 0.4125402 0 37
-5.3965764 -6.1235147 0.48855162 0 38
-5.3952188 -6.121974 0.56379455 0 39
-5.3937917 -6.1203551 0.6390872 0 40
-5.392169 -6.1185136 0.7144227 0 41
-5.4049616 -6.1330295 0.79194671 0 42
-5.3946552 -6.1213346 0.86625612 0 43
-5.3909826 -6.1171675 0.94158238 0 44
-5.3982682 -6.1254344 1.0190351 0 45
-5.3829713 -6.1080766 1.0922865 0 46
-5.4011512 -6.1287055 1.1725605 0 47
-5.4015141 -6.1291175 1.2494318 0 48
-5.3965745 -6.1235123 1.3252276 0 49
-5.3949294 -6.1216459 1.4019688 0 50
-5.384625 -6.1099534 1.4765326 0 51
-5.39011 -6.1161771 1.5556151 0 52
-5.3897538 -6.1157732 1.6333585 0 53
-5.3871846 -6.1128578 1.7106763 0 54
0 0 0 0 55
0 0 0 0 56
0 0 0 0 57
0 0 0 0 58
0 0 0 0 59
0 0 0 0 60
0 0 0 0 61
0 0 0 0 62
0 0 0 0 63
-1.6066635 -1.8689198 -0.73472863 0 0
-1.6616912 -1.9329298 -0.73443359 0 1
-1.7327917 -2.015636 -0.73945022 0 2
-1.7912605 -2.0836487 -0.73724115 0 3
-1.8445212 -2.1456032 -0.73133212 0 4
-1.9206123 -2.2341146 -0.73266095 0 5
-1.9907146 -2.3156598 -0.72964633 0 6
-2.0873926 -2.4281187 -0.73401624 0 7
-2.1840651 -2.540571 -0.73564345 0 8
-2.2938709 -2.6683006 -0.73877144 0 9
-2.3879015 -2.7776799 -0.73394608 0 10
-2.5048788 -2.9137511 -0.73320663 0 11
-2.6467118 -3.0787358 -0.73608738 0 12
-2.7908268 -3.2463746 -0.73556423 0 13
-2.9438157 -3.4243362 -0.73319262 0 14
-3.1228511 -3.6325955 -0.73262793 0 15
-3.3526533 -3.8999083 -0.73819768 0 16
-3.5572546 -4.1379066 -0.73209023 0 17
-3.8447185 -4.4722934 -0.73609585 0 18
-4.1793442 -4.8615408 -0.74034423 0 19
-4.4970179 -5.2310681 -0.73238999 0 20
-4.9656377 -5.7761812 -0.73792726 0 21
-5.2488823 -6.10566 -0.70533228 0 22
-5.2549758 -6.1127481 -0.63149774 0 23
-5.2494869 -6.1063633 -0.5563702 0 24
-5.2606106 -6.1193027 -0.48301816 0 25
-5.2451029 -6.1012635 -0.40736479 0 26
-5.2465005 -6.1028891 -0.33329317 0 27
-5.255394 -6.1132345 -0.25960883 0 28
-5.24863 -6.1053662 -0.18516487 0 29
-5.2587118 -6.117094 -0.11129978 0 30
-5.2472482 -6.1037588 -0.037016962 0 31
-5.2479672 -6.1045952 0.037022032 0 32
-5.2431226 -6.0989599 0.11096983 0 33
-5.2551775 -6.1129823 0.18539585 0 34
-5.2562561 -6.1142373 0.25965142 0 35
-5.2494254 -6.1062918 0.33347899 0 36
-5.2452755 -6.1014638 0.40737814 0 37
-5.2531796 -6.1106586 0.48233584 0 38
-5.2479181 -6.1045384 0.5562039 0 39
-5.251266 -6.1084323 0.6310519 0 40
-5.2515044 -6.1087098 0.7056846 0 41
-5.2488489 -6.1056209 0.78001434 0 42
-5.2551732 -6.1129775 0.85586411 0 43
-5.2421708 -6.0978522 0.92861712 0 44
-5.2421441 -6.0978217 1.003642 0 45
-5.2577424 -6.1159658 1.082054 0 46
-5.2596726 -6.1182113 1.1580912 0 47
-5.2466598 -6.1030741 1.2308782 0 48
-5.2527738 -6.1101861 1.3082663 0 49
-5.2557716 -6.1136732 1.3852375 0 50
-5.2576933 -6.1159091 1.4622377 0 51
-5.2562566 -6.1142378 1.5385664 0 52
-5.254632 -6.1123481 1.6150651 0 53
-5.2489266 -6.1057115 1.6904862 0 54
0 0 0 0 55
0 0 0 0 56
0 0 0 0 57
0 0 0 0 58
0 0 0 0 59
0 0 0 0 60
0 0 0 0 61
0 0 0 0 62
0 0 0 0 63
-1.5837491 -1.8887557 -0.73481512 0 0
-1.6337112 -1.9483398 -0.73260039 0 1
-1.6987622 -2.0259187 -0.73550373 0 2
-1.7658316 -2.1059048 -0.73737735 0 3
-1.8311248 -2.1837723 -0.73661172 0 4
-1.8928053 -2.2573316 -0.73258662 0 5
-1.9878227 -2.3706479 -0.7392149 0 6
-2.0413015 -2.4344261 -0.72827995 0 7
-2.1478841 -2.5615349 -0.73401058 0 8
-2.2508278 -2.684304 -0.73548377 0 9
-2.3548992 -2.8084178 -0.73436117 0 10
-2.4662287 -2.9411879 -0.73242426 0 11
-2.5896938 -3.0884304 -0.73073649 0 12
-2.7524571 -3.2825396 -0.73603415 0 13
-2.9207377 -3.4832287 -0.73805666 0 14
-3.0888948 -3.6837702 -0.73523295 0 15
-3.2960236 -3.9307892 -0.73631567 0 16
-3.5059583 -4.1811543 -0.732059 0 17
-3.7829783 -4.5115242 -0.73484099 0 18
-4.1074433 -4.8984766 -0.7382217 0 19
-4.4392715 -5.2942095 -0.73353213 0 20
-4.8834219 -5.8238969 -0.736296 0 21
-5.1247835 -6.1117411 -0.69870222 0 22
-5.1179695 -6.1036153 -0.62400556 0 23
-5.1235609 -6.1102834 -0.5509454 0 24
-5.1164365 -6.1017866 -0.47663349 0 25
-5.1142769 -6.0992112 -0.40299845 0 26
-5.1159763 -6.1012378 -0.32974246 0 27
-5.1178493 -6.1034713 -0.25650233 0 28
-5.1169839 -6.1024394 -0.18315399 0 29
-5.1173906 -6.1029243 -0.10988872 0 30
-5.1200395 -6.1060834 -0.036646467 0 31
-5.1324711 -6.1209092 0.036735449 0 32
-5.1104174 -6.0946083 0.10973898 0 33
-5.1216564 -6.1080117 0.18332124 0 34
-5.1204829 -6.1066122 0.25663435 0 35
-5.1139765 -6.0988531 0.3296136 0 36
-5.1175365 -6.1030989 0.40325531 0 37
-5.1176987 -6.1032915 0.47675106 0 38
-5.1227484 -6.109314 0.55085802 0 39
-5.1273174 -6.1147633 0.62514532 0 40
-5.1155281 -6.1007032 0.69744033 0 41
-5.1138935 -6.0987535 0.77104521 0 42
-5.1205955 -6.1067462 0.84611207 0 43
-5.1299462 -6.117898 0.92199379 0 44
-5.1204133 -6.1065292 0.99463683 0 45
-5.1109991 -6.0953016 1.0671983 0 46
-5.1173797 -6.1029115 1.1431978 0 47
-5.1128421 -6.0974998 1.2169821 0 48
-5.117538 -6.1031003 1.2931778 0 49
-5.1185184 -6.1042695 1.3687422 0 50
-5.121304 -6.1075916 1.4450835 0 51
-5.113049 -6.0977468 1.5184809 0 52
-5.1275711 -6.1150656 1.5990022 0 53
-5.1183486 -6.1040668 1.6724789 0 54
-5.1205974 -6.1067486 1.7498955 0 55
0 0 0 0 56
0 0 0 0 57
0 0 0 0 58
0 0 0 0 59
0 0 0 0 60
0 0 0 0 61
0 0 0 0 62
0 0 0 0 63
-1.5574236 -1.904439 -0.73341066 0 0
-1.6124138 -1.9716817 -0.73386657 0 1
-1.6646787 -2.0355921 -0.73152888 0 2
-1.7351655 -2.1217842 -0.73541105 0 3
-1.7904998 -2.1894479 -0.73104435 0 4
-1.8715007 -2.288497 -0.73517674 0 5
-1.9486842 -2.3828778 -0.73550105 0 6
-2.0357497 -2.4893429 -0.73716438 0 7
-2.1106126 -2.5808864 -0.73206353 0 8
-2.2051926 -2.6965399 -0.73135138 0 9
-2.3194699 -2.8362799 -0.7341333 0 10
-2.4475591 -2.992909 -0.73775351 0 11
-2.5586097 -3.1287031 -0.73276579 0 12
-2.7009223 -3.3027251 -0.73305786 0 13
-2.8694108 -3.508755 -0.7359336 0 14
-3.0325217 -3.7082093 -0.73261285 0 15
-3.2402027 -3.9621642 -0.73467392 0 16
-3.4820042 -4.2578425 -0.73793375 0 17
-3.7132518 -4.5406156 -0.73208696 0 18
-4.0428052 -4.9435978 -0.73747408 0 19
-4.3428197 -5.3104591 -0.7283296 0 20
-4.8011646 -5.8709297 -0.73472279 0 21
-4.9731169 -6.0811954 -0.68816721 0 22
-4.9793353 -6.0888 -0.61618465 0 23
-4.9845176 -6.0951366 -0.54401201 0 24
-4.9745245 -6.0829167 -0.4703458 0 25
-4.9881039 -6.0995221 -0.39893612 0 26
-4.9770141 -6.0859613 -0.32558468 0 27
-4.9930511 -6.1055717 -0.25399116 0 28
-4.9992685 -6.1131744 -0.18161742 0 29
-4.9834676 -6.093853 -0.10861379 0 30
-4.981802 -6.0918159 -0.036190454 0 31
-4.986125 -6.0971022 0.036221858 0 32
-4.9880581 -6.0994658 0.10871384 0 33
-4.9917879 -6.1040268 0.18134566 0 34
-4.9830041 -6.093286 0.25348011 0 35
-4.9772305 -6.0862255 0.32559884 0 36
-4.9778543 -6.0869889 0.39811638 0 37
-4.9876642 -6.0989847 0.47158819 0 38
-4.9910541 -6.1031299 0.54472548 0 39
-4.9700489 -6.0774441 0.61503547 0 40
-4.976048 -6.0847797 0.68857282 0 41
-4.9857473 -6.0966406 0.76296949 0 42
-4.9817777 -6.0917859 0.83548856 0 43
-4.9854555 -6.0962834 0.90942895 0 44
-4.9821572 -6.0922503 0.98225826 0 45
-4.9784002 -6.087656 1.0550617 0 46
-4.98278 -6.0930119 1.1297808 0 47
-4.9813089 -6.0912132 1.2034113 0 48
-4.9778996 -6.0870442 1.2767093 0 49
-4.9745417 -6.0829377 1.3501413 0 50
-4.9807811 -6.0905676 1.4264567 0 51
-4.9797859 -6.0893507 1.5010278 0 52
-4.9820499 -6.0921192 1.5768639 0 53
-4.9770756 -6.0860362 1.6506453 0 54
-4.9749503 -6.0834374 1.7255557 0 55
0 0 0 0 56
0 0 0 0 57
0 0 0 0 58
0 0 0 0 59
0 0 0 0 60
0 0 0 0 61
0 0 0 0 62
0 0 0 0 63
-1.5406559 -1.9319288 -0.73664576 0 0
-1.5973697 -2.003046 -0.73817384 0 1
-1.6504776 -2.0696416 -0.7364161 0 2
-1.7119008 -2.1466641 -0.73668265 0 3
-1.7726916 -2.2228935 -0.73487794 0 4
-1.8525465 -2.3230288 -0.73889625 0 5
-1.9159737 -2.4025643 -0.73425001 0 6
-1.9989187 -2.5065744 -0.73493284 0 7
-2.0885413 -2.618958 -0.73552239 0 8
-2.1710055 -2.7223654 -0.73106009 0 9
-2.2771978 -2.8555269 -0.73181194 0 10
-2.3985448 -3.0076916 -0.73407173 0 11
-2.5360661 -3.1801386 -0.73745286 0 12
-2.6613214 -3.3372045 -0.73339182 0 13
-2.8234088 -3.5404563 -0.73524529 0 14
-3.0076869 -3.7715347 -0.7377612 0 15
-3.1829662 -3.991329 -0.73276901 0 16
-3.4188132 -4.2870731 -0.73565817 0 17
-3.6521935 -4.5797238 -0.73109645 0 18
-3.9716671 -4.9803324 -0.73561299 0 19
-4.3448186 -5.4482512 -0.73984444 0 20
-4.7147846 -5.9121761 -0.73257381 0 21
-4.8522606 -6.0845661 -0.68174511 0 22
-4.8537831 -6.0864754 -0.60986328 0 23
-4.846457 -6.0772886 -0.53705949 0 24
-4.8541045 -6.0868783 -0.4660016 0 25
-4.8547993 -6.0877495 -0.39423189 0 26
-4.8636346 -6.0988283 -0.32304916 0 27
-4.8544455 -6.0873055 -0.25072914 0 28
-4.8518286 -6.0840244 -0.17896542 0 29
-4.8450809 -6.075563 -0.10721781 0 30
-4.8704515 -6.1073766 -0.03592439 0 31
-4.8438344 -6.0739994 0.03572806 0 32
-4.8551564 -6.0881968 0.10744077 0 33
-4.85674 -6.0901828 0.17914657 0 34
-4.8581309 -6.0919275 0.25091952 0 35
-4.8652787 -6.1008902 0.32315835 0 36
-4.8526616 -6.0850692 0.39405832 0 37
-4.8527484 -6.0851779 0.46587145 0 38
-4.8632212 -6.09831 0.53891712 0 39
-4.8579903 -6.0917506 0.61039186 0 40
-4.8600245 -6.0943017 0.682836 0 41
-4.8500285 -6.0817671 0.75358772 0 42
-4.8592362 -6.0933132 0.82744056 0 43
-4.8547831 -6.087729 0.89917946 0 44
-4.8617477 -6.0964627 0.97322512 0 45
-4.8545895 -6.0874863 1.0446076 0 46
-4.8587093 -6.0926523 1.1185515 0 47
-4.8491921 -6.0807185 1.1894675 0 48
-4.8607526 -6.0952144 1.2657909 0 49
-4.8487611 -6.0801778 1.336194 0 50
-4.8585596 -6.0924649 1.412802 0 51
-4.8545213 -6.0874009 1.4857205 0 52
-4.8538942 -6.0866146 1.5598724 0 53
-4.864326 -6.0996952 1.6380033 0 54
-4.8632994 -6.0984082 1.7127099 0 55
0 0 0 0 56
0 0 0 0 57
0 0 0 0 58
0 0 0 0 59
0 0 0 0 60
0 0 0 0 61
0 0 0 0 62
0 0 0 0 63
-1.5066686 -1.9377151 -0.73173249 0 0
-1.5613071 -2.0079851 -0.73286349 0 1
-1.6149642 -2.0769932 -0.73191065 0 2
-1.6837633 -2.1654751 -0.73597729 0 3
-1.7437478 -2.2426207 -0.73425555 0 4
-1.81126 -2.3294477 -0.73379827 0 5
-1.877876 -2.415122 -0.73097557 0 6
-1.963569 -2.5253313 -0.73329759 0 7
-2.0492489 -2.6355236 -0.73304242 0 8
-2.1495564 -2.764528 -0.73522878 0 9
-2.231586 -2.8700259 -0.72844023 0 10
-2.3635569 -3.0397527 -0.73474783 0 11
-2.4980512 -3.2127244 -0.73783046 0 12
-2.6137085 -3.3614705 -0.7316063 0 13
-2.77894 -3.5739737 -0.73505396 0 14
-2.9535601 -3.7985513 -0.73588604 0 15
-3.1352143 -4.0321755 -0.73313481 0 16
-3.3567712 -4.3171177 -0.73367536 0 17
-3.6415644 -4.6833882 -0.74044091 0 18
-3.9041328 -5.0210752 -0.73448455 0 19
-4.2694826 -5.4909492 -0.73845762 0 20
-4.6383405 -5.9653344 -0.73203808 0 21
-4.7258892 -6.07793 -0.67443949 0 22
-4.7209244 -6.0715451 -0.60250503 0 23
-4.7352061 -6.0899129 -0.5329892 0 24
-4.7308202 -6.0842719 -0.46131364 0 25
-4.730535 -6.0839052 -0.39018652 0 26
-4.734314 -6.0887651 -0.31940836 0 27
-4.7324424 -6.0863581 -0.24827446 0 28
-4.7239127 -6.075388 -0.17698932 0 29
-4.7273388 -6.0797944 -0.10625862 0 30
-4.7254472 -6.0773616 -0.035403371 0 31
-4.7257161 -6.0777073 0.035405386 0 32
-4.7231388 -6.0743928 0.10616422 0 33
-4.7308893 -6.0843611 0.17725071 0 34
-4.7319417 -6.0857143 0.24824822 0 35
-4.7220149 -6.0729475 0.3185786 0 36
-4.7311606 -6.0847096 0.39023811 0 37
-4.7342076 -6.0886283 0.46164393 0 38
-4.7210197 -6.0716677 0.5313924 0 39
-4.7256365 -6.0776048 0.60310638 0 40
-4.7205801 -6.0711021 0.6736818 0 41
-4.7250295 -6.0768242 0.74571961 0 42
-4.7273226 -6.0797739 0.8176465 0 43
-4.7267423 -6.0790277 0.88924211 0 44
-4.7280269 -6.0806794 0.96135181 0 45
-4.7324438 -6.0863605 1.0343504 0 46
-4.7350144 -6.0896664 1.1072302 0 47
-4.7309361 -6.0844207 1.1787231 0 48
-4.7248664 -6.0766149 1.2497685 0 49
-4.7216272 -6.0724492 1.3216364 0 50
-4.7254663 -6.0773859 1.3957253 0 51
-4.7248182 -6.0765524 1.4687819 0 52
-4.7227702 -6.0739193 1.5416192 0 53
-4.7317748 -6.0854998 1.6184442 0 54
-4.7249761 -6.076756 1.690184 0 55
0 0 0 0 56
0 0 0 0 57
0 0 0 0 58
0 0 0 0 59
0 0 0 0 60
0 0 0 0 61
0 0 0 0 62
0 0 0 0 63
-1.4843063 -1.9581742 -0.73251069 0 0
-1.5360696 -2.026463 -0.73265833 0 1
-1.5887359 -2.095943 -0.73164886 0 2
-1.6553062 -2.1837661 -0.73522043 0 3
-1.7212809 -2.2708035 -0.73649728 0 4
-1.7901305 -2.3616333 -0.73694724 0 5
-1.8560449 -2.448591 -0.7341423 0 6
-1.9374545 -2.5559907 -0.73522687 0 7
-2.0230489 -2.6689112 -0.73535413 0 8
-2.1157799 -2.7912469 -0.73535997 0 9
-2.217869 -2.9259281 -0.73565125 0 10
-2.3240125 -3.0659583 -0.73411906 0 11
-2.4470232 -3.2282403 -0.73442787 0 12
-2.5970733 -3.4261942 -0.7386868 0 13
-2.7166948 -3.5840051 -0.73019141 0 14
-2.9070845 -3.8351772 -0.73600066 0 15
-3.0763063 -4.0584235 -0.73097414 0 16
-3.3094137 -4.3659506 -0.73500293 0 17
-3.5786951 -4.7212009 -0.73940593 0 18
-3.8429005 -5.0697546 -0.73463744 0 19
-4.1895657 -5.5270929 -0.73633444 0 20
-4.5604734 -6.0164137 -0.73136944 0 21
-4.6141849 -6.0872731 -0.66912967 0 22
-4.6029139 -6.0724034 -0.59692848 0 23
-4.6000695 -6.0686512 -0.52613807 0 24
-4.5988016 -6.066978 -0.45568037 0 25
-4.6077127 -6.0787344 -0.38619193 0 26
-4.6017852 -6.0709147 -0.3154797 0 27
-4.6105361 -6.082459 -0.24578421 0 28
-4.5975375 -6.0653105 -0.17503555 0 29
-4.6089735 -6.0803976 -0.10527069 0 30
-4.5993781 -6.067739 -0.035015199 0 31
-4.606451 -6.0770698 0.035069048 0 32
-4.6090913 -6.0805531 0.10527338 0 33
-4.6044574 -6.0744395 0.175299 0 34
-4.6044588 -6.0744419 0.24546024 0 35
-4.6067157 -6.0774188 0.31581768 0 36
-4.6053333 -6.0755954 0.38599253 0 37
-4.6150408 -6.0884023 0.45728949 0 38
-4.6065378 -6.0771842 0.52687788 0 39
-4.610054 -6.0818233 0.59785444 0 40
-4.6081567 -6.07932 0.66825545 0 41
-4.6130619 -6.0857916 0.73980314 0 42
-4.5999417 -6.0684824 0.80845982 0 43
-4.6040807 -6.0739427 0.88015026 0 44
-4.5977163 -6.0655465 0.9499492 0 45
-4.601697 -6.0707979 1.0220121 0 46
-4.6051803 -6.0753937 1.0942563 0 47
-4.6059575 -6.0764189 1.1661125 0 48
-4.6056352 -6.075994 1.2378995 0 49
-4.6093888 -6.0809455 1.3110505 0 50
-4.6020923 -6.0713196 1.3812312 0 51
-4.6042585 -6.0741773 1.4544129 0 52
-4.6104727 -6.0823755 1.5292609 0 53
-4.606832 -6.0775723 1.6011494 0 54
-4.6086125 -6.0799217 1.6751758 0 55
-4.6051321 -6.0753303 1.7475595 0 56
0 0 0 0 57
0 0 0 0 58
0 0 0 0 59
0 0 0 0 60
0 0 0 0 61
0 0 0 0 62
0 0 0 0 63
-1.4644194 -1.9820994 -0.73466897 0 0
-1.5206783 -2.0582461 -0.73733312 0 1
-1.558785 -2.1098237 -0.72974813 0 2
-1.6259042 -2.20067 -0.7341249 0 3
-1.6891818 -2.2863164 -0.73473644 0 4
-1.7644575 -2.3882024 -0.7384119 0 5
-1.830991 -2.478256 -0.73623049 0 6
-1.9048032 -2.578161 -0.73481125 0 7
-1.9816104 -2.6821201 -0.73222446 0 8
-2.0772693 -2.8115952 -0.73393589 0 9
-2.177798 -2.9476609 -0.73432696 0 10
-2.2738993 -3.0777347 -0.73018861 0 11
-2.4095767 -3.2613747 -0.73516977 0 12
-2.5491548 -3.4502943 -0.73706889 0 13
-2.6806355 -3.6282544 -0.73243552 0 14
-2.8553042 -3.8646693 -0.73486698 0 15
-3.0508842 -4.1293879 -0.73694307 0 16
-3.2522225 -4.4019003 -0.73426712 0 17
-3.5109503 -4.75209 -0.7374264 0 18
-3.7724683 -5.1060557 -0.73312038 0 19
-4.1251435 -5.5834031 -0.73702288 0 20
-4.4712105 -6.0518069 -0.72893327 0 21
-4.4817243 -6.0660377 -0.66068769 0 22
-4.4785047 -6.0616798 -0.59041619 0 23
-4.4827781 -6.0674634 -0.52121675 0 24
-4.4788518 -6.0621495 -0.45114705 0 25
-4.4740257 -6.0556173 -0.3811993 0 26
-4.4817829 -6.0661168 -0.31234291 0 27
-4.4844513 -6.0697284 -0.24302316 0 28
-4.4862208 -6.0721235 -0.17362708 0 29
-4.4849401 -6.0703897 -0.10413475 0 30
-4.477942 -6.0609183 -0.03465547 0 31
-4.4764581 -6.0589099 0.034643985 0 32
-4.4766626 -6.0591865 0.10394256 0 33
-4.4771738 -6.0598783 0.17327693 0 34
-4.4795723 -6.0631247 0.24275874 0 35
-4.4809256 -6.0649562 0.31228316 0 36
-4.4808226 -6.064817 0.38177842 0 37
-4.4715538 -6.0522718 0.45041195 0 38
-4.4751911 -6.0571947 0.5203346 0 39
-4.4748411 -6.0567207 0.58993322 0 40
-4.4855828 -6.07126 0.66125649 0 41
-4.4775805 -6.0604291 0.72997183 0 42
-4.4718161 -6.0526266 0.79896152 0 43
-4.474772 -6.0566278 0.8696022 0 44
-4.4759569 -6.0582314 0.94011271 0 45
-4.4796991 -6.0632963 1.0113994 0 46
-4.4732614 -6.0545826 1.0805192 0 47
-4.4856472 -6.0713472 1.1544669 0 48
-4.4895916 -6.0766859 1.2267003 0 49
-4.4815149 -6.0657539 1.2957964 0 50
-4.4706664 -6.0510707 1.364015 0 51
-4.4803696 -6.0642037 1.4387246 0 52
-4.4787641 -6.0620308 1.5101848 0 53
-4.4820976 -6.0665431 1.5836041 0 54
-4.4856648 -6.0713711 1.6574972 0 55
-4.4769392 -6.0595608 1.7270578 0 56
0 0 0 0 57
0 0 0 0 58
0 0 0 0 59
0 0 0 0 60
0 0 0 0 61
0 0 0 0 62
0 0 0 0 63
-1.444209 -2.0058877 -0.73684818 0 0
-1.487517 -2.0660391 -0.73351681 0 1
-1.5456672 -2.1468048 -0.73590964 0 2
-1.6031783 -2.2266831 -0.73617077 0 3
-1.6541126 -2.2974267 -0.73171508 0 4
-1.7290261 -2.4014754 -0.73588645 0 5
-1.7966652 -2.4954205 -0.73471087 0 6
-1.8730855 -2.601562 -0.73486078 0 7
-1.9649203 -2.7291131 -0.73840165 0 8
-2.0402229 -2.8337023 -0.7331025 0 9
-2.151917 -2.9888361 -0.73793679 0 10
-2.2636647 -3.1440446 -0.73926085 0 11
-2.3620498 -3.2806935 -0.7329219 0 12
-2.4975026 -3.4688261 -0.73441172 0 13
-2.6523607 -3.6839116 -0.7370314 0 14
-2.8041418 -3.8947229 -0.73396963 0 15
-3.0026903 -4.1704907 -0.73763335 0 16
-3.1856344 -4.4245849 -0.73146158 0 17
-3.4430406 -4.7821012 -0.73545808 0 18
-3.7048843 -5.1457806 -0.73222762 0 19
-4.0440063 -5.6167927 -0.73481077 0 20
-4.3640361 -6.0612884 -0.72355705 0 21
-4.3637094 -6.0608344 -0.65422732 0 22
-4.3655577 -6.0634012 -0.58531106 0 23
-4.3579159 -6.0527878 -0.51531374 0 24
-4.3619533 -6.0583949 -0.44684222 0 25
-4.3670764 -6.0655107 -0.37841308 0 26
-4.3636909 -6.0608087 -0.30928338 0 27
-4.3614464 -6.0576911 -0.24037574 0 28
-4.3671589 -6.0656257 -0.17189275 0 29
-4.3613558 -6.0575657 -0.10298699 0 30
-4.3561087 -6.0502772 -0.034285758 0 31
-4.3681612 -6.067018 0.034380622 0 32
-4.3713765 -6.0714836 0.10322361 0 33
-4.3587589 -6.0539589 0.17156214 0 34
-4.3696918 -6.0691433 0.24083017 0 35
-4.3747416 -6.0761571 0.31006664 0 36
-4.3615918 -6.0578928 0.37793782 0 37
-4.3596501 -6.0551963 0.44660628 0 38
-4.3559246 -6.0500216 0.51507831 0 39
-4.3642478 -6.0615821 0.5851354 0 40
-4.3546128 -6.0482001 0.6528635 0 41
-4.3654308 -6.0632248 0.72378826 0 42
-4.3614149 -6.0576472 0.79248506 0 43
-4.3562646 -6.0504937 0.86096537 0 44
-4.3687367 -6.0678167 0.93319333 0 45
-4.3624344 -6.0590634 1.0016696 0 46
-4.3631105 -6.0600023 1.0718306 0 47
-4.3619981 -6.0584574 1.1417304 0 48
-4.3601961 -6.0559549 1.2116004 0 49
-4.369442 -6.0687966 1.2848713 0 50
-4.3674078 -6.0659714 1.3551657 0 51
-4.3627181 -6.0594578 1.4247634 0 52
-4.3611484 -6.0572772 1.495528 0 53
-4.3648992 -6.0624871 1.568416 0 54
-4.3602848 -6.056078 1.6385609 0 55
-4.3617668 -6.058136 1.7112359 0 56
0 0 0 0 57
0 0 0 0 58
0 0 0 0 59
0 0 0 0 60
0 0 0 0 61
0 0 0 0 62
0 0 0 0 63
-1.4177932 -2.0211511 -0.73599517 0 0
-1.4631284 -2.0857792 -0.73408222 0 1
-1.5212438 -2.1686263 -0.73692191 0 2
-1.5732262 -2.2427304 -0.73502487 0 3
-1.6295989 -2.3230932 -0.73345214 0 4
-1.6972703 -2.4195628 -0.73497808 0 5
-1.7565684 -2.5040958 -0.73085046 0 6
-1.8442057 -2.6290283 -0.73615783 0 7
-1.9261585 -2.745857 -0.73646802 0 8
-2.0092916 -2.8643684 -0.73458856 0 9
-2.0977197 -2.990428 -0.73190588 0 10
-2.2252035 -3.172164 -0.73938298 0 11
-2.3157248 -3.3012078 -0.7310881 0 12
-2.4579401 -3.5039442 -0.73539227 0 13
-2.6034801 -3.7114203 -0.73607451 0 14
-2.752749 -3.9242125 -0.73309267 0 15
-2.941937 -4.1939116 -0.73532188 0 16
-3.1362929 -4.4709778 -0.73270023 0 17
-3.3834405 -4.8233018 -0.73534042 0 18
-3.6252542 -5.1680222 -0.72899413 0 19
-3.9788604 -5.6721096 -0.73559117 0 20
-4.2533793 -6.0634527 -0.71751779 0 21
-4.2540402 -6.0643954 -0.64891613 0 22
-4.2500277 -6.0586748 -0.57976621 0 23
-4.2507005 -6.0596342 -0.51140803 0 24
-4.2484436 -6.0564165 -0.44280976 0 25
-4.2527776 -6.0625954 -0.37494037 0 26
-4.2504516 -6.059279 -0.30651504 0 27
-4.2505393 -6.0594044 -0.2383517 0 28
-4.2430768 -6.0487666 -0.16992356 0 29
-4.250206 -6.058929 -0.10211391 0 30
-4.2476125 -6.055232 -0.034015283 0 31
-4.2528749 -6.0627337 0.034057423 0 32
-4.2438717 -6.0498996 0.10196173 0 33
-4.2472744 -6.05475 0.17009166 0 34
-4.2482352 -6.0561199 0.23822251 0 35
-4.2443871 -6.0506339 0.30607772 0 36
-4.2444711 -6.0507536 0.374208 0 37
-4.240797 -6.0455165 0.44201279 0 38
-4.2518902 -6.0613303 0.5115512 0 39
-4.2435417 -6.0494289 0.57888138 0 40
-4.2504091 -6.0592184 0.64836222 0 41
-4.2451124 -6.0516682 0.71612322 0 42
-4.2488656 -6.0570188 0.78550839 0 43
-4.2494459 -6.0578456 0.85451144 0 44
-4.2458673 -6.0527444 0.92277604 0 45
-4.2538228 -6.064085 0.99377733 0 46
-4.2521434 -6.0616908 1.0628011 0 47
-4.2502518 -6.0589948 1.131897 0 48
-4.2498488 -6.0584202 1.2015477 0 49
-4.2392821 -6.0433564 1.2683529 0 50
-4.2486215 -6.0566702 1.341315 0 51
-4.246789 -6.0540576 1.4111085 0 52
-4.24857 -6.0565968 1.4823494 0 53
-4.240325 -6.0448432 1.5502449 0 54
-4.240211 -6.0446806 1.6212474 0 55
-4.2573233 -6.0690756 1.6994102 0 56
0 0 0 0 57
0 0 0 0 58
0 0 0 0 59
0 0 0 0 60
0 0 0 0 61
0 0 0 0 62
0 0 0 0 63
-1.3852478 -2.0273271 -0.73198605 0 0
-1.4358224 -2.1013436 -0.73329079 0 1
-1.4999169 -2.1951468 -0.73961061 0 2
-1.5471404 -2.2642589 -0.73578995 0 3
-1.6057281 -2.3500028 -0.73565865 0 4
-1.6778271 -2.4555206 -0.73957777 0 5
-1.7241697 -2.5233436 -0.73022503 0 6
-1.8056271 -2.6425574 -0.73367363 0 7
-1.895794 -2.7745178 -0.73784691 0 8
-1.9906387 -2.9133241 -0.74081004 0 9
-2.0716705 -3.0319152 -0.73576945 0 10
-2.1796811 -3.1899898 -0.73723501 0 11
-2.295105 -3.3589144 -0.73756206 0 12
-2.4068789 -3.5224967 -0.73301911 0 13
-2.5563712 -3.7412803 -0.73570669 0 14
-2.70488 -3.9586248 -0.73325241 0 15
-2.8898916 -4.2293921 -0.73525655 0 16
-3.0739827 -4.4988112 -0.73101175 0 17
-3.318006 -4.8559422 -0.73404098 0 18
-3.6111436 -5.2849526 -0.73916876 0 19
-3.9079661 -5.7193561 -0.7354309 0 20
-4.1228342 -6.0338182 -0.70795828 0 21
-4.1315088 -6.0465136 -0.64151806 0 22
-4.1309519 -6.0456986 -0.57362032 0 23
-4.1327577 -6.0483413 -0.50612783 0 24
-4.1316481 -6.0467176 -0.43835294 0 25
-4.1285801 -6.0422277 -0.37051302 0 26
-4.1256118 -6.0378828 -0.30284354 0 27
-4.1264663 -6.0391335 -0.2355406 0 28
-4.1360106 -6.053102 -0.1686039 0 29
-4.1317716 -6.0468979 -0.10104725 0 30
-4.1284547 -6.0420442 -0.033653479 0 31
-4.1254249 -6.0376096 0.03362878 0 32
-4.1269579 -6.0398531 0.10092952 0 33
-4.1291113 -6.0430045 0.16832264 0 34
-4.127358 -6.0404391 0.23559152 0 35
-4.1360698 -6.0531888 0.30361125 0 36
-4.1288004 -6.0425496 0.37053278 0 37
-4.1288333 -6.0425978 0.43805429 0 38
-4.1259384 -6.0383615 0.50529271 0 39
-4.1262951 -6.0388837 0.57297367 0 40
-4.1261139 -6.0386181 0.64068037 0 41
-4.1289058 -6.0427041 0.70900089 0 42
-4.1221471 -6.0328126 0.77573711 0 43
-4.1231246 -6.0342431 0.84396666 0 44
-4.1321115 -6.0473962 0.91414523 0 45
-4.1292868 -6.043262 0.98196954 0 46
-4.1314883 -6.0464835 1.0511481 0 47
-4.1289558 -6.0427775 1.1192981 0 48
-4.1326199 -6.0481396 1.1893406 0 49
-4.1304164 -6.0449152 1.2579254 0 50
-4.1330614 -6.0487862 1.3282135 0 51
-4.134521 -6.0509224 1.3984219 0 52
-4.131062 -6.0458598 1.4671779 0 53
-4.1320419 -6.0472937 1.5377266 0 54
-4.1274509 -6.040575 1.6064124 0 55
-4.124001 -6.0355258 1.6756896 0 56
-4.1313553 -6.046289 1.7497228 0 57
0 0 0 0 58
0 0 0 0 59
0 0 0 0 60
0 0 0 0 61
0 0 0 0 62
0 0 0 0 63
-1.3636934 -2.049432 -0.73385739 0 0
-1.4090382 -2.117579 -0.73285472 0 1
-1.4656104 -2.2025986 -0.73599356 0 2
-1.5110332 -2.2708623 -0.7318427 0 3
-1.5779853 -2.3714817 -0.73625267 0 4
-1.6433901 -2.4697754 -0.73772901 0 5
-1.6956203 -2.54827 -0.73134941 0 6
-1.7752004 -2.6678672 -0.73458457 0 7
-1.8382896 -2.762681 -0.72863263 0 8
-1.9441805 -2.9218197 -0.7368356 0 9
-2.0308428 -3.0520604 -0.73454249 0 10
-2.1326556 -3.2050703 -0.73460406 0 11
-2.2412119 -3.3682146 -0.73349732 0 12
-2.3612828 -3.5486639 -0.7323668 0 13
-2.5201068 -3.787353 -0.73861706 0 14
-2.6554804 -3.9907997 -0.7331084 0 15
-2.8340762 -4.259203 -0.73432523 0 16
-3.055058 -4.5913067 -0.73988128 0 17
-3.2582939 -4.8967404 -0.73409623 0 18
-3.5515437 -5.3374519 -0.74034745 0 19
-3.8309836 -5.7574096 -0.73421109 0 20
-4.0106902 -6.027482 -0.70137537 0 21
-4.0128684 -6.0307555 -0.63456297 0 22
-4.0163741 -6.0360246 -0.56797361 0 23
-4.0202098 -6.0417891 -0.50140494 0 24
-4.0147319 -6.0335565 -0.4337872 0 25
-4.0171108 -6.0371313 -0.36714375 0 26
-4.0207219 -6.0425587 -0.30057552 0 27
-4.017693 -6.0380063 -0.23355213 0 28
-4.0272541 -6.0523753 -0.16719164 0 29
-4.015748 -6.0350833 -0.10001709 0 30
-4.0291533 -6.0552297 -0.033448439 0 31
-4.0094857 -6.025672 0.033285163 0 32
-4.0186496 -6.039444 0.10008936 0 33
-4.0212879 -6.0434089 0.16694395 0 34
-4.0189381 -6.0398774 0.2336245 0 35
-4.0104403 -6.0271072 0.29980692 0 36
-4.0104442 -6.027113 0.3665345 0 37
-4.0113425 -6.0284624 0.43342099 0 38
-4.0224924 -6.0452194 0.50168961 0 39
-4.0155711 -6.0348172 0.56786001 0 40
-4.018187 -6.0387492 0.63540405 0 41
-4.0160422 -6.0355253 0.70231134 0 42
-4.0152745 -6.0343723 0.76953065 0 43
-4.0177894 -6.0381517 0.83754015 0 44
-4.0206246 -6.0424123 0.90584999 0 45
-4.0186462 -6.0394392 0.97324532 0 46
-4.0255284 -6.0497818 1.0430373 0 47
-4.0185418 -6.0392823 1.1094139 0 48
-4.0167508 -6.0365906 1.1772679 0 49
-4.0182347 -6.0388207 1.2462809 0 50
-4.0103755 -6.0270095 1.3125041 0 51
-4.0201592 -6.0417132 1.3847643 0 52
-4.020103 -6.0416284 1.4540449 0 53
-4.0189505 -6.0398965 1.5231642 0 54
-4.0190592 -6.04006 1.5930123 0 55
-4.0108232 -6.0276823 1.6596937 0 56
-4.0232739 -6.0463939 1.7353053 0 57
0 0 0 0 58
0 0 0 0 59
0 0 0 0 60
0 0 0 0 61
0 0 0 0 62
0 0 0 0 63
-1.3441505 -2.074935 -0.73701525 0 0
-1.3879689 -2.1425762 -0.73554361 0 1
-1.4252787 -2.2001705 -0.72927088 0 2
-1.4910734 -2.3017364 -0.73582804 0 3
-1.5435748 -2.3827815 -0.73381263 0 4
-1.6065706 -2.480027 -0.73483467 0 5
-1.6792867 -2.5922771 -0.73799729 0 6
-1.7366207 -2.6807821 -0.73220551 0 7
-1.8143703 -2.8008025 -0.73274732 0 8
-1.9053527 -2.9412498 -0.73577154 0 9
-1.9962751 -3.0816047 -0.73568958 0 10
-2.100872 -3.2430687 -0.73733652 0 11
-2.216804 -3.4220302 -0.73922473 0 12
-2.3256001 -3.5899765 -0.73493558 0 13
-2.4674528 -3.8089511 -0.73685634 0 14
-2.6062553 -4.0232177 -0.73312098 0 15
-2.782105 -4.2946725 -0.73448688 0 16
-3.0044672 -4.637928 -0.74138469 0 17
-3.1924601 -4.9281287 -0.73286134 0 18
-3.4792931 -5.3709064 -0.73899764 0 19
-3.7537963 -5.794651 -0.73301858 0 20
-3.9083364 -6.0332108 -0.69639707 0 21
-3.9059775 -6.0295696 -0.62933683 0 22
-3.9170206 -6.0466161 -0.56439537 0 23
-3.9087324 -6.0338221 -0.49671745 0 24
-3.9181564 -6.0483699 -0.43135571 0 25
-3.9091334 -6.034441 -0.36402938 0 26
-3.9042273 -6.0268679 -0.29738447 0 27
-3.9142385 -6.0423217 -0.23183978 0 28
-3.9111819 -6.0376034 -0.16544253 0 29
-3.9175186 -6.0473852 -0.099415123 0 30
-3.9119818 -6.0388379 -0.033089671 0 31
-3.9112444 -6.0376997 0.033083435 0 32
-3.9182932 -6.0485806 0.099434778 0 33
-3.9159822 -6.0450134 0.16564557 0 34
-3.9091678 -6.0344939 0.23153943 0 35
-3.9123423 -6.0393944 0.29800257 0 36
-3.9071651 -6.0314026 0.36384606 0 37
-3.9044814 -6.0272598 0.42985019 0 38
-3.9100184 -6.0358071 0.49688086 0 39
-3.9015565 -6.0227447 0.56216717 0 40
-3.9039319 -6.0264115 0.62900722 0 41
-3.9090836 -6.0343642 0.69653022 0 42
-3.9163001 -6.0455041 0.76475132 0 43
-3.9156053 -6.0444317 0.83166981 0 44
-3.9103634 -6.0363398 0.89766324 0 45
-3.9096806 -6.0352859 0.96475589 0 46
-3.9102666 -6.03619 1.0323261 0 47
-3.9162364 -6.0454054 1.1016092 0 48
-3.9124968 -6.0396328 1.1683904 0 49
-3.9198067 -6.0509171 1.2387364 0 50
-3.9133885 -6.0410099 1.3049749 0 51
-3.9134276 -6.04107 1.3734835 0 52
-3.9150565 -6.0435843 1.4428203 0 53
-3.9054699 -6.0287857 1.5081375 0 54
-3.9067886 -6.0308213 1.5777863 0 55
-3.9100688 -6.0358849 1.648589 0 56
-3.9055398 -6.0288935 1.7163701 0 57
0 0 0 0 58
0 0 0 0 59
0 0 0 0 60
0 0 0 0 61
0 0 0 0 62
0 0 0 0 63
-1.3227906 -2.0980525 -0.73939312 0 0
-1.3644871 -2.1641862 -0.73714662 0 1
-1.4059069 -2.2298818 -0.73333335 0 2
-1.4521105 -2.3031642 -0.73052108 0 3
-1.5121005 -2.398313 -0.73281425 0 4
-1.5771357 -2.5014644 -0.73538482 0 5
-1.6450237 -2.6091402 -0.7369836 0 6
-1.7040473 -2.7027562 -0.73242879 0 7
-1.7816236 -2.8257985 -0.73349983 0 8
-1.8728528 -2.9704955 -0.73727077 0 9
-1.9493155 -3.0917714 -0.73233896 0 10
-2.048203 -3.248615 -0.73281598 0 11
-2.1644306 -3.4329615 -0.73578113 0 12
-2.2757173 -3.6094708 -0.73314232 0 13
-2.4158149 -3.831677 -0.73545039 0 14
-2.5743418 -4.0831132 -0.73821115 0 15
-2.7238555 -4.3202538 -0.73307824 0 16
-2.9321582 -4.6506391 -0.73759729 0 17
-3.1362329 -4.974318 -0.73393971 0 18
-3.4185522 -5.4220991 -0.74020153 0 19
-3.6851451 -5.8449373 -0.73359203 0 20
-3.8068635 -6.037992 -0.69149345 0 21
-3.8126266 -6.047133 -0.62622935 0 22
-3.8062246 -6.0369787 -0.55908489 0 23
-3.8061638 -6.0368824 -0.49307922 0 24
-3.8011577 -6.0289421 -0.42660448 0 25
-3.810138 -6.0431857 -0.36170325 0 26
-3.8046644 -6.0345044 -0.29543048 0 27
-3.8005905 -6.0280423 -0.2294814 0 28
-3.8103957 -6.0435948 -0.16431037 0 29
-3.8072476 -6.0386014 -0.098493658 0 30
-3.8079495 -6.0397148 -0.03283542 0 31
-3.8009138 -6.0285554 0.032774754 0 32
-3.7997057 -6.0266395 0.09829855 0 33
-3.798151 -6.0241733 0.16378236 0 34
-3.7974663 -6.0230875 0.22929277 0 35
-3.808862 -6.041162 0.29575643 0 36
-3.7992001 -6.0258374 0.36066487 0 37
-3.7984555 -6.0246563 0.42630121 0 38
-3.8038149 -6.0331569 0.49277493 0 39
-3.8041134 -6.0336304 0.55877477 0 40
-3.8045537 -6.0343285 0.62490338 0 41
-3.7999091 -6.0269618 0.69023019 0 42
-3.8033915 -6.032485 0.75713098 0 43
-3.8037972 -6.0331287 0.82361668 0 44
-3.8004878 -6.0278797 0.88938832 0 45
-3.8044567 -6.0341744 0.95702779 0 46
-3.8080952 -6.0399456 1.0248826 0 47
-3.8074267 -6.0388856 1.0918072 0 48
-3.8081837 -6.0400863 1.1593314 0 49
-3.801465 -6.0294294 1.2246753 0 50
-3.808641 -6.0408111 1.2947174 0 51
-3.8072865 -6.0386629 1.3621893 0 52
-3.8055706 -6.0359416 1.429716 0 53
-3.8093805 -6.0419841 1.4996079 0 54
-3.8054926 -6.0358176 1.5667328 0 55
-3.8102813 -6.0434132 1.6377243 0 56
-3.7988334 -6.0252557 1.7019073 0 57
0 0 0 0 58
0 0 0 0 59
0 0 0 0 60
0 0 0 0 61
0 0 0 0 62
0 0 0 0 63
-0.77919781 -1.2702253 -0.44424102 0 0
-0.77100152 -1.256864 -0.4248409 0 1
-0.77538657 -1.2640123 -0.41252452 0 2
-0.76954097 -1.254483 -0.39486757 0 3
-0.76605189 -1.2487952 -0.37866753 0 4
-0.76815403 -1.2522221 -0.36532596 0 5
-0.77312952 -1.2603329 -0.35328448 0 6
-0.76683235 -1.2500676 -0.3361792 0 7
-0.77205491 -1.2585812 -0.32420439 0 8
-0.77983326 -1.2712612 -0.31312069 0 9
-0.76613921 -1.2489375 -0.29357854 0 10
-0.77465069 -1.2628127 -0.28269261 0 11
-0.77689874 -1.2664775 -0.26937422 0 12
-0.76844037 -1.2526889 -0.25250316 0 13
-0.76240569 -1.2428514 -0.23673502 0 14
-0.77575874 -1.264619 -0.22689646 0 15
-0.77470618 -1.2629032 -0.21266203 0 16
-0.77218777 -1.2587978 -0.198126 0 17
-0.77063268 -1.2562627 -0.18394423 0 18
-0.77482826 -1.2631022 -0.17111965 0 19
-0.77287644 -1.2599205 -0.15692666 0 20
-0.7682845 -1.2524347 -0.14234082 0 21
-0.76928103 -1.2540593 -0.12887861 0 22
-0.77126569 -1.2572945 -0.11555107 0 23
-0.7780689 -1.2683851 -0.10280967 0 24
-0.76859415 -1.2529396 -0.087981887 0 25
-0.76807183 -1.2520881 -0.074370407 0 26
-0.77751565 -1.2674831 -0.061579295 0 27
-0.77418929 -1.2620606 -0.047679342 0 28
-0.76609135 -1.2488595 -0.033694737 0 29
-0.76586109 -1.2484841 -0.020208487 0 30
-0.77225065 -1.2589003 -0.0067919791 0 31
-0.76687324 -1.2501341 0.0067446842 0 32
-0.77197969 -1.2584585 0.020369936 0 33
-0.76774412 -1.2515539 0.033767432 0 34
-0.77636844 -1.265613 0.047813542 0 35
-0.76842147 -1.252658 0.060859036 0 36
-0.77355987 -1.2610345 0.074901804 0 37
-0.76914865 -1.2538434 0.088045359 0 38
-0.77573669 -1.2645831 0.10250149 0 39
-0.77598506 -1.2649881 0.11625814 0 40
-0.77708781 -1.2667856 0.13018648 0 41
-0.76800191 -1.2519741 0.14228846 0 42
-0.77270001 -1.2596328 0.15689084 0 43
-0.76815552 -1.2522244 0.16964598 0 44
-0.76743537 -1.2510506 0.18318106 0 45
-0.77246189 -1.2592446 0.19819634 0 46
-0.76862937 -1.2529969 0.21099392 0 47
-0.77231008 -1.2589971 0.22588779 0 48
-0.77596271 -1.2649516 0.24094461 0 49
-0.77257085 -1.2594223 0.25386038 0 50
-0.76440847 -1.2461162 0.26504347 0 51
-0.76616532 -1.2489802 0.27959606 0 52
-0.77598894 -1.2649943 0.29735288 0 53
-0.77470219 -1.2628967 0.31106046 0 54
-0.77090114 -1.2567004 0.32371992 0 55
-0.77831823 -1.2687914 0.3412146 0 56
-0.77044719 -1.2559603 0.35205877 0 57
-0.77264345 -1.2595406 0.36746109 0 58
-0.77224702 -1.2588943 0.38172987 0 59
-0.77519476 -1.2636997 0.39776868 0 60
-0.77897167 -1.2698567 0.41443187 0 61
-0.76656651 -1.2496341 0.42239714 0 62
-0.77488458 -1.2631941 0.44178197 0 63
-0.75360894 -1.263097 -0.43847397 0 0
-0.74359202 -1.2463081 -0.41815054 0 1
-0.75064081 -1.2581222 -0.40755904 0 2
-0.7609275 -1.2753634 -0.39846471 0 3
-0.74905109 -1.2554578 -0.37786633 0 4
-0.75213742 -1.2606307 -0.36505333 0 5
-0.75029325 -1.2575397 -0.34988892 0 6
-0.75478852 -1.2650741 -0.33769336 0 7
-0.7491613 -1.2556425 -0.32105017 0 8
-0.74765092 -1.253111 -0.3063626 0 9
-0.74733037 -1.2525737 -0.29225108 0 10
-0.75118172 -1.2590289 -0.27975667 0 11
-0.74708986 -1.2521707 -0.2643573 0 12
-0.75593579 -1.266997 -0.25349441 0 13
-0.74883461 -1.2550949 -0.23729528 0 14
-0.7415455 -1.242878 -0.22134297 0 15
-0.75208575 -1.2605441 -0.21069156 0 16
-0.74526119 -1.2491057 -0.19514342 0 17
-0.75317389 -1.2623678 -0.18346822 0 18
-0.75007588 -1.2571753 -0.16905439 0 19
-0.75159448 -1.2597207 -0.15573889 0 20
-0.74611694 -1.25054 -0.14107211 0 21
-0.75044316 -1.2577909 -0.12830408 0 22
-0.75122952 -1.259109 -0.11486018 0 23
-0.74864769 -1.2547817 -0.10095323 0 24
-0.75170314 -1.2599028 -0.087815143 0 25
-0.74909502 -1.2555314 -0.074022219 0 26
-0.75465256 -1.2648462 -0.060995739 0 27
-0.74991196 -1.2569007 -0.04713247 0 28
-0.75020629 -1.2573941 -0.033673566 0 29
-0.75590694 -1.2669487 -0.02035537 0 30
-0.75925326 -1.2725573 -0.0068147755 0 31
-0.75122976 -1.2591094 0.0067427596 0 32
-0.74743068 -1.2527419 0.020127116 0 33
-0.74629277 -1.2508347 0.033497903 0 34
-0.75087875 -1.2585211 0.047193237 0 35
-0.75267977 -1.2615397 0.060836282 0 36
-0.75008082 -1.2571837 0.074119635 0 37
-0.74806505 -1.2538052 0.087390132 0 38
-0.75497484 -1.2653863 0.10180643 0 39
-0.74906951 -1.2554886 0.11452992 0 40
-0.74491733 -1.2485293 0.12735932 0 41
-0.74978244 -1.2566836 0.14176516 0 42
-0.74759865 -1.2530234 0.15491092 0 43
-0.74465567 -1.2480909 0.16783278 0 44
-0.74843192 -1.25442 0.18231311 0 45
-0.75013936 -1.2572818 0.19642074 0 46
-0.75135601 -1.259321 0.21048713 0 47
-0.75516349 -1.2657026 0.22540778 0 48
-0.75439173 -1.2644091 0.23905626 0 49
-0.74746329 -1.2527965 0.25065324 0 50
-0.74382949 -1.2467061 0.26320362 0 51
-0.75522006 -1.2657974 0.28126061 0 52
-0.74631876 -1.2508782 0.29185548 0 53
-0.74668586 -1.2514935 0.30596715 0 54
-0.7505613 -1.2579889 0.32165012 0 55
-0.74466878 -1.2481128 0.33316579 0 56
-0.750193 -1.2573717 0.34984216 0 57
-0.75779325 -1.2701102 0.36779839 0 58
-0.74897116 -1.2553239 0.37782604 0 59
-0.75415426 -1.264011 0.39491788 0 60
-0.7564283 -1.2678225 0.41070136 0 61
-0.75185555 -1.2601583 0.42279747 0 62
-0.75133294 -1.2592822 0.43714973 0 63
-0.72741276 -1.2539793 -0.43217111 0 0
-0.72711271 -1.2534621 -0.41751945 0 1
-0.73045999 -1.2592323 -0.40497833 0 2
-0.72982341 -1.258135 -0.39024866 0 3
-0.73091644 -1.2600192 -0.37650567 0 4
-0.72909307 -1.2568759 -0.36134252 0 5
-0.73128837 -1.2606604 -0.34822893 0 6
-0.7295 -1.2575775 -0.33327258 0 7
-0.73360729 -1.264658 -0.32102451 0 8
-0.72308612 -1.2465206 -0.3025547 0 9
-0.73505557 -1.2671547 -0.29352203 0 10
-0.73020124 -1.2587863 -0.27768666 0 11
-0.73872721 -1.2734841 -0.26691905 0 12
-0.72824109 -1.2554072 -0.24936511 0 13
-0.7304908 -1.2592854 -0.23637143 0 14
-0.72216141 -1.2449266 -0.22010973 0 15
-0.7358827 -1.2685806 -0.21050644 0 16
-0.73120433 -1.2605155 -0.19550648 0 17
-0.72648233 -1.2523752 -0.18070395 0 18
-0.72130662 -1.243453 -0.16600388 0 19
-0.72692019 -1.2531301 -0.1538074 0 20
-0.731327 -1.260727 -0.14119616 0 21
-0.72785896 -1.2547485 -0.12707113 0 22
-0.72961533 -1.2577763 -0.11391155 0 23
-0.7266354 -1.2526392 -0.10005442 0 24
-0.72452486 -1.2490008 -0.086427771 0 25
-0.73208106 -1.2620269 -0.073868863 0 26
-0.72517097 -1.2501147 -0.05985079 0 27
-0.72712779 -1.2534879 -0.046665687 0 28
-0.72806472 -1.2551031 -0.033369936 0 29
-0.73340237 -1.2643046 -0.020166473 0 30
-0.72819752 -1.2553321 -0.006674075 0 31
-0.72869611 -1.2561916 0.006678645 0 32
-0.73225349 -1.2623242 0.020134883 0 33
-0.72458744 -1.2491087 0.033210561 0 34
-0.72866857 -1.2561442 0.046764575 0 35
-0.73411059 -1.2655256 0.060588602 0 36
-0.72567397 -1.2509818 0.073222369 0 37
-0.72801292 -1.2550138 0.086843863 0 38
-0.73365283 -1.2647365 0.10102069 0 39
-0.72802556 -1.2550356 0.11366335 0 40
-0.72498339 -1.2497913 0.12656911 0 41
-0.7352103 -1.2674214 0.1419459 0 42
-0.73582369 -1.2684788 0.15569128 0 43
-0.73347765 -1.2644345 0.16880496 0 44
-0.72528088 -1.2503041 0.18040511 0 45
-0.72271037 -1.2458729 0.1932354 0 46
-0.72840697 -1.2556932 0.20836794 0 47
-0.73195189 -1.2618042 0.22309379 0 48
-0.72171724 -1.2441609 0.2335325 0 49
-0.72514981 -1.2500782 0.24830659 0 50
-0.72473145 -1.249357 0.26186207 0 51
-0.73185146 -1.261631 0.2783142 0 52
-0.73319864 -1.2639536 0.29278052 0 53
-0.72199267 -1.2446356 0.3020972 0 54
-0.73598367 -1.2687546 0.32206443 0 55
-0.72852099 -1.2558898 0.3328253 0 56
-0.72825146 -1.2554251 0.3467828 0 57
-0.73111928 -1.2603689 0.36234674 0 58
-0.73452562 -1.2662411 0.3783648 0 59
-0.73057419 -1.2594292 0.39065009 0 60
-0.73046035 -1.259233 0.40497854 0 61
-0.72404522 -1.248174 0.41575804 0 62
-0.72587347 -1.2513257 0.43125656 0 63
-0.70618707 -1.252625 -0.42867923 0 0
-0.70919579 -1.2579619 -0.41608208 0 1
-0.70212966 -1.2454281 -0.39773205 0 2
-0.70952088 -1.2585385 -0.38763827 0 3
-0.71336359 -1.2653545 -0.3754504 0 4
-0.69887626 -1.2396572 -0.35389486 0 5
-0.71058053 -1.2604181 -0.34572226 0 6
-0.70384252 -1.2484663 -0.32853955 0 7
-0.70691001 -1.2539073 -0.31606513 0 8
-0.70714378 -1.2543219 -0.30231485 0 9
-0.70930701 -1.258159 -0.28939608 0 10
-0.71381134 -1.2661488 -0.27735358 0 11
-0.70836514 -1.2564883 -0.26151133 0 12
-0.70128047 -1.2439216 -0.24535228 0 13
-0.70850664 -1.2567395 -0.23424053 0 14
-0.71250802 -1.263837 -0.22188736 0 15
-0.7060923 -1.2524569 -0.20637456 0 16
-0.7044884 -1.249612 -0.1924572 0 17
-0.71045172 -1.2601895 -0.18055731 0 18
-0.71126139 -1.2616258 -0.16724972 0 19
-0.70705098 -1.2541573 -0.15285482 0 20
-0.70254999 -1.2461736 -0.13858825 0 21
-0.71006685 -1.2595069 -0.12665921 0 22
-0.6984868 -1.2389663 -0.11142174 0 23
-0.71226883 -1.2634127 -0.10020781 0 24
-0.70471174 -1.250008 -0.085891344 0 25
-0.71562135 -1.2693594 -0.073777407 0 26
-0.7073108 -1.2546182 -0.059645489 0 27
-0.70692378 -1.2539318 -0.046355087 0 28
-0.71009648 -1.2595595 -0.033253752 0 29
-0.71196115 -1.262867 -0.020002387 0 30
-0.70965481 -1.2587761 -0.006645489 0 31
-0.71337813 -1.2653804 0.0066803554 0 32
-0.71086007 -1.2609138 0.019971453 0 33
-0.70714295 -1.2543205 0.033115435 0 34
-0.70806438 -1.2559549 0.04642988 0 35
-0.70663327 -1.2534164 0.059588358 0 36
-0.70744783 -1.2548612 0.072934747 0 37
-0.70304805 -1.247057 0.085688576 0 38
-0.70729387 -1.2545882 0.099507891 0 39
-0.71332276 -1.2652823 0.11378836 0 40
-0.70098811 -1.2434031 0.12503979 0 41
-0.70678633 -1.253688 0.13942392 0 42
-0.7065919 -1.2533431 0.15275557 0 43
-0.70202845 -1.2452484 0.16507864 0 44
-0.70985121 -1.2591244 0.18040469 0 45
-0.70255268 -1.2461784 0.19192837 0 46
-0.70667225 -1.2534856 0.20654407 0 47
-0.7026211 -1.2462997 0.21880841 0 48
-0.70582664 -1.2519857 0.23335449 0 49
-0.70504546 -1.2506 0.24666953 0 50
-0.7065509 -1.2532704 0.26084158 0 51
-0.70624149 -1.2527215 0.2744123 0 52
-0.70421594 -1.2491287 0.28731892 0 53
-0.70695716 -1.253991 0.3022351 0 54
-0.70958865 -1.2586586 0.31726277 0 55
-0.70671874 -1.2535681 0.32988212 0 56
-0.70500898 -1.2505354 0.3430115 0 57
-0.70696491 -1.2540047 0.35799077 0 58
-0.7049793 -1.2504827 0.37103769 0 59
-0.71010196 -1.2595692 0.38795575 0 60
-0.70808136 -1.255985 0.40110347 0 61
-0.71126676 -1.2616353 0.4172971 0 62
-0.70883524 -1.2573223 0.43028677 0 63
-0.68299139 -1.2470797 -0.4238753 0 0
-0.68487382 -1.2505168 -0.41080302 0 1
-0.67961437 -1.2409135 -0.39359176 0 2
-0.69514841 -1.2692772 -0.38828376 0 3
-0.68624568 -1.2530217 -0.36925933 0 4
-0.69025427 -1.2603409 -0.35734957 0 5
-0.6808725 -1.2432107 -0.33868039 0 6
-0.69391656 -1.267028 -0.33115369 0 7
-0.68653154 -1.2535436 -0.31382182 0 8
-0.68822098 -1.2566284 -0.30080834 0 9
-0.69411969 -1.2673988 -0.28953624 0 10
-0.69067591 -1.2611108 -0.27436885 0 11
-0.68608427 -1.2527269 -0.25895303 0 12
-0.67810601 -1.2381593 -0.24255273 0 13
-0.69223797 -1.2639631 -0.2339827 0 14
-0.69025397 -1.2603405 -0.21976674 0 15
-0.69004828 -1.2599648 -0.20619796 0 16
-0.68434745 -1.2495556 -0.19113804 0 17
-0.68700624 -1.2544104 -0.17850541 0 18
-0.68488908 -1.2505447 -0.16465186 0 19
-0.68734294 -1.2550251 -0.15191899 0 20
-0.6931619 -1.26565 -0.13979577 0 21
-0.68545526 -1.2515785 -0.12500484 0 22
-0.68576896 -1.2521513 -0.11184067 0 23
-0.67833441 -1.2385764 -0.097568952 0 24
-0.69076031 -1.2612649 -0.086074695 0 25
-0.68188465 -1.2450589 -0.071872242 0 26
-0.68679678 -1.254028 -0.059211463 0 27
-0.68855357 -1.2572356 -0.046160739 0 28
-0.68646663 -1.2534251 -0.032866459 0 29
-0.68678713 -1.2540103 -0.019726858 0 30
-0.67988783 -1.2414128 -0.0065091942 0 31
-0.68154961 -1.2444471 0.0065251044 0 32
-0.68060076 -1.2427146 0.019549163 0 33
-0.69060093 -1.2609739 0.033064399 0 34
-0.68567538 -1.2519803 0.045967784 0 35
-0.68973231 -1.259388 0.059464544 0 36
-0.69212818 -1.2637626 0.072951935 0 37
-0.68575639 -1.2521282 0.085451163 0 38
-0.68383777 -1.248625 0.098360538 0 39
-0.68912834 -1.2582852 0.11238854 0 40
-0.68988746 -1.2596713 0.12581314 0 41
-0.68435091 -1.249562 0.13801879 0 42
-0.68222386 -1.2456782 0.15078755 0 43
-0.69024229 -1.2603191 0.16593879 0 44
-0.68525112 -1.2512057 0.17804937 0 45
-0.69222909 -1.2639468 0.19333938 0 46
-0.67934525 -1.2404221 0.20299973 0 47
-0.6832993 -1.2476419 0.21755247 0 48
-0.69592476 -1.2706949 0.23522887 0 49
-0.69213122 -1.2637681 0.24756943 0 50
-0.68300551 -1.2471054 0.25779098 0 51
-0.69006759 -1.2600001 0.27412722 0 52
-0.68492281 -1.2506063 0.28569999 0 53
-0.68501246 -1.2507699 0.29940593 0 54
-0.6905055 -1.2607998 0.31563836 0 55
-0.69156772 -1.2627392 0.33003277 0 56
-0.68807983 -1.2563707 0.34226546 0 57
-0.68688077 -1.2541813 0.35560307 0 58
-0.6887148 -1.2575301 0.37058792 0 59
-0.6816839 -1.2446923 0.38076296 0 60
-0.68550533 -1.2516699 0.39700347 0 61
-0.68970978 -1.2593468 0.41370374 0 62
-0.69383699 -1.2668827 0.43060625 0 63
-0.6681549 -1.2564148 -0.42422363 0 0
-0.66111994 -1.2431861 -0.40569356 0 1
-0.6599068 -1.2409048 -0.3909857 0 2
-0.66404384 -1.2486843 -0.37945762 0 3
-0.67055768 -1.260933 -0.36913297 0 4
-0.66600329 -1.2523688 -0.35274056 0 5
-0.6671232 -1.2544748 -0.33948854 0 6
-0.66116178 -1.2432648 -0.3227936 0 7
-0.66913462 -1.2582572 -0.31291831 0 8
-0.66561139 -1.251632 -0.29763058 0 9
-0.66424638 -1.2490652 -0.28346056 0 10
-0.66668051 -1.2536423 -0.27093998 0 11
-0.66518301 -1.2508265 -0.25685 0 12
-0.66174471 -1.244361 -0.24215527 0 13
-0.66270596 -1.2461685 -0.22916274 0 14
-0.66727507 -1.2547604 -0.21734656 0 15
-0.66408437 -1.2487605 -0.2030126 0 16
-0.67112601 -1.2620018 -0.19176503 0 17
-0.66248339 -1.24575 -0.17610048 0 18
-0.66267473 -1.2461097 -0.16298275 0 19
-0.66639644 -1.2531081 -0.15068364 0 20
-0.66599351 -1.2523504 -0.13741185 0 21
-0.67079824 -1.2613853 -0.12515105 0 22
-0.66319346 -1.2470852 -0.11065143 0 23
-0.67226958 -1.2641522 -0.098925009 0 24
-0.66426557 -1.2491012 -0.084680751 0 25
-0.66742939 -1.2550505 -0.071969822 0 26
-0.6692484 -1.258471 -0.059028223 0 27
-0.66789639 -1.2559288 -0.045807749 0 28
-0.66435033 -1.2492607 -0.032540593 0 29
