# .PCD v0.7 - Point Cloud Data file format
VERSION 0.7
FIELDS x y z intensity ring
SIZE 4 4 4 4 2
TYPE F F F F U
COUNT 1 1 1 1 1
WIDTH 1220
HEIGHT 1
VIEWPOINT 0 0 0 1 0 0 0
POINTS 1220
DATA ascii
-1.0392435 -1.2088796 -0.45932436 0 1
-1.0373721 -1.2067028 -0.44268742 0 2
-1.0416805 -1.2117144 -0.42873144 0 3
-1.0363033 -1.2054596 -0.41088277 0 4
-1.0387136 -1.2082633 -0.39624074 0 5
-1.0420208 -1.2121103 -0.38192648 0 6
-1.0415719 -1.211588 -0.36626107 0 7
-1.0415981 -1.2116187 -0.35083425 0 8
-1.0295091 -1.1975563 -0.33156699 0 9
-1.0507417 -1.2222546 -0.32295623 0 10
-1.0348381 -1.2037551 -0.30290893 0 11
-1.0316904 -1.2000936 -0.28692743 0 12
-1.0478276 -1.2188649 -0.27617067 0 13
-1.0405674 -1.2104197 -0.25916579 0 14
-1.0411077 -1.2110481 -0.2442462 0 15
-1.0355284 -1.2045581 -0.22800589 0 16
-1.0402882 -1.2100949 -0.21409343 0 17
-1.0427556 -1.212965 -0.19964221 0 18
-1.0375713 -1.2069346 -0.18379915 0 19
-1.0373499 -1.2066771 -0.16894412 0 20
-1.0290985 -1.1970787 -0.15293097 0 21
-1.0430993 -1.2133648 -0.14016919 0 22
-1.0441587 -1.2145971 -0.125478 0 23
-1.0429206 -1.2131571 -0.1105346 0 24
-1.0440502 -1.214471 -0.095862485 0 25
-1.0420781 -1.212177 -0.080933765 0 26
-1.0449691 -1.2155399 -0.066383496 0 27
-1.0350511 -1.204003 -0.051130023 0 28
-1.033113 -1.2017485 -0.036446888 0 29
-1.0441523 -1.2145897 -0.022099311 0 30
-1.0425209 -1.212692 -0.0073545123 0 31
-1.0438327 -1.214218 0.0073637669 0 32
-1.0405917 -1.2104479 0.022023952 0 33
-1.0457666 -1.2164675 0.03689329 0 34
-1.044073 -1.2144974 0.051575687 0 35
-1.0333093 -1.2019769 0.065642789 0 36
-1.0442538 -1.2147079 0.081102736 0 37
-1.0399468 -1.2096978 0.095485717 0 38
-1.0280759 -1.1958892 0.10896128 0 39
-1.0252122 -1.1925579 0.12320117 0 40
-1.0407202 -1.2105974 0.13984948 0 41
-1.0443339 -1.2148011 0.15519506 0 42
-1.0384966 -1.2080109 0.16913086 0 43
-1.0444716 -1.2149612 0.18502149 0 44
-1.0406187 -1.2104793 0.19923307 0 45
-1.0370162 -1.2062887 0.21342002 0 46
-1.0312326 -1.1995611 0.22706002 0 47
-1.0405402 -1.2103881 0.24411309 0 48
-1.0404447 -1.2102771 0.25913525 0 49
-1.033671 -1.2023976 0.27243951 0 50
-1.0376244 -1.2069962 0.28857777 0 51
-1.0291654 -1.1971564 0.30124846 0 52
-1.034444 -1.2032968 0.31794697 0 53
-1.0364351 -1.2056129 0.33379763 0 54
-1.0398422 -1.2095761 0.35024285 0 55
-1.0364301 -1.2056071 0.36445302 0 56
-1.0381199 -1.2075727 0.38049674 0 57
-1.0329562 -1.2015662 0.39404449 0 58
-1.0395073 -1.2091864 0.41215307 0 59
-1.0454051 -1.216047 0.43026444 0 60
-1.0389402 -1.208527 0.4433566 0 61
-1.0401583 -1.2099438 0.45972872 0 62
-1.0416754 -1.2117087 0.47635913 0 63
-1.0192719 -1.2155685 -0.47291353 0 0
-1.0085658 -1.2028006 -0.45226824 0 1
-1.0092205 -1.2035813 -0.43695661 0 2
-1.018483 -1.2146277 -0.42529893 0 3
-1.0161176 -1.2118069 -0.40875649 0 4
-1.0171111 -1.2129916 -0.39366007 0 5
-1.0171248 -1.2130079 -0.37823987 0 6
-1.0086159 -1.2028604 -0.35984623 0 7
-1.0149201 -1.2103788 -0.34683535 0 8
-1.0111686 -1.2059047 -0.3304109 0 9
-1.0127354 -1.2077733 -0.31581548 0 10
-1.0185674 -1.2147286 -0.30249569 0 11
-1.0039282 -1.1972699 -0.28327942 0 12
-1.0043941 -1.1978254 -0.26858488 0 13
-1.0163356 -1.2120668 -0.25682321 0 14
-1.016445 -1.2121974 -0.24193895 0 15
-1.0146888 -1.2101029 -0.22667655 0 16
-1.0109253 -1.2056146 -0.21108548 0 17
-1.0169901 -1.2128472 -0.19754963 0 18
-1.0099311 -1.2044289 -0.18151268 0 19
-1.0150858 -1.2105764 -0.16772979 0 20
-1.0179802 -1.2140282 -0.15348557 0 21
-1.0141726 -1.2094872 -0.13827014 0 22
-1.0093856 -1.2037784 -0.12306877 0 23
-1.0192472 -1.2155391 -0.10960142 0 24
-1.0232959 -1.2203676 -0.095327497 0 25
-1.0078459 -1.2019421 -0.07941696 0 26
-1.0117763 -1.2066294 -0.065212503 0 27
-1.0202004 -1.2166759 -0.051131591 0 28
-1.0152788 -1.2108065 -0.036340229 0 29
-1.0108783 -1.2055585 -0.021707183 0 30
-1.0245658 -1.2218821 -0.007333287 0 31
-1.0151438 -1.2106454 0.007265849 0 32
-1.0168253 -1.2126508 0.021834886 0 33
-1.0160353 -1.2117087 0.036367305 0 34
-1.0099635 -1.2044677 0.050618533 0 35
-1.0145122 -1.2098923 0.065388843 0 36
-1.0188298 -1.2150414 0.08028248 0 37
-1.0212433 -1.2179197 0.095136285 0 38
-1.0053222 -1.1989324 0.10810404 0 39
-1.0124424 -1.2074238 0.12344147 0 40
-1.0169064 -1.2127476 0.13864288 0 41
-1.0052299 -1.1988224 0.15156314 0 42
-1.0133237 -1.2084749 0.16743863 0 43
-1.0085355 -1.2027645 0.18126184 0 44
-1.0033112 -1.196534 0.19489251 0 45
-1.0137038 -1.2089282 0.21166568 0 46
-1.0189953 -1.2152388 0.2276386 0 47
-1.0228993 -1.2198945 0.2434752 0 48
-1.0120236 -1.2069244 0.25573361 0 49
-1.0064613 -1.2002908 0.26913765 0 50
-1.0149869 -1.2104584 0.28639987 0 51
-1.0069335 -1.2008539 0.29904059 0 52
-1.0065591 -1.2004075 0.31388941 0 53
-1.007942 -1.2020566 0.32935655 0 54
-1.004166 -1.1975535 0.34316024 0 55
-1.0114175 -1.2062016 0.36084577 0 56
-1.0168927 -1.2127312 0.37815356 0 57
-1.0131738 -1.2082961 0.39213622 0 58
-1.0040863 -1.1974584 0.4039166 0 59
-1.0102006 -1.2047503 0.42184037 0 60
-1.0131425 -1.2082587 0.43865472 0 61
-1.0080061 -1.2021331 0.45201725 0 62
-1.0062114 -1.1999929 0.46685389 0 63
-0.99647862 -1.2185078 -0.46925449 0 0
-0.99733275 -1.2195522 -0.45392144 0 1
-0.98869252 -1.2089869 -0.43447247 0 2
-1.0005966 -1.2235434 -0.42408052 0 3
-0.99182284 -1.2128146 -0.40495199 0 4
-0.98764741 -1.2077088 -0.38797495 0 5
-0.99056983 -1.2112824 -0.37387541 0 6
-0.99017888 -1.2108043 -0.35855317 0 7
-0.98755574 -1.2075968 -0.34253255 0 8
-0.98934585 -1.2097857 -0.32811621 0 9
-0.99119157 -1.2120427 -0.31372112 0 10
-0.98860872 -1.2088844 -0.29799056 0 11
-0.99519813 -1.216942 -0.28501695 0 12
-0.98906934 -1.2094476 -0.2684435 0 13
-0.99796236 -1.2203221 -0.25595289 0 14
-0.99826729 -1.2206949 -0.24116676 0 15
-0.99025255 -1.2108945 -0.22452693 0 16
-0.98860955 -1.2088854 -0.20951392 0 17
-0.99350268 -1.2148688 -0.19587423 0 18
-0.98959613 -1.2100918 -0.1805186 0 19
-0.99842501 -1.2208878 -0.1674448 0 20
-0.99690676 -1.2190313 -0.15255676 0 21
-0.99696469 -1.2191021 -0.13795742 0 22
-0.99709183 -1.2192576 -0.12338849 0 23
-0.99574393 -1.2176094 -0.10867585 0 24
-0.98320252 -1.2022736 -0.09296269 0 25
-0.99639213 -1.218402 -0.079688959 0 26
-0.99154246 -1.2124717 -0.064864397 0 27
-0.99008673 -1.2106917 -0.050364651 0 28
-0.99780595 -1.2201308 -0.036249094 0 29
-0.98736751 -1.2073666 -0.021519499 0 30
-0.99083215 -1.2116032 -0.0071979305 0 31
-0.99160522 -1.2125485 0.0072035464 0 32
-0.99383855 -1.2152795 0.021660535 0 33
-0.99234474 -1.2134528 0.036050692 0 34
-0.99135822 -1.2122464 0.050429329 0 35
-0.99703729 -1.219191 0.065223858 0 36
-0.9886784 -1.2089695 0.079072036 0 37
-0.99445617 -1.2160347 0.094026729 0 38
-0.98645151 -1.2062465 0.10766168 0 39
-0.99200279 -1.2130346 0.12275873 0 40
-0.98119533 -1.1998191 0.13577531 0 41
-0.99496216 -1.2166535 0.15225919 0 42
-0.98526382 -1.2047942 0.16523753 0 43
-0.98887652 -1.2092118 0.18038733 0 44
-0.9908247 -1.2115941 0.19534625 0 45
-0.98795068 -1.2080797 0.20937428 0 46
-0.98941743 -1.2098733 0.22433758 0 47
-0.9903087 -1.2109631 0.23924407 0 48
-0.99820423 -1.2206179 0.25601494 0 49
-0.9928779 -1.2141048 0.26947719 0 50
-0.99534416 -1.2171205 0.28505877 0 51
-0.99100316 -1.2118123 0.29871231 0 52
-0.99387497 -1.2153239 0.31457043 0 53
-0.99241531 -1.213539 0.32913417 0 54
-0.99363059 -1.2150252 0.3446396 0 55
-0.97549444 -1.1928481 0.35323581 0 56
-0.99260837 -1.2137752 0.37464485 0 57
-0.99716175 -1.2193431 0.39171243 0 58
-0.99117118 -1.2120178 0.40468591 0 59
-0.99571985 -1.21758 0.42201358 0 60
-0.99576986 -1.2176411 0.43758255 0 61
-0.98988533 -1.2104454 0.45053187 0 62
-0.99477875 -1.2164291 0.468454 0 63
-0.97100979 -1.2176125 -0.46427649 0 0
-0.98557097 -1.2358717 -0.45545045 0 1
-0.98065734 -1.2297102 -0.43755323 0 2
-0.97819901 -1.2266276 -0.42094859 0 3
-0.97674602 -1.2248055 -0.40491483 0 4
-0.97489274 -1.2224816 -0.38884023 0 5
-0.97885013 -1.2274441 -0.37512034 0 6
-0.98007822 -1.228984 -0.36034065 0 7
-0.97318232 -1.2203368 -0.34272599 0 8
-0.98128515 -1.2304975 -0.33043602 0 9
-0.98020083 -1.2291378 -0.31500238 0 10
-0.97424567 -1.2216702 -0.29816672 0 11
-0.97993106 -1.2287995 -0.28495038 0 12
-0.98650718 -1.2370456 -0.27185604 0 13
-0.96843803 -1.2143875 -0.25219142 0 14
-0.97979188 -1.2286249 -0.24033502 0 15
-0.96791822 -1.2137358 -0.22283003 0 16
-0.9843201 -1.2343031 -0.2118054 0 17
-0.97763884 -1.2259251 -0.19570382 0 18
-0.9787299 -1.2272933 -0.18127562 0 19
-0.97748053 -1.2257266 -0.16644736 0 20
-0.98345214 -1.2332147 -0.15280683 0 21
-0.97413647 -1.2215333 -0.13686667 0 22
-0.97650582 -1.2245042 -0.12269501 0 23
-0.97671348 -1.2247647 -0.10823436 0 24
-0.97387838 -1.2212096 -0.093493849 0 25
-0.97995609 -1.2288308 -0.07957691 0 26
-0.97945774 -1.2282059 -0.065056905 0 27
-0.98076797 -1.2298489 -0.050656069 0 28
-0.9837184 -1.2335486 -0.036285613 0 29
-0.97707313 -1.2252157 -0.021621857 0 30
-0.97085309 -1.217416 -0.0071610003 0 31
-0.97735924 -1.2255745 0.007208989 0 32
-0.98100489 -1.2301461 0.021708863 0 33
-0.97914732 -1.2278167 0.036117002 0 34
-0.97567689 -1.2234648 0.050393116 0 35
-0.97298968 -1.2200953 0.06462729 0 36
-0.97458565 -1.2220964 0.079140805 0 37
-0.97528464 -1.222973 0.093628854 0 38
-0.97276193 -1.2198097 0.10779648 0 39
-0.99224347 -1.2442389 0.12467241 0 40
-0.98179948 -1.2311424 0.13794334 0 41
-0.97888988 -1.2274939 0.15209796 0 42
-0.97540444 -1.2231232 0.16609384 0 43
-0.98530608 -1.2355396 0.18249363 0 44
-0.98089874 -1.2300129 0.19635639 0 45
-0.96926779 -1.2154281 0.20856644 0 46
-0.98280954 -1.232409 0.22625825 0 47
-0.98131651 -1.2305368 0.24070899 0 48
-0.97947276 -1.2282248 0.25506499 0 49
-0.98580933 -1.2361706 0.27166376 0 50
-0.97624224 -1.2241738 0.28387773 0 51
-0.98207861 -1.2314924 0.30056399 0 52
-0.9837873 -1.2336351 0.31615493 0 53
-0.97659469 -1.2246158 0.32885656 0 54
-0.9734087 -1.2206206 0.34280571 0 55
-0.98134297 -1.23057 0.36080566 0 56
-0.9714883 -1.2182125 0.3722991 0 57
-0.97958523 -1.2283658 0.39071187 0 58
-0.97099483 -1.2175938 0.40253067 0 59
-0.96958542 -1.2158264 0.4172419 0 60
-0.97028112 -1.2166988 0.43292356 0 61
-0.97413099 -1.2215264 0.45016381 0 62
-0.97767663 -1.2259725 0.46746415 0 63
-0.94842166 -1.2197579 -0.46061286 0 0
-0.95224762 -1.2246784 -0.44697645 0 1
-0.94868422 -1.2200955 -0.4299489 0 2
-0.95169258 -1.2239646 -0.41598728 0 3
-0.95376146 -1.2266253 -0.40160888 0 4
-0.95031923 -1.2221984 -0.38500413 0 5
-0.94834518 -1.2196596 -0.3691496 0 6
-0.94795287 -1.219155 -0.35401431 0 7
-0.95575094 -1.229184 -0.34188426 0 8
-0.94295263 -1.2127242 -0.32252511 0 9
-0.95052361 -1.2224612 -0.31027243 0 10
-0.95042533 -1.2223347 -0.29545423 0 11
-0.95206141 -1.2244389 -0.28120318 0 12
-0.9528895 -1.2255039 -0.26672447 0 13
-0.95124894 -1.223394 -0.25161365 0 14
-0.94863224 -1.2200288 -0.23635381 0 15
-0.94804108 -1.2192684 -0.22168881 0 16
-0.95553601 -1.2289076 -0.20884749 0 17
-0.94641 -1.2171707 -0.19243395 0 18
-0.95346713 -1.2262468 -0.17937578 0 19
-0.9476161 -1.2187219 -0.16390143 0 20
-0.95162773 -1.2238812 -0.15018901 0 21
-0.95387143 -1.2267667 -0.13612857 0 22
-0.95002151 -1.2218155 -0.1212459 0 23
-0.95583457 -1.2292916 -0.10758761 0 24
-0.94600129 -1.216645 -0.092246853 0 25
-0.94923419 -1.2208029 -0.078295238 0 26
-0.96091563 -1.2358263 -0.064829774 0 27
-0.95684701 -1.2305937 -0.050198324 0 28
-0.94920844 -1.2207698 -0.035563685 0 29
-0.94367558 -1.213654 -0.021211442 0 30
-0.96310085 -1.2386366 -0.0072156168 0 31
-0.94802397 -1.2192464 0.0071026599 0 32
-0.95094466 -1.2230027 0.021374831 0 33
-0.95566016 -1.2290673 0.035805412 0 34
-0.94589835 -1.2165127 0.049623936 0 35
-0.95725816 -1.2311224 0.064583011 0 36
-0.94928128 -1.2208635 0.078299128 0 37
-0.94212508 -1.2116599 0.091868877 0 38
-0.94428021 -1.2144316 0.10628707 0 39
-0.94733793 -1.2183641 0.12090341 0 40
-0.94108152 -1.2103177 0.1343033 0 41
-0.95135629 -1.2235321 0.15014617 0 42
-0.94571298 -1.2162743 0.16357227 0 43
-0.94899917 -1.2205006 0.17853522 0 44
-0.94858271 -1.219965 0.19287573 0 45
-0.95312756 -1.2258101 0.20832108 0 46
-0.95594919 -1.2294389 0.22353801 0 47
-0.94614691 -1.2168323 0.23573458 0 48
-0.9456709 -1.2162201 0.25013822 0 49
-0.95695388 -1.2307311 0.26786211 0 50
-0.9561125 -1.2296491 0.28239971 0 51
-0.952622 -1.2251599 0.29613712 0 52
-0.95685709 -1.2306066 0.31233981 0 53
-0.9554686 -1.2288209 0.32680607 0 54
-0.94875556 -1.2201873 0.3393819 0 55
-0.94760269 -1.2187046 0.35388353 0 56
-0.94246697 -1.2120997 0.36686146 0 57
-0.94897503 -1.2204696 0.38445956 0 58
-0.95234013 -1.2247974 0.40101042 0 59
-0.95011032 -1.2219297 0.41529569 0 60
-0.94979393 -1.2215228 0.43045184 0 61
-0.94871098 -1.22013 0.4453164 0 62
-0.95561659 -1.2290113 0.46410719 0 63
-0.92917514 -1.2258161 -0.45855138 0 0
-0.92705053 -1.2230133 -0.44217479 0 1
-0.92731315 -1.2233597 -0.42704868 0 2
-0.92494744 -1.2202388 -0.41082445 0 3
-0.92261541 -1.2171623 -0.39476633 0 4
-0.92994589 -1.226833 -0.38283303 0 5
-0.92500842 -1.2203193 -0.36587897 0 6
-0.93117881 -1.2284596 -0.35336456 0 7
-0.92698705 -1.2229296 -0.33694875 0 8
-0.92898297 -1.2255627 -0.32287711 0 9
-0.92682374 -1.2227141 -0.30742079 0 10
-0.92710251 -1.2230818 -0.29285714 0 11
-0.92682701 -1.2227184 -0.27816966 0 12
-0.92469752 -1.2199091 -0.26301214 0 13
-0.91615736 -1.2086425 -0.24624415 0 14
-0.93216485 -1.2297604 -0.23600069 0 15
-0.9293316 -1.2260226 -0.22082239 0 16
-0.92447251 -1.2196122 -0.20532037 0 17
-0.92647493 -1.2222539 -0.19142202 0 18
-0.91440678 -1.206333 -0.17480479 0 19
-0.92737418 -1.2234403 -0.16299006 0 20
-0.92606235 -1.2217097 -0.1485139 0 21
-0.93432909 -1.2326156 -0.13549247 0 22
-0.93545556 -1.2341017 -0.12131447 0 23
-0.92478091 -1.2200191 -0.10577285 0 24
-0.92729574 -1.2233368 -0.091882735 0 25
-0.92748159 -1.2235819 -0.077736162 0 26
-0.92698181 -1.2229227 -0.063550107 0 27
-0.92361933 -1.2184867 -0.049237452 0 28
-0.92033029 -1.2141477 -0.035038438 0 29
-0.92616194 -1.221841 -0.021153888 0 30
-0.92527443 -1.2206702 -0.0070441416 0 31
-0.92733693 -1.2233912 0.0070598437 0 32
-0.92983776 -1.2266903 0.021237845 0 33
-0.91828537 -1.2114499 0.034960587 0 34
-0.93237817 -1.2300417 0.04970438 0 35
-0.93293786 -1.2307801 0.063958429 0 36
-0.91820544 -1.2113445 0.076958694 0 37
-0.91783375 -1.2108541 0.090945177 0 38
-0.93241441 -1.2300895 0.10664594 0 39
-0.9266597 -1.2224977 0.12017378 0 40
-0.93028772 -1.227284 0.1349064 0 41
-0.91945809 -1.212997 0.14745477 0 42
-0.92287606 -1.2175062 0.16219951 0 43
-0.92695659 -1.2228894 0.17720392 0 44
-0.93098575 -1.2282048 0.19235401 0 45
-0.92877007 -1.2252818 0.20627482 0 46
-0.92037344 -1.2142045 0.21869381 0 47
-0.92620695 -1.2219005 0.2344923 0 48
-0.92234242 -1.2168021 0.24790657 0 49
-0.9226408 -1.2171957 0.26242715 0 50
-0.92642736 -1.2221912 0.27804971 0 51
-0.92757642 -1.2237071 0.29300684 0 52
-0.92194808 -1.2162819 0.3058036 0 53
-0.92354774 -1.2183923 0.32098803 0 54
-0.92962939 -1.2264154 0.33790919 0 55
-0.92720544 -1.2232177 0.35185674 0 56
-0.92788392 -1.2241127 0.36701635 0 57
-0.92071992 -1.2146616 0.37903494 0 58
-0.92340094 -1.2181985 0.39510244 0 59
-0.93254858 -1.2302666 0.41420054 0 60
-0.92801011 -1.2242792 0.42736965 0 61
-0.92423248 -1.2192956 0.44083068 0 62
-0.92511952 -1.2204658 0.45654991 0 63
-0.89493984 -1.2113059 -0.44897282 0 0
-0.89993525 -1.218067 -0.43635267 0 1
-0.88880336 -1.2030001 -0.41609496 0 2
-0.89502537 -1.2114215 -0.40412 0 3
-0.89606428 -1.2128278 -0.38975739 0 4
-0.89430809 -1.2104508 -0.37426108 0 5
-0.90834236 -1.2294462 -0.36523899 0 6
-0.90577048 -1.2259651 -0.34941685 0 7
-0.89789778 -1.2153094 -0.33178204 0 8
-0.91040403 -1.2322366 -0.32166177 0 9
-0.90346277 -1.2228416 -0.30463666 0 10
-0.89702487 -1.2141279 -0.28805029 0 11
-0.90055764 -1.2189095 -0.27476308 0 12
-0.89568293 -1.2123115 -0.25897998 0 13
-0.89733309 -1.214545 -0.24518014 0 14
-0.90344417 -1.2228165 -0.23251858 0 15
-0.89808077 -1.2155571 -0.216932 0 16
-0.90030003 -1.2185608 -0.2032643 0 17
-0.90498477 -1.2249017 -0.19007951 0 18
-0.8959465 -1.2126683 -0.17411323 0 19
-0.89374965 -1.2096949 -0.15968269 0 20
-0.90119696 -1.2197748 -0.1469205 0 21
-0.89561737 -1.2122228 -0.13203029 0 22
-0.90780461 -1.2287183 -0.11967891 0 23
-0.88985109 -1.2044182 -0.10346381 0 24
-0.90742934 -1.2282104 -0.091403805 0 25
-0.89569575 -1.2123289 -0.076315738 0 26
-0.90602469 -1.2263092 -0.063142374 0 27
-0.90043408 -1.2187423 -0.04879668 0 28
-0.89530677 -1.2118025 -0.034650434 0 29
-0.91236299 -1.2348881 -0.02118394 0 30
-0.90090644 -1.2193816 -0.0069722505 0 31
-0.90291232 -1.2220966 0.0069877743 0 32
-0.89720631 -1.2143735 0.020832019 0 33
-0.90036637 -1.2186506 0.03484625 0 34
-0.90459096 -1.2243686 0.049021948 0 35
-0.90669531 -1.2272168 0.063189104 0 36
-0.9007839 -1.2192158 0.076749265 0 37
-0.90515822 -1.2251364 0.091175035 0 38
-0.89952642 -1.2175138 0.10458877 0 39
-0.90882897 -1.2301048 0.11981396 0 40
-0.89617079 -1.2129719 0.13211188 0 41
-0.90636325 -1.2267674 0.14776275 0 42
-0.90651667 -1.2269751 0.16196372 0 43
-0.90082228 -1.2192677 0.17506076 0 44
-0.90475994 -1.2245973 0.19003227 0 45
-0.90514553 -1.2251192 0.20435828 0 46
-0.90451223 -1.224262 0.2184855 0 47
-0.91153491 -1.2337673 0.23460089 0 48
-0.90414286 -1.2237622 0.24704079 0 49
-0.90262586 -1.2217088 0.26098746 0 50
-0.90855736 -1.2297372 0.27720383 0 51
-0.90376776 -1.2232544 0.29021555 0 52
-0.90520132 -1.2251947 0.30522287 0 53
-0.89757586 -1.2148737 0.31712934 0 54
-0.90803277 -1.2290272 0.335527 0 55
-0.90527856 -1.2252992 0.34922707 0 56
-0.9067381 -1.2272748 0.36459392 0 57
-0.90312356 -1.2223824 0.37795028 0 58
-0.90139723 -1.2200459 0.39207703 0 59
-0.90119922 -1.2197778 0.40690759 0 60
-0.9018628 -1.2206761 0.42220879 0 61
-0.90913755 -1.2305224 0.44081458 0 62
-0.90089762 -1.2193696 0.4519617 0 63
-0.88282913 -1.2261772 -0.4504272 0 0
-0.87875664 -1.2205209 -0.433328 0 1
-0.87782079 -1.2192211 -0.41794047 0 2
-0.87586063 -1.2164986 -0.40219048 0 3
-0.87336266 -1.213029 -0.38634166 0 4
-0.87923521 -1.2211856 -0.37420911 0 5
-0.88890332 -1.2346138 -0.36349955 0 6
-0.86987489 -1.2081848 -0.3412748 0 7
-0.87631392 -1.2171282 -0.32931194 0 8
-0.87928396 -1.2212533 -0.31594843 0 9
-0.87378281 -1.2136127 -0.29963818 0 10
-0.88117146 -1.2238749 -0.28777033 0 11
-0.88069671 -1.2232155 -0.27327192 0 12
-0.88428718 -1.2282023 -0.26003212 0 13
-0.8811174 -1.2237997 -0.24484271 0 14
-0.88198662 -1.2250071 -0.23085544 0 15
-0.87761337 -1.218933 -0.21559228 0 16
-0.87985307 -1.2220438 -0.20202529 0 17
-0.87653095 -1.2174295 -0.18723327 0 18
-0.88272101 -1.226027 -0.17445962 0 19
-0.87990463 -1.2221153 -0.15988189 0 20
-0.87611085 -1.2168461 -0.14525914 0 21
-0.87468392 -1.2148643 -0.13113661 0 22
-0.88067412 -1.2231841 -0.11807617 0 23
-0.87668812 -1.2176479 -0.1036664 0 24
-0.8755672 -1.216091 -0.089693852 0 25
-0.87134945 -1.210233 -0.075503618 0 26
-0.88192421 -1.2249204 -0.062507749 0 27
-0.88440251 -1.2283626 -0.048742756 0 28
-0.87642241 -1.2172788 -0.034496263 0 29
-0.87864596 -1.2203672 -0.020747928 0 30
-0.88001639 -1.2222706 -0.0069263722 0 31
-0.87616718 -1.2169244 0.0068960763 0 32
-0.87737912 -1.2186075 0.020718014 0 33
-0.87362611 -1.213395 0.034386199 0 34
-0.87016827 -1.2085923 0.047958251 0 35
-0.8743847 -1.2144487 0.061973378 0 36
-0.87859398 -1.220295 0.076131359 0 37
-0.87582457 -1.2164484 0.089720219 0 38
-0.87661481 -1.2175461 0.10365773 0 39
-0.87494731 -1.21523 0.11730834 0 40
-0.88264966 -1.2259279 0.13233088 0 41
-0.88090336 -1.2235025 0.14605375 0 42
-0.86871791 -1.2065779 0.15784924 0 43
-0.88102585 -1.2236726 0.1741246 0 44
-0.8771919 -1.2183477 0.18737446 0 45
-0.87093526 -1.2096577 0.19997765 0 46
-0.88193399 -1.224934 0.21665366 0 47
-0.87734139 -1.2185552 0.22963957 0 48
-0.87241304 -1.2117101 0.24242395 0 49
-0.875292 -1.2157087 0.25738701 0 50
-0.8787576 -1.2205222 0.27267024 0 51
-0.8783626 -1.2199736 0.28685302 0 52
-0.87800777 -1.2194808 0.30108702 0 53
-0.88025731 -1.2226052 0.31629819 0 54
-0.87177652 -1.210826 0.3276068 0 55
-0.87287015 -1.212345 0.34244993 0 56
-0.8743493 -1.2143995 0.35754797 0 57
-0.87875664 -1.2205209 0.37400541 0 58
-0.8788178 -1.2206057 0.38875481 0 59
-0.88048661 -1.2229236 0.4043147 0 60
-0.88076752 -1.2233139 0.41934344 0 61
-0.87555969 -1.2160805 0.43175155 0 62
-0.87090725 -1.2096188 0.44434458 0 63
-0.85075003 -1.2127963 -0.44163558 0 0
-0.8580752 -1.2232388 -0.43051431 0 1
-0.862993 -1.2302494 -0.41805166 0 2
-0.85598618 -1.2202607 -0.39992416 0 3
-0.85270065 -1.2155771 -0.38378471 0 4
-0.85600698 -1.2202904 -0.37068132 0 5
-0.85004449 -1.2117904 -0.3536756 0 6
-0.85287887 -1.2158312 -0.34044653 0 7
-0.85383892 -1.2171998 -0.3264659 0 8
-0.85668927 -1.2212631 -0.31320199 0 9
-0.85869026 -1.2241156 -0.29960173 0 10
-0.85946858 -1.2252251 -0.28558126 0 11
-0.85789627 -1.2229837 -0.27084297 0 12
-0.85291344 -1.2158804 -0.25518361 0 13
-0.86000329 -1.2259874 -0.24314629 0 14
-0.86176139 -1.2284937 -0.22949819 0 15
-0.85718536 -1.2219703 -0.21424903 0 16
-0.85595238 -1.2202126 -0.19996744 0 17
-0.85343915 -1.2166297 -0.18548229 0 18
-0.85557872 -1.2196798 -0.17204638 0 19
-0.86481178 -1.2328422 -0.15988193 0 20
-0.85545528 -1.219504 -0.14430982 0 21
-0.8524906 -1.2152776 -0.13003989 0 22
-0.85570288 -1.219857 -0.11673044 0 23
-0.86413044 -1.2318709 -0.10396481 0 24
-0.85939014 -1.2251133 -0.089573115 0 25
-0.85672808 -1.2213184 -0.075532265 0 26
-0.84252536 -1.2010716 -0.060757477 0 27
-0.85541469 -1.2194461 -0.047967926 0 28
-0.85330981 -1.2164454 -0.03417271 0 29
-0.85678297 -1.2213967 -0.020584758 0 30
-0.85072201 -1.2127564 -0.0068126628 0 31
-0.86259669 -1.2296845 0.006907756 0 32
-0.84892064 -1.2101884 0.02039586 0 33
-0.85492444 -1.2187473 0.034237374 0 34
-0.85580087 -1.2199967 0.047989581 0 35
-0.85087121 -1.2129691 0.061359324 0 36
-0.84120321 -1.1991867 0.074163534 0 37
-0.86575484 -1.2341866 0.090236507 0 38
-0.85868984 -1.224115 0.10331023 0 39
-0.86400324 -1.2316896 0.11786273 0 40
-0.85043025 -1.2123405 0.12972559 0 41
-0.85584855 -1.2200645 0.14437616 0 42
-0.85791737 -1.2230139 0.15860735 0 43
-0.84947389 -1.2109771 0.17081879 0 44
-0.86102968 -1.2274506 0.18713199 0 45
-0.85848796 -1.2238272 0.20055981 0 46
-0.86041451 -1.2265736 0.21505612 0 47
-0.85477203 -1.2185299 0.22763684 0 48
-0.85350674 -1.2167262 0.24130954 0 49
-0.84725857 -1.207819 0.2534917 0 50
-0.85660845 -1.2211479 0.27043638 0 51
-0.84106988 -1.1989967 0.27946782 0 52
-0.85867065 -1.2240876 0.29959488 0 53
-0.84996343 -1.2116749 0.31074303 0 54
-0.84575576 -1.2056767 0.32337528 0 55
-0.85439062 -1.2179862 0.34104997 0 56
-0.85229385 -1.2149972 0.35461152 0 57
-0.84959567 -1.2111506 0.36790499 0 58
-0.84832287 -1.2093363 0.38181436 0 59
-0.85471606 -1.2184501 0.39933074 0 60
-0.85919082 -1.2248292 0.41620979 0 61
-0.85794765 -1.2230569 0.43045032 0 62
-0.85621423 -1.2205858 0.4444721 0 63
-0.85077715 -1.2451227 -0.44956362 0 0
-0.85043663 -1.2446244 -0.43432763 0 1
-0.85239595 -1.247492 -0.42031732 0 2
-0.85184711 -1.2466887 -0.40512198 0 3
-0.84794307 -1.2409751 -0.38848212 0 4
-0.85152227 -1.2462133 -0.37534675 0 5
-0.86003 -1.2586644 -0.36424223 0 6
-0.84579432 -1.2378303 -0.34366837 0 7
-0.85444754 -1.2504945 -0.33255273 0 8
-0.85231644 -1.2473755 -0.31718695 0 9
-0.84803897 -1.2411153 -0.30118743 0 10
-0.85421365 -1.2501521 -0.28892127 0 11
-0.8540802 -1.2499567 -0.27446985 0 12
-0.85360724 -1.2492646 -0.25996754 0 13
-0.84835875 -1.2415833 -0.24415201 0 14
-0.84743541 -1.2402321 -0.22972703 0 15
-0.84992617 -1.2438774 -0.21624126 0 16
-0.85202324 -1.2469465 -0.20261632 0 17
-0.8510325 -1.2454965 -0.18827355 0 18
-0.85244101 -1.2475579 -0.17448704 0 19
-0.84965819 -1.2434852 -0.15989517 0 20
-0.85386384 -1.2496401 -0.14662243 0 21
-0.85316151 -1.2486123 -0.13247426 0 22
-0.85494316 -1.2512197 -0.11871664 0 23
-0.84569246 -1.2376813 -0.1035697 0 24
-0.85316014 -1.2486104 -0.090517208 0 25
-0.85092199 -1.2453347 -0.076364674 0 26
-0.85316294 -1.2486143 -0.062627055 0 27
-0.84900218 -1.2425251 -0.048461437 0 28
-0.85031277 -1.2444432 -0.03466288 0 29
-0.85158998 -1.2463124 -0.020826619 0 30
-0.85765642 -1.2551906 -0.0069912653 0 31
-0.84144759 -1.2314688 0.0068591377 0 32
-0.84824967 -1.2414237 0.020744927 0 33
-0.84784126 -1.240826 0.03456213 0 34
-0.84960788 -1.2434115 0.048496012 0 35
-0.85924292 -1.2575126 0.063073359 0 36
-0.85329121 -1.2488021 0.076577298 0 37
-0.84719938 -1.2398866 0.089884788 0 38
-0.8493768 -1.2430733 0.10402092 0 39
-0.85059088 -1.2448502 0.1181123 0 40
-0.8568421 -1.2539989 0.13304575 0 41
-0.85244173 -1.247559 0.14637825 0 42
-0.85532665 -1.251781 0.1609619 0 43
-0.85468507 -1.250842 0.17494638 0 44
-0.85051948 -1.2447456 0.18816005 0 45
-0.85244101 -1.2475579 0.20271567 0 46
-0.8531698 -1.2486244 0.21706651 0 47
-0.84502327 -1.2367018 0.22907314 0 48
-0.84964186 -1.2434613 0.24452129 0 49
-0.83389395 -1.2204139 0.25396383 0 50
-0.85053301 -1.2447655 0.27332994 0 51
-0.84931529 -1.2429833 0.28726447 0 52
-0.83991325 -1.2292234 0.29830152 0 53
-0.86245865 -1.2622188 0.32096133 0 54
-0.85213768 -1.2471139 0.33165371 0 55
-0.85067761 -1.244977 0.34565258 0 56
-0.84896946 -1.2424772 0.35955787 0 57
-0.85622329 -1.2530932 0.37741894 0 58
-0.856103 -1.2529173 0.39222056 0 59
-0.8513431 -1.2459511 0.40488228 0 60
-0.85193342 -1.246815 0.42008927 0 61
-0.84821272 -1.2413696 0.43319187 0 62
-0.85005403 -1.2440645 0.44918153 0 63
-0.8496688 -1.2769283 -0.45724043 0 0
-0.8530364 -1.2819893 -0.44367266 0 1
-0.84321493 -1.2672291 -0.42344186 0 2
-0.85542935 -1.2855855 -0.41431236 0 3
-0.85236669 -1.2809827 -0.39769521 0 4
-0.84719247 -1.2732067 -0.38031051 0 5
-0.84176016 -1.2650427 -0.36306524 0 6
-0.85203886 -1.28049 -0.35257685 0 7
-0.85116524 -1.2791772 -0.33737165 0 8
-0.85385036 -1.2832125 -0.32360542 0 9
-0.85401297 -1.2834569 -0.30889088 0 10
-0.84994823 -1.2773482 -0.29276899 0 11
-0.84640473 -1.2720228 -0.27700889 0 12
-0.84695965 -1.2728567 -0.26268989 0 13
-0.83881122 -1.2606109 -0.24584682 0 14
-0.85009903 -1.2775748 -0.23469 0 15
-0.84327555 -1.26732 -0.21849748 0 16
-0.86248803 -1.2961937 -0.20887941 0 17
-0.85714841 -1.288169 -0.19311623 0 18
-0.8477394 -1.2740287 -0.17671801 0 19
-0.84653765 -1.2722226 -0.16223963 0 20
-0.84471291 -1.2694803 -0.14772043 0 21
-0.84972507 -1.2770128 -0.13436875 0 22
-0.84540397 -1.2705188 -0.11955239 0 23
-0.84742457 -1.2735555 -0.10569171 0 24
-0.85530692 -1.2854015 -0.092414938 0 25
-0.84939992 -1.2765242 -0.077630892 0 26
-0.84457129 -1.2692674 -0.063137285 0 27
-0.85027981 -1.2778466 -0.049427535 0 28
-0.84960139 -1.2768269 -0.035271242 0 29
-0.85260618 -1.2813427 -0.021235196 0 30
-0.8493849 -1.2765015 -0.0070512574 0 31
-0.85462183 -1.284372 0.0070947325 0 32
-0.84669459 -1.2724584 0.021087959 0 33
-0.84626842 -1.2718179 0.035132874 0 34
-0.84571278 -1.270983 0.049162049 0 35
-0.84997356 -1.2773862 0.063541137 0 36
-0.84704524 -1.2729853 0.077415682 0 37
-0.85950261 -1.291707 0.092868276 0 38
-0.8487134 -1.2754924 0.10585245 0 39
-0.84738821 -1.2735008 0.11983299 0 40
-0.84921068 -1.2762398 0.1342874 0 41
-0.85347366 -1.2826464 0.14925247 0 42
-0.84479421 -1.2696024 0.1619055 0 43
-0.84686422 -1.2727133 0.17653556 0 44
-0.84510314 -1.2700667 0.19040242 0 45
-0.8480736 -1.2745309 0.20538849 0 46
-0.84290284 -1.26676 0.21840091 0 47
-0.85330361 -1.2823908 0.23557472 0 48
-0.84811831 -1.2745981 0.24857463 0 49
-0.84709358 -1.2730581 0.26273143 0 50
-0.85070246 -1.2784817 0.27841544 0 51
-0.84642237 -1.2720493 0.29155448 0 52
-0.85276854 -1.2815868 0.3084408 0 53
-0.84269869 -1.2664531 0.31937897 0 54
-0.85023189 -1.2777746 0.33700171 0 55
-0.85029322 -1.2778667 0.35185453 0 56
-0.84441066 -1.269026 0.36420843 0 57
-0.8462882 -1.2718477 0.37990457 0 58
-0.84894633 -1.2758424 0.39609936 0 59
-0.84986639 -1.2772251 0.41161802 0 60
-0.85153431 -1.2797319 0.42761967 0 61
-0.84356046 -1.2677484 0.43874413 0 62
-0.84586126 -1.271206 0.45519143 0 63
-0.84740746 -1.3081237 -0.46464452 0 0
-0.84431499 -1.30335 -0.44743833 0 1
-0.8411721 -1.2984984 -0.43040165 0 2
-0.84178483 -1.2994442 -0.41541141 0 3
-0.84627378 -1.3063737 -0.40231699 0 4
-0.8436541 -1.3023298 -0.38588175 0 5
-0.84850031 -1.3098109 -0.37289101 0 6
-0.85020506 -1.3124424 -0.35846907 0 7
-0.83596808 -1.2904651 -0.33761209 0 8
-0.85086328 -1.3134584 -0.32856962 0 9
-0.85182565 -1.314944 -0.31392431 0 10
-0.84956616 -1.3114562 -0.29816961 0 11
-0.84975731 -1.3117512 -0.28336364 0 12
-0.84145528 -1.2989355 -0.2659165 0 13
-0.85388446 -1.3181221 -0.25499582 0 14
-0.84520394 -1.3047222 -0.23774981 0 15
-0.84356642 -1.3021945 -0.22270492 0 16
-0.84502304 -1.304443 -0.20851855 0 17
-0.84430403 -1.303333 -0.19381848 0 18
-0.84980649 -1.3118272 -0.18049787 0 19
-0.85479146 -1.3195223 -0.16691849 0 20
-0.84163654 -1.2992153 -0.14996488 0 21
-0.837493 -1.2928191 -0.13493811 0 22
-0.84931576 -1.3110696 -0.12237614 0 23
-0.85568047 -1.3208947 -0.10873894 0 24
-0.85255498 -1.31607 -0.093859054 0 25
-0.84875721 -1.3102074 -0.079038635 0 26
-0.84675997 -1.3071243 -0.06449759 0 27
-0.84395641 -1.3027965 -0.049987417 0 28
-0.84765518 -1.3085063 -0.035855714 0 29
-0.84092492 -1.2981168 -0.021340204 0 30
-0.84929502 -1.3110375 -0.0071837995 0 31
-0.84515584 -1.3046479 0.0071487878 0 32
-0.85189658 -1.3150536 0.021618634 0 33
-0.84869486 -1.3101112 0.035899691 0 34
-0.84719402 -1.3077943 0.05017918 0 35
-0.84699625 -1.3074889 0.064515583 0 36
-0.85357869 -1.3176502 0.079487622 0 37
-0.84523994 -1.3047777 0.093053728 0 38
-0.84937882 -1.311167 0.10793813 0 39
-0.84667635 -1.3069952 0.12199583 0 40
-0.84634304 -1.3064806 0.13636403 0 41
-0.85650969 -1.3221747 0.15261501 0 42
-0.83818984 -1.2938948 0.16367662 0 43
-0.84154141 -1.2990686 0.17874238 0 44
-0.84610635 -1.3061153 0.19423223 0 45
-0.85912877 -1.3262177 0.21199928 0 46
-0.84811711 -1.3092192 0.22390632 0 47
-0.844679 -1.3039119 0.23760214 0 48
-0.84570193 -1.305491 0.25255227 0 49
-0.85184515 -1.3149742 0.26919991 0 50
-0.84648311 -1.3066969 0.2822718 0 51
-0.83742476 -1.2927136 0.29390839 0 52
-0.84963763 -1.3115665 0.31311795 0 53
-0.83979201 -1.296368 0.32429433 0 54
-0.84765905 -1.3085121 0.34233356 0 55
-0.84256411 -1.3006471 0.35524744 0 56
-0.84291315 -1.301186 0.3704356 0 57
-0.84309274 -1.3014632 0.385625 0 58
-0.85194999 -1.315136 0.40501547 0 59
-0.84451365 -1.3036566 0.41675803 0 60
-0.84658301 -1.3068511 0.43317029 0 61
-0.84568983 -1.3054723 0.44816691 0 62
-0.84945726 -1.311288 0.46576843 0 63
-0.847372 -1.3440002 -0.47365093 0 0
-0.84083223 -1.3336277 -0.45424885 0 1
-0.84214014 -1.3357021 -0.43926767 0 2
-0.84500587 -1.3402474 -0.42510167 0 3
-0.84738302 -1.3440177 -0.41067004 0 4
-0.84031546 -1.332808 -0.39182121 0 5
-0.84033334 -1.3328364 -0.37647596 0 6
-0.84726346 -1.3438281 -0.36416838 0 7
-0.84201372 -1.3355016 -0.3466596 0 8
-0.84855509 -1.3458767 -0.3340438 0 9
-0.8422572 -1.3358878 -0.31642786 0 10
-0.83247304 -1.3203694 -0.29784623 0 11
-0.847063 -1.3435102 -0.28795236 0 12
-0.84640628 -1.3424685 -0.27267721 0 13
-0.84796232 -1.3449365 -0.25814652 0 14
-0.83824408 -1.3295226 -0.24037257 0 15
-0.84451592 -1.3394703 -0.22728676 0 16
-0.84340101 -1.3377019 -0.21216123 0 17
-0.8387807 -1.3303738 -0.19629106 0 18
-0.84030426 -1.3327903 -0.18194677 0 19
-0.83773637 -1.3287174 -0.16676594 0 20
-0.84228504 -1.3359319 -0.15299591 0 21
-0.85100949 -1.3497696 -0.13977952 0 22
-0.83800077 -1.3291367 -0.12309141 0 23
-0.84525561 -1.3406435 -0.1095008 0 24
-0.84871101 -1.3461241 -0.095250964 0 25
-0.83958757 -1.3316535 -0.079703555 0 26
-0.84780687 -1.34469 -0.065831818 0 27
-0.83863038 -1.3301353 -0.050636891 0 28
-0.85027891 -1.3486109 -0.036665391 0 29
-0.84126544 -1.3343147 -0.021763572 0 30
-0.83847755 -1.3298929 -0.0072300755 0 31
-0.83515674 -1.3246258 0.0072014406 0 32
-0.8410092 -1.3339083 0.021756943 0 33
-0.84354067 -1.3379234 0.036374826 0 34
-0.84003061 -1.3323562 0.050721433 0 35
-0.84562606 -1.3412311 0.065662481 0 36
-0.84561312 -1.3412106 0.080275573 0 37
-0.84161836 -1.3348745 0.094454952 0 38
-0.84888405 -1.3463985 0.10997085 0 39
-0.84835744 -1.3455632 0.12461267 0 40
-0.83813655 -1.329352 0.13766512 0 41
-0.83966422 -1.3317751 0.15251985 0 42
-0.83976793 -1.3319396 0.16717036 0 43
-0.83952212 -1.3315496 0.18177742 0 44
-0.83936679 -1.3313034 0.19642822 0 45
-0.853302 -1.3534057 0.21465187 0 46
-0.84539652 -1.3408669 0.22752376 0 47
-0.84118843 -1.3341926 0.24121688 0 48
-0.84352249 -1.3378947 0.2567949 0 49
-0.84442693 -1.3393291 0.27203956 0 50
-0.84376895 -1.3382856 0.2868326 0 51
-0.84299988 -1.3370657 0.30161256 0 52
-0.84529442 -1.340705 0.3175689 0 53
-0.84482265 -1.3399568 0.33257449 0 54
-0.85075903 -1.3493724 0.35026005 0 55
-0.84990197 -1.348013 0.36530247 0 56
-0.84264612 -1.3365046 0.3775121 0 57
-0.84439349 -1.3392761 0.39372271 0 58
-0.84523118 -1.3406048 0.4096272 0 59
-0.84419864 -1.3389671 0.42469558 0 60
-0.8494072 -1.3472282 0.44305822 0 61
-0.84958708 -1.3475136 0.4589785 0 62
-0.84295738 -1.3369983 0.47118333 0 63
-0.84145808 -1.3717202 -0.47973722 0 0
-0.84412605 -1.3760694 -0.46513432 0 1
-0.84450412 -1.3766857 -0.44929674 0 2
-0.83912534 -1.3679174 -0.43057278 0 3
-0.84263736 -1.3736427 -0.41652459 0 4
-0.83943027 -1.3684145 -0.39922419 0 5
-0.8435654 -1.3751556 -0.38547042 0 6
-0.83789319 -1.3659087 -0.36733225 0 7
-0.84498149 -1.3774639 -0.354828 0 8
-0.84296769 -1.3741812 -0.33847061 0 9
-0.83710861 -1.3646299 -0.32077348 0 10
-0.84727865 -1.3812087 -0.30919668 0 11
-0.84434801 -1.3764312 -0.29276091 0 12
-0.84432167 -1.3763883 -0.27743712 0 13
-0.84452003 -1.3767116 -0.26223239 0 14
-0.84435606 -1.3764443 -0.24696004 0 15
-0.84690821 -1.3806049 -0.23248197 0 16
-0.8475163 -1.3815961 -0.2174536 0 17
-0.84988552 -1.3854584 -0.20286128 0 18
-0.84545064 -1.3782288 -0.1867165 0 19
-0.84707558 -1.3808776 -0.17199223 0 20
-0.84747326 -1.3815259 -0.15701219 0 21
-0.84281015 -1.3739244 -0.14119704 0 22
-0.84573239 -1.378688 -0.12670767 0 23
-0.84581339 -1.3788201 -0.11176104 0 24
-0.84582335 -1.3788363 -0.096822396 0 25
-0.84554523 -1.3783829 -0.081871957 0 26
-0.84152126 -1.3718232 -0.066648543 0 27
-0.84422922 -1.3762376 -0.05199283 0 28
-0.84772301 -1.3819331 -0.037285116 0 29
-0.84256035 -1.373517 -0.022232322 0 30
-0.84065723 -1.3704147 -0.0073936176 0 31
-0.84341556 -1.3749112 0.0074178772 0 32
-0.8423745 -1.3732141 0.022227418 0 33
-0.84859049 -1.3833473 0.03732327 0 34
-0.84347093 -1.3750015 0.05194613 0 35
-0.84960699 -1.3850043 0.067288935 0 36
-0.84722012 -1.3811133 0.082034141 0 37
-0.84769732 -1.3818913 0.09703692 0 38
-0.8435607 -1.3751478 0.11146338 0 39
-0.83951193 -1.3685477 0.12577574 0 40
-0.84834653 -1.3829495 0.14212455 0 41
-0.84849757 -1.3831958 0.15720198 0 42
-0.8385908 -1.367046 0.17026946 0 43
-0.84420121 -1.3761919 0.18644056 0 44
-0.84034592 -1.3699071 0.20058425 0 45
-0.84794605 -1.3822967 0.21756387 0 46
-0.85032374 -1.3861728 0.23341957 0 47
-0.83625686 -1.3632413 0.24459118 0 48
-0.84132481 -1.3715029 0.26124024 0 49
-0.83887821 -1.3675145 0.27564844 0 50
-0.83757162 -1.3653846 0.29041135 0 51
-0.84996915 -1.3855946 0.31017852 0 52
-0.84585619 -1.3788898 0.32412547 0 53
-0.84393442 -1.375757 0.33885875 0 54
-0.85251826 -1.3897501 0.35799289 0 55
-0.84652311 -1.379977 0.37111562 0 56
-0.84502029 -1.3775272 0.38613525 0 57
-0.84196252 -1.3725425 0.4004285 0 58
-0.84922892 -1.384388 0.41978285 0 59
-0.83846539 -1.3668417 0.43023416 0 60
-0.84077758 -1.3706108 0.44731414 0 61
-0.84234548 -1.3731668 0.4641532 0 62
-0.84530008 -1.3779832 0.48192763 0 63
-0.83481252 -1.3991995 -0.48572084 0 0
-0.83636522 -1.4018019 -0.47032052 0 1
-0.84079832 -1.409232 -0.45650989 0 2
-0.84089947 -1.4094015 -0.44034255 0 3
-0.83833241 -1.405099 -0.42290521 0 4
-0.8387543 -1.4058062 -0.4070932 0 5
-0.8434931 -1.4137486 -0.39335138 0 6
-0.84345174 -1.4136794 -0.37736145 0 7
-0.83748782 -1.4036834 -0.35890216 0 8
-0.83216161 -1.3947564 -0.34099227 0 9
-0.8396436 -1.4072967 -0.32835111 0 10
-0.84624946 -1.4183686 -0.31516197 0 11
-0.85039937 -1.4253241 -0.3009133 0 12
-0.83923703 -1.4066153 -0.28142855 0 13
-0.83858812 -1.4055276 -0.26573694 0 14
-0.84508407 -1.4164152 -0.25224808 0 15
-0.84145415 -1.4103312 -0.2357275 0 16
-0.84524685 -1.4166881 -0.22132424 0 17
-0.83846736 -1.4053252 -0.20424515 0 18
-0.83474475 -1.3990859 -0.18813734 0 19
-0.84070063 -1.4090683 -0.17420271 0 20
-0.83540928 -1.4001997 -0.15795507 0 21
-0.84569877 -1.4174455 -0.14459004 0 22
-0.83991277 -1.4077479 -0.12841952 0 23
-0.84003723 -1.4079564 -0.11327687 0 24
-0.83634007 -1.4017597 -0.097702555 0 25
-0.8319155 -1.3943439 -0.082206167 0 26
-0.84322762 -1.4133037 -0.068154924 0 27
-0.83847952 -1.4053456 -0.052699 0 28
-0.839252 -1.4066403 -0.037670445 0 29
-0.83893126 -1.4061027 -0.022591081 0 30
-0.8398003 -1.4075593 -0.0075377356 0 31
-0.84445792 -1.4153658 0.0075795413 0 32
-0.84252143 -1.4121201 0.022687759 0 33
-0.84586549 -1.417725 0.037967298 0 34
-0.83813608 -1.4047699 0.052677415 0 35
-0.84737289 -1.4202515 0.068489976 0 36
-0.83578974 -1.4008373 0.082589 0 37
-0.83728766 -1.403348 0.097813256 0 38
-0.84356564 -1.4138703 0.11375267 0 39
-0.83523256 -1.3999035 0.12770393 0 40
-0.83602357 -1.4012293 0.14293586 0 41
-0.84507704 -1.4164034 0.15978299 0 42
-0.8375482 -1.4037846 0.17354947 0 43
-0.83678001 -1.4024971 0.18859604 0 44
-0.84075314 -1.4091563 0.20480196 0 45
-0.84058362 -1.4088722 0.22010319 0 46
-0.84132576 -1.4101161 0.23569152 0 47
-0.8378312 -1.404259 0.25008318 0 48
-0.83466375 -1.3989501 0.26449335 0 49
-0.84464449 -1.4156785 0.28324187 0 50
-0.84170055 -1.4107443 0.29783523 0 51
-0.84953594 -1.4238769 0.31638592 0 52
-0.84221488 -1.4116063 0.32935661 0 53
-0.84448284 -1.4154075 0.34604111 0 54
-0.85153794 -1.4272323 0.36492327 0 55
-0.83616817 -1.4014716 0.37410274 0 56
-0.83620614 -1.4015353 0.38995323 0 57
-0.84296912 -1.4128704 0.40913886 0 58
-0.84175748 -1.4108397 0.424633 0 59
-0.84506035 -1.4163754 0.44252142 0 60
-0.8385343 -1.4054375 0.45528066 0 61
-0.83466673 -1.3989551 0.46936539 0 62
-0.83633989 -1.4017594 0.48660952 0 63
-0.83778673 -1.4442518 -0.49774659 0 0
-0.83855289 -1.4455726 -0.48151013 0 1
-0.84041548 -1.4487834 -0.46593937 0 2
-0.84060955 -1.449118 -0.44948781 0 3
-0.83808303 -1.4447626 -0.43170872 0 4
-0.82906735 -1.4292206 -0.41089034 0 5
-0.84390283 -1.4547954 -0.40185431 0 6
-0.8376053 -1.4439391 -0.38266057 0 7
-0.84177798 -1.4511323 -0.36835971 0 8
-0.83590651 -1.4410105 -0.34976119 0 9
-0.83501697 -1.4394771 -0.33343855 0 10
-0.83897954 -1.446308 -0.31905371 0 11
-0.84362787 -1.4543214 -0.30482206 0 12
-0.83464617 -1.4388379 -0.28580046 0 13
-0.83393604 -1.4376136 -0.26984414 0 14
-0.8353762 -1.4400964 -0.2546168 0 15
-0.84408498 -1.4551092 -0.24145876 0 16
-0.842336 -1.4520943 -0.22522043 0 17
-0.83852863 -1.4455308 -0.20857416 0 18
-0.83903378 -1.4464016 -0.19309799 0 19
-0.84315109 -1.4534993 -0.17840044 0 20
-0.83698517 -1.44287 -0.16159542 0 21
-0.84624434 -1.4588318 -0.1477391 0 22
-0.83614933 -1.4414291 -0.13054425 0 23
-0.83139634 -1.4332354 -0.11447953 0 24
-0.83831418 -1.4451611 -0.10000158 0 25
-0.83755249 -1.443848 -0.084511198 0 26
-0.83813632 -1.4448545 -0.069174193 0 27
-0.84174526 -1.4510759 -0.054021623 0 28
-0.84729528 -1.4606435 -0.038834721 0 29
-0.84074599 -1.4493532 -0.023118118 0 30
-0.84086919 -1.4495656 -0.0077067339 0 31
-0.83641809 -1.4418924 0.0076659382 0 32
-0.84405947 -1.4550654 0.023209229 0 33
-0.84279233 -1.4528809 0.038628332 0 34
-0.84931546 -1.4641261 0.054507464 0 35
-0.83726537 -1.4433531 0.06910231 0 36
-0.84162563 -1.4508697 0.084922187 0 37
-0.84254426 -1.4524533 0.10050618 0 38
-0.8368482 -1.4426339 0.11523023 0 39
-0.83753055 -1.4438102 0.13075988 0 40
-0.8387574 -1.4459251 0.14643201 0 41
-0.83174193 -1.4338312 0.16058311 0 42
-0.84099793 -1.4497876 0.17794487 0 43
-0.84027719 -1.4485451 0.19338416 0 44
-0.83777738 -1.4442357 0.2083873 0 45
-0.83513421 -1.4396791 0.22329484 0 46
-0.83150423 -1.4334215 0.23785992 0 47
-0.83822376 -1.4450053 0.25548473 0 48
-0.8347376 -1.4389955 0.27010351 0 49
-0.83510125 -1.4396223 0.28595626 0 50
-0.84130484 -1.4503165 0.3039827 0 51
-0.84495676 -1.4566121 0.32132679 0 52
-0.83282381 -1.4356964 0.33256277 0 53
-0.84362411 -1.4543148 0.35299039 0 54
-0.8415451 -1.4507308 0.36825782 0 55
-0.83840674 -1.4453206 0.38302669 0 56
-0.83975655 -1.4476476 0.3998799 0 57
-0.84054685 -1.44901 0.41657963 0 58
-0.83499634 -1.4394416 0.43011874 0 59
-0.82993215 -1.4307114 0.44377843 0 60
-0.83604127 -1.4412428 0.46351424 0 61
-0.84472841 -1.4562186 0.48505622 0 62
-0.83917117 -1.4466385 0.4985691 0 63
-0.83100951 -1.4740334 -0.50445068 0 0
-0.83473855 -1.4806478 -0.48973745 0 1
-0.84408343 -1.4972236 -0.4781439 0 2
-0.83802581 -1.4864788 -0.45784542 0 3
-0.83693188 -1.4845384 -0.44048566 0 4
-0.8344509 -1.4801376 -0.42254674 0 5
-0.83596152 -1.4828171 -0.40672448 0 6
-0.83805257 -1.4865263 -0.39118612 0 7
-0.83769286 -1.4858881 -0.3745392 0 8
-0.83191752 -1.475644 -0.35565758 0 9
-0.83795804 -1.4863585 -0.34188548 0 10
-0.83781296 -1.4861012 -0.32553479 0 11
-0.83204609 -1.475872 -0.30717137 0 12
-0.83411771 -1.4795467 -0.29182717 0 13
-0.83339691 -1.478268 -0.2755307 0 14
-0.8370586 -1.4847631 -0.2606746 0 15
-0.83747876 -1.4855084 -0.24477582 0 16
-0.84210473 -1.4937139 -0.23005222 0 17
-0.83505976 -1.4812175 -0.21222574 0 18
-0.83292776 -1.4774358 -0.195859 0 19
-0.84306252 -1.4954128 -0.18225868 0 20
-0.83815885 -1.4867147 -0.16533907 0 21
-0.83246499 -1.4766151 -0.14849217 0 22
-0.84364009 -1.4964373 -0.13457641 0 23
-0.83557081 -1.4821241 -0.11755494 0 24
-0.84226894 -1.4940051 -0.10265703 0 25
-0.84320605 -1.4956673 -0.086930826 0 26
-0.83072746 -1.473533 -0.070052862 0 27
-0.83795184 -1.4863476 -0.054946985 0 28
-0.83827186 -1.4869151 -0.039256189 0 29
-0.83318871 -1.4778987 -0.023408247 0 30
-0.83826733 -1.4869071 -0.0078498675 0 31
-0.83905274 -1.4883003 0.0078572221 0 32
-0.83514988 -1.4813775 0.023463348 0 33
-0.83819246 -1.4867744 0.039252475 0 34
-0.83937609 -1.4888738 0.055040378 0 35
-0.83975983 -1.4895545 0.070814535 0 36
-0.84212404 -1.4937482 0.086819276 0 37
-0.83339792 -1.4782699 0.10157582 0 38
-0.84575045 -1.5001806 0.1189871 0 39
-0.83524084 -1.4815388 0.13323657 0 40
-0.83887386 -1.487983 0.14963536 0 41
-0.84155393 -1.4927369 0.1660088 0 42
-0.83864027 -1.4875687 0.18130264 0 43
-0.8376171 -1.4857538 0.19696167 0 44
-0.84256452 -1.4945294 0.21413302 0 45
-0.83677495 -1.48426 0.22859618 0 46
-0.84113759 -1.4919984 0.2458452 0 47
-0.83394796 -1.4792454 0.25970587 0 48
-0.84457719 -1.4980994 0.27922702 0 49
-0.84278488 -1.4949204 0.2948595 0 50
-0.84012055 -1.4901943 0.31015226 0 51
-0.83770084 -1.4859023 0.32549122 0 52
-0.83636016 -1.4835242 0.34123352 0 53
-0.83432031 -1.479906 0.35668477 0 54
-0.83302718 -1.4776123 0.37245312 0 55
-0.83758253 -1.4856924 0.39096668 0 56
-0.83242029 -1.4765358 0.40500158 0 57
-0.83368051 -1.4787711 0.42215663 0 58
-0.8391366 -1.4884491 0.44164604 0 59
-0.83967221 -1.4893991 0.45874488 0 60
-0.83816952 -1.4867337 0.47479388 0 61
-0.83265799 -1.4769574 0.48851681 0 62
-0.83832884 -1.4870162 0.50889373 0 63
-0.83576578 -1.5260316 -0.51868951 0 0
-0.83282971 -1.5206707 -0.49955034 0 1
-0.83751142 -1.529219 -0.48503625 0 2
-0.83559591 -1.5257214 -0.46673244 0 3
-0.83988488 -1.5335526 -0.45193046 0 4
-0.84256858 -1.5384529 -0.43620378 0 5
-0.83171529 -1.5186357 -0.41371277 0 6
-0.82991111 -1.5153415 -0.39605355 0 7
-0.83279961 -1.5206157 -0.38068274 0 8
-0.83693486 -1.5281663 -0.36580837 0 9
-0.82864881 -1.5130367 -0.34565201 0 10
-0.83992898 -1.5336332 -0.33365917 0 11
-0.83120567 -1.5177053 -0.31372711 0 12
-0.83705568 -1.5283868 -0.29940766 0 13
-0.83501559 -1.5246619 -0.28224283 0 14
-0.83650899 -1.5273887 -0.26633218 0 15
-0.83063525 -1.5166638 -0.24820769 0 16
-0.83783621 -1.5298121 -0.23400742 0 17
-0.83155626 -1.5183455 -0.21606396 0 18
-0.83655417 -1.5274712 -0.20111313 0 19
-0.8386454 -1.5312896 -0.18536042 0 20
-0.83690459 -1.5281111 -0.16878557 0 21
-0.83938289 -1.5326362 -0.15307626 0 22
-0.83909333 -1.5321075 -0.13684602 0 23
-0.83233505 -1.5197674 -0.1197198 0 24
-0.84495544 -1.5428112 -0.10528874 0 25
-0.83498049 -1.5245978 -0.088008903 0 26
-0.82744735 -1.510843 -0.071337506 0 27
-0.83800191 -1.5301145 -0.056179777 0 28
-0.83485979 -1.5243775 -0.039971184 0 29
-0.83205789 -1.5192614 -0.023899525 0 30
-0.83466661 -1.5240246 -0.0079910345 0 31
-0.83448285 -1.5236892 0.0079892753 0 32
-0.83296156 -1.5209115 0.023925481 0 33
-0.82907128 -1.5138081 0.039694045 0 34
-0.83112895 -1.5175651 0.055719014 0 35
-0.8345173 -1.5237521 0.071947031 0 36
-0.83729684 -1.5288273 0.088253058 0 37
-0.83400828 -1.5228226 0.10392462 0 38
-0.83642977 -1.5272441 0.12030877 0 39
-0.83760434 -1.5293887 0.13660319 0 40
-0.83179456 -1.5187806 0.15169241 0 41
-0.83639854 -1.527187 0.1686835 0 42
-0.84050226 -1.53468 0.18577081 0 43
-0.83776188 -1.5296763 0.20140348 0 44
-0.83333915 -1.5216008 0.21652719 0 45
-0.82814157 -1.5121105 0.2312997 0 46
-0.83792168 -1.5299681 0.25038502 0 47
-0.83828777 -1.5306365 0.26689851 0 48
-0.83636886 -1.5271327 0.28270024 0 49
-0.83528441 -1.5251528 0.29877412 0 50
-0.83292556 -1.5208457 0.31437626 0 51
-0.83076334 -1.5168977 0.33001816 0 52
-0.8398537 -1.5334959 0.35032588 0 53
-0.83691108 -1.5281229 0.36579797 0 54
-0.82515782 -1.5066625 0.37718955 0 55
-0.84108531 -1.5357447 0.40138617 0 56
-0.83690929 -1.5281196 0.41629639 0 57
-0.83070403 -1.5167893 0.43006143 0 58
-0.82803369 -1.5119135 0.44555351 0 59
-0.83590859 -1.5262923 0.46690708 0 60
-0.83029902 -1.5160499 0.48085925 0 61
-0.83072871 -1.5168344 0.49829012 0 62
-0.83114004 -1.5175855 0.51581872 0 63
-0.83111465 -1.5628483 -0.52768975 0 0
-0.82942855 -1.5596777 -0.50897551 0 1
-0.82945561 -1.5597286 -0.49144107 0 2
-0.84385276 -1.5868013 -0.48220661 0 3
-0.83207464 -1.5646535 -0.4580459 0 4
-0.83136302 -1.5633154 -0.44032133 0 5
-0.8370561 -1.5740207 -0.42596474 0 6
-0.82497847 -1.5513097 -0.40277252 0 7
-0.83243698 -1.5653349 -0.38928607 0 8
-0.82864332 -1.5582011 -0.3705309 0 9
-0.83239245 -1.5652511 -0.35521519 0 10
-0.83797777 -1.5757539 -0.34055546 0 11
-0.83094472 -1.5625288 -0.32085627 0 12
-0.83534282 -1.5707991 -0.30568081 0 13
-0.83275265 -1.5659285 -0.28796464 0 14
-0.83052468 -1.561739 -0.27052063 0 15
-0.83836156 -1.5764756 -0.25628966 0 16
-0.82960206 -1.560004 -0.23704739 0 17
-0.82938933 -1.5596039 -0.22046718 0 18
-0.83402407 -1.5683192 -0.20512557 0 19
-0.83100879 -1.5626493 -0.18790531 0 20
-0.83496618 -1.5700909 -0.17227532 0 21
-0.83390915 -1.5681032 -0.15558271 0 22
-0.83423829 -1.5687221 -0.13918963 0 23
-0.84011126 -1.5797657 -0.12362305 0 24
-0.83144677 -1.5634729 -0.10599306 0 25
-0.83042735 -1.561556 -0.089546122 0 26
-0.83036822 -1.5614446 -0.07323911 0 27
-0.83419853 -1.5686473 -0.057213597 0 28
-0.82600898 -1.5532475 -0.040458806 0 29
-0.82899153 -1.5588559 -0.024360189 0 30
-0.83343172 -1.5672053 -0.0081630945 0 31
-0.82813013 -1.5572361 0.0081111677 0 32
-0.82881999 -1.5585334 0.024355149 0 33
-0.83259565 -1.5656332 0.040781431 0 34
-0.8294782 -1.5597712 0.056889858 0 35
-0.83041012 -1.5615234 0.073242806 0 36
-0.82848722 -1.5579077 0.089336917 0 37
-0.83716494 -1.5742254 0.10672201 0 38
-0.82761157 -1.5562611 0.12178371 0 39
-0.83203125 -1.5645719 0.13882139 0 40
-0.83415014 -1.5685563 0.15562767 0 41
-0.83247721 -1.5654105 0.17176178 0 42
-0.83300823 -1.5664091 0.18835743 0 43
-0.83137232 -1.5633329 0.20447339 0 44
-0.83149576 -1.5635649 0.22102711 0 45
-0.83024937 -1.5612212 0.23723234 0 46
-0.84037101 -1.5802542 0.25690395 0 47
-0.82601881 -1.5532659 0.26905298 0 48
-0.83301502 -1.5664217 0.28805536 0 49
-0.82936859 -1.5595649 0.3034946 0 50
-0.82992834 -1.5606176 0.32046381 0 51
-0.8321057 -1.5647119 0.33816904 0 52
-0.82994539 -1.5606495 0.35417092 0 53
-0.8267203 -1.554585 0.36967102 0 54
-0.83325857 -1.5668799 0.38967028 0 55
-0.8368082 -1.5735546 0.40854806 0 56
-0.83152449 -1.563619 0.42314979 0 57
-0.83478004 -1.5697409 0.44213113 0 58
-0.83153999 -1.5636481 0.45775157 0 59
-0.82735866 -1.5557854 0.47278133 0 60
-0.835388 -1.570884 0.49495593 0 61
-0.82631499 -1.5538229 0.50706488 0 62
-0.82603353 -1.5532936 0.52446365 0 63
-0.83412659 -1.6161382 -0.54217869 0 0
-0.83076149 -1.6096182 -0.52189964 0 1
-0.82538062 -1.5991926 -0.50063974 0 2
-0.82839131 -1.6050259 -0.48461273 0 3
-0.82679856 -1.6019399 -0.46594986 0 4
