# .PCD v0.7 - Point Cloud Data file format
VERSION 0.7
FIELDS x y z intensity ring
SIZE 4 4 4 4 2
TYPE F F F F U
COUNT 1 1 1 1 1
WIDTH 1319
HEIGHT 1
VIEWPOINT 0 0 0 1 0 0 0
POINTS 1319
DATA ascii
1.3126401 1.1496668 0.46817318 0 60
1.313925 1.1507921 0.4858959 0 61
1.3076758 1.1453187 0.50085539 0 62
1.3114679 1.14864 0.51972038 0 63
1.3104031 1.1764914 -0.52499175 0 0
1.3135824 1.1793457 -0.50863355 0 1
1.3073432 1.1737442 -0.48876232 0 2
1.3224285 1.1872879 -0.47683546 0 3
1.3126825 1.1785378 -0.45596993 0 4
1.3190989 1.1842986 -0.44084528 0 5
1.3072937 1.1736997 -0.41978031 0 6
1.3089842 1.1752174 -0.40325651 0 7
1.3107398 1.1767937 -0.38677979 0 8
1.3141499 1.1798552 -0.37079298 0 9
1.3052924 1.1719029 -0.35148031 0 10
1.308404 1.1746966 -0.33552665 0 11
1.3158571 1.1813879 -0.3206099 0 12
1.3036427 1.170422 -0.30101758 0 13
1.3209764 1.1859841 -0.28823587 0 14
1.3140504 1.1797659 -0.2700783 0 15
1.3188978 1.184118 -0.25441381 0 16
1.3140696 1.1797832 -0.23692644 0 17
1.3047223 1.1713911 -0.2188434 0 18
1.3134778 1.1792519 -0.20384204 0 19
1.314754 1.1803976 -0.18758917 0 20
1.3188162 1.1840447 -0.1716992 0 21
1.307987 1.1743222 -0.15398408 0 22
1.3037895 1.1705536 -0.13726318 0 23
1.3084867 1.1747708 -0.12149594 0 24
1.3086829 1.174947 -0.10527062 0 25
1.304785 1.1714474 -0.088779747 0 26
1.3138183 1.1795577 -0.073120221 0 27
1.3136706 1.179425 -0.056852054 0 28
1.3101265 1.1762431 -0.040492199 0 29
1.300366 1.1674801 -0.024111599 0 30
1.3079907 1.1743255 -0.0080838697 0 31
1.3164415 1.1819127 0.0081360983 0 32
1.3188934 1.1841141 0.024455138 0 33
1.3182416 1.1835289 0.040743012 0 34
1.3119236 1.1778566 0.056776449 0 35
1.3013208 1.1683372 0.072424673 0 36
1.3171217 1.1825234 0.08961916 0 37
1.316254 1.1817445 0.10587965 0 38
1.3165684 1.1820266 0.12224635 0 39
1.3033872 1.1701924 0.13722081 0 40
1.3037889 1.1705531 0.15348986 0 41
1.3116477 1.1776087 0.17076591 0 42
1.3063216 1.172827 0.18638603 0 43
1.3173027 1.1826859 0.20443565 0 44
1.3046157 1.1712955 0.21882552 0 45
1.3156618 1.1812127 0.23721351 0 46
1.3061525 1.1726751 0.25195527 0 47
1.3135148 1.1792852 0.26996824 0 48
1.3097458 1.1759013 0.28578538 0 49
1.3099705 1.176103 0.30247864 0 50
1.3044499 1.1711465 0.31783053 0 51
1.3194994 1.1846581 0.33837196 0 52
1.3079646 1.1743021 0.35219988 0 53
1.3131454 1.1789534 0.37050959 0 54
1.3086896 1.174953 0.38617483 0 55
1.3068393 1.1732918 0.40259576 0 56
1.312402 1.1782861 0.42142063 0 57
1.3129307 1.1787606 0.43878385 0 58
1.3091848 1.1753976 0.45475498 0 59
1.3106757 1.1767361 0.47259766 0 60
1.3140275 1.1797454 0.4912613 0 61
1.3144007 1.1800804 0.50895041 0 62
1.3206757 1.1857142 0.52910727 0 63
1.3056278 1.2015234 -0.52895778 0 0
1.3065289 1.2023526 -0.51158851 0 1
1.3112541 1.206701 -0.49573436 0 2
1.3082983 1.2039809 -0.47704259 0 3
1.3050756 1.2010152 -0.45842284 0 4
1.3101025 1.2056413 -0.44275975 0 5
1.309821 1.2053822 -0.42531914 0 6
1.3146288 1.2098067 -0.40954745 0 7
1.3097508 1.2053176 -0.39083192 0 8
1.309144 1.2047592 -0.37353224 0 9
1.3078781 1.2035943 -0.35613492 0 10
1.3098657 1.2054234 -0.33967689 0 11
1.3218917 1.2164904 -0.32570028 0 12
1.3136728 1.2089269 -0.30674288 0 13
1.3134533 1.2087249 -0.28981552 0 14
1.3121094 1.2074881 -0.27271044 0 15
1.3078681 1.2035851 -0.2551218 0 16
1.3183248 1.213208 -0.24036522 0 17
1.3107057 1.2061963 -0.22231796 0 18
1.3101277 1.2056645 -0.20560738 0 19
1.3070606 1.2028419 -0.18858755 0 20
1.3167632 1.2117709 -0.17335874 0 21
1.3121555 1.2075305 -0.15621105 0 22
1.3120403 1.2074245 -0.13968436 0 23
1.3188256 1.2136688 -0.12383229 0 24
1.3087543 1.2044005 -0.10645963 0 25
1.3017813 1.1979836 -0.089570917 0 26
1.3045062 1.2004912 -0.073417969 0 27
1.3142567 1.2094642 -0.057516694 0 28
1.3147765 1.2099426 -0.041092649 0 29
1.3135126 1.2087795 -0.024629107 0 30
1.3101244 1.2056614 -0.0081880642 0 31
1.307297 1.2030594 0.0081703933 0 32
1.3114952 1.2069229 0.02459128 0 33
1.3046267 1.2006021 0.040775418 0 34
1.3137614 1.2090085 0.05749502 0 35
1.2991273 1.1955413 0.073115252 0 36
1.3183485 1.2132298 0.090710849 0 37
1.3046135 1.2005899 0.1061228 0 38
1.3118484 1.207248 0.12317716 0 39
1.3061641 1.2020169 0.13905877 0 40
1.3128635 1.2081821 0.15629534 0 41
1.3137897 1.2090344 0.17296726 0 42
1.3155723 1.2106749 0.18981566 0 43
1.2996534 1.1960254 0.20396358 0 44
1.3061074 1.2019647 0.22153804 0 45
1.3053364 1.2012552 0.2379971 0 46
1.2983624 1.1948372 0.25326753 0 47
1.3117741 1.2071797 0.27264076 0 48
1.3024665 1.1986141 0.28739128 0 49
1.3019218 1.1981128 0.30399904 0 50
1.3058455 1.2017237 0.32174668 0 51
1.3103771 1.205894 0.33980951 0 52
1.3045682 1.2005482 0.35523361 0 53
1.3028713 1.1989866 0.37174249 0 54
1.316191 1.2112442 0.39275366 0 55
1.3137339 1.2089832 0.40926865 0 56
1.3063638 1.2022008 0.42419651 0 57
1.3251673 1.2195048 0.44785103 0 58
1.3107708 1.2062562 0.46042329 0 59
1.3165176 1.2115449 0.4800396 0 60
1.314621 1.2097994 0.49700725 0 61
1.3050593 1.2010002 0.51101303 0 62
1.305979 1.2018466 0.52910006 0 63
1.312523 1.2380176 -0.5378781 0 0
1.3076409 1.2334126 -0.51792341 0 1
1.3071493 1.2329489 -0.49987647 0 2
1.2992626 1.22551 -0.47920647 0 3
1.310889 1.2364763 -0.4657703 0 4
1.3108555 1.2364448 -0.44811869 0 5
1.2994481 1.225685 -0.42681262 0 6
1.3118007 1.2373363 -0.41337505 0 7
1.3105812 1.236186 -0.39558575 0 8
1.3034523 1.2294618 -0.37619337 0 9
1.3034821 1.2294899 -0.35902748 0 10
1.3079555 1.2337093 -0.34308955 0 11
1.3054556 1.2313514 -0.32535666 0 12
1.3120513 1.2375727 -0.30989417 0 13
1.309466 1.2351341 -0.29226485 0 14
1.3022002 1.2282808 -0.27376935 0 15
1.2969497 1.2233284 -0.25590694 0 16
1.3042952 1.2302568 -0.24054727 0 17
1.299184 1.2254357 -0.22290272 0 18
1.315695 1.2410096 -0.20886019 0 19
1.3027222 1.2287731 -0.19012728 0 20
1.3142998 1.2396936 -0.17502813 0 21
1.3050708 1.2309884 -0.15715776 0 22
1.2967575 1.223147 -0.13964801 0 23
1.3136786 1.2391076 -0.12477024 0 24
1.3095579 1.2352208 -0.10775238 0 25
1.3036634 1.229661 -0.090733945 0 26
1.3168774 1.2421248 -0.074968167 0 27
1.3060023 1.231867 -0.057813995 0 28
1.3154397 1.2407687 -0.041587085 0 29
1.3079581 1.2337118 -0.024807533 0 30
1.3088512 1.2345543 -0.0082743578 0 31
1.2987496 1.225026 0.008210496 0 32
1.3029536 1.2289914 0.024712615 0 33
1.3057357 1.2316155 0.041280296 0 34
1.3034656 1.2294743 0.057701703 0 35
1.3198695 1.2449471 0.075138509 0 36
1.3140903 1.2394959 0.091459647 0 37
1.2998868 1.2260987 0.10695662 0 38
1.3010064 1.2271549 0.12356666 0 39
1.3048778 1.2308064 0.14052248 0 40
1.3100314 1.2356675 0.15775514 0 41
1.3080324 1.2337819 0.17419349 0 42
1.3100238 1.2356602 0.19119292 0 43
1.3141096 1.2395141 0.20860849 0 44
1.3102818 1.2359035 0.22480677 0 45
1.3094505 1.2351195 0.24149804 0 46
1.3089063 1.2346063 0.25826615 0 47
1.3049432 1.2308681 0.27434602 0 48
1.307646 1.2334175 0.29185864 0 49
1.293839 1.2203943 0.30559263 0 50
1.3120749 1.237595 0.32700637 0 51
1.3111985 1.2367682 0.34394026 0 52
1.3179846 1.2431692 0.363022 0 53
1.2998788 1.2260913 0.37516204 0 54
1.3107268 1.2363234 0.39562967 0 55
1.3088616 1.2345639 0.41244885 0 56
1.3080761 1.2338232 0.42964652 0 57
1.2929609 1.2195659 0.44200134 0 58
1.3028677 1.2289103 0.46292028 0 59
1.3022527 1.2283303 0.48030925 0 60
1.3009524 1.2271038 0.49750668 0 61
1.3042703 1.2302333 0.51658839 0 62
1.3033273 1.229344 0.53410965 0 63
1.3003092 1.2570664 -0.53916657 0 0
1.3034171 1.2600709 -0.52234799 0 1
1.30448 1.2610984 -0.50474769 0 2
1.3023337 1.2590235 -0.48601249 0 3
1.3129838 1.2693194 -0.47202465 0 4
1.306878 1.2634168 -0.45203564 0 5
1.3112872 1.2676792 -0.43578824 0 6
1.3033768 1.2600319 -0.41557151 0 7
1.3000727 1.2568377 -0.39704868 0 8
1.3067423 1.2632855 -0.38159737 0 9
1.306161 1.2627236 -0.36401457 0 10
1.3001578 1.25692 -0.34507224 0 11
1.3071524 1.263682 -0.32962734 0 12
1.3060082 1.2625759 -0.31211019 0 13
1.3002979 1.2570554 -0.29364634 0 14
1.3056413 1.2622211 -0.27773485 0 15
1.2944558 1.2514075 -0.25843155 0 16
1.3064296 1.2629833 -0.24378669 0 17
1.3109281 1.2673321 -0.2275742 0 18
1.2991436 1.2559395 -0.20866854 0 19
1.308091 1.2645893 -0.1931657 0 20
1.3006362 1.2573825 -0.17525429 0 21
1.3166227 1.2728374 -0.16042149 0 22
1.3031654 1.2598276 -0.14199562 0 23
1.3036083 1.2602557 -0.12527615 0 24
1.3079277 1.2644315 -0.10888933 0 25
1.3062283 1.2627885 -0.091986232 0 26
1.3094574 1.2659104 -0.075426221 0 27
1.3010672 1.2577993 -0.058275796 0 28
1.320851 1.276925 -0.042251363 0 29
1.2956771 1.2525883 -0.024864856 0 30
1.3006622 1.2574075 -0.0083197048 0 31
1.3098307 1.2662712 0.008378352 0 32
1.3062203 1.2627808 0.025067188 0 33
1.3206029 1.2766851 0.042243429 0 34
1.3077083 1.2642194 0.058573253 0 35
1.3200084 1.2761104 0.076033965 0 36
1.3121983 1.2685601 0.092406638 0 37
1.3055831 1.262165 0.10869414 0 38
1.3048129 1.2614202 0.1253919 0 39
1.3111119 1.2675098 0.14286147 0 40
1.3113232 1.2677141 0.15977578 0 41
1.312785 1.2691274 0.17689128 0 42
1.2924789 1.2494965 0.19086027 0 43
1.3089124 1.2653834 0.21023761 0 44
1.3105916 1.2670068 0.22751577 0 45
1.3077189 1.2642297 0.24402726 0 46
1.2994815 1.2562661 0.25943491 0 47
1.3039125 1.2605498 0.27736709 0 48
1.3082565 1.2647494 0.29544365 0 49
1.3007357 1.2574787 0.31085014 0 50
1.3046193 1.2612331 0.32898855 0 51
1.3102862 1.2667116 0.34776041 0 52
1.3023452 1.2590346 0.36295113 0 53
1.3043129 1.260937 0.38088796 0 54
1.3020456 1.2587451 0.3976512 0 55
1.3046191 1.261233 0.41596764 0 56
1.298737 1.2555465 0.43161738 0 57
1.2972387 1.2540979 0.4487015 0 58
1.3122913 1.2686499 0.47177565 0 59
1.3020675 1.2587662 0.48591313 0 60
1.3129375 1.2692747 0.50802016 0 61
1.2991456 1.2559414 0.52063614 0 62
1.3006076 1.2573547 0.53929031 0 63
1.2953963 1.2835034 -0.54363257 0 0
1.3087904 1.2967745 -0.53085154 0 1
1.2945247 1.2826397 -0.50696003 0 2
1.3029385 1.2909763 -0.49212506 0 3
1.2970613 1.285153 -0.47194594 0 4
1.2982247 1.2863058 -0.45447916 0 5
1.3035616 1.2915937 -0.43846577 0 6
1.3044821 1.2925057 -0.42095959 0 7
1.3007579 1.2888156 -0.40206754 0 8
1.3047626 1.2927836 -0.38563228 0 9
1.3011217 1.2891761 -0.36700028 0 10
1.3014963 1.2895473 -0.34960961 0 11
1.3058151 1.2938265 -0.33327684 0 12
1.3054993 1.2935135 -0.31576583 0 13
1.3027356 1.2907752 -0.29775873 0 14
1.3098902 1.2978641 -0.28201213 0 15
1.3040823 1.2921096 -0.26350555 0 16
1.3147212 1.3026509 -0.24830422 0 17
1.3077934 1.2957866 -0.22977868 0 18
1.3007331 1.2887911 -0.2114533 0 19
1.307711 1.295705 -0.19544758 0 20
1.2928027 1.2809336 -0.1763078 0 21
1.3047479 1.2927691 -0.16089934 0 22
1.3018101 1.2898583 -0.1435653 0 23
1.3102745 1.298245 -0.12744126 0 24
1.3076553 1.2956498 -0.1101847 0 25
1.2989962 1.2870702 -0.092584454 0 26
1.3064761 1.2944814 -0.076165602 0 27
1.3043327 1.2923577 -0.05912938 0 28
1.3022763 1.2903202 -0.042161543 0 29
1.2968626 1.2849562 -0.025188923 0 30
1.3069487 1.2949495 -0.0084611308 0 31
1.2956551 1.2837598 0.0083880173 0 32
1.3003172 1.288379 0.025256021 0 33
1.2980949 1.2861772 0.042026173 0 34
1.3149629 1.3028903 0.05961128 0 35
1.3061267 1.2941352 0.076145239 0 36
1.3108475 1.2988126 0.093429141 0 37
1.3037169 1.2917475 0.10985284 0 38
1.3062689 1.2942761 0.12705165 0 39
1.3016186 1.2896684 0.14354417 0 40
1.303268 1.2913027 0.16071683 0 41
1.3038988 1.2919278 0.17782104 0 42
1.3010499 1.2891052 0.19445203 0 43
1.3032291 1.2912642 0.21185906 0 44
1.3158553 1.3037745 0.23119514 0 45
1.295193 1.2833018 0.244616 0 46
1.3002914 1.2883536 0.26273957 0 47
1.3050216 1.2930403 0.28096399 0 48
1.3019706 1.2900174 0.29758388 0 49
1.3072706 1.2952687 0.31619427 0 50
1.3043027 1.292328 0.33289084 0 51
1.3043039 1.2923292 0.35036379 0 52
1.3064858 1.2944909 0.36851329 0 53
1.3063623 1.2943686 0.38610506 0 54
1.3024926 1.2905345 0.40260375 0 55
1.2974126 1.2855011 0.41867822 0 56
1.3031826 1.2912182 0.43833831 0 57
1.2989012 1.2869761 0.45471597 0 58
1.3035269 1.2915593 0.47429854 0 59
1.3065598 1.2945644 0.49349284 0 60
1.3026804 1.2907205 0.51015389 0 61
1.3031882 1.2912236 0.52857924 0 62
1.2992322 1.287304 0.54524237 0 63
1.306125 1.326354 -0.55493754 0 0
1.3075311 1.3277819 -0.53692245 0 1
1.3027359 1.3229125 -0.51650715 0 2
1.3035775 1.3237672 -0.49847692 0 3
1.2889898 1.3089534 -0.47482964 0 4
1.3036011 1.323791 -0.4620249 0 5
1.2949166 1.314972 -0.44096342 0 6
1.302842 1.3230202 -0.42564803 0 7
1.3099989 1.3302879 -0.40994924 0 8
1.3077188 1.3279724 -0.39130268 0 9
1.3039057 1.3241004 -0.37234992 0 10
1.3044845 1.3246882 -0.35476106 0 11
1.2960564 1.3161294 -0.33489135 0 12
1.301824 1.3219863 -0.31878459 0 13
1.3093653 1.3296444 -0.30298814 0 14
1.3015223 1.3216799 -0.2836881 0 15
1.2954823 1.3155465 -0.26501647 0 16
1.3031998 1.3233835 -0.24918276 0 17
1.3078966 1.328153 -0.23264867 0 18
1.2956771 1.3157443 -0.21324539 0 19
1.2976722 1.3177702 -0.19635417 0 20
1.3065298 1.3267651 -0.18039112 0 21
1.3043344 1.3245356 -0.16284454 0 22
1.3000212 1.3201556 -0.14514726 0 23
1.3006641 1.3208085 -0.12807651 0 24
1.297878 1.3179793 -0.11071807 0 25
1.3014612 1.321618 -0.093911335 0 26
1.2984018 1.3185111 -0.076634288 0 27
1.2977102 1.3178089 -0.059559252 0 28
1.3066443 1.3268814 -0.042827956 0 29
1.2967087 1.3167919 -0.025498502 0 30
1.2998298 1.3199614 -0.0085194781 0 31
1.2961624 1.316237 0.0084954398 0 32
1.3049158 1.3251261 0.025659885 0 33
1.2985203 1.3186315 0.042561676 0 34
1.3063734 1.3266063 0.059956856 0 35
1.3044612 1.3246645 0.076991923 0 36
1.2992269 1.3193491 0.093750112 0 37
1.2967141 1.3167973 0.11061877 0 38
1.3064144 1.3266479 0.12864274 0 39
1.2945474 1.3145971 0.14453612 0 40
1.3063163 1.3265482 0.16309197 0 41
1.2996796 1.3198088 0.17944533 0 42
1.2918396 1.3118474 0.19547161 0 43
1.3007474 1.320893 0.21407987 0 44
1.2962087 1.3162842 0.23056965 0 45
1.2983668 1.3184756 0.24825864 0 46
1.3058705 1.3260956 0.26714158 0 47
1.3035467 1.3237357 0.28412935 0 48
1.2993218 1.3194455 0.30066407 0 49
1.2918844 1.3118929 0.31635067 0 50
1.3061949 1.326425 0.33751106 0 51
1.3001469 1.3202834 0.35358143 0 52
1.3035458 1.323735 0.37224716 0 53
1.3003666 1.3205066 0.38910276 0 54
1.3114252 1.3317362 0.41039556 0 55
1.2976955 1.317794 0.42396662 0 56
1.2990316 1.3191508 0.44236469 0 57
1.2993222 1.319446 0.46050841 0 58
1.3009012 1.3210493 0.4792175 0 59
1.3045502 1.3247548 0.49884883 0 60
1.299692 1.3198215 0.51530033 0 61
1.3010228 1.3211727 0.5342499 0 62
1.3104639 1.3307601 0.55678105 0 63
1.3011917 1.3542548 -0.55987448 0 0
1.3056768 1.3589228 -0.54298174 0 1
1.2982016 1.3511428 -0.52125716 0 2
1.3003702 1.3533999 -0.50357616 0 3
1.3104765 1.3639183 -0.48888597 0 4
1.3022575 1.3553642 -0.46742028 0 5
1.2965995 1.3494754 -0.44715342 0 6
1.2982787 1.3512231 -0.429553 0 7
1.3014892 1.3545644 -0.41246745 0 8
1.2970628 1.3499575 -0.39305145 0 9
1.2972049 1.3501054 -0.37514886 0 10
1.2920116 1.3447005 -0.35583889 0 11
1.2996849 1.3526865 -0.34010115 0 12
1.300779 1.3538253 -0.32258084 0 13
1.2997547 1.3527592 -0.30459037 0 14
1.2974756 1.3503871 -0.28640375 0 15
1.2954257 1.3482537 -0.26837611 0 16
1.2892842 1.3418617 -0.24965808 0 17
1.3029341 1.3560683 -0.23471431 0 18
1.2983947 1.3513438 -0.21641111 0 19
1.3035972 1.3567585 -0.19975999 0 20
1.2889208 1.3414835 -0.18022375 0 21
1.308987 1.3623681 -0.16550441 0 22
1.3008782 1.3539284 -0.14709063 0 23
1.305678 1.358924 -0.13020581 0 24
1.2952025 1.3480214 -0.1118954 0 25
1.3089275 1.3623061 -0.095651627 0 26
1.3001184 1.3531379 -0.077711791 0 27
1.2945448 1.3473369 -0.060169801 0 28
1.2990237 1.3519984 -0.043119829 0 29
1.2885485 1.3410959 -0.025660373 0 30
1.3039858 1.357163 -0.0086554438 0 31
1.2981821 1.3511225 0.0086169206 0 32
1.3019724 1.3550674 0.0259277 0 33
1.2986375 1.3515965 0.04310701 0 34
1.3008797 1.3539301 0.060464244 0 35
1.2859206 1.338361 0.076863147 0 36
1.2991885 1.3521699 0.094939932 0 37
1.2947545 1.347555 0.1118567 0 38
1.2870586 1.3395454 0.12834904 0 39
1.2958456 1.3486907 0.1465216 0 40
1.2952353 1.3480556 0.16376568 0 41
1.292926 1.3456521 0.18078379 0 42
1.2961375 1.3489945 0.19861686 0 43
1.2998437 1.3528517 0.21665263 0 44
1.3029022 1.3560351 0.23470859 0 45
1.3036602 1.3568239 0.25244185 0 46
1.288306 1.3408437 0.26690111 0 47
1.298856 1.3518239 0.28670847 0 48
1.2977058 1.3506267 0.3041102 0 49
1.2988625 1.3518306 0.32210556 0 50
1.3001024 1.353121 0.34021041 0 51
1.2976003 1.350517 0.3573781 0 52
1.3025625 1.3556815 0.37669826 0 53
1.2925576 1.3452686 0.39168626 0 54
1.3049634 1.3581803 0.41356847 0 55
1.3064427 1.35972 0.4322542 0 56
1.2964618 1.3493321 0.44710594 0 57
1.2967026 1.3495827 0.46542642 0 58
1.2868478 1.339326 0.48007107 0 59
1.292325 1.3450265 0.50046057 0 60
1.3021549 1.3552574 0.52284455 0 61
1.3012538 1.3543195 0.54114234 0 62
1.2906138 1.3432455 0.55532295 0 63
1.300022 1.3867708 -0.56666559 0 0
1.289073 1.3750913 -0.54306751 0 1
1.2967389 1.3832687 -0.52745962 0 2
1.295224 1.3816527 -0.50812411 0 3
1.2975314 1.384114 -0.49036893 0 4
1.2922333 1.3784626 -0.46987069 0 5
1.2888254 1.3748271 -0.45026851 0 6
1.2875396 1.3734556 -0.43155506 0 7
1.2942879 1.3806542 -0.4155342 0 8
1.2984549 1.3850992 -0.39860439 0 9
1.3044155 1.3914576 -0.38215342 0 10
1.2921154 1.3783368 -0.36050814 0 11
1.2912745 1.3774397 -0.34230667 0 12
1.2886904 1.3746833 -0.3237505 0 13
1.2945995 1.3809866 -0.30733851 0 14
1.2978206 1.3844225 -0.2902157 0 15
1.2990096 1.3856909 -0.27262801 0 16
1.2905029 1.3766166 -0.25315279 0 17
1.2915905 1.3777767 -0.23570497 0 18
1.2977501 1.3843474 -0.21912439 0 19
1.3027622 1.389694 -0.20223531 0 20
1.2886806 1.3746727 -0.18253992 0 21
1.2890339 1.3750496 -0.16510694 0 22
1.2959969 1.3824773 -0.14844963 0 23
1.3023801 1.3892863 -0.13157058 0 24
1.2868246 1.3726928 -0.11262134 0 25
1.3000888 1.3868421 -0.096244633 0 26
1.2991676 1.3858596 -0.078667611 0 27
1.3011018 1.3879228 -0.061263181 0 28
1.2916284 1.3778172 -0.043433446 0 29
1.2946609 1.3810521 -0.026118308 0 30
1.2905319 1.3766475 -0.0086778468 0 31
1.2931693 1.3794609 0.008695581 0 32
1.2869935 1.3728731 0.025963625 0 33
1.3003172 1.3870858 0.043725625 0 34
1.2979156 1.384524 0.061113156 0 35
1.2970934 1.383647 0.078542009 0 36
1.2992804 1.3859798 0.096184798 0 37
1.2920754 1.3782941 0.1130809 0 38
1.2957259 1.3821882 0.13089837 0 39
1.30177 1.3886355 0.1491109 0 40
1.2930473 1.3793309 0.165621 0 41
1.295629 1.3820847 0.18352416 0 42
1.2969599 1.3835044 0.20133458 0 43
1.3023844 1.3892909 0.21990688 0 44
1.295869 1.3823408 0.23648578 0 45
1.2874781 1.37339 0.25255942 0 46
1.2946851 1.3810779 0.27172041 0 47
1.297781 1.3843803 0.29020685 0 48
1.2880579 1.3740085 0.30578554 0 49
1.2981626 1.3847874 0.32613012 0 50
1.2915317 1.377714 0.34237486 0 51
1.2933196 1.3796213 0.36084411 0 52
1.2984393 1.3850826 0.38040259 0 53
1.3001492 1.3869066 0.39912453 0 54
1.2856314 1.37142 0.41275501 0 55
1.2925404 1.3787901 0.4332312 0 56
1.2944374 1.3808137 0.45222914 0 57
1.2986722 1.385331 0.47221193 0 58
1.2962749 1.3827738 0.48989412 0 59
1.2985915 1.385245 0.50944519 0 60
1.2897867 1.3758527 0.5246318 0 61
1.3004155 1.3871907 0.54784596 0 62
1.3027232 1.3896523 0.56784296 0 63
1.2794616 1.398921 -0.56515884 0 0
1.2961534 1.4171714 -0.55334997 0 1
1.2964971 1.4175471 -0.53441101 0 2
1.293823 1.4146234 -0.51435971 0 3
1.2891291 1.4094912 -0.49370632 0 4
1.2914133 1.4119886 -0.47584975 0 5
1.3001263 1.4215152 -0.46028858 0 6
1.3011198 1.4226013 -0.44193667 0 7
1.2865256 1.4066446 -0.41856363 0 8
1.2927282 1.4134263 -0.40215141 0 9
1.2913247 1.4118918 -0.38337559 0 10
1.285957 1.4060229 -0.36358619 0 11
1.2941941 1.415029 -0.34766692 0 12
1.2938412 1.4146433 -0.32938966 0 13
1.2950349 1.4159484 -0.31155175 0 14
1.2946302 1.4155059 -0.29337233 0 15
1.2863522 1.4064549 -0.27358052 0 16
1.2965717 1.4176286 -0.25774333 0 17
1.2890699 1.4094265 -0.23838975 0 18
1.2962967 1.417328 -0.22180495 0 19
1.2886282 1.4089435 -0.20271537 0 20
1.296877 1.4179624 -0.18615665 0 21
1.2978696 1.4190477 -0.16846094 0 22
1.2946285 1.4155041 -0.15027526 0 23
1.2912786 1.4118414 -0.13219291 0 24
1.3023019 1.4238938 -0.11549953 0 25
1.2865282 1.4066474 -0.096513934 0 26
1.2984765 1.4197112 -0.079676822 0 27
1.2872711 1.4074597 -0.06142221 0 28
1.2921956 1.4128439 -0.04403339 0 29
1.2889384 1.4092827 -0.026350467 0 30
1.2987895 1.4200536 -0.00885012 0 31
1.3030369 1.4246975 0.0088790627 0 32
1.2900013 1.4104447 0.026372194 0 33
1.2879653 1.4082186 0.043889236 0 34
1.2993579 1.420675 0.061998934 0 35
1.3017014 1.4232373 0.079874709 0 36
1.2916259 1.4122211 0.09689635 0 37
1.2940142 1.4148325 0.1147645 0 38
1.2888035 1.4091351 0.13193953 0 39
1.2916769 1.4122769 0.14993265 0 40
1.3011485 1.4226328 0.16888653 0 41
1.2945263 1.4153924 0.18581922 0 42
1.2914002 1.4119743 0.20315142 0 43
1.2852114 1.4052078 0.21990818 0 44
1.2907971 1.4113148 0.23870915 0 45
1.2984025 1.4196305 0.2581073 0 46
1.2862741 1.4063696 0.27356392 0 47
1.2915406 1.4121279 0.29267222 0 48
1.2915555 1.4121442 0.31071469 0 49
1.2909768 1.4115113 0.32866043 0 50
1.2973177 1.4184444 0.34850606 0 51
1.2865933 1.4067186 0.3637661 0 52
1.2893468 1.4097292 0.38278836 0 53
1.2901937 1.4106551 0.40136296 0 54
1.295765 1.4167467 0.42156965 0 55
1.303057 1.4247195 0.44259465 0 56
1.2919526 1.4125783 0.45739481 0 57
1.2938274 1.4146281 0.47673929 0 58
1.2941509 1.4149818 0.49562955 0 59
1.2978255 1.4189994 0.51595086 0 60
1.2915509 1.4121391 0.53237218 0 61
1.3069013 1.4289227 0.5579384 0 62
1.297009 1.4181068 0.57290983 0 63
1.296103 1.452583 -0.58035553 0 0
1.2911789 1.4470644 -0.55878043 0 1
1.2899141 1.445647 -0.53898412 0 2
1.2974954 1.4541435 -0.52288866 0 3
1.2937303 1.4499239 -0.50225854 0 4
1.2953111 1.4516956 -0.48382691 0 5
1.2878423 1.4433249 -0.46218798 0 6
1.2778506 1.432127 -0.43998125 0 7
1.2963151 1.4528208 -0.42752838 0 8
1.287841 1.4433235 -0.40612146 0 9
1.288502 1.4440644 -0.38778001 0 10
1.2933097 1.4494525 -0.37067628 0 11
1.2956954 1.4521263 -0.35284033 0 12
1.2878929 1.4433817 -0.33236867 0 13
1.3026826 1.4599571 -0.31768644 0 14
1.2878194 1.4432994 -0.29582831 0 15
1.2798806 1.4344021 -0.27593455 0 16
1.287865 1.4433506 -0.25952107 0 17
1.2935421 1.449713 -0.2424951 0 18
1.2860825 1.4413527 -0.22307298 0 19
1.2903793 1.4461683 -0.20577268 0 20
1.2862829 1.4415773 -0.18716627 0 21
1.2847517 1.4398613 -0.16904359 0 22
1.2936435 1.4498265 -0.15221879 0 23
1.283951 1.438964 -0.13324411 0 24
1.2897493 1.4454622 -0.11595385 0 25
1.2859626 1.4412184 -0.097793587 0 26
1.2901374 1.4458972 -0.08025004 0 27
1.2886292 1.444207 -0.062329657 0 28
1.2904601 1.4462589 -0.044576894 0 29
1.2965988 1.4531387 -0.026870335 0 30
1.2792104 1.433651 -0.0088361632 0 31
1.2876879 1.443152 0.008894721 0 32
1.2883501 1.4438941 0.026699392 0 33
1.2941527 1.4503974 0.044704448 0 34
1.2862246 1.4415121 0.06221335 0 35
1.2865155 1.441838 0.080024742 0 36
1.2883267 1.4438679 0.097973369 0 37
1.2892542 1.4449073 0.11590933 0 38
1.2854884 1.4406869 0.13340366 0 39
1.2937608 1.4499581 0.1522326 0 40
1.286322 1.4416212 0.16925019 0 41
1.2957106 1.4521432 0.18853809 0 42
1.2936646 1.4498502 0.20629658 0 43
1.2829697 1.4378642 0.22253305 0 44
1.2897527 1.445466 0.24178474 0 45
1.2952425 1.4516187 0.2610077 0 46
1.2965994 1.4531393 0.27953902 0 47
1.2882202 1.4437486 0.29592037 0 48
1.2872287 1.4426373 0.31391767 0 49
1.2956547 1.4520806 0.33437175 0 50
1.2893552 1.4450204 0.35111377 0 51
1.2914376 1.4473543 0.37013972 0 52
1.2889482 1.4445645 0.3879143 0 53
1.284338 1.4393977 0.40501681 0 54
1.2885044 1.4440669 0.42495239 0 55
1.2842629 1.4393134 0.4421891 0 56
1.2887176 1.444306 0.46250215 0 57
1.2914538 1.4473726 0.48238611 0 58
1.2912869 1.4471855 0.50130999 0 59
1.2932045 1.4493346 0.52115947 0 60
1.2895325 1.4452193 0.53882474 0 61
1.2898501 1.4455752 0.55820537 0 62
1.287461 1.4428977 0.57648593 0 63
1.2921715 1.4845243 -0.58672452 0 0
1.2867659 1.478314 -0.56469482 0 1
1.2889118 1.4807794 -0.54613233 0 2
1.2831986 1.4742157 -0.5243929 0 3
1.2834498 1.4745042 -0.50526822 0 4
1.2903929 1.4824809 -0.4887619 0 5
1.2851262 1.4764303 -0.46769342 0 6
1.2900811 1.4821228 -0.45043343 0 7
1.2903502 1.4824318 -0.43154037 0 8
1.2871524 1.4787581 -0.41160741 0 9
1.2890322 1.4809178 -0.39339024 0 10
1.2919285 1.4842452 -0.37548295 0 11
1.2850133 1.4763005 -0.35484803 0 12
1.277954 1.4681903 -0.33443752 0 13
1.2805375 1.4711585 -0.31667358 0 14
1.2804265 1.471031 -0.29826266 0 15
1.2865248 1.4780371 -0.2812641 0 16
1.2878107 1.4795142 -0.26315627 0 17
1.2888594 1.4807191 -0.24501204 0 18
1.2890856 1.4809791 -0.22673541 0 19
1.284018 1.4751571 -0.20763519 0 20
1.2858533 1.4772656 -0.18973261 0 21
1.2878238 1.4795294 -0.17182858 0 22
1.2865319 1.4780452 -0.15350896 0 23
1.2829165 1.4738916 -0.13500735 0 24
1.2878985 1.4796153 -0.1174143 0 25
1.2945608 1.4872693 -0.099830665 0 26
1.2926534 1.485078 -0.081536271 0 27
1.2856972 1.4770862 -0.063061595 0 28
1.2919179 1.484233 -0.045254279 0 29
1.2901891 1.4822469 -0.027113173 0 30
1.2826709 1.4736094 -0.0089845518 0 31
1.2889452 1.4808177 0.0090285009 0 32
1.2891572 1.4810612 0.027091485 0 33
1.2842954 1.4754758 0.044987269 0 34
1.2880764 1.4798197 0.063178293 0 35
1.2913553 1.4835865 0.081454389 0 36
1.2845058 1.4757175 0.099055275 0 37
1.2849455 1.4762226 0.11714508 0 38
1.2841103 1.4752631 0.13513298 0 39
1.2867726 1.4783218 0.15353768 0 40
1.2950398 1.4878196 0.17279138 0 41
1.2846972 1.4759374 0.18956202 0 42
1.2937174 1.4863003 0.20920365 0 43
1.281038 1.4717336 0.22531995 0 44
1.2797414 1.4702439 0.24327873 0 45
1.2923887 1.4847739 0.26409176 0 46
1.2856427 1.4770236 0.28107122 0 47
1.2779634 1.4682012 0.2976889 0 48
1.2830888 1.4740896 0.31730452 0 49
1.2863927 1.4778852 0.33664593 0 50
1.2856352 1.477015 0.35501978 0 51
1.2833436 1.4743822 0.37298784 0 52
1.2888178 1.4806713 0.39332476 0 53
1.2847911 1.4760453 0.41085228 0 54
1.283681 1.4747699 0.42930999 0 55
1.2864429 1.4779429 0.44916314 0 56
1.2857654 1.4771646 0.46792603 0 57
1.2910308 1.4832138 0.48900354 0 58
1.2848481 1.4761107 0.50581867 0 59
1.2903352 1.4824146 0.5273093 0 60
1.2889187 1.4807873 0.54613525 0 61
1.2919924 1.4843186 0.56698853 0 62
1.287864 1.4795755 0.58476865 0 63
1.286895 1.5156988 -0.59274656 0 0
1.2776667 1.5048298 -0.56877917 0 1
1.2912002 1.5207695 -0.5549835 0 2
1.293611 1.5236089 -0.53626376 0 3
1.2782555 1.5055232 -0.51047277 0 4
1.2892752 1.5185022 -0.49537361 0 5
1.2867538 1.5155325 -0.47503185 0 6
1.2882602 1.5173067 -0.45627743 0 7
1.2786592 1.5059987 -0.43379098 0 8
1.2853327 1.5138588 -0.41694674 0 9
1.2903432 1.51976 -0.39946327 0 10
1.2850385 1.5135123 -0.37886083 0 11
1.2810014 1.5087574 -0.35883617 0 12
1.2814447 1.5092794 -0.3401821 0 13
1.2836624 1.5118915 -0.32201952 0 14
1.2859763 1.5146167 -0.30387083 0 15
1.2798692 1.5074239 -0.28383997 0 16
1.288568 1.5176692 -0.2671043 0 17
1.2915492 1.5211804 -0.24906039 0 18
1.2855426 1.5141059 -0.22936963 0 19
1.2867445 1.5155215 -0.21107364 0 20
1.2750443 1.5017411 -0.19084802 0 21
1.2852565 1.5137689 -0.17395647 0 22
1.2811342 1.5089138 -0.15506707 0 23
1.2922183 1.5219686 -0.13794526 0 24
1.2812712 1.5090752 -0.11849288 0 25
1.2833123 1.5114791 -0.1003889 0 26
1.2802261 1.5078442 -0.081915721 0 27
1.2946641 1.5248493 -0.064416215 0 28
1.2850447 1.5135194 -0.045661978 0 29
1.2889593 1.5181301 -0.027477548 0 30
1.2850453 1.5135201 -0.0091308551 0 31
1.28624 1.5149274 0.009139345 0 32
1.2938608 1.5239031 0.027582038 0 33
1.286834 1.5156269 0.045725562 0 34
1.283757 1.5120028 0.063873529 0 35
1.2877209 1.5166715 0.082395278 0 36
1.2839135 1.5121871 0.10043593 0 37
1.2810527 1.5088177 0.11847267 0 38
1.2885789 1.5176821 0.13755675 0 39
1.2891139 1.5183121 0.15603292 0 40
1.2808634 1.5085948 0.17336188 0 41
1.2902704 1.5196743 0.19312705 0 42
1.2803071 1.5079395 0.21001765 0 43
1.2895025 1.5187699 0.23007616 0 44
1.2831198 1.5112523 0.24743488 0 45
1.2777452 1.5049223 0.2648609 0 46
1.285364 1.5138956 0.28505856 0 47
1.2924808 1.5222777 0.30540782 0 48
1.2889931 1.51817 0.32335678 0 49
1.2766113 1.5035868 0.33889902 0 50
1.2793165 1.5067729 0.35836419 0 51
1.2853518 1.5138812 0.37895319 0 52
1.2862209 1.5149049 0.3981871 0 53
1.2844144 1.5127772 0.41664886 0 54
1.2825193 1.5105451 0.43510053 0 55
1.2800418 1.5076271 0.45336667 0 56
1.2912502 1.5208284 0.47669184 0 57
1.2824225 1.5104312 0.49274063 0 58
1.2824615 1.5104771 0.51215243 0 59
1.2854202 1.5139617 0.53286821 0 60
1.2872033 1.5160618 0.55326557 0 61
1.2853947 1.5139316 0.57221937 0 62
1.2882936 1.517346 0.59339076 0 63
1.279049 1.5445551 -0.59783554 0 0
1.2793337 1.5448989 -0.57793438 0 1
1.2832032 1.5495715 -0.55969387 0 2
1.2868516 1.5539773 -0.54134208 0 3
1.284968 1.5517026 -0.52073383 0 4
1.2811677 1.5471135 -0.49953026 0 5
1.2838565 1.5503604 -0.48096377 0 6
1.2779409 1.5432168 -0.4593088 0 7
1.2862542 1.5532558 -0.44281372 0 8
1.285906 1.5528353 -0.42329469 0 9
1.2729285 1.537164 -0.3998934 0 10
1.2811785 1.5471264 -0.38330263 0 11
1.2856907 1.5525753 -0.36546996 0 12
1.2775364 1.5427283 -0.34415451 0 13
1.288307 1.5557346 -0.32795882 0 14
1.2736009 1.537976 -0.30539227 0 15
1.2867883 1.5539008 -0.28959006 0 16
1.2821434 1.5482916 -0.26969862 0 17
1.2771851 1.5423042 -0.24992873 0 18
1.2787328 1.544173 -0.23152494 0 19
1.2757229 1.5405383 -0.212357 0 20
1.2802083 1.5459549 -0.19445165 0 21
1.2801433 1.5458764 -0.17582393 0 22
1.2834536 1.5498738 -0.15764265 0 23
1.2772616 1.5423965 -0.1383628 0 24
1.2819357 1.5480409 -0.12030564 0 25
1.2747433 1.5393555 -0.10119165 0 26
1.2829281 1.5492393 -0.083301246 0 27
1.2858858 1.5528109 -0.064924568 0 28
1.2879704 1.5553282 -0.04644201 0 29
1.2738168 1.5382366 -0.027555883 0 30
1.2763032 1.5412391 -0.0092027038 0 31
1.2760286 1.5409076 0.0092007248 0 32
1.2823377 1.5485263 0.027740212 0 33
1.2817605 1.5478293 0.04621809 0 34
1.2764031 1.5413598 0.064445779 0 35
1.2780094 1.5432996 0.082981862 0 36
1.2833424 1.5497395 0.10187425 0 37
1.2800531 1.5457675 0.12012897 0 38
1.2798963 1.545578 0.1386482 0 39
1.2887194 1.5562327 0.15828943 0 40
1.2771779 1.5422955 0.17541663 0 41
1.2853197 1.5521272 0.19522801 0 42
1.2757393 1.5405583 0.21235974 0 43
1.2761328 1.5410334 0.2310542 0 44
1.2769245 1.5419894 0.24987772 0 45
1.2790184 1.5445181 0.2690413 0 46
1.281427 1.5474266 0.28838348 0 47
1.2842168 1.5507954 0.3079378 0 48
1.2922165 1.5604558 0.32895404 0 49
1.2686512 1.5319988 0.34176096 0 50
1.281619 1.5476584 0.36431256 0 51
1.2811787 1.5471268 0.38330272 0 52
1.283596 1.5500458 0.40324461 0 53
1.2956358 1.564585 0.42649758 0 54
1.2799773 1.545676 0.44065282 0 55
1.2756624 1.5404655 0.45848989 0 56
1.2821472 1.5482962 0.4803234 0 57
1.2873441 1.5545719 0.5019384 0 58
1.2725646 1.5367246 0.51570737 0 59
1.2767842 1.5418199 0.53710699 0 60
1.2839185 1.5504353 0.56000584 0 61
1.2820278 1.5481521 0.57915145 0 62
1.2850348 1.5517833 0.60063332 0 63
1.2775453 1.5819386 -0.606179 0 0
1.2758743 1.5798694 -0.58510333 0 1
1.2794946 1.5843524 -0.56653082 0 2
1.2812347 1.5865071 -0.54714453 0 3
1.2727522 1.5760034 -0.52359724 0 4
1.2818288 1.5872426 -0.50735956 0 5
1.2760507 1.5800879 -0.48528162 0 6
1.2741257 1.5777043 -0.46487513 0 7
1.2911102 1.5987355 -0.45121923 0 8
1.2718438 1.5748786 -0.42500827 0 9
1.2747215 1.578442 -0.40652341 0 10
1.2792847 1.5840925 -0.38853434 0 11
1.282706 1.588329 -0.37014541 0 12
1.2752442 1.5790893 -0.34874147 0 13
1.275862 1.5798541 -0.32971117 0 14
1.2774934 1.5818744 -0.31096631 0 15
1.2814734 1.5868026 -0.29276296 0 16
1.2792363 1.5840325 -0.27316368 0 17
1.2765039 1.5806491 -0.25357971 0 18
1.283534 1.5893543 -0.23591495 0 19
1.2766786 1.5808654 -0.21573561 0 20
1.2804804 1.5855731 -0.19743946 0 21
1.2733594 1.5767554 -0.17754172 0 22
1.2841047 1.5900608 -0.16011205 0 23
1.2788707 1.5835798 -0.14063586 0 24
1.2736026 1.5770565 -0.12133434 0 25
1.2672659 1.5692101 -0.10212209 0 26
1.2787633 1.5834467 -0.084288694 0 27
1.2853378 1.5915878 -0.06588006 0 28
1.2858489 1.5922205 -0.047067925 0 29
1.2808107 1.5859821 -0.028126931 0 30
1.2734671 1.5768887 -0.0093213618 0 31
1.2716769 1.574672 0.0093082581 0 32
1.2846992 1.5907969 0.028212322 0 33
1.2804489 1.5855341 0.046870265 0 34
1.2806494 1.5857824 0.065639757 0 35
1.2872812 1.5939941 0.08485014 0 36
1.2781633 1.5827039 0.10300025 0 37
1.2718205 1.5748498 0.12116456 0 38
1.2803149 1.5853682 0.14079469 0 39
1.2881098 1.5950203 0.16061144 0 40
1.2795364 1.584404 0.17840295 0 41
1.2849784 1.5911428 0.19813301 0 42
1.2797521 1.5846713 0.21625498 0 43
1.2750038 1.5787915 0.23434706 0 44
1.2811654 1.5864213 0.25450572 0 45
1.2780043 1.5825069 0.27290058 0 46
1.2826587 1.5882703 0.29303375 0 47
1.2788357 1.5835364 0.31129304 0 48
1.2793192 1.5841352 0.33060461 0 49
1.2847244 1.5908281 0.35133401 0 50
1.2828372 1.5884913 0.37018323 0 51
1.2780542 1.5825688 0.38816059 0 52
1.2808795 1.5860672 0.40848726 0 53
1.2780737 1.5825928 0.42709008 0 54
1.2798959 1.5848492 0.44730005 0 55
1.2785887 1.5832305 0.46650344 0 56
1.2867794 1.5933728 0.4893617 0 57
1.2782277 1.5827836 0.50593424 0 58
1.2764837 1.580624 0.52513236 0 59
1.2768316 1.5810548 0.54526412 0 60
1.2833623 1.5891416 0.56824338 0 61
1.2801379 1.5851489 0.5870586 0 62
1.2795047 1.5843648 0.60710859 0 63
1.2807878 1.6264679 -0.6171605 0 0
1.2800251 1.6254994 -0.59612811 0 1
1.2778503 1.6227375 -0.5745945 0 2
1.2764848 1.6210036 -0.55358636 0 3
1.2793062 1.6245863 -0.53447127 0 4
1.2786555 1.6237601 -0.51396763 0 5
1.2785559 1.6236335 -0.49378964 0 6
1.2690349 1.6115429 -0.47021228 0 7
1.2702193 1.613047 -0.45081609 0 8
1.274987 1.6191015 -0.43267894 0 9
1.2754778 1.6197248 -0.41308507 0 10
1.2681466 1.6104149 -0.3911362 0 11
1.2753294 1.6195363 -0.37373516 0 12
1.2794613 1.6247833 -0.35533151 0 13
1.271746 1.6149858 -0.33375421 0 14
1.2799547 1.6254098 -0.31640667 0 15
1.2806319 1.6262699 -0.29711682 0 16
1.2674037 1.6094716 -0.27484226 0 17
1.2816876 1.6276106 -0.25856569 0 18
1.2710478 1.6140991 -0.23725006 0 19
1.2703893 1.6132629 -0.21800852 0 20
1.2783902 1.6234231 -0.20018004 0 21
1.2796612 1.6250372 -0.18119273 0 22
1.2777951 1.6226674 -0.161801 0 23
1.2817602 1.6277028 -0.14314383 0 24
1.2733968 1.6170822 -0.12319978 0 25
1.27894 1.6241213 -0.10466427 0 26
1.2757006 1.6200076 -0.085393399 0 27
1.2705809 1.6135062 -0.066135615 0 28
1.2849394 1.6317401 -0.047765482 0 29
1.277491 1.6222812 -0.028489944 0 30
1.2685515 1.610929 -0.0094296616 0 31
1.2741216 1.6180025 0.0094710672 0 32
1.2831107 1.6294177 0.028615274 0 33
1.271438 1.6145946 0.047263589 0 34
1.2825102 1.6286551 0.066756546 0 35
1.2769531 1.6215981 0.08547724 0 36
1.2759287 1.6202973 0.10441785 0 37
1.2734773 1.6171843 0.12320756 0 38
1.2853178 1.6322204 0.14354113 0 39
1.272591 1.6160588 0.16114202 0 40
1.2821319 1.6281748 0.18154258 0 41
1.2764945 1.6210158 0.19988322 0 42
1.282739 1.6289457 0.22012782 0 43
1.2717164 1.614948 0.23737483 0 44
1.2758372 1.6201812 0.25738543 0 45
1.281584 1.6274791 0.27791733 0 46
1.2821246 1.6281655 0.29746312 0 47
1.270419 1.6133006 0.31404945 0 48
1.2775803 1.6223947 0.33528534 0 49
1.2773274 1.6220735 0.35473892 0 50
1.2745047 1.6184889 0.37349346 0 51
1.2771488 1.6218468 0.39391276 0 52
1.2739818 1.6178249 0.41260058 0 53
1.2802881 1.6258334 0.43447793 0 54
1.2734559 1.6171571 0.45196477 0 55
1.279273 1.6245444 0.47400579 0 56
1.2819641 1.6279616 0.49510595 0 57
1.2744474 1.6184163 0.51227617 0 58
1.2781551 1.6231246 0.53399038 0 59
1.2818905 1.6278682 0.55593067 0 60
1.2734522 1.6171525 0.57261688 0 61
1.2758659 1.6202176 0.59419107 0 62
1.2702177 1.6130449 0.6120671 0 63
1.2692666 1.6532608 -0.6213578 0 0
1.2684561 1.652205 -0.60015643 0 1
1.2689729 1.652878 -0.57969797 0 2
1.2631812 1.6453342 -0.55654889 0 3
1.2795897 1.6667068 -0.54311097 0 4
1.281829 1.6696236 -0.5234561 0 5
1.2749915 1.6607177 -0.50026202 0 6
1.2677196 1.6512457 -0.47721222 0 7
1.2792147 1.6662185 -0.46124545 0 8
1.2682629 1.6519532 -0.43725744 0 9
1.2728529 1.657932 -0.4188059 0 10
1.2717031 1.6564344 -0.39848524 0 11
1.2723562 1.657285 -0.37880719 0 12
1.2800192 1.6672662 -0.36115283 0 13
1.2681111 1.6517557 -0.33810502 0 14
1.2779018 1.6645083 -0.32093456 0 15
1.2736795 1.6590087 -0.30021405 0 16
1.2683275 1.6520374 -0.27942669 0 17
1.2688509 1.6527193 -0.26005623 0 18
1.2833803 1.6716442 -0.24337038 0 19
1.2723637 1.6572946 -0.22182773 0 20
1.2624817 1.6444232 -0.2008401 0 21
1.2644298 1.6469606 -0.18188985 0 22
1.2745456 1.6601368 -0.16396204 0 23
1.2724756 1.6574405 -0.14437209 0 24
1.2756231 1.6615403 -0.12538238 0 25
1.2786844 1.6655276 -0.10631134 0 26
1.2712573 1.6558537 -0.086452387 0 27
1.2682449 1.65193 -0.067066267 0 28
1.2733499 1.6585793 -0.048089162 0 29
1.2651981 1.6479614 -0.028665548 0 30
1.2745119 1.6600929 -0.0096249804 0 31
1.2729696 1.658084 0.0096133333 0 32
1.2750299 1.6607677 0.028888308 0 33
1.275887 1.661884 0.04818498 0 34
1.2673995 1.6508288 0.067021564 0 35
1.2753454 1.6611787 0.086730406 0 36
1.2716655 1.6563853 0.10572779 0 37
1.2717154 1.6564504 0.12499829 0 38
1.2788912 1.6657971 0.1451 0 39
1.2746947 1.660331 0.16398121 0 40
1.2701244 1.6543782 0.18270904 0 41
1.270084 1.6543255 0.20204951 0 42
1.2648782 1.6475447 0.2205227 0 43
1.2752666 1.6610759 0.24183176 0 44
1.2790275 1.6659745 0.26214194 0 45
1.2794225 1.6664891 0.28187105 0 46
1.280049 1.6673051 0.30171537 0 47
1.2792209 1.6662266 0.32126585 0 48
1.2807719 1.6682466 0.34148061 0 49
1.2628812 1.6449435 0.35631743 0 50
1.2750129 1.6607454 0.37959817 0 51
1.2735167 1.6587965 0.39905351 0 52
1.2720315 1.6568621 0.41853562 0 53
1.275136 1.6609057 0.43962708 0 54
1.2791165 1.6660905 0.46121001 0 55
1.2818854 1.669697 0.48254469 0 56
1.2703582 1.6546825 0.49844405 0 57
1.267023 1.6503384 0.5174098 0 58
1.2725912 1.6575911 0.54014051 0 59
1.2783226 1.6650565 0.56322008 0 60
1.2794551 1.6665316 0.58448648 0 61
1.2737836 1.6591443 0.60267711 0 62
1.2763515 1.6624889 0.62482607 0 63
1.268767 1.6953652 -0.63127095 0 0
1.2759609 1.704978 -0.61358035 0 1
1.2692474 1.6960071 -0.58930582 0 2
1.2652305 1.6906396 -0.56656837 0 3
1.2691838 1.695922 -0.54750407 0 4
1.2731667 1.7012441 -0.52842146 0 5
1.2723449 1.7001462 -0.50738794 0 6
1.2726408 1.7005416 -0.48689941 0 7
1.2705035 1.6976856 -0.46559632 0 8
1.2669317 1.6929128 -0.44394195 0 9
1.2731948 1.7012819 -0.42576942 0 10
1.2685827 1.695119 -0.40400833 0 11
1.2811956 1.7119727 -0.38767698 0 12
1.2769901 1.7063532 -0.36619055 0 13
1.2673059 1.6934128 -0.34341618 0 14
1.2674133 1.6935563 -0.32350597 0 15
1.2655767 1.6911023 -0.30318269 0 16
1.2657906 1.691388 -0.2834284 0 17
1.2701734 1.6972446 -0.26458472 0 18
1.2709726 1.6983124 -0.24495912 0 19
1.2657739 1.6913657 -0.22428785 0 20
1.2718806 1.6995257 -0.20564432 0 21
1.2752093 1.7039738 -0.1864405 0 22
1.2723116 1.7001015 -0.16635138 0 23
1.2581342 1.6811574 -0.14507942 0 24
1.2698699 1.696839 -0.12685816 0 25
1.2739187 1.7022492 -0.10764728 0 26
1.2579941 1.6809701 -0.086949505 0 27
1.2643797 1.6895028 -0.067955337 0 28
1.2746089 1.7031713 -0.048923939 0 29
1.269654 1.6965505 -0.029236956 0 30
1.2658511 1.6914691 -0.0097159138 0 31
1.2674512 1.693607 0.0097281942 0 32
1.2666326 1.6925131 0.02916738 0 33
1.2584935 1.6816374 0.048305377 0 34
1.2651005 1.6904659 0.067994073 0 35
1.2694315 1.6962532 0.087740041 0 36
1.2716641 1.6992365 0.10745677 0 37
1.2730658 1.7011094 0.12717742 0 38
1.2657558 1.6913415 0.14595829 0 39
1.2743665 1.7028475 0.16662006 0 40
1.2727082 1.7006316 0.18607482 0 41
1.2686236 1.6951736 0.2051177 0 42
1.2744496 1.7029585 0.22582513 0 43
1.2724916 1.7003421 0.24525186 0 44
1.2587644 1.6819994 0.26220813 0 45
1.2691277 1.6958473 0.28417566 0 46
1.2712111 1.6986313 0.30453247 0 47
1.2695191 1.6963701 0.32404345 0 48
1.2752825 1.7040715 0.34557772 0 49
1.276968 1.7063237 0.36618423 0 50
1.2710857 1.6984636 0.38461784 0 51
1.2684219 1.694904 0.4039571 0 52
1.2647395 1.6899836 0.42294186 0 53
1.2680409 1.6943949 0.44433063 0 54
1.2577175 1.6806005 0.46091068 0 55
1.264962 1.6902808 0.48396152 0 56
1.2634596 1.6882732 0.50384456 0 57
1.2692093 1.6959562 0.526779 0 58
1.2684536 1.6949465 0.54718918 0 59
1.2699178 1.696903 0.56866735 0 60
1.2653606 1.6908134 0.58750123 0 61
1.2724774 1.7003232 0.61190522 0 62
1.2621676 1.6865469 0.62798738 0 63
1.2655109 1.7350848 -0.64021784 0 0
1.2680329 1.7385424 -0.62000126 0 1
1.2682718 1.73887 -0.59873521 0 2
1.2609975 1.7288966 -0.57414937 0 3
1.2671713 1.7373611 -0.55580974 0 4
1.2655358 1.7351189 -0.5340693 0 5
1.2702298 1.7415546 -0.51504546 0 6
1.2741818 1.7469729 -0.49567011 0 7
1.2597349 1.7271653 -0.46939752 0 8
1.2677476 1.7381513 -0.45168301 0 9
1.2630913 1.7317673 -0.42947936 0 10
1.2682799 1.7388812 -0.41069046 0 11
1.2730169 1.7453759 -0.39166677 0 12
1.2600341 1.7275758 -0.36739215 0 13
1.2597005 1.7271183 -0.34708402 0 14
1.2690266 1.739905 -0.32935387 0 15
1.2643074 1.7334347 -0.30796158 0 16
1.2705215 1.7419546 -0.28926209 0 17
1.2676351 1.7379972 -0.26848742 0 18
1.2614129 1.729466 -0.24719666 0 19
1.2705179 1.7419497 -0.22890665 0 20
1.2769543 1.7507741 -0.2099296 0 21
1.2668318 1.7368956 -0.188324 0 22
1.2652452 1.7347203 -0.16820371 0 23
1.2676239 1.7379818 -0.14862683 0 24
1.2722254 1.7442906 -0.12922637 0 25
1.2585341 1.7255191 -0.108132 0 26
1.2671125 1.7372806 -0.08904954 0 27
1.2678885 1.7383446 -0.069287531 0 28
1.2687845 1.739573 -0.049517684 0 29
1.269604 1.7406964 -0.029726446 0 30
1.2762847 1.7498561 -0.0099603944 0 31
1.2619846 1.7302499 0.009848793 0 32
1.2633723 1.7321525 0.029580537 0 33
1.2733502 1.7458328 0.049695872 0 34
1.2686285 1.739359 0.069327965 0 35
1.2745034 1.7474139 0.089568958 0 36
1.2675314 1.737855 0.10890505 0 37
1.2735513 1.7461087 0.12936106 0 38
1.2722961 1.7443876 0.14917465 0 39
1.2685487 1.7392497 0.16864289 0 40
1.2680506 1.7385668 0.18850519 0 41
1.2726402 1.7448595 0.20922038 0 42
1.272664 1.744892 0.22929329 0 43
1.276107 1.7496125 0.25007623 0 44
1.2691067 1.7400148 0.26879913 0 45
1.2675179 1.7378365 0.28857824 0 46
1.2635834 1.732442 0.30778524 0 47
1.2600547 1.727604 0.32702535 0 48
1.2568872 1.7232612 0.34630889 0 49
1.270144 1.7414368 0.3703399 0 50
1.2687486 1.7395238 0.39035353 0 51
1.2637578 1.7326812 0.40922615 0 52
1.2681166 1.7386574 0.43118811 0 53
1.2633665 1.7321446 0.45012206 0 54
1.2646378 1.7338877 0.47122446 0 55
1.2716191 1.7434593 0.49467322 0 56
1.2628669 1.7314596 0.51205993 0 57
1.2669723 1.7370884 0.53467554 0 58
1.271015 1.7426311 0.55749571 0 59
1.266793 1.7368426 0.57678819 0 60
1.2660686 1.7358494 0.59769505 0 61
1.2567077 1.7230151 0.61446381 0 62
1.2617441 1.7299203 0.63831222 0 63
1.2618037 1.7754502 -0.64933789 0 0
1.2632282 1.7774545 -0.62829113 0 1
1.2548883 1.7657198 -0.6026215 0 2
1.2680057 1.7841768 -0.58728504 0 3
1.2616765 1.7752713 -0.56293201 0 4
1.2619975 1.7757229 -0.54174978 0 5
1.264665 1.7794763 -0.52162188 0 6
1.2633229 1.7775879 -0.49991113 0 7
1.2596419 1.7724084 -0.47744769 0 8
1.2601398 1.7731091 -0.45670608 0 9
1.2606379 1.7738099 -0.43602863 0 10
1.2689198 1.7854631 -0.41797546 0 11
1.2651507 1.7801596 -0.39595139 0 12
1.2605674 1.7737106 -0.37387869 0 13
1.2667185 1.7823657 -0.35502955 0 14
1.2639002 1.7784001 -0.33367363 0 15
1.2698513 1.7867738 -0.31463993 0 16
1.2588521 1.7712971 -0.29154211 0 17
1.2653116 1.7803861 -0.27261153 0 18
1.2594708 1.7721677 -0.25106752 0 19
1.2599316 1.7728159 -0.23090941 0 20
1.2613492 1.7748108 -0.21093602 0 21
1.2682874 1.7845732 -0.19178803 0 22
1.2662854 1.7817563 -0.17124172 0 23
1.2580453 1.7701619 -0.15004453 0 24
1.2600899 1.7730389 -0.13019842 0 25
1.2651721 1.7801898 -0.11057475 0 26
1.2594646 1.7721589 -0.090036698 0 27
1.2539817 1.764444 -0.069707945 0 28
1.2711039 1.7885362 -0.050462712 0 29
1.2685126 1.7848901 -0.030212494 0 30
1.2642488 1.7788907 -0.010036415 0 31
1.2625104 1.7764447 0.010022615 0 32
1.2570333 1.7687379 0.029939089 0 33
1.261973 1.7756884 0.050100215 0 34
1.2626623 1.7766583 0.070190497 0 35
1.2569244 1.7685847 0.089855105 0 36
1.2613354 1.7747912 0.11023942 0 37
1.2608694 1.7741355 0.13027896 0 38
1.2680157 1.784191 0.15123369 0 39
1.2701399 1.7871799 0.17176297 0 40
1.2652186 1.7802553 0.19132398 0 41
1.263253 1.7774894 0.21125439 0 42
1.2674682 1.7834206 0.23229067 0 43
1.2618971 1.7755817 0.25155121 0 44
1.2634488 1.777765 0.27221021 0 45
1.2610674 1.7744141 0.29205513 0 46
1.2594242 1.7721021 0.31205633 0 47
1.2602912 1.773322 0.33272085 0 48
1.2548876 1.7657187 0.35171363 0 49
1.2632858 1.7775356 0.37468493 0 50
1.2650121 1.7799647 0.39590803 0 51
1.263029 1.7771742 0.41603503 0 52
1.26827 1.7845488 0.4386684 0 53
1.2685717 1.7849733 0.45976198 0 54
1.2625715 1.7765305 0.47855809 0 55
1.2610629 1.7744077 0.49901679 0 56
1.2635769 1.7779452 0.52117306 0 57
1.2594192 1.7720951 0.54064298 0 58
1.2607105 1.773912 0.56250101 0 59
1.2611886 1.7745848 0.58412766 0 60
1.267132 1.7829475 0.60850114 0 61
1.2598516 1.7727035 0.62661171 0 62
1.2600032 1.7729167 0.64841133 0 63
1.2598398 1.8196622 -0.65979195 0 0
1.2607267 1.8209432 -0.63813537 0 1
1.2618998 1.8226378 -0.61670458 0 2
1.2678475 1.8312283 -0.59759581 0 3
1.2556463 1.8136055 -0.57014859 0 4
1.2688314 1.8326494 -0.55431539 0 5
1.2647479 1.8267512 -0.53088081 0 6
1.2567019 1.8151301 -0.50608504 0 7
1.2550095 1.8126856 -0.48410383 0 8
1.2643973 1.8262448 -0.46635252 0 9
1.2691194 1.8330654 -0.44672465 0 10
1.2577723 1.8166761 -0.42162991 0 11
1.2607067 1.8209144 -0.40153784 0 12
1.2668134 1.8297347 -0.38237551 0 13
1.2616837 1.8223256 -0.35987166 0 14
1.2622625 1.8231615 -0.33913416 0 15
1.2563227 1.8145823 -0.31679255 0 16
1.2598305 1.8196489 -0.2969282 0 17
1.2637151 1.8252597 -0.27708226 0 18
1.2617698 1.8224499 -0.2559737 0 19
1.2538606 1.8110262 -0.23386042 0 20
1.2626362 1.8237013 -0.21488516 0 21
1.254326 1.8116983 -0.19303097 0 22
1.2661102 1.828719 -0.17424577 0 23
1.2495865 1.8048527 -0.15167114 0 24
1.263567 1.8250457 -0.13286641 0 25
1.2574412 1.8161978 -0.11184248 0 26
1.2621897 1.8230566 -0.091827132 0 27
1.2598051 1.8196121 -0.071270078 0 28
1.2601478 1.8201072 -0.050912429 0 29
1.2571609 1.815793 -0.030471612 0 30
1.2586937 1.818007 -0.010169015 0 31
1.2533592 1.810302 0.010125917 0 32
1.2591225 1.8186263 0.03051916 0 33
1.2659242 1.8284504 0.051145807 0 34
1.2511138 1.8070588 0.070778392 0 35
1.2641053 1.8258233 0.091966495 0 36
1.2624372 1.8234138 0.11228685 0 37
1.2643696 1.8262049 0.13295081 0 38
1.256888 1.8153989 0.1525574 0 39
1.2647958 1.8268205 0.17406487 0 40
1.2629722 1.8241867 0.19436157 0 41
1.2631286 1.8244126 0.21496896 0 42
1.2490109 1.8040215 0.23295587 0 43
1.2594284 1.8190681 0.25549871 0 44
1.2521605 1.8085706 0.2745488 0 45
1.2603199 1.8203559 0.29704359 0 46
1.2625391 1.8235611 0.31836006 0 47
1.2548851 1.812506 0.33715206 0 48
1.2562635 1.8144968 0.35832563 0 49
1.2572862 1.815974 0.37949982 0 50
1.2581004 1.81715 0.40070772 0 51
1.2514745 1.8075798 0.41951874 0 52
1.2538555 1.8110188 0.4413518 0 53
1.2616398 1.8222622 0.46533552 0 54
1.2595807 1.819288 0.48586708 0 55
1.2517052 1.8079131 0.50407279 0 56
1.2580134 1.8170244 0.528054 0 57
1.2577921 1.8167046 0.54949266 0 58
1.2525483 1.8091308 0.56874186 0 59
1.2586913 1.8180034 0.59328002 0 60
1.2652992 1.8275476 0.61836588 0 61
1.2671095 1.8301623 0.64136612 0 62
1.258482 1.817701 0.65908086 0 63
1.262843 1.8727902 -0.6733743 0 0
1.2526003 1.8576003 -0.64553505 0 1
1.2509716 1.855185 -0.62246537 0 2
1.2467887 1.8489819 -0.59834111 0 3
1.2456182 1.8472461 -0.57586557 0 4
1.2480091 1.8507917 -0.55511916 0 5
1.2601953 1.8688637 -0.53857523 0 6
1.2591189 1.8672675 -0.51626587 0 7
1.2554921 1.861889 -0.49308404 0 8
1.2548169 1.8608876 -0.47122315 0 9
1.2526193 1.8576285 -0.44892311 0 10
1.2555583 1.861987 -0.42853042 0 11
1.2683389 1.8809407 -0.41130424 0 12
1.2583917 1.8661891 -0.38673079 0 13
1.2578254 1.8653491 -0.36528593 0 14
1.256919 1.8640051 -0.34383067 0 15
1.2592525 1.8674657 -0.32329726 0 16
1.2538455 1.8594469 -0.3008838 0 17
1.2576665 1.8651136 -0.28076339 0 18
1.2575275 1.8649073 -0.25974557 0 19
1.2625024 1.8722852 -0.23974808 0 20
1.2639819 1.8744794 -0.21902038 0 21
1.2555063 1.86191 -0.19672111 0 22
1.2534857 1.8589135 -0.17564088 0 23
1.2535182 1.8589616 -0.15491118 0 24
1.253679 1.8592001 -0.13422047 0 25
1.2559544 1.8625746 -0.11373875 0 26
1.2596 1.867981 -0.093302757 0 27
1.2597016 1.8681315 -0.072558284 0 28
1.2523879 1.8572854 -0.051517718 0 29
1.2560676 1.8627423 -0.030997954 0 30
1.2583176 1.8660791 -0.010350577 0 31
1.2553513 1.8616802 0.010326177 0 32
1.2554653 1.8618491 0.03098309 0 33
1.2567459 1.8637484 0.051696993 0 34
