# .PCD v0.7 - Point Cloud Data file format
VERSION 0.7
FIELDS x y z intensity ring
SIZE 4 4 4 4 2
TYPE F F F F U
COUNT 1 1 1 1 1
WIDTH 1283
HEIGHT 1
VIEWPOINT 0 0 0 1 0 0 0
POINTS 1283
DATA ascii
0.67208344 -3.1209786 0.79391998 0 58
0.67761916 -3.1466851 0.83196849 0 59
0.67349547 -3.1275356 0.85837233 0 60
0.67470056 -3.133132 0.89158732 0 61
0.6733548 -3.1268826 0.92158711 0 62
0.67334348 -3.1268301 0.95351803 0 63
0.55098522 -2.4140112 -0.7381562 0 0
0.57022113 -2.4982891 -0.73833221 0 1
0.59056664 -2.5874279 -0.73830837 0 2
0.60969502 -2.6712344 -0.73513955 0 3
0.63416606 -2.7784486 -0.73661458 0 4
0.65710157 -2.8789351 -0.73434842 0 5
0.68411273 -2.997278 -0.73457706 0 6
0.71412849 -3.1287849 -0.73567188 0 7
0.73049712 -3.2005002 -0.72081965 0 8
0.72839993 -3.1913118 -0.68725407 0 9
0.7279619 -3.1893928 -0.65548491 0 10
0.7288608 -3.193331 -0.62501514 0 11
0.7286402 -3.1923645 -0.59366596 0 12
0.7310065 -3.2027321 -0.56443679 0 13
0.72943538 -3.1958485 -0.53223151 0 14
0.72937095 -3.1955662 -0.50128758 0 15
0.72942102 -3.1957855 -0.47050974 0 16
0.72948933 -3.196085 -0.43981993 0 17
0.73044151 -3.2002566 -0.40969586 0 18
0.72740841 -3.1869678 -0.3774941 0 19
0.72931659 -3.195328 -0.34796867 0 20
0.73081118 -3.2018762 -0.31816325 0 21
0.72808677 -3.18994 -0.28662652 0 22
0.72945768 -3.195946 -0.25680736 0 23
0.72954923 -3.1963475 -0.2265207 0 24
0.72953653 -3.1962917 -0.19623688 0 25
0.72978777 -3.1973925 -0.1660475 0 26
0.7324698 -3.2091429 -0.13631783 0 27
0.72902161 -3.1940355 -0.10550205 0 28
0.72979665 -3.1974313 -0.075425953 0 29
0.7280519 -3.1897871 -0.045142286 0 30
0.72968602 -3.1969464 -0.015080351 0 31
0.73061609 -3.2010214 0.015099574 0 32
0.72710705 -3.1856475 0.045083698 0 33
0.73025531 -3.1994407 0.075473353 0 34
0.73072255 -3.2014878 0.1057482 0 35
0.7289325 -3.1936452 0.13565953 0 36
0.7314266 -3.2045727 0.16642039 0 37
0.73126853 -3.2038798 0.19670276 0 38
0.72774047 -3.1884224 0.22595908 0 39
0.73231709 -3.2084739 0.25781402 0 40
0.7275548 -3.1876092 0.2864171 0 41
0.72870052 -3.1926289 0.31724435 0 42
0.73111939 -3.2032268 0.34882885 0 43
0.72951871 -3.1962137 0.37858924 0 44
0.73152357 -3.2049973 0.41030279 0 45
0.73143941 -3.2046287 0.44099566 0 46
0.73088211 -3.2021871 0.47145221 0 47
0.73147643 -3.2047908 0.50273466 0 48
0.72845912 -3.191571 0.53151917 0 49
0.73183113 -3.2063448 0.56507343 0 50
0.73043156 -3.200213 0.59512544 0 51
0.73081225 -3.2018809 0.62668866 0 52
0.73219073 -3.2079203 0.6592927 0 53
0.73097199 -3.2025809 0.68968087 0 54
0.73217916 -3.2078698 0.7224794 0 55
0.73018771 -3.1991446 0.75221562 0 56
0.72971642 -3.1970797 0.78354478 0 57
0.73366553 -3.2143819 0.81991297 0 58
0.73235863 -3.2086558 0.85066998 0 59
0.72992063 -3.1979744 0.8801015 0 60
0.73059273 -3.2009192 0.91336477 0 61
0.72786009 -3.1889467 0.94244587 0 62
0.73012733 -3.1988802 0.97815341 0 63
0.57882297 -2.3995829 -0.73586506 0 0
0.59660816 -2.4733138 -0.73306388 0 1
0.62268919 -2.5814359 -0.73872769 0 2
0.64352459 -2.6678116 -0.7363196 0 3
0.66738635 -2.7667336 -0.73562884 0 4
0.69139653 -2.8662708 -0.73323119 0 5
0.72196507 -2.9929967 -0.73564792 0 6
0.75216395 -3.1181898 -0.73529977 0 7
0.78913987 -3.2714782 -0.73893493 0 8
0.787736 -3.2656581 -0.70529729 0 9
0.7899788 -3.274956 -0.67501521 0 10
0.79053146 -3.277247 -0.64329362 0 11
0.78781193 -3.2659731 -0.60910994 0 12
0.78995854 -3.2748718 -0.57881856 0 13
0.7887879 -3.2700191 -0.54615778 0 14
0.78980213 -3.2742236 -0.51511109 0 15
0.7877385 -3.2656686 -0.48218817 0 16
0.79043376 -3.2768421 -0.45223644 0 17
0.79001743 -3.2751162 -0.42049122 0 18
0.78860658 -3.2692673 -0.38836166 0 19
0.78752923 -3.264801 -0.35656184 0 20
0.7921797 -3.28408 -0.32727486 0 21
0.79090613 -3.2788005 -0.29546243 0 22
0.78822035 -3.2676661 -0.26332927 0 23
0.79068285 -3.2778745 -0.23296984 0 24
0.78591108 -3.2580926 -0.20060933 0 25
0.78752637 -3.2647891 -0.1700376 0 26
0.78904277 -3.2710755 -0.13935021 0 27
0.79470861 -3.294564 -0.10913713 0 28
0.79134983 -3.2806399 -0.077612482 0 29
0.79073775 -3.2781022 -0.04652622 0 30
0.79284239 -3.2868273 -0.015549142 0 31
0.78987306 -3.2745175 0.015490907 0 32
0.7915644 -3.2815292 0.046574861 0 33
0.78786927 -3.2662108 0.077271119 0 34
0.79114932 -3.2798083 0.10864832 0 35
0.79177135 -3.2823873 0.13983209 0 36
0.78612477 -3.2589786 0.16973497 0 37
0.78801346 -3.2668083 0.20114596 0 38
0.78609568 -3.258858 0.23161826 0 39
0.78937155 -3.2724385 0.26371387 0 40
0.79021209 -3.275923 0.29520315 0 41
0.7886883 -3.2696059 0.32583243 0 42
0.7910251 -3.2792935 0.35814464 0 43
0.79065651 -3.2777653 0.38937116 0 44
0.79062647 -3.2776411 0.42081538 0 45
0.78984445 -3.274399 0.45189929 0 46
0.78753674 -3.2648323 0.48206466 0 47
0.78907025 -3.2711895 0.51463377 0 48
0.78814608 -3.2673581 0.54571337 0 49
0.78942972 -3.2726798 0.57843113 0 50
0.79175031 -3.2823 0.61215496 0 51
0.7877658 -3.2657816 0.64104307 0 52
0.78866452 -3.2695074 0.67389226 0 53
0.78616458 -3.2591436 0.70389032 0 54
0.78971159 -3.2738483 0.7394703 0 55
0.78864551 -3.2694285 0.77096337 0 56
0.78949773 -3.2729616 0.80446041 0 57
0.78745735 -3.264503 0.83510441 0 58
0.78982651 -3.2743244 0.8705889 0 59
0.78733325 -3.2639885 0.90086526 0 60
0.78830707 -3.2680254 0.9352085 0 61
0.79109597 -3.2795873 0.97203475 0 62
0.78972858 -3.2739186 1.0039922 0 63
0.61225575 -2.4079075 -0.74067068 0 0
0.63123918 -2.4825664 -0.738051 0 1
0.65268725 -2.5669181 -0.73681414 0 2
0.67305446 -2.6470191 -0.73280972 0 3
0.7018832 -2.7603984 -0.73618346 0 4
0.72921807 -2.867902 -0.73588675 0 5
0.75879532 -2.9842248 -0.73572963 0 6
0.79524827 -3.1275887 -0.73976618 0 7
0.82859451 -3.2587342 -0.73830205 0 8
0.85183686 -3.3501427 -0.72575116 0 9
0.84843957 -3.336782 -0.68985665 0 10
0.85189325 -3.3503647 -0.65965229 0 11
0.8489216 -3.3386776 -0.62456912 0 12
0.84842026 -3.3367059 -0.59154665 0 13
0.85222262 -3.35166 -0.56150126 0 14
0.85118896 -3.3475947 -0.52826077 0 15
0.8524695 -3.3526311 -0.49653873 0 16
0.85180557 -3.3500199 -0.46374619 0 17
0.85513306 -3.3631065 -0.43310556 0 18
0.84794241 -3.3348267 -0.39735815 0 19
0.85194165 -3.3505552 -0.36704376 0 20
0.85388494 -3.3581977 -0.335682 0 21
0.84736395 -3.3325515 -0.30122229 0 22
0.8514936 -3.3487928 -0.27069029 0 23
0.85182536 -3.3500977 -0.23882937 0 24
0.85441786 -3.3602936 -0.20753331 0 25
0.85302967 -3.3548341 -0.17526039 0 26
0.85074997 -3.3458683 -0.14297129 0 27
0.85099459 -3.3468304 -0.11120676 0 28
0.84987473 -3.3424261 -0.079315446 0 29
0.84861612 -3.3374763 -0.047513433 0 30
0.84769195 -3.3338416 -0.015819671 0 31
0.85290021 -3.3543248 0.015916867 0 32
0.85143429 -3.3485596 0.047671217 0 33
0.84671777 -3.3300104 0.079020821 0 34
0.84984106 -3.3422937 0.11105601 0 35
0.8484984 -3.3370132 0.14259291 0 36
0.84925932 -3.3400059 0.17448576 0 37
0.84587878 -3.3267107 0.20545922 0 38
0.84979331 -3.3421059 0.23825964 0 39
0.8537845 -3.3578026 0.27141857 0 40
0.84990412 -3.3425417 0.30212528 0 41
0.84661043 -3.3295882 0.33282223 0 42
0.85163361 -3.3493435 0.36691102 0 43
0.85100007 -3.3468518 0.39879099 0 44
0.85216254 -3.3514237 0.43160108 0 45
0.84766781 -3.3337467 0.46149346 0 46
0.85206592 -3.3510437 0.49630362 0 47
0.85235316 -3.3521733 0.52898329 0 48
0.8494792 -3.3408706 0.55969375 0 49
0.85264188 -3.3533089 0.59449005 0 50
0.8530336 -3.3548496 0.62759441 0 51
0.85219467 -3.3515501 0.65988564 0 52
0.84951919 -3.341028 0.69073451 0 53
0.84856129 -3.3372605 0.72296047 0 54
0.84938943 -3.3405175 0.75683093 0 55
0.85048807 -3.3448384 0.79115206 0 56
0.84851271 -3.3370695 0.82271981 0 57
0.85024136 -3.3438683 0.85801679 0 58
0.85383779 -3.3580124 0.89556396 0 59
0.84895551 -3.3388109 0.92432773 0 60
0.85175908 -3.3498371 0.96154493 0 61
0.85417593 -3.3593421 0.99871075 0 62
0.85118198 -3.3475673 1.0297093 0 63
0.63636655 -2.3798182 -0.73438185 0 0
0.66036743 -2.4695742 -0.73654687 0 1
0.68334293 -2.5554955 -0.73589164 0 2
0.70974666 -2.6542373 -0.73716843 0 3
0.73479503 -2.7479107 -0.73520726 0 4
0.76433665 -2.8583875 -0.73580134 0 5
0.79531616 -2.9742415 -0.73562378 0 6
0.82556272 -3.0873544 -0.73259532 0 7
0.86906606 -3.2500436 -0.73869836 0 8
0.90827227 -3.3966632 -0.73819268 0 9
0.91582036 -3.4248908 -0.71034706 0 10
0.91683227 -3.4286749 -0.67723924 0 11
0.91614479 -3.4261038 -0.64298284 0 12
0.91795284 -3.4328654 -0.61054921 0 13
0.9144218 -3.4196603 -0.57473361 0 14
0.91619319 -3.426285 -0.54241514 0 15
0.91694331 -3.4290903 -0.50949401 0 16
0.91536134 -3.4231741 -0.47539517 0 17
0.91443944 -3.4197264 -0.44181183 0 18
0.91575289 -3.4246383 -0.40937033 0 19
0.91246051 -3.4123259 -0.37501132 0 20
0.91507924 -3.4221191 -0.34317034 0 21
0.91265345 -3.4130473 -0.3094891 0 22
0.91566628 -3.4243145 -0.277684 0 23
0.91651314 -3.4274814 -0.245131 0 24
0.91535556 -3.4231524 -0.21209462 0 25
0.91783011 -3.4324067 -0.17988887 0 26
0.91826254 -3.4340236 -0.14720958 0 27
0.91293651 -3.4141059 -0.11380656 0 28
0.91804469 -3.4332089 -0.081731409 0 29
0.91953701 -3.4387896 -0.04911302 0 30
0.91660744 -3.427834 -0.01631793 0 31
0.91277623 -3.4135065 0.016249726 0 32
0.91631663 -3.4267466 0.04894102 0 33
0.9155311 -3.4238091 0.081507638 0 34
0.91435218 -3.4194002 0.11398304 0 35
0.9181748 -3.4336956 0.14719553 0 36
0.91421336 -3.4188809 0.17918001 0 37
0.91373384 -3.4170876 0.21171886 0 38
0.91478264 -3.42101 0.24466816 0 39
0.9176172 -3.4316103 0.27827564 0 40
0.91496336 -3.4216857 0.31027243 0 41
0.91363794 -3.4167292 0.34262985 0 42
0.91762525 -3.4316404 0.377134 0 43
0.9152177 -3.4226367 0.40913111 0 44
0.91607928 -3.425859 0.44260412 0 45
0.91357434 -3.416491 0.4744671 0 46
0.91209435 -3.4109566 0.50679976 0 47
0.91566896 -3.4243245 0.54210478 0 48
0.91857076 -3.4351764 0.57734132 0 49
0.91444439 -3.419745 0.60821563 0 50
0.91764802 -3.4317255 0.64403784 0 51
0.91769361 -3.4318962 0.67787552 0 52
0.9168694 -3.4288137 0.71116072 0 53
0.91647559 -3.4273412 0.74485987 0 54
0.91691387 -3.4289801 0.77936864 0 55
0.91464567 -3.4204977 0.81164658 0 56
0.91730511 -3.4304433 0.84845686 0 57
0.91842073 -3.4346151 0.88413292 0 58
0.91884297 -3.4361942 0.91935843 0 59
0.91643256 -3.4271801 0.95183986 0 60
0.91142303 -3.4084461 0.981511 0 61
0.91567618 -3.4243515 1.0213079 0 62
0.91844791 -3.4347169 1.0599103 0 63
0.66584224 -2.3727496 -0.73467159 0 0
0.69064468 -2.461134 -0.73650682 0 1
0.71735847 -2.5563295 -0.73861605 0 2
0.74000239 -2.6370218 -0.73485869 0 3
0.77334392 -2.7558353 -0.73981577 0 4
0.80043048 -2.8523591 -0.73672742 0 5
0.8361935 -2.9798017 -0.73948622 0 6
0.86791152 -3.0928299 -0.73637134 0 7
0.90612942 -3.2290206 -0.73639685 0 8
0.94837731 -3.3795724 -0.73695707 0 9
0.98034555 -3.4934921 -0.72702074 0 10
0.98422903 -3.5073309 -0.69511354 0 11
0.98556513 -3.5120924 -0.66134483 0 12
0.98396397 -3.5063865 -0.6257298 0 13
0.98745173 -3.518815 -0.5933941 0 14
0.98200768 -3.4994152 -0.55586195 0 15
0.98235112 -3.500639 -0.52188003 0 16
0.98657113 -3.5156772 -0.48988932 0 17
0.98688996 -3.516813 -0.4558883 0 18
0.98148227 -3.4975426 -0.41949606 0 19
0.98444843 -3.5081127 -0.38683933 0 20
0.98667979 -3.5160642 -0.3537811 0 21
0.98543888 -3.5116425 -0.31950414 0 22
0.98357165 -3.5049884 -0.28518519 0 23
0.9862076 -3.5143816 -0.25219426 0 24
0.9865787 -3.5157042 -0.21856414 0 25
0.98185396 -3.4988673 -0.18399085 0 26
0.98374182 -3.5055947 -0.15078485 0 27
0.985201 -3.5107944 -0.11742455 0 28
0.98408455 -3.5068161 -0.083765455 0 29
0.97989404 -3.491883 -0.050039608 0 30
0.98174268 -3.4984705 -0.016710395 0 31
0.98415202 -3.5070565 0.016751405 0 32
0.98385775 -3.5060079 0.050242022 0 33
0.98446167 -3.5081599 0.083797552 0 34
0.98316669 -3.5035453 0.11718208 0 35
0.98711878 -3.5176287 0.15130246 0 36
0.98358959 -3.5050523 0.1843161 0 37
0.98523349 -3.5109105 0.21826613 0 38
0.98973 -3.5269339 0.25309503 0 39
0.98392701 -3.5062549 0.28528824 0 40
0.98001003 -3.4922965 0.31774399 0 41
0.98119009 -3.4965017 0.35181272 0 42
0.98266876 -3.501771 0.38614002 0 43
0.98327804 -3.503942 0.42026359 0 44
0.98247188 -3.5010693 0.45384741 0 45
0.98722804 -3.518018 0.49021548 0 46
0.99022764 -3.528707 0.52606446 0 47
0.98340988 -3.5044119 0.5566557 0 48
0.98124868 -3.4967103 0.58966649 0 49
0.98793507 -3.5205376 0.62825513 0 50
0.98063356 -3.4945183 0.65803552 0 51
0.98419392 -3.5072057 0.69508874 0 52
0.98507661 -3.5103512 0.73052925 0 53
0.98569298 -3.5125477 0.76595402 0 54
0.98495674 -3.5099242 0.80045855 0 55
0.98645383 -3.515259 0.83694738 0 56
0.98335844 -3.5042286 0.86963129 0 57
0.9868412 -3.5166395 0.90830249 0 58
0.98764533 -3.519505 0.94482619 0 59
0.98465037 -3.5088325 0.97780615 0 60
0.98369217 -3.5054178 1.0128421 0 61
0.98225951 -3.5003126 1.0474863 0 62
0.98473817 -3.5091453 1.0865325 0 63
0.70431 -2.3961728 -0.74454939 0 0
0.72127306 -2.4538836 -0.73693556 0 1
0.74606407 -2.5382266 -0.73598051 0 2
0.77437323 -2.6345387 -0.73676461 0 3
0.80219865 -2.7292051 -0.73525929 0 4
0.83357859 -2.8359647 -0.73508489 0 5
0.86967003 -2.9587533 -0.73686087 0 6
0.90421927 -3.0762951 -0.73502624 0 7
0.94683284 -3.2212732 -0.73722947 0 8
0.98752064 -3.3596995 -0.7352159 0 9
1.0341452 -3.5183234 -0.73477918 0 10
1.0574977 -3.5977724 -0.71556109 0 11
1.057037 -3.5962052 -0.67957985 0 12
1.0591583 -3.6034219 -0.64532161 0 13
1.0581446 -3.5999732 -0.60922831 0 14
1.0536158 -3.5845654 -0.57140237 0 15
1.0588712 -3.6024449 -0.53895777 0 16
1.0566107 -3.5947547 -0.50268072 0 17
1.0553877 -3.5905938 -0.46709958 0 18
1.0596782 -3.6051905 -0.43393743 0 19
1.0525067 -3.5807922 -0.39625084 0 20
1.0598038 -3.6056182 -0.3640756 0 21
1.0546769 -3.5881755 -0.32762265 0 22
1.0542703 -3.5867922 -0.29287386 0 23
1.0552667 -3.5901821 -0.25854537 0 24
1.0576389 -3.5982528 -0.22448756 0 25
1.0578991 -3.599138 -0.18993337 0 26
1.0561337 -3.593132 -0.15509693 0 27
1.0566002 -3.5947189 -0.12065698 0 28
1.0563179 -3.5937586 -0.086145952 0 29
1.054495 -3.5875566 -0.051592551 0 30
1.0553468 -3.5904548 -0.017210439 0 31
1.058169 -3.6000564 0.017256463 0 32
1.0569432 -3.5958858 0.05171233 0 33
1.0557861 -3.5919495 0.086102583 0 34
1.0558822 -3.5922763 0.120575 0 35
1.0578583 -3.5989995 0.15535019 0 36
1.0544168 -3.5872905 0.18930815 0 37
1.0591154 -3.6032763 0.22480097 0 38
1.0553584 -3.5904942 0.25856784 0 39
1.0598187 -3.6056688 0.29441521 0 40
1.0584493 -3.6010098 0.32879451 0 41
1.0595678 -3.6048152 0.36399454 0 42
1.059368 -3.6041355 0.39883405 0 43
1.0565428 -3.5945237 0.43265349 0 44
1.059244 -3.6037138 0.46880633 0 45
1.0611973 -3.6103592 0.50486284 0 46
1.0550154 -3.5893276 0.53699529 0 47
1.0534132 -3.5838761 0.57129246 0 48
1.0553211 -3.5903673 0.60760266 0 49
1.0582175 -3.6002214 0.64474839 0 50
1.0540226 -3.5859492 0.67764181 0 51
1.0575626 -3.5979934 0.71560496 0 52
1.052133 -3.5795207 0.74755985 0 53
1.0573429 -3.5972455 0.78719902 0 54
1.0568118 -3.595439 0.82286209 0 55
1.0600737 -3.6065364 0.86171806 0 56
1.0550047 -3.5892911 0.89389277 0 57
1.0598896 -3.6059098 0.93465543 0 58
1.0551916 -3.589927 0.96714139 0 59
1.0566159 -3.5947728 1.0052998 0 60
1.0570683 -3.5963118 1.0427814 0 61
1.0586562 -3.6017141 1.081645 0 62
1.0594188 -3.6043081 1.1199466 0 63
0.72402328 -2.3557844 -0.73471051 0 0
0.75236392 -2.4479973 -0.73789036 0 1
0.77934116 -2.5357742 -0.73799241 0 2
0.80693835 -2.6255684 -0.73697519 0 3
0.8385359 -2.7283785 -0.7377587 0 4
0.86853248 -2.8259799 -0.73520947 0 5
0.9069069 -2.9508402 -0.73761165 0 6
0.9439829 -3.071476 -0.73659253 0 7
0.98158461 -3.1938221 -0.7336539 0 8
1.0305762 -3.3532283 -0.73651725 0 9
1.0835106 -3.5254631 -0.73899686 0 10
1.1349527 -3.6928422 -0.73718947 0 11
1.1330811 -3.6867523 -0.69927073 0 12
1.1306781 -3.6789336 -0.66128457 0 13
1.1330037 -3.6865005 -0.62618184 0 14
1.1321146 -3.6836078 -0.58936489 0 15
1.1348366 -3.6924644 -0.55447125 0 16
1.1316662 -3.6821489 -0.51680857 0 17
1.1336391 -3.6885679 -0.48162201 0 18
1.1297355 -3.6758666 -0.44408283 0 19
1.1332797 -3.6873987 -0.40955907 0 20
1.1357951 -3.6955831 -0.3745417 0 21
1.1330755 -3.6867342 -0.33786827 0 22
1.1329718 -3.6863966 -0.30212164 0 23
1.1315624 -3.6818111 -0.26612592 0 24
1.1341128 -3.6901095 -0.23107089 0 25
1.1318221 -3.682656 -0.19506048 0 26
1.1311915 -3.680604 -0.15946099 0 27
1.1302104 -3.6774118 -0.12388968 0 28
1.1314721 -3.6815174 -0.088576429 0 29
1.1363531 -3.6973989 -0.053369101 0 30
1.1314307 -3.6813827 -0.017711639 0 31
1.1336668 -3.6886582 0.017746644 0 32
1.1307325 -3.6791108 0.053105127 0 33
1.1369469 -3.699331 0.089005023 0 34
1.136073 -3.6964872 0.12453232 0 35
1.1265821 -3.6656067 0.15881124 0 36
1.127386 -3.668222 0.19429594 0 37
1.1337413 -3.6889007 0.23099518 0 38
1.1318141 -3.6826301 0.2661851 0 39
1.1311837 -3.6805787 0.30164483 0 40
1.1275887 -3.6688819 0.33623222 0 41
1.1346759 -3.6919415 0.37417263 0 42
1.1326823 -3.6854548 0.40934318 0 43
1.1301832 -3.6773236 0.44425884 0 44
1.127789 -3.6695335 0.47913665 0 45
1.1324105 -3.6845706 0.51714844 0 46
1.1312002 -3.6806324 0.55269456 0 47
1.1311343 -3.680418 0.58885455 0 48
1.1362683 -3.6971228 0.62798613 0 49
1.1302122 -3.677418 0.66101211 0 50
1.1256753 -3.6626558 0.69470036 0 51
1.1338322 -3.6891963 0.73646164 0 52
1.131384 -3.6812305 0.77164835 0 53
1.1367446 -3.6986728 0.81239218 0 54
1.1340203 -3.6898084 0.84758705 0 55
1.1347607 -3.6922178 0.8854571 0 56
1.1339568 -3.6896017 0.92227739 0 57
1.1314952 -3.6815925 0.95780641 0 58
1.1345294 -3.6914649 0.99817902 0 59
1.1327661 -3.6857276 1.0345531 0 60
1.1322228 -3.6839597 1.0721515 0 61
1.1313488 -3.6811163 1.1095847 0 62
1.1320498 -3.6833968 1.1487598 0 63
0.75317925 -2.3474677 -0.73494965 0 0
0.7809453 -2.4340074 -0.7365123 0 1
0.80792975 -2.518111 -0.73568749 0 2
0.83832353 -2.6128407 -0.73624045 0 3
0.86775303 -2.704565 -0.73414922 0 4
0.90061742 -2.8069949 -0.73309606 0 5
0.94428068 -2.9430821 -0.73851901 0 6
0.9822697 -3.0614843 -0.73703724 0 7
1.0304779 -3.2117367 -0.74062377 0 8
1.0707352 -3.3372087 -0.7358349 0 9
1.1220617 -3.4971805 -0.73590487 0 10
1.1786145 -3.6734409 -0.7361539 0 11
1.2109469 -3.7742128 -0.71862942 0 12
1.2180072 -3.7962179 -0.68500662 0 13
1.2132186 -3.7812929 -0.64476836 0 14
1.2092704 -3.7689877 -0.60535872 0 15
1.2131656 -3.7811282 -0.56998223 0 16
1.2132033 -3.7812455 -0.53277081 0 17
1.2128987 -3.7802963 -0.49550906 0 18
1.2148699 -3.7864397 -0.4592112 0 19
1.2137786 -3.7830386 -0.42180765 0 20
1.2106887 -3.7734082 -0.3839089 0 21
1.2130409 -3.7807395 -0.34782401 0 22
1.2166221 -3.7919011 -0.31197083 0 23
1.2113363 -3.7754264 -0.27394846 0 24
1.2147954 -3.7862074 -0.23800583 0 25
1.2129443 -3.7804382 -0.20101455 0 26
1.209447 -3.7695379 -0.16394596 0 27
1.2164661 -3.7914145 -0.1282246 0 28
1.2171938 -3.7936828 -0.091628283 0 29
1.2113568 -3.77549 -0.054707155 0 30
1.2129658 -3.7805054 -0.018258912 0 31
1.2156864 -3.7889848 0.018299866 0 32
1.213918 -3.7834728 0.054822825 0 33
1.2110276 -3.7744644 0.091164105 0 34
1.2148119 -3.7862592 0.12805025 0 35
1.2122557 -3.7782922 0.1643267 0 36
1.2164862 -3.7914777 0.20160154 0 37
1.214725 -3.7859883 0.23799205 0 38
1.213313 -3.7815874 0.27439553 0 39
1.2141297 -3.784133 0.31133172 0 40
1.2129053 -3.7803166 0.34778512 0 41
1.2113326 -3.7754149 0.38411307 0 42
1.2105571 -3.7729976 0.42068809 0 43
1.2118071 -3.7768939 0.45805353 0 44
1.2164766 -3.7914474 0.49697071 0 45
1.2151729 -3.787384 0.53363574 0 46
1.2119694 -3.7773995 0.56942022 0 47
1.2138757 -3.7833407 0.60766405 0 48
1.2136585 -3.7826638 0.64500207 0 49
1.2154943 -3.7883856 0.68359333 0 50
1.2165532 -3.7916863 0.72195649 0 51
1.2150137 -3.7868879 0.7588886 0 52
1.2137777 -3.7830355 0.79605681 0 53
1.2172564 -3.7938781 0.83652782 0 54
1.2156277 -3.7888017 0.87369448 0 55
1.2160772 -3.7902029 0.91247267 0 56
1.2153901 -3.7880609 0.95055282 0 57
1.2148833 -3.7864816 0.98890615 0 58
1.215374 -3.7880111 1.0282487 0 59
1.2129306 -3.7803955 1.0652314 0 60
1.2175384 -3.7947567 1.1086704 0 61
1.2105432 -3.7729545 1.1416676 0 62
1.214457 -3.7851529 1.1850628 0 63
0.78311455 -2.3414047 -0.73601061 0 0
0.81061989 -2.4236417 -0.73633623 0 1
0.84103471 -2.5145779 -0.73762095 0 2
0.872904 -2.6098626 -0.73837 0 3
0.90056515 -2.6925657 -0.73384255 0 4
0.93817502 -2.8050141 -0.73553598 0 5
0.97848558 -2.9255371 -0.73707986 0 6
1.0170403 -3.0408103 -0.73501533 0 7
1.0626074 -3.1770496 -0.73558247 0 8
1.1168921 -3.3393536 -0.73928016 0 9
1.1679579 -3.4920332 -0.73778808 0 10
1.2265667 -3.6672654 -0.73788309 0 11
1.2902412 -3.8576434 -0.73748016 0 12
1.3007939 -3.8891945 -0.70461673 0 13
1.3029035 -3.8955021 -0.66692418 0 14
1.3012054 -3.8904247 -0.62738585 0 15
1.3011273 -3.8901913 -0.58879018 0 16
1.3012098 -3.8904381 -0.55036867 0 17
1.3043423 -3.8998039 -0.51323724 0 18
1.3034879 -3.8972492 -0.47455797 0 19
1.3010052 -3.8898263 -0.43546528 0 20
1.3014243 -3.8910792 -0.39747894 0 21
1.3003982 -3.8880115 -0.35913685 0 22
1.3047789 -3.9011092 -0.32225135 0 23
1.3043799 -3.8999164 -0.28412393 0 24
1.3024553 -3.8941617 -0.24578016 0 25
1.3013448 -3.8908415 -0.2077201 0 26
1.2976278 -3.8797286 -0.16941957 0 27
1.3007939 -3.8891945 -0.13206246 0 28
1.2981563 -3.8813083 -0.094123125 0 29
1.3032178 -3.8964415 -0.056687668 0 30
1.2996259 -3.8857024 -0.018842747 0 31
1.2997714 -3.8861375 0.018844858 0 32
1.301872 -3.8924179 0.056629132 0 33
1.302405 -3.8940117 0.094431184 0 34
1.3011888 -3.8903754 0.13210256 0 35
1.3048166 -3.901222 0.17035814 0 36
1.3029283 -3.895576 0.20797287 0 37
1.304158 -3.8992527 0.24610147 0 38
1.3069311 -3.9075441 0.28467965 0 39
1.3071122 -3.9080853 0.32282761 0 40
1.3022912 -3.893671 0.35965964 0 41
1.3042668 -3.8995781 0.39834711 0 42
1.3007264 -3.8889928 0.43537197 0 43
1.3046994 -3.9008715 0.47499901 0 44
1.3029443 -3.8956239 0.51268715 0 45
1.3042748 -3.8996019 0.55166507 0 46
1.303134 -3.8961911 0.58969826 0 47
1.3019643 -3.8926938 0.62775177 0 48
1.3023854 -3.8939533 0.666659 0 49
1.2995125 -3.8853633 0.70392257 0 50
1.3046081 -3.9005985 0.74569201 0 51
1.3043472 -3.8998182 0.78467458 0 52
1.3033854 -3.8969429 0.82333636 0 53
1.2984245 -3.8821106 0.859438 0 54
1.3010719 -3.8900259 0.90065783 0 55
1.3007964 -3.8892021 0.94008595 0 56
1.3043436 -3.8998077 0.9825443 0 57
1.2998532 -3.8863821 1.0190943 0 58
1.3046192 -3.9006314 1.0630935 0 59
1.2999113 -3.8865554 1.0995659 0 60
1.3040898 -3.8990488 1.1437387 0 61
1.3025955 -3.8945813 1.1832283 0 62
1.3004792 -3.8882535 1.2222559 0 63
0.81313616 -2.3353093 -0.7371819 0 0
0.84111983 -2.4156778 -0.73700327 0 1
0.86968726 -2.4977229 -0.73575813 0 2
0.90071529 -2.5868347 -0.73493296 0 3
0.93325734 -2.6802948 -0.73357034 0 4
0.97162455 -2.7904844 -0.73480338 0 5
1.0128917 -2.9090025 -0.73599643 0 6
1.0592376 -3.0421071 -0.73842126 0 7
1.0991189 -3.1566458 -0.73393202 0 8
1.150906 -3.3053768 -0.7348358 0 9
1.2132021 -3.4842901 -0.7392481 0 10
1.2670856 -3.6390421 -0.73528367 0 11
1.33977 -3.84779 -0.73869008 0 12
1.3933426 -4.0016499 -0.72803956 0 13
1.3906424 -3.9938948 -0.68664503 0 14
1.3925171 -3.9992785 -0.64765245 0 15
1.3909782 -3.994859 -0.60717475 0 16
1.390308 -3.9929345 -0.56724411 0 17
1.3937534 -4.0028291 -0.52901149 0 18
1.3952934 -4.0072522 -0.4900049 0 19
1.3932962 -4.0015163 -0.44985294 0 20
1.3953701 -4.0074725 -0.41109034 0 21
1.3877672 -3.9856372 -0.36970291 0 22
1.3935531 -4.0022545 -0.33199683 0 23
1.3882792 -3.9871075 -0.29169777 0 24
1.3910005 -3.9949231 -0.25320011 0 25
1.3894851 -3.9905708 -0.21394034 0 26
1.3937362 -4.00278 -0.17552808 0 27
1.393075 -4.0008812 -0.13642627 0 28
1.3929064 -4.0003967 -0.097419053 0 29
1.3879238 -3.9860868 -0.058235772 0 30
1.3915014 -3.9963617 -0.019460864 0 31
1.3911864 -3.9954567 0.019456457 0 32
1.3910156 -3.9949667 0.058365505 0 33
1.3959824 -4.0092306 0.097634181 0 34
1.3882369 -3.9869859 0.13595246 0 35
1.3928326 -4.000185 0.17541428 0 36
1.3953451 -4.007401 0.2148426 0 37
1.393267 -4.0014324 0.25361267 0 38
1.3896027 -3.9909086 0.29197586 0 39
1.3957614 -4.0085959 0.3325229 0 40
1.3904124 -3.9932342 0.37040761 0 41
1.3918555 -3.9973786 0.41005486 0 42
1.3903137 -3.9929509 0.44889 0 43
1.3867364 -3.9826765 0.48699978 0 44
1.3934116 -4.0018482 0.52888179 0 45
1.3981344 -4.0154114 0.57043725 0 46
1.3953384 -4.0073814 0.60907799 0 47
1.3904349 -3.9932985 0.64668405 0 48
1.3938154 -4.0030074 0.68821168 0 49
1.3906735 -3.993984 0.72664493 0 50
1.3910513 -3.995069 0.76696438 0 51
1.3942839 -4.004353 0.80909634 0 52
1.3944107 -4.0047174 0.84966511 0 53
1.3901725 -3.9925449 0.88760376 0 54
1.3955493 -4.007987 0.93187213 0 55
1.3901784 -3.9925621 0.96912855 0 56
1.3910624 -3.9951007 1.0107863 0 57
1.3933877 -4.0017791 1.0537671 0 58
1.3945578 -4.0051398 1.0961674 0 59
1.3950478 -4.0065465 1.1382804 0 60
1.3905201 -3.9935434 1.1763842 0 61
1.3907603 -3.9942334 1.2186074 0 62
1.3907094 -3.994087 1.2608045 0 63
0.84589863 -2.3364873 -0.74078113 0 0
0.86789501 -2.3972442 -0.73457974 0 1
0.90181851 -2.4909456 -0.73697257 0 2
0.93629503 -2.5861745 -0.73796052 0 3
0.97281778 -2.6870553 -0.73863876 0 4
1.0094763 -2.788311 -0.73744398 0 5
1.048754 -2.8968015 -0.73611659 0 6
1.0931227 -3.0193541 -0.73610538 0 7
1.1413444 -3.1525488 -0.73618686 0 8
1.1950746 -3.3009589 -0.73706484 0 9
1.2507563 -3.4547594 -0.73619014 0 10
1.3147544 -3.6315308 -0.73697686 0 11
1.3910614 -3.8423014 -0.74086416 0 12
1.453753 -4.0154638 -0.73374969 0 13
1.4941956 -4.127172 -0.71266347 0 14
1.4939923 -4.1266108 -0.67119718 0 15
1.491636 -4.1201019 -0.62895054 0 16
1.4889758 -4.1127539 -0.58682263 0 17
1.496749 -4.1342249 -0.54876751 0 18
1.493858 -4.1262393 -0.50676244 0 19
1.4920073 -4.1211276 -0.46532702 0 20
1.500387 -4.1442733 -0.42698374 0 21
1.4957877 -4.1315694 -0.38491642 0 22
1.4932145 -4.1244621 -0.34363139 0 23
1.4938855 -4.1263156 -0.30320325 0 24
1.4962527 -4.1328535 -0.26308843 0 25
1.4967419 -4.1342053 -0.22261065 0 26
1.4944471 -4.1278667 -0.18180542 0 27
1.4873972 -4.1083941 -0.14070539 0 28
1.4935043 -4.1252623 -0.10089942 0 29
1.4895855 -4.1144385 -0.060373995 0 30
1.491654 -4.120152 -0.020151474 0 31
1.4973775 -4.1359611 0.020228796 0 32
1.49283 -4.1234002 0.060505498 0 33
1.492203 -4.1216679 0.1008115 0 34
1.496199 -4.1327057 0.14153801 0 35
1.4962846 -4.1329422 0.18202895 0 36
1.4870387 -4.1074038 0.22116749 0 37
1.4901257 -4.1159301 0.26201111 0 38
1.4937693 -4.1259942 0.30317965 0 39
1.4965777 -4.1337519 0.34440538 0 40
1.4905587 -4.1171265 0.38357082 0 41
1.4921137 -4.1214213 0.42462933 0 42
1.4960418 -4.1322713 0.46658531 0 43
1.4975132 -4.1363354 0.5080024 0 44
1.4910784 -4.1185617 0.54668844 0 45
1.4916136 -4.1200404 0.58786225 0 46
1.4921371 -4.1214862 0.62916178 0 47
1.4907318 -4.1176047 0.66973233 0 48
1.4954009 -4.1305013 0.7132383 0 49
1.4916105 -4.1200314 0.75285745 0 50
1.4897535 -4.1149025 0.79342651 0 51
1.492155 -4.1215353 0.83641762 0 52
1.4980334 -4.1377726 0.88173646 0 53
1.4952142 -4.1299853 0.9221766 0 54
1.4978119 -4.1371608 0.96611458 0 55
1.4928162 -4.1233621 1.0052577 0 56
1.4933422 -4.1248145 1.0481714 0 57
1.4935101 -4.1252785 1.091041 0 58
1.492345 -4.1220603 1.1331041 0 59
1.4867071 -4.1064878 1.1717793 0 60
1.4891737 -4.1133008 1.2169634 0 61
1.494469 -4.1279273 1.2649072 0 62
1.4952277 -4.1300225 1.3094199 0 63
0.86676979 -2.3051836 -0.73418003 0 0
0.90675777 -2.4115322 -0.74231845 0 1
0.93060678 -2.4749587 -0.73557264 0 2
0.96625668 -2.5697701 -0.73661423 0 3
1.0010493 -2.6623013 -0.73516226 0 4
1.0401493 -2.7662885 -0.73494661 0 5
1.0848461 -2.88516 -0.7364924 0 6
1.1238136 -2.9887946 -0.73196882 0 7
1.1819806 -3.1434903 -0.73740983 0 8
1.2364327 -3.288306 -0.73757869 0 9
1.2963557 -3.4476721 -0.73802096 0 10
1.35698 -3.6089029 -0.73571545 0 11
1.4315959 -3.8073449 -0.73746246 0 12
1.508418 -4.0116539 -0.73638713 0 13
1.5949813 -4.2418699 -0.73580009 0 14
1.5918057 -4.2334247 -0.69170195 0 15
1.5946721 -4.2410474 -0.65035754 0 16
1.5949234 -4.2417159 -0.60797572 0 17
1.5987495 -4.2518916 -0.566953 0 18
1.5968307 -4.2467885 -0.52393955 0 19
1.5948178 -4.2414351 -0.48108917 0 20
1.5936567 -4.2383471 -0.43866202 0 21
1.5967726 -4.246634 -0.39743558 0 22
1.5959164 -4.2443571 -0.35522863 0 23
1.5970701 -4.2474251 -0.31352177 0 24
1.5982684 -4.2506118 -0.27181521 0 25
1.5916668 -4.2330551 -0.22896989 0 26
1.5967231 -4.2465024 -0.18788108 0 27
1.5984573 -4.2511148 -0.14625543 0 28
1.59979 -4.2546587 -0.10453756 0 29
1.5912659 -4.2319889 -0.062381297 0 30
1.5981293 -4.2502422 -0.020882275 0 31
1.5978917 -4.2496104 0.02087917 0 32
1.5934361 -4.2377605 0.062466376 0 33
1.6024103 -4.2616277 0.10470878 0 34
1.5962914 -4.2453547 0.14605725 0 35
1.5983883 -4.2509313 0.18807702 0 36
1.5990962 -4.2528133 0.23003863 0 37
1.5972942 -4.2480211 0.27164954 0 38
1.5948443 -4.2415056 0.31308484 0 39
1.5947868 -4.2413526 0.35497719 0 40
1.5939631 -4.239162 0.39673629 0 41
1.5972347 -4.2478628 0.43964687 0 42
1.6013547 -4.2588201 0.48306111 0 43
1.5953507 -4.2428527 0.52345395 0 44
1.5997734 -4.2546148 0.56731606 0 45
1.5965592 -4.2460661 0.60859925 0 46
1.5943577 -4.2402115 0.65022933 0 47
1.595268 -4.2426324 0.69320643 0 48
1.6016848 -4.2596984 0.73889256 0 49
1.5941887 -4.2397623 0.7782591 0 50
1.5976492 -4.2489653 0.82300204 0 51
1.5963694 -4.2455616 0.86550546 0 52
1.596006 -4.2445955 0.9086132 0 53
1.596457 -4.2457948 0.95234674 0 54
1.6000049 -4.2552304 0.9982053 0 55
1.5993747 -4.2535543 1.041714 0 56
1.5962167 -4.2451558 1.0836574 0 57
1.5950239 -4.2419834 1.1270088 0 58
1.5921379 -4.2343082 1.1692529 0 59
1.5949143 -4.2416921 1.2158638 0 60
1.5936873 -4.2384286 1.2596866 0 61
1.5985972 -4.2514863 1.3086936 0 62
1.6010762 -4.2580795 1.3561597 0 63
0.89825696 -2.3025784 -0.73681241 0 0
0.92817461 -2.3792689 -0.73584479 0 1
0.96086609 -2.4630697 -0.73549515 0 2
0.99560624 -2.5521221 -0.73500919 0 3
1.033601 -2.6495173 -0.7350862 0 4
1.0808377 -2.7706034 -0.73956811 0 5
1.121366 -2.8744926 -0.73723358 0 6
1.1699532 -2.9990406 -0.73794562 0 7
1.2163298 -3.1179216 -0.73486483 0 8
1.2723093 -3.2614188 -0.73500139 0 9
1.3333039 -3.4177713 -0.73507428 0 10
1.4096578 -3.6134956 -0.74012947 0 11
1.4793874 -3.7922397 -0.73800445 0 12
1.5524693 -3.9795763 -0.73394758 0 13
1.6453723 -4.2177229 -0.7350654 0 14
1.7100559 -4.383532 -0.71960938 0 15
1.7110131 -4.3859854 -0.67575878 0 16
1.7111684 -4.3863835 -0.63167942 0 17
1.7132355 -4.3916821 -0.58835745 0 18
1.7143968 -4.394659 -0.54474247 0 19
1.713174 -4.3915243 -0.5004648 0 20
1.7170922 -4.4015684 -0.45770583 0 21
1.7124451 -4.3896561 -0.41276029 0 22
1.706454 -4.3742986 -0.36783242 0 23
1.7097691 -4.3827963 -0.32504144 0 24
1.7071 -4.3759546 -0.28115162 0 25
1.707644 -4.3773494 -0.2378927 0 26
1.7077986 -4.3777456 -0.19460216 0 27
1.7152858 -4.3969378 -0.15198648 0 28
1.7129825 -4.3910336 -0.10839766 0 29
1.7101271 -4.3837142 -0.064922854 0 30
1.7083886 -4.3792577 -0.021617733 0 31
1.7090172 -4.3808689 0.021625685 0 32
1.7056576 -4.3722572 0.064753175 0 33
1.708174 -4.3787074 0.10809337 0 34
1.71299 -4.3910527 0.15178306 0 35
1.7128645 -4.3907313 0.19517942 0 36
1.71343 -4.3921809 0.23869875 0 37
1.7234721 -4.4179225 0.28384802 0 38
1.7088767 -4.3805089 0.32487181 0 39
1.7100655 -4.3835564 0.36861086 0 40
1.7169521 -4.4012094 0.41384661 0 41
1.7067 -4.3749294 0.4549357 0 42
1.711694 -4.3877311 0.50003248 0 43
1.7081866 -4.3787403 0.54276919 0 44
1.7166041 -4.4003172 0.58951426 0 45
1.7097754 -4.382813 0.63116521 0 46
1.707978 -4.3782053 0.67456007 0 47
1.7048316 -4.3701396 0.71741092 0 48
1.7107651 -4.3853498 0.76427943 0 49
1.7114559 -4.3871207 0.8091104 0 50
1.7096995 -4.382618 0.85289747 0 51
1.7136111 -4.3926449 0.89971769 0 52
1.7095644 -4.3822718 0.94251335 0 53
1.7112296 -4.3865404 0.98856157 0 54
1.7124656 -4.3897085 1.0346131 0 55
1.7143414 -4.3945174 1.0813173 0 56
1.7104158 -4.3844543 1.1244999 0 57
1.7096187 -4.382411 1.1698143 0 58
1.7124269 -4.3896093 1.2178601 0 59
1.7131245 -4.3913975 1.2647191 0 60
1.7094086 -4.3818727 1.3084671 0 61
1.7086037 -4.3798094 1.3545589 0 62
1.706027 -4.3732042 1.3994013 0 63
0.92767262 -2.2942586 -0.73774457 0 0
0.96457887 -2.3855326 -0.74139422 0 1
0.9910928 -2.4511054 -0.73550594 0 2
1.0320728 -2.5524542 -0.73870391 0 3
1.0664012 -2.6373532 -0.73529381 0 4
1.1094294 -2.7437675 -0.73599058 0 5
1.1545457 -2.855346 -0.73590839 0 6
1.2043697 -2.9785676 -0.73649633 0 7
1.2533427 -3.0996842 -0.73414338 0 8
1.3186994 -3.2613199 -0.73857766 0 9
1.3829944 -3.4203303 -0.73922628 0 10
1.4526746 -3.592659 -0.73946446 0 11
1.5241288 -3.7693746 -0.7371462 0 12
1.6084658 -3.9779515 -0.7372399 0 13
1.7018592 -4.2089257 -0.73712367 0 14
1.8088965 -4.4736433 -0.73799795 0 15
1.8357425 -4.5400372 -0.70291865 0 16
1.8342785 -4.5364161 -0.65648407 0 17
1.8377634 -4.5450349 -0.6118834 0 18
1.8342059 -4.5362368 -0.56504476 0 19
1.8319385 -4.5306292 -0.51884532 0 20
1.8378155 -4.5451636 -0.47495195 0 21
1.8366367 -4.5422482 -0.4291997 0 22
1.836951 -4.543026 -0.38389099 0 23
1.8351619 -4.5386009 -0.33824438 0 24
1.8276377 -4.5199928 -0.29182777 0 25
1.8324692 -4.5319419 -0.24750011 0 26
1.8298357 -4.5254288 -0.20215198 0 27
1.8352916 -4.5389218 -0.15766254 0 28
1.8340991 -4.5359726 -0.11252388 0 29
1.8311172 -4.5285978 -0.067396954 0 30
1.8363842 -4.5416241 -0.022529 0 31
1.8304158 -4.5268636 0.02245578 0 32
1.8317006 -4.5300407 0.067418426 0 33
1.8314636 -4.5294547 0.11236218 0 34
1.8324112 -4.5317984 0.15741509 0 35
1.8348876 -4.5379229 0.20271011 0 36
1.8308682 -4.5279822 0.24728388 0 37
1.8350469 -4.5383167 0.29301086 0 38
1.8313698 -4.529223 0.33754545 0 39
1.8336301 -4.5348129 0.38319698 0 40
1.8272152 -4.5189481 0.42699802 0 41
1.8296161 -4.5248857 0.47283295 0 42
1.8351256 -4.5385113 0.51974797 0 43
1.8328575 -4.5329018 0.56462938 0 44
1.8327521 -4.5326414 0.61021489 0 45
1.8344245 -4.5367775 0.65653634 0 46
1.8341261 -4.5360394 0.70229971 0 47
1.8358096 -4.5402026 0.74897796 0 48
1.8315091 -4.5295672 0.79327875 0 49
1.8347178 -4.5375028 0.84094238 0 50
1.8327 -4.5325127 0.88638693 0 51
1.836931 -4.5429764 0.93506491 0 52
1.8305814 -4.5272732 0.97846669 0 53
1.8347124 -4.5374894 1.0275865 0 54
1.8349582 -4.5380974 1.0748236 0 55
1.8353003 -4.5389438 1.1223232 0 56
1.8311251 -4.5286179 1.1671607 0 57
1.836465 -4.5418239 1.2183028 0 58
1.8346325 -4.537292 1.2649965 0 59
1.8357683 -4.5401006 1.3139473 0 60
1.8366987 -4.5424018 1.3630437 0 61
1.8356003 -4.5396852 1.4108783 0 62
1.8353695 -4.5391145 1.4596032 0 63
0.95355576 -2.2772915 -0.7360034 0 0
0.99102312 -2.3667712 -0.73929483 0 1
1.0242449 -2.4461119 -0.7377311 0 2
1.0580966 -2.526957 -0.7350347 0 3
1.1060337 -2.6414409 -0.74016929 0 4
1.1443912 -2.7330465 -0.73683375 0 5
1.1893737 -2.8404744 -0.73578924 0 6
1.2389847 -2.9589555 -0.73535854 0 7
1.2990636 -3.1024365 -0.73852277 0 8
1.3548652 -3.2357025 -0.73649341 0 9
1.4124632 -3.3732586 -0.73275119 0 10
1.4938707 -3.567677 -0.7380476 0 11
1.5671406 -3.7426608 -0.73563492 0 12
1.6590406 -3.9621372 -0.73803407 0 13
1.7611343 -4.2059584 -0.74034071 0 14
1.8728594 -4.4727812 -0.74159878 0 15
1.9601529 -4.6812568 -0.72845989 0 16
1.9638679 -4.6901288 -0.68217152 0 17
1.9628116 -4.6876063 -0.63427871 0 18
1.9699298 -4.7046061 -0.58899003 0 19
1.9620776 -4.6858535 -0.53934371 0 20
1.9607691 -4.6827283 -0.49180919 0 21
1.9663078 -4.6959558 -0.44597456 0 22
1.9616027 -4.6847191 -0.39787239 0 23
1.9611453 -4.6836267 -0.35082328 0 24
1.961671 -4.6848822 -0.3040081 0 25
1.9612395 -4.6838517 -0.25709388 0 26
1.9640881 -4.6906548 -0.21059561 0 27
1.9686968 -4.7016616 -0.16414388 0 28
1.9634329 -4.6890903 -0.11691235 0 29
1.9643815 -4.6913552 -0.070173375 0 30
1.962413 -4.6866541 -0.023366369 0 31
1.9612968 -4.6839886 0.023353077 0 32
1.9665757 -4.6965957 0.070251763 0 33
1.9672896 -4.6983008 0.11714199 0 34
1.9651202 -4.6931195 0.16384567 0 35
1.9696521 -4.7039428 0.21119221 0 36
1.9697489 -4.704174 0.25820935 0 37
1.9705985 -4.706203 0.30539161 0 38
1.9657298 -4.6945753 0.35164338 0 39
1.9652486 -4.6934261 0.39861187 0 40
1.9629996 -4.6880555 0.44522423 0 41
1.9645597 -4.691781 0.49275994 0 42
1.9684654 -4.7011089 0.54109961 0 43
1.9698492 -4.7044134 0.58896595 0 44
1.9668769 -4.6973152 0.6355924 0 45
1.9639081 -4.6902251 0.68218553 0 46
1.9664813 -4.6963701 0.73081177 0 47
1.9644544 -4.6915298 0.77786779 0 48
1.9651628 -4.6932211 0.82610959 0 49
1.970539 -4.7060609 0.87660599 0 50
1.9617252 -4.6850119 0.92085779 0 51
1.9642284 -4.69099 0.97042805 0 52
1.9685529 -4.7013178 1.0212369 0 53
1.9693174 -4.7031436 1.0705045 0 54
1.9610792 -4.6834688 1.1148813 0 55
1.9699322 -4.7046118 1.1691883 0 56
1.9689851 -4.7023497 1.2180847 0 57
1.9627876 -4.6875491 1.2637708 0 58
1.9643667 -4.6913204 1.3145747 0 59
1.9627384 -4.6874313 1.3634679 0 60
1.9623282 -4.6864519 1.4134028 0 61
1.9649093 -4.692616 1.4658056 0 62
1.9652476 -4.6934242 1.5168792 0 63
0.98840874 -2.2813776 -0.74119598 0 0
1.0204993 -2.3554468 -0.73962122 0 1
1.057578 -2.4410291 -0.74006426 0 2
1.0943809 -2.5259752 -0.73860759 0 3
1.1356741 -2.6212854 -0.73837876 0 4
1.1701342 -2.7008235 -0.73197025 0 5
1.2229842 -2.8228085 -0.73505306 0 6
1.2811857 -2.9571455 -0.73876798 0 7
1.3286698 -3.0667448 -0.73386019 0 8
1.3944385 -3.2185478 -0.73643589 0 9
1.4577769 -3.3647411 -0.7347393 0 10
1.5396551 -3.5537267 -0.73902237 0 11
1.6194311 -3.7378602 -0.73854953 0 12
1.7123619 -3.9523568 -0.74007845 0 13
1.8049676 -4.1661029 -0.7371763 0 14
1.9145924 -4.4191313 -0.73655123 0 15
2.0532157 -4.7390919 -0.74133253 0 16
2.0999501 -4.8469615 -0.70868474 0 17
2.0998447 -4.8467183 -0.65925205 0 18
2.1035645 -4.8553038 -0.61104864 0 19
2.105778 -4.8604131 -0.56237346 0 20
2.1080351 -4.8656225 -0.51370144 0 21
2.1127572 -4.8765221 -0.46555495 0 22
2.1046588 -4.8578296 -0.41474125 0 23
2.1030908 -4.8542104 -0.36551017 0 24
2.1062083 -4.8614063 -0.31711957 0 25
2.10572 -4.8602791 -0.26817885 0 26
2.1029377 -4.853857 -0.21906731 0 27
2.1089144 -4.8676519 -0.17083134 0 28
2.1054556 -4.8596687 -0.12180165 0 29
2.1030209 -4.8540492 -0.072988249 0 30
2.1075513 -4.8645058 -0.024380451 0 31
2.1046708 -4.8578572 0.02434713 0 32
2.1029294 -4.8538375 0.072985068 0 33
2.1064799 -4.8620329 0.12186091 0 34
2.1003175 -4.8478093 0.17013496 0 35
2.1108186 -4.8720474 0.21988827 0 36
2.1037211 -4.8556652 0.26792428 0 37
2.1088912 -4.8675985 0.31752354 0 38
2.1002991 -4.8477669 0.36502498 0 39
2.1088927 -4.8676019 0.41557556 0 40
2.1145899 -4.8807516 0.46595877 0 41
2.1048462 -4.8582621 0.51292437 0 42
2.1038821 -4.8560371 0.56186712 0 43
2.1093516 -4.8686614 0.61272979 0 44
2.1119831 -4.8747349 0.66306287 0 45
2.1088088 -4.8674083 0.71167433 0 46
2.107003 -4.8632402 0.76075292 0 47
2.1105838 -4.8715053 0.81194991 0 48
2.1059284 -4.8607597 0.86009318 0 49
2.109123 -4.8681335 0.9115575 0 50
2.1099567 -4.8700581 0.96225619 0 51
2.1056969 -4.8602257 1.010718 0 52
2.1091232 -4.868134 1.0630265 0 53
2.1089559 -4.8677483 1.1137894 0 54
2.1032221 -4.8545136 1.1616664 0 55
2.1065598 -4.8622174 1.214702 0 56
2.1082795 -4.8661866 1.2671441 0 57
2.1148374 -4.8813233 1.3229237 0 58
2.1036174 -4.8554258 1.3677043 0 59
2.1045794 -4.8576465 1.4203998 0 60
2.1079419 -4.8654075 1.4750805 0 61
2.104775 -4.8580976 1.5254653 0 62
2.1139033 -4.8791671 1.5851909 0 63
1.0122514 -2.2598243 -0.73818171 0 0
1.0455558 -2.3341756 -0.73692334 0 1
1.0814456 -2.4142985 -0.73593616 0 2
1.1213173 -2.5033112 -0.73595661 0 3
1.1680691 -2.6076832 -0.73853731 0 4
1.2123916 -2.7066321 -0.73752904 0 5
1.2605773 -2.8142054 -0.73679346 0 6
1.3185196 -2.9435599 -0.7393685 0 7
1.3712462 -3.0612707 -0.73652941 0 8
1.4335254 -3.2003074 -0.73623997 0 9
1.5047638 -3.3593454 -0.73754573 0 10
1.5789744 -3.5250185 -0.7370342 0 11
1.6629328 -3.7124531 -0.73751396 0 12
1.7559777 -3.9201736 -0.73803955 0 13
1.8584501 -4.1489406 -0.73812723 0 14
1.9743092 -4.4075928 -0.73861855 0 15
2.0983913 -4.6846027 -0.73678941 0 16
2.2532222 -5.0302587 -0.7394802 0 17
2.2702906 -5.0683632 -0.6931451 0 18
2.2598169 -5.044981 -0.63836879 0 19
2.2669454 -5.060895 -0.58875102 0 20
2.2672539 -5.061584 -0.53729343 0 21
2.2677772 -5.0627527 -0.48595962 0 22
2.2714028 -5.0708461 -0.43527937 0 23
2.2635643 -5.0533471 -0.38257158 0 24
2.2649877 -5.0565248 -0.33163932 0 25
2.2635036 -5.0532117 -0.280339 0 26
2.2675931 -5.0623412 -0.22971782 0 27
2.2677994 -5.0628018 -0.17864534 0 28
2.2582901 -5.0415726 -0.12704724 0 29
2.2638011 -5.0538759 -0.076405749 0 30
2.2592397 -5.0436926 -0.02541583 0 31
2.2712626 -5.0705333 0.025551086 0 32
2.2671721 -5.0614014 0.076519527 0 33
2.2600143 -5.0454216 0.12714423 0 34
2.2647676 -5.0560336 0.17840651 0 35
2.2654057 -5.0574579 0.22949621 0 36
2.264924 -5.0563827 0.28051493 0 37
2.2633433 -5.0528536 0.33139852 0 38
2.2679524 -5.0631437 0.38331324 0 39
2.2682967 -5.0639124 0.43468416 0 40
2.2651994 -5.0569973 0.48540717 0 41
2.266516 -5.0599365 0.53711855 0 42
2.2615974 -5.0489559 0.58736211 0 43
2.2658489 -5.0584474 0.64007276 0 44
2.2573838 -5.0395498 0.68920457 0 45
2.2618401 -5.0494981 0.7423085 0 46
2.2681956 -5.0636864 0.79641134 0 47
2.2598705 -5.0451012 0.84545135 0 48
2.2543433 -5.0327616 0.8953656 0 49
2.2566164 -5.0378361 0.94845855 0 50
2.2658017 -5.058342 1.0048876 0 51
2.2671871 -5.0614352 1.0582784 0 52
2.2569339 -5.0385451 1.1062148 0 53
2.2586987 -5.0424852 1.1600382 0 54
2.2634649 -5.0531249 1.2157615 0 55
2.2627692 -5.0515723 1.2688627 0 56
2.2686448 -5.0646896 1.3259977 0 57
2.2694662 -5.0665231 1.3805747 0 58
2.266494 -5.0598879 1.4330405 0 59
2.2609825 -5.0475836 1.4839556 0 60
2.2676036 -5.0623646 1.5431304 0 61
2.2583833 -5.0417809 1.5917423 0 62
2.2619288 -5.0496955 1.6495057 0 63
1.0428214 -2.2533891 -0.74021238 0 0
1.0782663 -2.3299804 -0.73972887 0 1
1.1112796 -2.4013176 -0.73608899 0 2
1.1626177 -2.5122519 -0.74273193 0 3
1.1994356 -2.59181 -0.73816299 0 4
1.2493069 -2.6995749 -0.73973614 0 5
1.2988111 -2.8065462 -0.73891371 0 6
1.3544323 -2.9267359 -0.73927015 0 7
1.405563 -3.0372221 -0.73484623 0 8
1.4684031 -3.1730106 -0.73405862 0 9
1.5407419 -3.3293247 -0.73505867 0 10
1.6186883 -3.4977558 -0.73544008 0 11
1.7064606 -3.6874192 -0.73665363 0 12
1.8034922 -3.8970904 -0.73781306 0 13
1.8990232 -4.1035194 -0.7341454 0 14
2.0256419 -4.3771248 -0.73763108 0 15
2.1692076 -4.6873498 -0.7413606 0 16
2.3062234 -4.9834213 -0.73670799 0 17
2.4338787 -5.2592659 -0.72329104 0 18
2.4335673 -5.2585931 -0.6691342 0 19
2.4376817 -5.2674842 -0.61622471 0 20
2.4372036 -5.2664509 -0.56217903 0 21
2.4389756 -5.2702799 -0.50871986 0 22
2.4368303 -5.2656446 -0.45453855 0 23
2.4309404 -5.2529173 -0.3999131 0 24
2.4382954 -5.2688103 -0.3475025 0 25
2.4358289 -5.2634807 -0.29364362 0 26
2.4322996 -5.2558541 -0.23983806 0 27
2.4385269 -5.2693105 -0.18697609 0 28
2.4354572 -5.2626777 -0.13336366 0 29
2.4380152 -5.2682052 -0.080093205 0 30
2.4365385 -5.2650137 -0.026680058 0 31
2.4346204 -5.260869 0.026659055 0 32
2.4349353 -5.2615499 0.079992026 0 33
2.4344442 -5.2604885 0.13330819 0 34
2.4307225 -5.2524462 0.18637767 0 35
2.437546 -5.2671909 0.24035539 0 36
2.4339397 -5.2593985 0.29341587 0 37
2.4392624 -5.2708998 0.34764034 0 38
2.4378381 -5.2678218 0.40104783 0 39
2.4329498 -5.2572594 0.45381474 0 40
2.4342742 -5.2601209 0.50773925 0 41
2.4332576 -5.2579241 0.56126881 0 42
2.428828 -5.2483525 0.61398661 0 43
2.4403005 -5.2731428 0.67098558 0 44
2.4406853 -5.2739749 0.7253139 0 45
2.4366558 -5.2652669 0.77837372 0 46
2.4342074 -5.2599769 0.83192849 0 47
2.4366891 -5.2653394 0.88731259 0 48
2.4318428 -5.2548671 0.94012874 0 49
2.4325461 -5.2563868 0.99516058 0 50
2.43625 -5.2643905 1.0516928 0 51
2.4325302 -5.2563524 1.1052035 0 52
2.439965 -5.272418 1.1640608 0 53
2.4363837 -5.264679 1.2179548 0 54
2.4444726 -5.2821584 1.2780014 0 55
2.4373 -5.2666593 1.3303162 0 56
2.436244 -5.2643776 1.386017 0 57
2.4347908 -5.2612376 1.4416816 0 58
2.4320295 -5.2552705 1.4967325 0 59
2.4332304 -5.2578654 1.5544559 0 60
2.4338472 -5.2591982 1.6121308 0 61
2.4367368 -5.2654424 1.6716878 0 62
2.4328911 -5.2571325 1.7269075 0 63
1.0639365 -2.2267659 -0.73570883 0 0
1.1015741 -2.3055394 -0.73621404 0 1
1.1395755 -2.3850744 -0.73534966 0 2
1.1849761 -2.4800956 -0.7374773 0 3
1.232772 -2.5801299 -0.73909789 0 4
1.2771963 -2.6731081 -0.73673147 0 5
1.3322484 -2.7883294 -0.73837477 0 6
1.3829724 -2.8944919 -0.73536545 0 7
1.446382 -3.0272052 -0.73667008 0 8
1.5174978 -3.1760468 -0.73902208 0 9
1.5914489 -3.3308229 -0.73965406 0 10
1.6723278 -3.5000985 -0.7402004 0 11
1.7589781 -3.6814532 -0.73972684 0 12
1.8478835 -3.8675277 -0.73646235 0 13
1.9542662 -4.0901814 -0.73600268 0 14
2.0724912 -4.3376203 -0.7352128 0 15
2.2142625 -4.6343408 -0.73722726 0 16
2.3741446 -4.9689655 -0.73883086 0 17
2.5585349 -5.3548856 -0.74071205 0 18
2.6188812 -5.4811873 -0.70150304 0 19
2.6191304 -5.4817085 -0.64500499 0 20
2.6242213 -5.4923639 -0.58969462 0 21
2.6241179 -5.4921474 -0.53321022 0 22
2.6247351 -5.4934392 -0.47695214 0 23
2.6224022 -5.4885569 -0.42027593 0 24
2.6234219 -5.4906912 -0.36423665 0 25
2.6182034 -5.4797688 -0.30748296 0 26
2.6212418 -5.4861283 -0.25179783 0 27
2.6173449 -5.4779716 -0.19550747 0 28
2.6180909 -5.4795332 -0.13966435 0 29
2.6266329 -5.4974113 -0.084062539 0 30
2.6213651 -5.4863858 -0.027963072 0 31
2.623982 -5.4918633 0.027990988 0 32
2.6184165 -5.4802151 0.083799586 0 33
2.6228249 -5.4894414 0.1399169 0 34
2.6193211 -5.4821081 0.19565508 0 35
2.6262994 -5.4967132 0.25228366 0 36
2.6189613 -5.4813552 0.30757198 0 37
2.6276765 -5.4995952 0.36482736 0 38
2.6239586 -5.4918137 0.42052534 0 39
2.6158123 -5.4747643 0.47533074 0 40
2.6211894 -5.4860182 0.53261518 0 41
2.6232774 -5.4903884 0.58948255 0 42
2.6207261 -5.4850483 0.64539796 0 43
2.6207862 -5.4851742 0.70201331 0 44
2.6212091 -5.4860597 0.75885665 0 45
2.6184049 -5.4801903 0.81484437 0 46
2.6190057 -5.4814477 0.87198436 0 47
2.6237168 -5.4913077 0.93075919 0 48
2.6212964 -5.4862423 0.98721516 0 49
2.6218891 -5.4874825 1.0449374 0 50
2.6194396 -5.4823556 1.1015882 0 51
2.621731 -5.4871516 1.1604222 0 52
2.6221778 -5.4880872 1.2187036 0 53
2.61993 -5.4833822 1.275907 0 54
2.623311 -5.4904585 1.3361026 0 55
2.6204765 -5.4845262 1.3933814 0 56
2.6262445 -5.4965987 1.4555489 0 57
2.6243367 -5.4926052 1.5138091 0 58
2.626893 -5.4979558 1.5749314 0 59
2.6259575 -5.4959979 1.634281 0 60
2.6211033 -5.4858379 1.6913557 0 61
2.6212502 -5.4861455 1.751858 0 62
0 0 0 0 63
1.0885099 -2.2079873 -0.73387134 0 0
1.131386 -2.2949595 -0.73722243 0 1
1.1631819 -2.3594558 -0.73180562 0 2
1.2182673 -2.4711938 -0.73922884 0 3
1.2545148 -2.5447199 -0.73331797 0 4
1.3090988 -2.655441 -0.73624319 0 5
1.3578365 -2.7543027 -0.73373014 0 6
1.4222361 -2.8849339 -0.73732454 0 7
1.4764364 -2.9948769 -0.73316556 0 8
1.5606545 -3.1657088 -0.74102592 0 9
1.6250945 -3.2964222 -0.73639673 0 10
1.7188902 -3.4866819 -0.74177688 0 11
1.7981238 -3.6474035 -0.73727208 0 12
1.8978908 -3.8497758 -0.73747015 0 13
2.0121777 -4.0816007 -0.73885512 0 14
2.1278179 -4.3161707 -0.73595643 0 15
2.2648175 -4.5940676 -0.73519528 0 16
2.4241545 -4.917275 -0.73552161 0 17
2.618268 -5.3110242 -0.73904252 0 18
2.8216443 -5.7235627 -0.73690802 0 19
2.8264835 -5.7333794 -0.67865604 0 20
2.823071 -5.7264571 -0.6185087 0 21
2.8263659 -5.7331405 -0.55993909 0 22
2.827878 -5.736208 -0.50101101 0 23
2.8281033 -5.7366648 -0.44190377 0 24
2.8335199 -5.7476525 -0.38356507 0 25
2.8307755 -5.7420855 -0.32413086 0 26
2.8156135 -5.7113299 -0.26370308 0 27
2.8270326 -5.7344928 -0.20588773 0 28
2.831197 -5.7429404 -0.14725438 0 29
2.8286121 -5.7376966 -0.088261999 0 30
2.825171 -5.7307167 -0.02938322 0 31
2.8269966 -5.7344198 0.029402206 0 32
2.8255231 -5.731431 0.088165618 0 33
2.8251536 -5.7306814 0.14694005 0 34
2.8278813 -5.7362146 0.20594956 0 35
2.8236253 -5.7275815 0.26445344 0 36
2.8229113 -5.7261329 0.32323039 0 37
2.8314476 -5.7434487 0.38328454 0 38
2.8243098 -5.7289701 0.44131106 0 39
2.8278546 -5.7361603 0.50100684 0 40
2.8312516 -5.7430506 0.56090701 0 41
2.8163764 -5.7128778 0.61704201 0 42
2.8305244 -5.7415757 0.67962629 0 43
2.8329413 -5.7464781 0.73985839 0 44
2.828146 -5.7367516 0.79828352 0 45
2.8271692 -5.7347698 0.85780174 0 46
2.8221049 -5.7244973 0.91609961 0 47
2.8304303 -5.741385 0.97897172 0 48
2.8239207 -5.7281809 1.0369205 0 49
2.8310442 -5.7426305 1.1000689 0 50
2.8285182 -5.7375059 1.1597574 0 51
2.8274364 -5.7353125 1.2201635 0 52
2.8253002 -5.730979 1.280259 0 53
2.8240023 -5.7283459 1.3408854 0 54
2.8255115 -5.7314076 1.4030863 0 55
2.8211074 -5.7224741 1.4625362 0 56
2.8285017 -5.737473 1.5284293 0 57
2.829026 -5.7385364 1.5910571 0 58
2.8333874 -5.7473831 1.6562369 0 59
2.8330519 -5.7467027 1.7190592 0 60
