# .PCD v0.7 - Point Cloud Data file format
VERSION 0.7
FIELDS x y z intensity ring
SIZE 4 4 4 4 2
TYPE F F F F U
COUNT 1 1 1 1 1
WIDTH 1304
HEIGHT 1
VIEWPOINT 0 0 0 1 0 0 0
POINTS 1304
DATA ascii
1.3898809 1.3771205 0.58328444 0 63
1.3567847 1.3777983 -0.57646155 0 0
1.3730013 1.3942661 -0.56380707 0 1
1.369846 1.3910619 -0.5431149 0 2
1.3678004 1.3889846 -0.52303517 0 3
1.3647397 1.3858765 -0.50273389 0 4
1.3740597 1.3953409 -0.48699701 0 5
1.364809 1.3859469 -0.46476415 0 6
1.3638651 1.3849883 -0.44558468 0 7
1.3672332 1.3884085 -0.42786002 0 8
1.3637866 1.3849087 -0.40807959 0 9
1.3675331 1.3887131 -0.39051968 0 10
1.3666799 1.3878468 -0.3716754 0 11
1.3542687 1.3752433 -0.34993297 0 12
1.3623818 1.3834821 -0.33361372 0 13
1.3635609 1.3846794 -0.31552905 0 14
1.3630891 1.3842003 -0.29710761 0 15
1.3736858 1.3949612 -0.28101456 0 16
1.3625413 1.3836441 -0.26052937 0 17
1.377079 1.3984069 -0.24495484 0 18
1.3652142 1.3863584 -0.22468996 0 19
1.367082 1.3882551 -0.20685674 0 20
1.3616023 1.3826905 -0.18799491 0 21
1.3645405 1.3856741 -0.17036119 0 22
1.3583785 1.3794168 -0.15166286 0 23
1.3657501 1.3869026 -0.13448553 0 24
1.3608601 1.3819369 -0.11609089 0 25
1.365348 1.3864943 -0.098521307 0 26
1.367545 1.3887253 -0.080715261 0 27
1.3675542 1.3887346 -0.062764786 0 28
1.3697814 1.3909962 -0.044897404 0 29
1.3642687 1.3853981 -0.026827 0 30
1.3686364 1.3898336 -0.0089704571 0 31
1.3625033 1.3836055 0.0089302585 0 32
1.3627628 1.3838691 0.02679739 0 33
1.3594146 1.3804688 0.044557609 0 34
1.3714426 1.3926831 0.062943242 0 35
1.3684317 1.3896257 0.080767594 0 36
1.3575468 1.3785722 0.097958386 0 37
1.3665397 1.3877045 0.1165754 0 38
1.3569764 1.377993 0.13362157 0 39
1.358299 1.3793361 0.15165398 0 40
1.3714015 1.3926415 0.17121778 0 41
1.3709556 1.3921887 0.18928632 0 42
1.3763033 1.3976191 0.20825203 0 43
1.3531922 1.3741503 0.22271137 0 44
1.3658812 1.3870357 0.24296299 0 45
1.359295 1.3803475 0.25990865 0 46
1.374597 1.3958864 0.28120095 0 47
1.3670132 1.3881853 0.29796293 0 48
1.3706009 1.3918285 0.31715813 0 49
1.3598646 1.3809259 0.33299732 0 50
1.3612854 1.3823687 0.35174605 0 51
1.3646973 1.3858335 0.37113622 0 52
1.3663392 1.3875009 0.39017874 0 53
1.3657146 1.3868665 0.40865648 0 54
1.3672227 1.3883979 0.42785677 0 55
1.3696002 1.3908123 0.44745842 0 56
1.3618106 1.382902 0.46374306 0 57
1.3736546 1.3949295 0.48685342 0 58
1.3614281 1.3825136 0.50151402 0 59
1.3578426 1.3788726 0.51922739 0 60
1.3687273 1.3899258 0.54267132 0 61
1.3529997 1.3739547 0.55559361 0 62
1.3748583 1.3961518 0.58414048 0 63
1.3267848 1.3808917 -0.57088661 0 0
1.3429636 1.3977302 -0.55848789 0 1
1.3283921 1.3825645 -0.53337938 0 2
1.3380332 1.3925987 -0.51816136 0 3
1.3382468 1.3928211 -0.49924594 0 4
1.3402036 1.3948578 -0.4810403 0 5
1.3448913 1.3997365 -0.46380761 0 6
1.3310124 1.3852916 -0.44038337 0 7
1.332455 1.3867931 -0.42228115 0 8
1.3296218 1.3838444 -0.40291792 0 9
1.3260182 1.3800937 -0.38348159 0 10
1.3333079 1.3876808 -0.36721247 0 11
1.3420938 1.396825 -0.3511987 0 12
1.3315496 1.3858508 -0.33021167 0 13
1.3258858 1.3799559 -0.31071404 0 14
1.339518 1.3941441 -0.29568416 0 15
1.3308163 1.3850875 -0.27570805 0 16
1.3284676 1.382643 -0.25724557 0 17
1.3309927 1.3852711 -0.23976888 0 18
1.3255813 1.3796391 -0.22094248 0 19
1.3255237 1.3795791 -0.20311995 0 20
1.3260272 1.3801031 -0.18541218 0 21
1.3248031 1.3788291 -0.16750415 0 22
1.3290088 1.3832064 -0.15027137 0 23
1.3220664 1.3759809 -0.13184011 0 24
1.3309113 1.3851864 -0.11498038 0 25
1.329101 1.3833022 -0.097125821 0 26
1.3398315 1.3944705 -0.080085553 0 27
1.3248369 1.3788642 -0.06157776 0 28
1.3373735 1.3919121 -0.044392813 0 29
1.3272177 1.3813422 -0.026430437 0 30
1.3156782 1.3693322 -0.0087330546 0 31
1.3349062 1.3893442 0.0088606831 0 32
1.3305297 1.3847892 0.026496394 0 33
1.3213463 1.3752314 0.043860804 0 34
1.3274195 1.3815522 0.061697803 0 35
1.3177462 1.3714844 0.078765444 0 36
1.3294518 1.3836673 0.097151466 0 37
1.3290817 1.3832822 0.11482231 0 38
1.3296303 1.3838531 0.13259439 0 39
1.3188804 1.3726649 0.14912616 0 40
1.3389409 1.3935434 0.16929168 0 41
1.3293571 1.3835689 0.18587779 0 42
1.3179967 1.3717452 0.20196654 0 43
1.329553 1.3837727 0.22160447 0 44
1.3313645 1.3856581 0.23983587 0 45
1.3292335 1.3834403 0.2573939 0 46
1.3222352 1.3761566 0.27393031 0 47
1.3292927 1.3835018 0.29342702 0 48
1.3330884 1.3874522 0.31240195 0 49
1.3261386 1.3802191 0.32886979 0 50
1.3315293 1.3858296 0.34843418 0 51
1.320101 1.3739353 0.36357513 0 52
1.3372467 1.3917801 0.38672882 0 53
1.3311907 1.3854773 0.40339336 0 54
1.3383931 1.3929733 0.42416301 0 55
1.3208448 1.3747094 0.43701929 0 56
1.3315027 1.3858018 0.45919034 0 57
1.3470536 1.4019871 0.48349896 0 58
1.3341932 1.3886021 0.49773371 0 59
1.3219826 1.3758936 0.51194566 0 60
1.3343674 1.3887835 0.53577858 0 61
1.3400939 1.3947434 0.55729449 0 62
1.3326488 1.3869947 0.57340974 0 63
1.3006831 1.3874761 -0.56695372 0 0
1.302542 1.389459 -0.54874176 0 1
1.3014793 1.3883255 -0.52938783 0 2
1.298279 1.3849117 -0.50932264 0 3
1.2972242 1.3837863 -0.49025282 0 4
1.2956707 1.3821293 -0.4711206 0 5
1.3100376 1.3974549 -0.4576793 0 6
1.2967529 1.3832836 -0.43464315 0 7
1.3005866 1.3873732 -0.41755643 0 8
1.291196 1.3773559 -0.39637604 0 9
1.301155 1.3879795 -0.3811982 0 10
1.2935114 1.3798258 -0.36089763 0 11
1.2997707 1.3865029 -0.34455895 0 12
1.3005903 1.3873771 -0.32674003 0 13
1.3053633 1.3924686 -0.30989385 0 14
1.29346 1.379771 -0.2892406 0 15
1.2956266 1.3820822 -0.27191803 0 16
1.3010345 1.3878509 -0.25521871 0 17
1.2904197 1.3765279 -0.23549132 0 18
1.2990528 1.3857371 -0.21934433 0 19
1.2953486 1.3817856 -0.20108446 0 20
1.3020047 1.388886 -0.18442728 0 21
1.2914411 1.3776175 -0.16541527 0 22
1.3069426 1.3941532 -0.1497034 0 23
1.2925012 1.3787482 -0.13057259 0 24
1.2960057 1.3824867 -0.11342487 0 25
1.3012874 1.3881208 -0.09633337 0 26
1.2889904 1.3750031 -0.078051351 0 27
1.2858447 1.3716476 -0.060544789 0 28
1.2932475 1.3795444 -0.043487892 0 29
1.3005745 1.3873603 -0.026237607 0 30
1.2957278 1.3821902 -0.0087127853 0 31
1.2865926 1.3724455 0.0086513581 0 32
1.2904993 1.3766128 0.026034351 0 33
1.3131634 1.4007893 0.044157602 0 34
1.2973335 1.3839029 0.061085746 0 35
1.2931554 1.3794461 0.078303561 0 36
1.294547 1.3809305 0.095834374 0 37
1.2951955 1.3816223 0.11335396 0 38
1.2946022 1.3809893 0.13078482 0 39
1.3079373 1.3952143 0.14981735 0 40
1.3079996 1.3952808 0.16753618 0 41
1.3004057 1.3871803 0.18420079 0 42
1.3055371 1.3926541 0.20266609 0 43
1.2928842 1.3791568 0.21830277 0 44
1.3072091 1.3944377 0.23855527 0 45
1.3031175 1.3900729 0.25562736 0 46
1.2944329 1.3808088 0.27166748 0 47
1.2995833 1.3863029 0.2906099 0 48
1.2972126 1.383774 0.30795884 0 49
1.3021907 1.3890843 0.32714209 0 50
1.3044161 1.3914582 0.34579042 0 51
1.3058537 1.3929918 0.3643412 0 52
1.3015527 1.3884038 0.38131472 0 53
1.2982626 1.3848941 0.39854535 0 54
1.2996597 1.3863845 0.41725883 0 55
1.2881147 1.3740691 0.43174782 0 56
1.302916 1.389858 0.45519125 0 57
1.302783 1.3897161 0.47370666 0 58
1.2981931 1.38482 0.49061903 0 59
1.3020595 1.3889444 0.51080573 0 60
1.2917259 1.3779211 0.52542055 0 61
1.2949855 1.3813984 0.54555839 0 62
1.2993056 1.3860066 0.56635326 0 63
1.2659963 1.3841985 -0.55921102 0 0
1.2656871 1.3838606 -0.54034334 0 1
1.267257 1.3855768 -0.52235836 0 2
1.2723408 1.3911353 -0.50581944 0 3
1.2750342 1.3940803 -0.48830831 0 4
1.2707025 1.3893442 -0.46821842 0 5
1.2604978 1.3781867 -0.44625875 0 6
1.2612695 1.3790303 -0.42840114 0 7
1.2629213 1.3808365 -0.41088411 0 8
1.2664568 1.3847021 -0.39397871 0 9
1.2601531 1.3778098 -0.37412116 0 10
1.26522 1.3833499 -0.35772312 0 11
1.2676384 1.385994 -0.34053311 0 12
1.2702996 1.3889035 -0.32339635 0 13
1.2662647 1.384492 -0.3046304 0 14
1.2635143 1.3814847 -0.28632125 0 15
1.2649189 1.3830205 -0.26902211 0 16
1.2653283 1.383468 -0.2515325 0 17
1.2693306 1.3878442 -0.23473932 0 18
1.2690949 1.3875865 -0.21715054 0 19
1.2673985 1.3857317 -0.19937569 0 20
1.2667598 1.3850332 -0.18183355 0 21
1.2614533 1.3792313 -0.16373417 0 22
1.2681251 1.386526 -0.14719884 0 23
1.2695855 1.3881229 -0.12997212 0 24
1.2712798 1.3899753 -0.11274821 0 25
1.2596843 1.3772972 -0.094500132 0 26
1.271329 1.3900291 -0.078011006 0 27
1.2675352 1.3858811 -0.060480509 0 28
1.2641072 1.3821331 -0.043076243 0 29
1.2572285 1.3746121 -0.025702205 0 30
1.2785113 1.397882 -0.0087119415 0 31
1.2631124 1.3810455 0.0086070122 0 32
1.2699434 1.3885142 0.02596214 0 33
1.2614684 1.3792479 0.042986322 0 34
1.2655096 1.3836664 0.06038386 0 35
1.2680585 1.3864533 0.077810325 0 36
1.2649521 1.3830569 0.094895318 0 37
1.2573689 1.3747656 0.11151448 0 38
1.2771566 1.3964008 0.1307472 0 39
1.2639863 1.3820009 0.14671844 0 40
1.2672958 1.3856194 0.16449253 0 41
1.2575332 1.3749453 0.18050915 0 42
1.2677134 1.386076 0.19942522 0 43
1.2647235 1.3828069 0.21640256 0 44
1.2621719 1.380017 0.23341545 0 45
1.267586 1.3859366 0.25198132 0 46
1.2601213 1.3777751 0.26800177 0 47
1.2685965 1.3870416 0.28747293 0 48
1.2693447 1.3878596 0.30537134 0 49
1.2628031 1.3807071 0.32148787 0 50
1.2630385 1.3809646 0.33929744 0 51
1.2592596 1.3768328 0.35603786 0 52
1.2639639 1.3819764 0.37525254 0 53
1.2686248 1.3870724 0.39465314 0 54
1.2613107 1.3790754 0.4103601 0 55
1.2620205 1.3798515 0.42865625 0 56
1.2657166 1.3838927 0.44810638 0 57
1.2566859 1.3740188 0.46305364 0 58
1.2624236 1.3802923 0.48347872 0 59
1.2563531 1.373655 0.49946356 0 60
1.2646213 1.3826951 0.52127188 0 61
1.2594786 1.3770722 0.53769279 0 62
1.2686251 1.3870729 0.56037223 0 63
1.2348517 1.3839369 -0.5529291 0 0
1.2339201 1.3828927 -0.53400069 0 1
1.2313137 1.3799717 -0.51449829 0 2
1.235186 1.3843114 -0.49777809 0 3
1.2288935 1.3772593 -0.47708732 0 4
1.2353327 1.3844759 -0.46142367 0 5
1.2418771 1.3918104 -0.44569176 0 6
1.2324158 1.3812068 -0.42433742 0 7
1.233555 1.3824835 -0.40682992 0 8
1.2418171 1.3917432 -0.39160782 0 9
1.2366239 1.3859229 -0.37216708 0 10
1.2404258 1.3901839 -0.35551921 0 11
1.2304323 1.3789839 -0.33506805 0 12
1.2411373 1.3909812 -0.32030234 0 13
1.2330571 1.3819256 -0.3007068 0 14
1.2315758 1.3802655 -0.28290844 0 15
1.2338401 1.3828031 -0.2660085 0 16
1.2344781 1.3835181 -0.24876291 0 17
1.2277642 1.3759937 -0.23016401 0 18
1.2306695 1.3792496 -0.21346149 0 19
1.2375976 1.3870142 -0.19735575 0 20
1.2376332 1.3870541 -0.18008728 0 21
1.2280501 1.3763142 -0.16158298 0 22
1.2378042 1.3872457 -0.14564836 0 23
1.2363049 1.3855654 -0.12829955 0 24
1.23427 1.3832848 -0.11096603 0 25
1.2304438 1.3789967 -0.093571551 0 26
1.2381939 1.3876824 -0.077019006 0 27
1.2365683 1.3858607 -0.059811525 0 28
1.2335811 1.3825127 -0.042612098 0 29
1.2333614 1.3822665 -0.025559822 0 30
1.2383343 1.3878398 -0.0085538104 0 31
1.2404889 1.3902546 0.0085686939 0 32
1.235576 1.3847486 0.025605718 0 33
1.2280177 1.3762777 0.042419918 0 34
1.2354265 1.384581 0.059756294 0 35
1.2320539 1.3808012 0.076637082 0 36
1.2261767 1.3742144 0.093247049 0 37
1.2357755 1.3849721 0.11110137 0 38
1.2421626 1.3921303 0.12890744 0 39
1.2369816 1.3863238 0.14555158 0 40
1.2395271 1.3891767 0.16309308 0 41
1.2317733 1.3804866 0.17923459 0 42
1.234954 1.3840514 0.19693419 0 43
1.2370242 1.3863715 0.21456373 0 44
1.2341115 1.3831072 0.23135389 0 45
1.2410583 1.3908927 0.2500889 0 46
1.2396197 1.3892804 0.26725453 0 47
1.2329769 1.3818357 0.2832303 0 48
1.2332667 1.3821604 0.30075791 0 49
1.2365757 1.385869 0.31912515 0 50
1.234599 1.3836536 0.33620271 0 51
1.2361395 1.38538 0.35429069 0 52
1.2310268 1.3796501 0.37048259 0 53
1.2394744 1.3891176 0.39086905 0 54
1.2274784 1.3756733 0.40482587 0 55
1.2453957 1.3957537 0.42880657 0 56
1.2298758 1.3783602 0.44138467 0 57
1.2272125 1.3753754 0.45839059 0 58
1.2365237 1.3858107 0.48004955 0 59
1.233236 1.382126 0.49699223 0 60
1.2375973 1.387014 0.51712388 0 61
1.2322541 1.3810257 0.53327972 0 62
1.2329477 1.3818029 0.55207652 0 63
1.1947256 1.3725727 -0.5424782 0 0
1.2047642 1.3841057 -0.52870858 0 1
1.1986684 1.3771024 -0.50789475 0 2
1.2133045 1.3939172 -0.49582988 0 3
1.2107452 1.3909769 -0.47664589 0 4
1.2105404 1.3907417 -0.45851621 0 5
1.2043822 1.3836666 -0.43830836 0 6
1.2094876 1.3895321 -0.42229408 0 7
1.2072734 1.3869883 -0.40375647 0 8
1.2075909 1.3873531 -0.38616508 0 9
1.198891 1.3773582 -0.36588073 0 10
1.2053957 1.3848311 -0.35033327 0 11
1.2128373 1.3933805 -0.33491713 0 12
1.2079566 1.3877732 -0.31611937 0 13
1.2011144 1.3799124 -0.29703245 0 14
1.2048447 1.384198 -0.28065664 0 15
1.2004777 1.379181 -0.26245221 0 16
1.2027522 1.3817941 -0.2457751 0 17
1.2135798 1.3942335 -0.23070142 0 18
1.1974189 1.375667 -0.2106123 0 19
1.2036939 1.3828758 -0.19464616 0 20
1.2042412 1.3835046 -0.17769042 0 21
1.2080135 1.3878386 -0.16117987 0 22
1.20303 1.3821132 -0.14354551 0 23
1.2022144 1.3811761 -0.12651469 0 24
1.1972082 1.3754247 -0.1091463 0 25
1.2024262 1.3814195 -0.092725657 0 26
1.2106862 1.3909091 -0.076366052 0 27
1.2099701 1.3900864 -0.059347291 0 28
1.2048924 1.3842528 -0.042205878 0 29
1.1977164 1.3760085 -0.025169866 0 30
1.204685 1.3840145 -0.0084382948 0 31
1.1966267 1.3747567 0.0083818501 0 32
1.2054719 1.3849186 0.025332848 0 33
1.2060374 1.3855684 0.042245988 0 34
1.2007064 1.3794438 0.058892917 0 35
1.2098799 1.3899828 0.076315194 0 36
1.2144632 1.3952484 0.093653902 0 37
1.2068354 1.3864851 0.11002399 0 38
1.2056854 1.3851638 0.12687996 0 39
1.2051394 1.3845365 0.14379719 0 40
1.2021512 1.3811035 0.16039766 0 41
1.2007632 1.379509 0.17717724 0 42
1.1974635 1.375718 0.19363867 0 43
1.2026385 1.3816634 0.21153036 0 44
1.2047148 1.3840488 0.22901617 0 45
1.202338 1.3813181 0.24569045 0 46
1.2107675 1.3910024 0.26470178 0 47
1.2116436 1.3920089 0.28224036 0 48
1.2075806 1.3873411 0.29863152 0 49
1.2056888 1.3851678 0.31552592 0 50
1.202858 1.3819156 0.33216137 0 51
1.2031918 1.3822991 0.3496927 0 52
1.1992023 1.3777157 0.36597571 0 53
1.1996068 1.3781804 0.38361195 0 54
1.1992685 1.3777918 0.40107933 0 55
1.2031183 1.3822147 0.42007026 0 56
1.2020248 1.3809583 0.43745047 0 57
1.203939 1.3831575 0.4560158 0 58
1.2066882 1.3863158 0.47504869 0 59
1.2083088 1.3881779 0.49378836 0 60
1.1982484 1.3766198 0.50771677 0 61
1.2073328 1.3870566 0.52983576 0 62
1.206116 1.3856585 0.5476501 0 63
1.1715456 1.3798407 -0.53961641 0 0
1.1693745 1.3772837 -0.5205707 0 1
1.1759603 1.3850405 -0.50545114 0 2
1.17484 1.383721 -0.48702747 0 3
1.1832362 1.39361 -0.4725267 0 4
1.1732504 1.3818487 -0.4507938 0 5
1.1730561 1.3816199 -0.43305802 0 6
1.1746856 1.3835391 -0.41605148 0 7
1.181494 1.3915579 -0.40082723 0 8
1.1709688 1.3791615 -0.37984842 0 9
1.1848519 1.3955129 -0.36680537 0 10
1.1717397 1.3800695 -0.34545758 0 11
1.1768472 1.3860852 -0.32966036 0 12
1.1665548 1.3739628 -0.30968258 0 13
1.1726646 1.3811588 -0.29417461 0 14
1.1735548 1.3822072 -0.27730611 0 15
1.1771396 1.3864294 -0.26105735 0 16
1.1661514 1.3734875 -0.24172884 0 17
1.1794729 1.3891777 -0.22744779 0 18
1.1723901 1.3808355 -0.20918068 0 19
1.167551 1.3751361 -0.19152151 0 20
1.1751118 1.3840411 -0.17589018 0 21
1.1758994 1.3849688 -0.15915525 0 22
1.1848502 1.395511 -0.14341298 0 23
1.177537 1.3868973 -0.12570293 0 24
1.1780926 1.3875518 -0.10895084 0 25
1.176613 1.3858092 -0.0920422 0 26
1.1723011 1.3807305 -0.075010091 0 27
1.1664602 1.3738512 -0.0580374 0 28
1.1811922 1.3912026 -0.041971751 0 29
1.1748209 1.3836985 -0.025044389 0 30
1.1749747 1.3838795 -0.0083487509 0 31
1.1826372 1.3929044 0.0084031969 0 32
1.171458 1.3797376 0.0249727 0 33
1.1647755 1.3718669 0.041388407 0 34
1.170738 1.3788896 0.058250248 0 35
1.1730599 1.3816243 0.075058654 0 36
1.1819714 1.3921202 0.092461362 0 37
1.168846 1.3766612 0.10809571 0 38
1.1857938 1.3966223 0.12658435 0 39
1.1658465 1.3731284 0.14111277 0 40
1.1771183 1.3864043 0.15932022 0 41
1.1732042 1.3817942 0.17560464 0 42
1.1750433 1.3839605 0.19275051 0 43
1.1761236 1.3852328 0.20984682 0 44
1.1761049 1.3852108 0.2267983 0 45
1.1793588 1.3890431 0.24446657 0 46
1.1798435 1.3896141 0.261657 0 47
1.1754678 1.3844604 0.27775818 0 48
1.1763701 1.3855231 0.29510415 0 49
1.1804353 1.390311 0.3133674 0 50
1.1688918 1.3767152 0.32743183 0 51
1.1720932 1.3804858 0.34556177 0 52
1.1696972 1.3776637 0.36211377 0 53
1.1715314 1.3798242 0.38003093 0 54
1.1722435 1.3806627 0.39768893 0 55
1.1754582 1.384449 0.41632506 0 56
1.1755524 1.38456 0.43397954 0 57
1.1753051 1.3842686 0.45158327 0 58
1.1703554 1.3784389 0.46738273 0 59
1.1634107 1.3702595 0.48228946 0 60
1.1760554 1.3851525 0.50549197 0 61
1.166882 1.374348 0.5194611 0 62
1.1719371 1.380302 0.53979671 0 63
1.1495959 1.3882298 -0.5373283 0 0
1.1496717 1.3883214 -0.51936001 0 1
1.1535226 1.3929718 -0.50313115 0 2
1.1394825 1.3760171 -0.47934803 0 3
1.1494088 1.3880039 -0.46579841 0 4
1.1406342 1.3774078 -0.44473588 0 5
1.1422744 1.3793886 -0.42792368 0 6
1.1461796 1.3841044 -0.41195205 0 7
1.1423571 1.3794885 -0.39327487 0 8
1.1460437 1.3839402 -0.37725478 0 9
1.1424215 1.3795662 -0.35889432 0 10
1.1445986 1.3821952 -0.34244069 0 11
1.1480981 1.3864212 -0.32635796 0 12
1.1460835 1.3839884 -0.30874252 0 13
1.1440383 1.3815186 -0.29123294 0 14
1.150574 1.389411 -0.27589208 0 15
1.1518395 1.3909391 -0.25921997 0 16
1.1429306 1.3801811 -0.24041525 0 17
1.1460313 1.3839253 -0.22426361 0 18
1.1357684 1.3715321 -0.20564009 0 19
1.1478106 1.3860741 -0.19106472 0 20
1.1511509 1.3901078 -0.17484905 0 21
1.1472858 1.3854403 -0.15757635 0 22
1.1371891 1.3732477 -0.13967744 0 23
1.1506072 1.389451 -0.12464261 0 24
1.1466564 1.3846802 -0.10761011 0 25
1.1451676 1.3828824 -0.090905666 0 26
1.1462187 1.3841517 -0.074424624 0 27
1.1511782 1.3901407 -0.05812316 0 28
1.1428378 1.3800689 -0.041208778 0 29
1.1532049 1.392588 -0.024946742 0 30
1.1409411 1.3777786 -0.0082266852 0 31
1.1434429 1.3807995 0.0082447231 0 32
1.1441402 1.3816417 0.024750652 0 33
1.1422577 1.3793684 0.04118786 0 34
1.1531643 1.3925389 0.058223438 0 35
1.140488 1.3772315 0.074052528 0 36
1.1453916 1.3831528 0.090923451 0 37
1.146144 1.3840615 0.10756202 0 38
1.1469036 1.3849787 0.1242414 0 39
1.1419675 1.3790181 0.14026435 0 40
1.1387486 1.3751309 0.15640378 0 41
1.1426334 1.3798221 0.17355531 0 42
1.1464033 1.3843746 0.19083045 0 43
1.153193 1.3925736 0.20879495 0 44
1.1419259 1.3789678 0.22346023 0 45
1.1463718 1.3843366 0.24113911 0 46
1.1464198 1.3843944 0.25800028 0 47
1.1499791 1.3886926 0.27574942 0 48
1.150968 1.3898867 0.292997 0 49
1.1469418 1.3850249 0.30897376 0 50
1.1468877 1.3849595 0.32601386 0 51
1.1541306 1.3937058 0.34529245 0 52
1.1496292 1.3882701 0.36115864 0 53
1.1536605 1.3931383 0.37976211 0 54
1.1336383 1.3689598 0.39027324 0 55
1.1378534 1.3740498 0.40895948 0 56
1.1462775 1.3842227 0.42942339 0 57
1.1438096 1.3812424 0.44597396 0 58
1.1503847 1.3891824 0.46619388 0 59
1.1486039 1.3870319 0.48318517 0 60
1.1445938 1.3821895 0.4992367 0 61
1.1444732 1.3820437 0.51701158 0 62
1.141536 1.3784969 0.53356105 0 63
1.1216574 1.3889081 -0.53221214 0 0
1.1196458 1.3864173 -0.51345849 0 1
1.1147159 1.3803128 -0.49357066 0 2
1.117564 1.3838394 -0.47724977 0 3
1.1168498 1.3829551 -0.45946059 0 4
1.1176095 1.3838959 -0.44236007 0 5
1.1252114 1.3933089 -0.42791745 0 6
1.1094252 1.3737614 -0.40478277 0 7
1.1142836 1.3797774 -0.38942158 0 8
1.1174053 1.383643 -0.37340003 0 9
1.1177702 1.3840948 -0.35646981 0 10
1.1142763 1.3797684 -0.33841926 0 11
1.1056015 1.3690268 -0.31903905 0 12
1.1169519 1.3830817 -0.30545324 0 13
1.1194285 1.3861482 -0.28928527 0 14
1.1167591 1.3828428 -0.27184051 0 15
1.1055995 1.3690243 -0.25258315 0 16
1.126675 1.3951212 -0.24058625 0 17
1.1259391 1.3942101 -0.22366975 0 18
1.1181729 1.3845935 -0.20552137 0 19
1.1238931 1.3916765 -0.18991762 0 20
1.1120286 1.3769852 -0.17146558 0 21
1.1285372 1.3974272 -0.15734947 0 22
1.114712 1.3803079 -0.13899086 0 23
1.1155945 1.3814007 -0.12268058 0 24
1.1151057 1.3807956 -0.10623457 0 25
1.124364 1.3922597 -0.090606399 0 26
1.1131202 1.3783368 -0.073370457 0 27
1.1107538 1.3754066 -0.056931742 0 28
1.113782 1.3791564 -0.040769495 0 29
1.1117748 1.376671 -0.02441486 0 30
1.1109962 1.3757069 -0.008132128 0 31
1.1151451 1.3808442 0.0081624966 0 32
1.1220764 1.3894271 0.024641085 0 33
1.1134591 1.3787566 0.040757678 0 34
1.1197567 1.3865546 0.05739319 0 35
1.112022 1.3769771 0.073298074 0 36
1.1154835 1.3812634 0.089890771 0 37
1.1114634 1.3762853 0.10588756 0 38
1.1212081 1.3883517 0.12329789 0 39
1.1203655 1.3873084 0.13969578 0 40
1.1241722 1.3920221 0.15674086 0 41
1.1179844 1.3843601 0.17238393 0 42
1.1107147 1.3753582 0.18769072 0 43
1.1147981 1.3804146 0.20490108 0 44
1.1206125 1.3876144 0.22261161 0 45
1.1176267 1.383917 0.23865409 0 46
1.1215554 1.388782 0.25622842 0 47
1.1183848 1.3848559 0.27223626 0 48
1.1156452 1.3814634 0.28830758 0 49
1.1170666 1.3832237 0.30548459 0 50
1.112669 1.3777782 0.32107848 0 51
1.1240019 1.3918113 0.34137303 0 52
1.1168628 1.3829712 0.35618043 0 53
1.1137257 1.3790866 0.37217042 0 54
1.1194988 1.3862354 0.39124426 0 55
1.1158788 1.3817527 0.40713745 0 56
1.1259732 1.3942523 0.42820719 0 57
1.1168038 1.382898 0.44204113 0 58
1.1102897 1.374832 0.45676187 0 59
1.1174546 1.3837041 0.4772031 0 60
1.1220156 1.3893517 0.49680278 0 61
1.1224043 1.3898331 0.51472354 0 62
1.1162778 1.3822469 0.52965957 0 63
1.0972567 1.3934023 -0.52872419 0 0
1.0901357 1.3843595 -0.50769353 0 1
1.0848801 1.3776854 -0.48782408 0 2
1.0964336 1.3923571 -0.47550169 0 3
1.0855082 1.3784831 -0.45350599 0 4
1.0927467 1.3876752 -0.43923983 0 5
1.0870243 1.3804084 -0.41981849 0 6
1.0970398 1.3931268 -0.40648335 0 7
1.0917687 1.3864334 -0.38748184 0 8
1.1002616 1.3972183 -0.37338421 0 9
1.0823454 1.3744665 -0.35053587 0 10
1.0850701 1.3779268 -0.33466968 0 11
1.0928681 1.3878294 -0.32026491 0 12
1.0958332 1.3915946 -0.3043344 0 13
1.084567 1.3772877 -0.28463134 0 14
1.092937 1.3879168 -0.27017564 0 15
1.0922399 1.3870316 -0.25340837 0 16
1.1018931 1.3992901 -0.23895052 0 17
1.08849 1.3822696 -0.21959031 0 18
1.0891082 1.3830547 -0.20328975 0 19
1.0850172 1.3778596 -0.18619727 0 20
1.0863435 1.3795438 -0.17010793 0 21
1.0871291 1.3805414 -0.15393129 0 22
1.0971607 1.3932804 -0.13892813 0 23
1.0880926 1.3817649 -0.1215155 0 24
1.0906169 1.3849707 -0.10551602 0 25
1.0867412 1.3800488 -0.08893536 0 26
1.0827912 1.3750327 -0.072480351 0 27
1.0881532 1.381842 -0.056639984 0 28
1.0873415 1.3808112 -0.040420111 0 29
1.0883418 1.3820814 -0.024271639 0 30
1.0884582 1.3822291 -0.0080909543 0 31
1.0868909 1.3802389 0.0080793044 0 32
1.0813935 1.3732578 0.02411668 0 33
1.0921637 1.3869348 0.040599365 0 34
1.0872207 1.3806577 0.05659144 0 35
1.0925801 1.3874636 0.073135599 0 36
1.0854778 1.3784443 0.088831961 0 37
1.0925816 1.3874655 0.1057061 0 38
1.0926105 1.3875021 0.12202005 0 39
1.079073 1.3703109 0.13663776 0 40
1.0967857 1.3928041 0.15529859 0 41
1.0864722 1.3797071 0.17012808 0 42
1.0926013 1.3874905 0.18749875 0 43
1.0903913 1.3846841 0.20352922 0 44
1.0858386 1.3789026 0.21905541 0 45
1.0929804 1.387972 0.23701778 0 46
1.0838381 1.3763621 0.25145909 0 47
1.0899806 1.3841625 0.26944482 0 48
1.0996155 1.3963978 0.28858066 0 49
1.0905327 1.3848635 0.30286235 0 50
1.082738 1.3749652 0.31729627 0 51
1.0904 1.3846951 0.33631358 0 52
1.0810469 1.3728176 0.35011533 0 53
1.0897385 1.383855 0.36981308 0 54
1.0942419 1.3895738 0.38835958 0 55
1.0859628 1.3790603 0.40237901 0 56
1.0889856 1.3828988 0.42057592 0 57
1.0879656 1.3816037 0.43731803 0 58
1.0823437 1.3744644 0.4521839 0 59
1.0942134 1.3895377 0.4745388 0 60
1.0866053 1.3798763 0.48859984 0 61
1.0849991 1.3778365 0.5053013 0 62
1.0998102 1.3966452 0.52995461 0 63
1.0674204 1.3903495 -0.52254581 0 0
1.0687022 1.3920192 -0.50564504 0 1
1.0596294 1.3802016 -0.48406476 0 2
1.0642277 1.386191 -0.46889135 0 3
1.0643681 1.3863739 -0.45176202 0 4
1.0541461 1.3730593 -0.43047798 0 5
1.0633352 1.3850285 -0.4172155 0 6
1.0668144 1.3895602 -0.40158474 0 7
1.0566658 1.3763413 -0.38100114 0 8
1.0623701 1.3837713 -0.36627203 0 9
1.0580258 1.3781129 -0.34812149 0 10
1.0592169 1.3796642 -0.33190316 0 11
1.0632364 1.3848996 -0.31654784 0 12
1.0641146 1.3860435 -0.30023614 0 13
1.058567 1.3788178 -0.28223619 0 14
1.0660926 1.3886201 -0.26774043 0 15
1.056345 1.3759234 -0.24898697 0 16
1.0597591 1.3803704 -0.23347674 0 17
1.0593612 1.3798522 -0.21712045 0 18
1.0536419 1.3724027 -0.19980457 0 19
1.0568439 1.3765733 -0.18425338 0 20
1.0618787 1.3831313 -0.16892745 0 21
1.0570908 1.376895 -0.15206388 0 22
1.0695642 1.393142 -0.13759251 0 23
1.0574257 1.3773313 -0.11997305 0 24
1.0580086 1.3780904 -0.1039928 0 25
1.0693269 1.3928329 -0.088905118 0 26
1.0513635 1.369435 -0.071498416 0 27
1.0540601 1.3729473 -0.055739928 0 28
1.064466 1.3865014 -0.040200483 0 29
1.064381 1.3863907 -0.024115643 0 30
1.0620166 1.3833109 -0.008020238 0 31
1.0611171 1.3821392 0.008013445 0 32
1.0609616 1.3819368 0.02403817 0 33
1.0661469 1.3886906 0.040263958 0 34
1.0638541 1.3857043 0.056257844 0 35
1.0564512 1.3760618 0.071844406 0 36
1.072521 1.3969933 0.089170679 0 37
1.0608196 1.3817518 0.10426911 0 38
1.0578775 1.3779197 0.1200243 0 39
1.0620404 1.383342 0.13662462 0 40
1.0630902 1.3847094 0.15292689 0 41
1.0606807 1.3815708 0.16873688 0 42
1.0630807 1.384697 0.18534072 0 43
1.0648489 1.3870001 0.20192978 0 44
1.0514925 1.3696029 0.21550772 0 45
1.0735743 1.3983651 0.23652039 0 46
1.0580574 1.378154 0.24939063 0 47
1.0610074 1.3819963 0.26646331 0 48
1.0653824 1.387695 0.28405327 0 49
1.0574048 1.3773038 0.29834297 0 50
1.0599529 1.3806229 0.31557029 0 51
1.0628643 1.3844151 0.33304608 0 52
1.0642024 1.386158 0.35015377 0 53
1.0563937 1.3759869 0.36421159 0 54
1.0655581 1.3879238 0.38420743 0 55
1.0603411 1.3811285 0.39914802 0 56
1.0587164 1.3790123 0.41540325 0 57
1.0610178 1.3820099 0.43328413 0 58
1.0590146 1.3794006 0.44948971 0 59
1.0570118 1.3767921 0.4657121 0 60
1.0667304 1.3894508 0.48730862 0 61
1.0623249 1.3837125 0.50262767 0 62
1.0592289 1.3796799 0.51853573 0 63
1.043774 1.3947227 -0.51932639 0 0
1.037324 1.386104 -0.49882531 0 1
1.0325321 1.3797009 -0.47940001 0 2
1.0332234 1.3806247 -0.46267596 0 3
1.0273526 1.3727798 -0.44318226 0 4
1.0266966 1.3719034 -0.42612532 0 5
1.0374044 1.3862115 -0.41369796 0 6
1.0296924 1.3759065 -0.39394981 0 7
1.0333519 1.3807963 -0.37868831 0 8
1.032608 1.3798023 -0.36183324 0 9
1.0278318 1.3734204 -0.34371752 0 10
1.0261952 1.3712333 -0.32681465 0 11
1.0284122 1.3741958 -0.31118727 0 12
1.0354042 1.3835387 -0.29691321 0 13
1.0406516 1.3905504 -0.28199711 0 14
1.0372849 1.3860517 -0.26476592 0 15
1.0269617 1.3722576 -0.24601986 0 16
1.0300565 1.3763928 -0.2306442 0 17
1.0352886 1.3833842 -0.21565677 0 18
1.0357091 1.3839462 -0.19961593 0 19
1.0365871 1.3851193 -0.18367727 0 20
1.0362598 1.3846821 -0.16754791 0 21
1.0351962 1.3832607 -0.15134965 0 22
1.0277951 1.3733711 -0.13438149 0 23
1.0318724 1.3788195 -0.11898846 0 24
1.037573 1.3864368 -0.10365203 0 25
1.0344311 1.3822385 -0.087410353 0 26
1.0418915 1.3922071 -0.072013021 0 27
1.0383948 1.3875349 -0.055809554 0 28
1.0351598 1.3832122 -0.039733052 0 29
1.0401369 1.3898628 -0.023951752 0 30
1.0343401 1.3821169 -0.0079389736 0 31
1.028924 1.3748796 0.0078974022 0 32
1.0365897 1.3851229 0.02387007 0 33
1.0376146 1.3864924 0.039827276 0 34
1.0329566 1.3802682 0.055517271 0 35
1.0269128 1.3721923 0.070977733 0 36
1.0450788 1.3964661 0.088310085 0 37
1.0311984 1.3779188 0.10301522 0 38
1.0355262 1.3837017 0.11940978 0 39
1.0310551 1.3777274 0.13480774 0 40
1.0215514 1.3650281 0.14935474 0 41
1.0335882 1.3811121 0.16711594 0 42
1.0307523 1.3773228 0.18264338 0 43
1.0315852 1.3784356 0.19882111 0 44
1.0351371 1.3831818 0.21562523 0 45
1.0400287 1.3897182 0.23287715 0 46
1.0300965 1.3764464 0.24677083 0 47
1.0300082 1.3763285 0.26290858 0 48
1.0394613 1.3889599 0.28167456 0 49
1.0273668 1.3727988 0.29460838 0 50
1.0328578 1.3801361 0.31253242 0 51
1.0244055 1.3688419 0.32624468 0 52
1.0400791 1.3897854 0.34781313 0 53
1.0344763 1.3822988 0.36248791 0 54
1.0320417 1.3790456 0.37820819 0 55
1.0402237 1.3899786 0.39797896 0 56
1.0416632 1.3919021 0.41539624 0 57
1.0379475 1.3869373 0.43079495 0 58
1.0292956 1.3753761 0.44402045 0 59
1.0261269 1.371142 0.45949814 0 60
1.0340161 1.3816839 0.48008904 0 61
1.0323859 1.3795056 0.49645072 0 62
1.0348594 1.3828107 0.51489097 0 63
1.010926 1.3860348 -0.51142418 0 0
1.0144048 1.3908044 -0.49599043 0 1
1.0064726 1.3799289 -0.47514305 0 2
1.0017856 1.3735029 -0.45612666 0 3
0.99977821 1.3707507 -0.43852514 0 4
1.0124567 1.3881335 -0.42726725 0 5
1.0017807 1.3734962 -0.40619624 0 6
1.005215 1.3782048 -0.39103922 0 7
1.0108875 1.385982 -0.37667295 0 8
1.0116571 1.3870374 -0.36044112 0 9
1.0092458 1.3837311 -0.34316617 0 10
1.0109379 1.3860513 -0.32735878 0 11
1.0029665 1.375122 -0.30858085 0 12
1.0060667 1.3793725 -0.29334205 0 13
1.0101951 1.3850328 -0.27833804 0 14
1.0032767 1.3755473 -0.26038307 0 15
1.0137843 1.3899537 -0.24693885 0 16
1.0044924 1.3772141 -0.22869474 0 17
1.0114633 1.3867714 -0.21422975 0 18
1.0072582 1.381006 -0.19739045 0 19
1.0060346 1.3793285 -0.18125522 0 20
1.0081784 1.3822676 -0.16574319 0 21
1.0030131 1.3751858 -0.14910538 0 22
1.0143189 1.3906869 -0.1348452 0 23
1.0113481 1.3866137 -0.11857893 0 24
1.0035187 1.375879 -0.10193248 0 25
1.0074891 1.3813226 -0.08656247 0 26
1.0049722 1.377872 -0.070626974 0 27
1.0115781 1.3869288 -0.055280682 0 28
1.0094396 1.3839968 -0.039396059 0 29
1.00114 1.3726177 -0.023440642 0 30
1.0056443 1.3787935 -0.00784826 0 31
1.0045737 1.3773255 0.0078399051 0 32
1.0082945 1.3824269 0.023608159 0 33
1.0106708 1.385685 0.039444111 0 34
1.0049386 1.3778259 0.054917853 0 35
1.0059325 1.3791884 0.070694447 0 36
1.0104344 1.3853608 0.086815521 0 37
1.0113279 1.3865858 0.10272569 0 38
1.0097555 1.3844301 0.11839218 0 39
1.0085685 1.3828026 0.13408072 0 40
1.009268 1.3837616 0.15003523 0 41
1.0076345 1.3815222 0.1656538 0 42
1.0087589 1.3830637 0.18174605 0 43
1.0074767 1.3813056 0.19743328 0 44
1.0036186 1.376016 0.21256824 0 45
1.0116526 1.3870311 0.23032489 0 46
1.0083356 1.3824834 0.24561167 0 47
1.0138721 1.3900741 0.26313293 0 48
1.00476 1.377581 0.27684051 0 49
1.0042477 1.3768785 0.29281169 0 50
1.0151594 1.391839 0.31233221 0 51
1.0060474 1.379346 0.32577512 0 52
1.0083026 1.3824379 0.34284547 0 53
1.0038557 1.3763411 0.35766155 0 54
1.0071955 1.3809201 0.37529725 0 55
1.0124573 1.3881344 0.39385653 0 56
0.99727565 1.3673195 0.40436953 0 57
1.0011221 1.3725933 0.42248398 0 58
1.0067888 1.3803625 0.44160017 0 59
1.010498 1.3854481 0.46009356 0 60
1.0038224 1.3762956 0.47389197 0 61
1.0032166 1.3754649 0.49052003 0 62
1.0013291 1.3728769 0.50656909 0 63
0.9887054 1.3911809 -0.50879854 0 0
0.97391546 1.3703704 -0.4843958 0 1
0.97596151 1.3732493 -0.46867543 0 2
0.98705614 1.3888603 -0.45716146 0 3
0.98058224 1.379751 -0.43751398 0 4
0.97932047 1.3779756 -0.42040229 0 5
0.97650439 1.3740132 -0.40276757 0 6
0.98092341 1.3802311 -0.38816246 0 7
0.98719567 1.3890566 -0.37418121 0 8
0.9771682 1.3749472 -0.35415009 0 9
0.9884451 1.3908147 -0.34188277 0 10
0.98830539 1.3906181 -0.32554254 0 11
0.97943842 1.3781415 -0.30653265 0 12
0.9792403 1.3778628 -0.29043832 0 13
0.97566682 1.3728347 -0.27345505 0 14
0.98061961 1.3798037 -0.25888667 0 15
0.98551756 1.3866954 -0.24418856 0 16
0.98489571 1.3858204 -0.22809555 0 17
0.97989827 1.3787886 -0.2111192 0 18
0.97164792 1.3671798 -0.19369186 0 19
0.9869231 1.3886731 -0.18087476 0 20
0.98740059 1.3893449 -0.16512346 0 21
0.99044043 1.3936222 -0.14977254 0 22
0.97908503 1.3776443 -0.13240318 0 23
0.98347539 1.3838218 -0.11729713 0 24
0.98026347 1.3793025 -0.10128544 0 25
0.97116357 1.3664982 -0.084878705 0 26
0.98466563 1.3854966 -0.070391849 0 27
0.97986251 1.3787383 -0.054469857 0 28
0.98049897 1.3796338 -0.038925722 0 29
0.97647977 1.3739785 -0.023257073 0 30
0.98617435 1.3876195 -0.007828882 0 31
0.97653854 1.3740612 0.0077523869 0 32
0.99547738 1.4007096 0.023709545 0 33
0.98524791 1.3863159 0.039114255 0 34
0.98316848 1.3833901 0.054653633 0 35
0.98205072 1.3818173 0.070204914 0 36
0.983643 1.3840578 0.085969388 0 37
0.98200357 1.3817509 0.10146523 0 38
0.98124784 1.3806876 0.11703146 0 39
0.98150134 1.3810443 0.13272993 0 40
0.99187464 1.3956403 0.14998941 0 41
0.97836107 1.3766257 0.16361178 0 42
0.97090942 1.3661406 0.17793992 0 43
0.97092199 1.3661584 0.19354714 0 44
0.9793092 1.3779597 0.21099229 0 45
0.98077089 1.3800164 0.22714026 0 46
0.97621655 1.3736082 0.24188399 0 47
0.97976607 1.3786026 0.25866133 0 48
0.9781332 1.3763051 0.27414629 0 49
0.9874171 1.3893682 0.29286352 0 50
0.97912949 1.3777069 0.30643597 0 51
0.9797045 1.378516 0.32270947 0 52
0.97551399 1.3726196 0.33741015 0 53
0.98930049 1.3920182 0.35854712 0 54
0.98852092 1.3909214 0.3746835 0 55
0.98087198 1.3801587 0.38814211 0 56
0.98416513 1.3847924 0.40592733 0 57
0.98498172 1.3859414 0.42283255 0 58
0.97838068 1.3766532 0.43653169 0 59
0.98429281 1.3849721 0.4558816 0 60
0.97321409 1.3693835 0.46735609 0 61
0.97756857 1.3755106 0.48621276 0 62
0.97922468 1.3778409 0.50391966 0 63
0.95637417 1.3813487 -0.50086373 0 0
0.94965285 1.3716407 -0.48068079 0 1
0.95004314 1.3722044 -0.46429673 0 2
0.96002394 1.3866202 -0.45250416 0 3
0.95766765 1.3832169 -0.43484604 0 4
0.96066946 1.3875526 -0.41968843 0 5
0.95702636 1.3822906 -0.40171403 0 6
0.95624673 1.3811647 -0.38508904 0 7
0.95966524 1.3861022 -0.37017855 0 8
0.95629328 1.3812318 -0.35271335 0 9
0.9590373 1.3851951 -0.33757704 0 10
0.96095163 1.3879601 -0.32212979 0 11
0.94599724 1.3663607 -0.30130216 0 12
0.95385951 1.3777165 -0.28791335 0 13
0.95540524 1.3799492 -0.27251148 0 14
0.96119225 1.3883077 -0.25824511 0 15
0.95445615 1.3785783 -0.24067429 0 16
0.9614954 1.3887455 -0.22661391 0 17
0.95842499 1.3843108 -0.21014433 0 18
0.95761383 1.3831391 -0.19426996 0 19
0.9445461 1.3642647 -0.17616946 0 20
0.95840776 1.3842859 -0.16310923 0 21
0.96227694 1.3898743 -0.14808691 0 22
0.952106 1.3751839 -0.1310316 0 23
0.9598816 1.3864146 -0.11650762 0 24
0.94958848 1.3715477 -0.099850997 0 25
0.95476168 1.3790197 -0.084920809 0 26
0.96160561 1.3889047 -0.069958963 0 27
0.96887892 1.39941 -0.054811712 0 28
0.96039367 1.3871543 -0.038801778 0 29
0.9592793 1.3855447 -0.023251429 0 30
0.95941442 1.3857399 -0.007751131 0 31
0.96509933 1.3939509 0.0077970591 0 32
0.95887059 1.3849543 0.023241522 0 33
0.95630479 1.3812485 0.038636576 0 34
0.95858246 1.3845383 0.054229219 0 35
0.95858902 1.3845477 0.069739498 0 36
0.93945009 1.3569041 0.083558924 0 37
0.95294666 1.3763981 0.10020412 0 38
0.95455885 1.3787267 0.11586156 0 39
0.96030533 1.3870267 0.13216002 0 40
0.95360607 1.3773506 0.14675254 0 41
0.95461488 1.3788077 0.16246372 0 42
0.95363992 1.3773994 0.17786556 0 43
0.9590925 1.385275 0.19456993 0 44
0.95522529 1.3796892 0.20944275 0 45
0.94464034 1.3644009 0.22264136 0 46
0.95858645 1.384544 0.24171579 0 47
0.95080698 1.3733076 0.2554549 0 48
0.94899929 1.3706967 0.27068427 0 49
0.96260023 1.3903414 0.29055169 0 50
0.95095634 1.3735234 0.30288166 0 51
0.9541564 1.3781453 0.31985191 0 52
0.95473802 1.3789855 0.33606374 0 53
0.96121693 1.3883433 0.35452935 0 54
0.9560008 1.3808093 0.36876503 0 55
0.9570201 1.3822817 0.3854005 0 56
0.94867015 1.3702213 0.39820647 0 57
0.95625317 1.3811738 0.41775909 0 58
0.948511 1.3699914 0.43068829 0 59
0.95692337 1.3821419 0.45104271 0 60
0.96420634 1.3926611 0.47121844 0 61
0.96090597 1.3878943 0.48637673 0 62
0.95068002 1.3731242 0.49788165 0 63
0.92966974 1.3786958 -0.49571934 0 0
0.92591202 1.3731232 -0.47717431 0 1
0.92526633 1.3721657 -0.46039915 0 2
0.93125147 1.3810415 -0.44691294 0 3
0.93201494 1.3821738 -0.43088269 0 4
0.93392915 1.3850125 -0.41541523 0 5
0.93228918 1.3825805 -0.39843655 0 6
0.93055207 1.3800044 -0.38154638 0 7
0.93439543 1.385704 -0.36697599 0 8
0.93020684 1.3794924 -0.34932187 0 9
0.92741221 1.375348 -0.33237296 0 10
0.92377442 1.3699532 -0.31529039 0 11
0.92710251 1.3748887 -0.30064613 0 12
0.92660356 1.3741487 -0.28476515 0 13
0.92469358 1.3713162 -0.26854089 0 14
0.92240876 1.3679279 -0.25232527 0 15
0.93246502 1.3828412 -0.23939866 0 16
0.93063772 1.3801314 -0.22332402 0 17
0.92919022 1.3779848 -0.20743383 0 18
0.92862195 1.3771421 -0.19180928 0 19
0.92785764 1.3760085 -0.17619933 0 20
0.93230659 1.3826063 -0.1615483 0 21
0.92659205 1.3741317 -0.14518462 0 22
0.93137336 1.3812224 -0.13050586 0 23
0.93457288 1.3859673 -0.11549556 0 24
0.93443322 1.3857601 -0.10004161 0 25
0.92916191 1.3779427 -0.084144548 0 26
0.93435943 1.3856506 -0.069211103 0 27
0.94256186 1.3978149 -0.054291166 0 28
0.93314701 1.3838526 -0.038385555 0 29
0.92838269 1.3767872 -0.022911159 0 30
0.92866403 1.3772044 -0.0076389364 0 31
0.93645889 1.3887641 0.0077030547 0 32
0.93285775 1.3834237 0.023021597 0 33
0.93392068 1.385 0.03841738 0 34
0.93077624 1.3803369 0.053612322 0 35
0.92616796 1.3735027 0.068604335 0 36
0.93041247 1.3797973 0.084257796 0 37
0.93270725 1.3832005 0.099856831 0 38
0.9361645 1.3883276 0.11569225 0 39
0.9415043 1.3962464 0.13192543 0 40
0.93029881 1.3796288 0.14576541 0 41
0.92839646 1.3768076 0.16087076 0 42
0.92710829 1.3748972 0.17605703 0 43
0.93136376 1.3812082 0.19237562 0 44
0.93195426 1.3820838 0.20805089 0 45
0.92365128 1.3697705 0.22164749 0 46
0.92464852 1.3712494 0.23739189 0 47
0.9340598 1.3852063 0.25551242 0 48
0.934376 1.3856752 0.27135277 0 49
0.92363298 1.3697435 0.28385222 0 50
0.92788035 1.3760422 0.30089837 0 51
0.9254998 1.3725119 0.31587929 0 52
0.93869728 1.3920838 0.33641738 0 53
0.92863309 1.3771585 0.34873089 0 54
0.92193675 1.3672279 0.36208293 0 55
0.93547803 1.3873096 0.38356611 0 56
0.9343943 1.3857024 0.39933622 0 57
0.92790568 1.3760798 0.41273594 0 58
0.92979288 1.3788785 0.42985538 0 59
0.92703867 1.374794 0.44489121 0 60
0.92585111 1.3730328 0.46069011 0 61
0.92727447 1.3751436 0.47787645 0 62
0.93647444 1.3887872 0.49934775 0 63
0.90990245 1.3858414 -0.49422827 0 0
0.90402693 1.3768926 -0.47458529 0 1
0.90173364 1.3733997 -0.45705828 0 2
0.90176135 1.3734419 -0.44083205 0 3
0.90118939 1.3725708 -0.42440236 0 4
0.90439457 1.3774525 -0.40978116 0 5
0.90804434 1.3830112 -0.39531302 0 6
0.90074807 1.3718985 -0.3762145 0 7
0.90492791 1.3782648 -0.36203158 0 8
0.90713787 1.3816307 -0.34701249 0 9
0.89555627 1.3639911 -0.32694244 0 10
0.90468198 1.3778902 -0.31453305 0 11
0.90229315 1.3742518 -0.29805818 0 12
0.90473503 1.3779711 -0.28323039 0 13
0.92140132 1.4033549 -0.27257562 0 14
0.89982277 1.3704892 -0.25073782 0 15
0.90791547 1.382815 -0.23744342 0 16
0.89871436 1.3688011 -0.21968582 0 17
0.90720439 1.381732 -0.20630306 0 18
0.91167617 1.3885429 -0.19182131 0 19
0.90593535 1.3797992 -0.17524502 0 20
0.90240967 1.3744293 -0.15928428 0 21
0.90403855 1.3769102 -0.14429277 0 22
0.90326983 1.3757395 -0.1289286 0 23
0.9181453 1.3983957 -0.1155817 0 24
0.91131753 1.3879966 -0.099386565 0 25
0.90304935 1.3754035 -0.083305106 0 26
0.91052961 1.3867965 -0.068703905 0 27
0.90443599 1.3775156 -0.053066779 0 28
0.90671742 1.3809903 -0.037994023 0 29
0.90215129 1.3740357 -0.022679055 0 30
0.90569055 1.3794264 -0.0075889151 0 31
0.90421635 1.3771811 0.007576562 0 32
0.90299666 1.3753233 0.022700306 0 33
0.90589339 1.3797352 0.037959494 0 34
0.91004562 1.3860594 0.053395916 0 35
0.90642792 1.3805494 0.068394415 0 36
0.90953624 1.3852836 0.083903514 0 37
0.91220117 1.3893424 0.099482939 0 38
0.89996737 1.3707095 0.11329335 0 39
0.91082674 1.3872491 0.13000724 0 40
0.90472031 1.3779485 0.14440158 0 41
0.91275173 1.3901809 0.16110976 0 42
0.91098136 1.3874846 0.17622112 0 43
0.91230464 1.3895 0.19195354 0 44
0.90418851 1.3771386 0.20561723 0 45
0.91138428 1.3880982 0.22278292 0 46
0.90605372 1.3799795 0.23695654 0 47
0.90114522 1.3725034 0.25110632 0 48
0.91002166 1.3860229 0.26920921 0 49
0.91298491 1.3905361 0.28581303 0 50
0.9072715 1.3818343 0.2997027 0 51
0.90962458 1.3854181 0.31625146 0 52
0.90871936 1.3840394 0.33174792 0 53
0.90808964 1.3830802 0.34737659 0 54
0.91098237 1.3874862 0.36445379 0 55
0.90890092 1.384316 0.37961972 0 56
0.90987003 1.385792 0.39610785 0 57
0.90648633 1.3806384 0.41072893 0 58
0.9083392 1.3834604 0.42776942 0 59
0.90807295 1.383055 0.44391751 0 60
0.90561724 1.3793147 0.45902672 0 61
0.90657687 1.3807763 0.47592393 0 62
0.90682083 1.3811479 0.49255443 0 63
0.87952584 1.3761641 -0.48688334 0 0
0.87689275 1.3720441 -0.46916211 0 1
0.88076729 1.3781065 -0.45498601 0 2
0.87847978 1.3745273 -0.43768016 0 3
0.88679433 1.3875369 -0.42562604 0 4
0.88501543 1.3847535 -0.40868476 0 5
0.88908809 1.3911258 -0.3944777 0 6
0.89072448 1.3936862 -0.37915707 0 7
0.88460845 1.3841166 -0.36068425 0 8
0.89059025 1.3934762 -0.34721088 0 9
0.89012277 1.3927447 -0.33118594 0 10
0.88393712 1.3830663 -0.31320977 0 11
0.88317919 1.3818804 -0.29733485 0 12
0.88137484 1.3790572 -0.28120476 0 13
0.88318354 1.3818872 -0.26627642 0 14
0.88202906 1.3800807 -0.25048938 0 15
0.88673145 1.3874384 -0.23634717 0 16
0.88274449 1.3812002 -0.21991706 0 17
0.88019878 1.3772169 -0.20399751 0 18
0.87778366 1.3734382 -0.18822934 0 19
0.88726175 1.3882681 -0.17492174 0 20
0.87913018 1.375545 -0.15814883 0 21
0.88609719 1.386446 -0.14413933 0 22
0.88170838 1.3795791 -0.12826268 0 23
0.87990367 1.3767552 -0.11289023 0 24
0.8792159 1.3756791 -0.097723067 0 25
0.88027471 1.3773358 -0.082760274 0 26
0.88092679 1.3783561 -0.067743987 0 27
0.88235086 1.3805842 -0.052763034 0 28
0.88126534 1.3788857 -0.037635144 0 29
0.88271677 1.3811568 -0.022615725 0 30
0.88245702 1.3807504 -0.0075359321 0 31
0.88719791 1.3881683 0.0075764176 0 32
0.87704426 1.3722812 0.022470392 0 33
0.88930941 1.3914721 0.037978671 0 34
0.87574369 1.3702463 0.052367937 0 35
0.88249409 1.3808084 0.067864515 0 36
0.88745558 1.3885715 0.083435401 0 37
0.88345069 1.3823051 0.09819375 0 38
0.88002652 1.3769475 0.11290599 0 39
0.88164425 1.3794787 0.12825336 0 40
0.88213599 1.3802481 0.14349498 0 41
0.88575399 1.385909 0.15934038 0 42
0.88280511 1.3812951 0.17404312 0 43
0.88198555 1.3800126 0.18913037 0 44
0.88210279 1.3801961 0.20443879 0 45
0.8863613 1.3868593 0.22081813 0 46
0.88181049 1.3797388 0.23503555 0 47
0.88284665 1.3813601 0.25072157 0 48
0.88816184 1.3896766 0.26777735 0 49
0.87870169 1.3748746 0.28035188 0 50
0.88086432 1.3782583 0.29655549 0 51
0.88339424 1.3822168 0.3130174 0 52
0.88463515 1.3841584 0.32914418 0 53
0.88276911 1.3812387 0.34416169 0 54
0.88788265 1.3892397 0.36201921 0 55
0.88170141 1.3795682 0.3753162 0 56
0.87844223 1.3744686 0.38975427 0 57
0.88425708 1.383567 0.40833458 0 58
0.88319945 1.381912 0.42390063 0 59
0.8771562 1.3724564 0.43702072 0 60
0.89198619 1.3956604 0.46078148 0 61
0.87633926 1.3711782 0.46886599 0 62
0.88413006 1.3833681 0.4894321 0 63
0.86516994 1.3911051 -0.4883686 0 0
0.86680877 1.3937402 -0.47290054 0 1
0.8564288 1.3770503 -0.45112631 0 2
0.86028355 1.3832483 -0.43705565 0 3
0.85331112 1.3720374 -0.41762137 0 4
0.86038482 1.383411 -0.40513554 0 5
0.85954875 1.3820668 -0.38888234 0 6
0.85508323 1.3748868 -0.37115404 0 7
0.85400766 1.3731573 -0.35506499 0 8
0.85256851 1.3708433 -0.33893368 0 9
0.85471857 1.3743004 -0.32427627 0 10
0.86276305 1.387235 -0.31172779 0 11
0.84705132 1.3619722 -0.29078817 0 12
0.85018575 1.367012 -0.27659598 0 13
0.8581574 1.3798296 -0.26382667 0 14
0.86003155 1.3828431 -0.24905246 0 15
0.85651451 1.3771881 -0.23278932 0 16
0.85887837 1.380989 -0.21818537 0 17
0.8614217 1.3850783 -0.20357758 0 18
0.86167842 1.3854911 -0.18841481 0 19
0.86419857 1.3895433 -0.17373031 0 20
0.8603999 1.3834354 -0.15782768 0 21
0.86688751 1.3938668 -0.14379175 0 22
0.8561461 1.3765956 -0.12699693 0 23
0.8591308 1.3813947 -0.11239592 0 24
0.86449796 1.3900247 -0.097979575 0 25
0.85793799 1.3794769 -0.082248814 0 26
0.85324293 1.3719276 -0.066907324 0 27
0.86069793 1.3839146 -0.05248186 0 28
0.85999864 1.3827902 -0.03745025 0 29
0.85797334 1.3795338 -0.022414703 0 30
0.85505831 1.3748467 -0.0074457624 0 31
0.85689026 1.3777922 0.007461715 0 32
0.8580808 1.3797065 0.02241751 0 33
0.8644774 1.3899915 0.03764528 0 34
0.8544755 1.3739096 0.052102443 0 35
0.8600359 1.3828501 0.067439996 0 36
0.86149967 1.3852036 0.08259026 0 37
0.85707295 1.378086 0.097138047 0 38
0.85563517 1.3757741 0.1119386 0 39
0.86515266 1.3910773 0.12833293 0 40
0.85398078 1.3731141 0.14165089 0 41
0.85557956 1.3756847 0.15694346 0 42
0.8595292 1.3820354 0.17279163 0 43
0.85758924 1.3789161 0.18752067 0 44
0.8569411 1.377874 0.20251869 0 45
0.85789031 1.3794001 0.21793436 0 46
0.86369705 1.3887368 0.23474145 0 47
0.85817415 1.3798566 0.24851459 0 48
0.85547644 1.3755189 0.26300246 0 49
0.85673594 1.3775442 0.27872699 0 50
0.85853976 1.3804445 0.29473209 0 51
0.85800642 1.3795869 0.31000915 0 52
0.86083591 1.3841364 0.32659715 0 53
0.86416131 1.3894833 0.34354231 0 54
0.85409033 1.3732903 0.35509938 0 55
0.86065042 1.3838382 0.3735705 0 56
0.85000402 1.3667198 0.38456404 0 57
0.86216813 1.3862785 0.40597528 0 58
0.85393393 1.3730388 0.41792619 0 59
0.85566181 1.3758171 0.43470764 0 60
0.85769957 1.3790935 0.4517957 0 61
0.8484382 1.3642021 0.46287817 0 62
0.86207843 1.3861343 0.48662353 0 63
0.83647531 1.3825885 -0.48173138 0 0
0.84015715 1.3886741 -0.46764091 0 1
0.83161449 1.3745543 -0.44692481 0 2
0.82920295 1.3705683 -0.42979512 0 3
0.8253659 1.3642261 -0.41212344 0 4
0.83382928 1.3782151 -0.40058094 0 5
0.8374781 1.3842461 -0.38656867 0 6
0.83501714 1.3801783 -0.36978278 0 7
0.83948249 1.3875591 -0.35609284 0 8
0.83589852 1.3816352 -0.33903494 0 9
0.83420134 1.37883 -0.32290027 0 10
0.83060145 1.3728799 -0.30618376 0 11
0.83317971 1.3771414 -0.2918174 0 12
0.83989263 1.388237 -0.2787798 0 13
0.83612442 1.3820087 -0.26225767 0 14
0.83485442 1.3799095 -0.2466566 0 15
0.83468968 1.3796371 -0.23145089 0 16
0.83693612 1.3833503 -0.21691608 0 17
0.83868855 1.3862468 -0.20221825 0 18
0.83166641 1.3746401 -0.18553442 0 19
0.83862388 1.3861399 -0.17200251 0 20
0.83621091 1.3821515 -0.15649632 0 21
0.83278441 1.376488 -0.14093189 0 22
0.82717335 1.3672136 -0.1251836 0 23
0.83912098 1.3869616 -0.11200085 0 24
0.82827735 1.3690385 -0.095775157 0 25
0.82810503 1.3687536 -0.0809962 0 26
0.83962578 1.3877959 -0.067172609 0 27
0.83309305 1.3769981 -0.051827166 0 28
0.84044486 1.3891498 -0.037339769 0 29
0.83934945 1.3873391 -0.022372138 0 30
0.83078158 1.3731775 -0.0073808394 0 31
0.8287968 1.369897 0.0073632072 0 32
0.83781433 1.3848019 0.022331221 0 33
0.83944488 1.3874968 0.037295341 0 34
0.83938986 1.3874059 0.052218895 0 35
0.82718587 1.3672342 0.066177376 0 36
0.833974 1.3784543 0.081570245 0 37
0.84066725 1.3895173 0.097207822 0 38
0.83400369 1.3785033 0.11131783 0 39
0.84168988 1.3912076 0.12738051 0 40
0.82997763 1.3718487 0.1404569 0 41
0.83451277 1.3793447 0.1561785 0 42
0.8302027 1.3722208 0.17027532 0 43
0.83225286 1.3756094 0.18566525 0 44
0.83356917 1.3777851 0.2009839 0 45
0.83874083 1.3863332 0.21738383 0 46
0.8374294 1.3841655 0.23221059 0 47
0.83318585 1.3771515 0.24616361 0 48
0.83751482 1.3843068 0.26269376 0 49
0.83353364 1.3777263 0.27666909 0 50
0.82107204 1.3571289 0.28757674 0 51
0.8380658 1.3852174 0.30893534 0 52
0.83608675 1.3819463 0.32363006 0 53
0.83276713 1.3764595 0.33776489 0 54
0.83665401 1.3828839 0.35489303 0 55
0.83411187 1.378682 0.36938187 0 56
0.83048981 1.3726952 0.38334295 0 57
0.83577687 1.3814342 0.40151656 0 58
0.83145404 1.374289 0.41516337 0 59
0.83162409 1.3745701 0.43105003 0 60
0.83315176 1.3770951 0.44775093 0 61
0.83484101 1.3798872 0.46468189 0 62
0.83945173 1.3875082 0.48344553 0 63
0.82097781 1.3954297 -0.48265171 0 0
0.80984443 1.3765061 -0.46015504 0 1
0.81450194 1.3844227 -0.44684318 0 2
0.81381279 1.3832512 -0.43060169 0 3
0.81162852 1.3795385 -0.41370302 0 4
0.81375039 1.3831452 -0.39907539 0 5
0.80886644 1.3748438 -0.38113654 0 6
0.81005138 1.3768579 -0.36619672 0 7
0.80425167 1.367 -0.34825242 0 8
0.81492853 1.3851477 -0.33741239 0 9
0.81150639 1.379331 -0.32065651 0 10
0.81092143 1.3783368 -0.30515385 0 11
0.81148767 1.3792992 -0.29013827 0 12
0.80773306 1.3729174 -0.27368814 0 13
0.81157118 1.3794411 -0.25985703 0 14
0.80673069 1.3712137 -0.24331066 0 15
0.81217515 1.3804678 -0.22989744 0 16
0.81299919 1.3818684 -0.21509987 0 17
0.81612158 1.3871756 -0.20087463 0 18
0.81283438 1.3815882 -0.18510918 0 19
0.81055975 1.3777219 -0.16970833 0 20
0.81505036 1.3853548 -0.15571246 0 21
0.8140775 1.3837012 -0.14063488 0 22
