# .PCD v0.7 - Point Cloud Data file format
VERSION 0.7
FIELDS x y z intensity ring
SIZE 4 4 4 4 2
TYPE F F F F U
COUNT 1 1 1 1 1
WIDTH 1252
HEIGHT 1
VIEWPOINT 0 0 0 1 0 0 0
POINTS 1252
DATA ascii
-2.3564258 -1.4958469 0.74887145 0 60
-2.3445768 -1.4883252 0.77255559 0 61
-2.3511698 -1.4925106 0.8023963 0 62
-2.3610597 -1.4987885 0.83370364 0 63
-2.0605655 -1.343864 -0.73337698 0 0
-2.1351936 -1.392535 -0.73447704 0 1
-2.2118816 -1.4425496 -0.73462093 0 2
-2.277153 -1.4851183 -0.72942698 0 3
-2.286279 -1.4910702 -0.70550328 0 4
-2.282778 -1.4887869 -0.67774421 0 5
-2.2932129 -1.4955924 -0.6541639 0 6
-2.2791843 -1.4864433 -0.62376326 0 7
-2.2700241 -1.480469 -0.59507412 0 8
-2.2866499 -1.4913121 -0.57316494 0 9
-2.2846661 -1.4900182 -0.54652405 0 10
-2.2855482 -1.4905936 -0.52067757 0 11
-2.2872646 -1.491713 -0.49508291 0 12
-2.2832673 -1.4891059 -0.46836376 0 13
-2.2855597 -1.4906011 -0.44303581 0 14
-2.288928 -1.4927979 -0.41792959 0 15
-2.2893512 -1.4930738 -0.3923153 0 16
-2.2817822 -1.4881374 -0.36547917 0 17
-2.2752106 -1.4838516 -0.33902386 0 18
-2.2791839 -1.4864428 -0.31422713 0 19
-2.2796781 -1.4867651 -0.28895491 0 20
-2.2876773 -1.4919821 -0.26458916 0 21
-2.2752793 -1.4838963 -0.23795804 0 22
-2.2754703 -1.4840208 -0.21281931 0 23
-2.2695773 -1.4801776 -0.18721074 0 24
-2.2890236 -1.4928602 -0.16357478 0 25
-2.2784004 -1.4859319 -0.13772041 0 26
-2.2831078 -1.4890019 -0.11288127 0 27
-2.2749748 -1.4836979 -0.087464049 0 28
-2.2828619 -1.4888417 -0.062680304 0 29
-2.2788422 -1.48622 -0.037537724 0 30
-2.2847829 -1.4900945 -0.012544487 0 31
-2.2876763 -1.4919815 0.012560373 0 32
-2.2893479 -1.4930717 0.037710778 0 33
-2.2886055 -1.4925874 0.062838003 0 34
-2.2883995 -1.4924531 0.087980166 0 35
-2.2830861 -1.4889879 0.11288021 0 36
-2.2822194 -1.4884226 0.13795125 0 37
-2.2916222 -1.4945549 0.16376047 0 38
-2.2824216 -1.4885545 0.18827023 0 39
-2.275327 -1.4839275 0.21280591 0 40
-2.2950189 -1.4967703 0.24002253 0 41
-2.287288 -1.4917282 0.26454413 0 42
-2.287159 -1.491644 0.28990313 0 43
-2.2845039 -1.4899125 0.31496063 0 44
-2.2865016 -1.4912153 0.34070629 0 45
-2.2816873 -1.4880756 0.365464 0 46
-2.2697301 -1.4802773 0.38895294 0 47
-2.2757218 -1.484185 0.41551828 0 48
-2.2920551 -1.4948373 0.4442949 0 49
-2.2852914 -1.4904262 0.468779 0 50
-2.2705338 -1.4808015 0.49146149 0 51
-2.2889881 -1.4928371 0.52146125 0 52
-2.2859716 -1.4908696 0.54683632 0 53
-2.2788141 -1.4862016 0.57120079 0 54
-2.2747445 -1.4835476 0.59631157 0 55
-2.2770765 -1.4850684 0.62318635 0 56
-2.2879157 -1.4921377 0.65265286 0 57
-2.2737703 -1.4829123 0.67506987 0 58
-2.2856288 -1.4906461 0.70530266 0 59
-2.277941 -1.4856322 0.72967941 0 60
-2.2737114 -1.4828738 0.75515616 0 61
-2.2831702 -1.4890426 0.78537899 0 62
-2.2866879 -1.4913368 0.81385624 0 63
-2.0518894 -1.374459 -0.73624867 0 0
-2.1153295 -1.4169544 -0.73358214 0 1
-2.2128494 -1.4822781 -0.74093986 0 2
-2.2187495 -1.4862303 -0.71651882 0 3
-2.2080624 -1.4790715 -0.68692744 0 4
-2.2219653 -1.4883845 -0.66507274 0 5
-2.2124593 -1.4820168 -0.63627845 0 6
-2.2207868 -1.4875951 -0.61274093 0 7
-2.2200472 -1.4870996 -0.58672225 0 8
-2.2211061 -1.4878089 -0.56127918 0 9
-2.2344527 -1.4967492 -0.53887427 0 10
-2.2224443 -1.4887053 -0.51043338 0 11
-2.2195079 -1.4867383 -0.4843373 0 12
-2.2228153 -1.4889538 -0.45968425 0 13
-2.2155538 -1.4840897 -0.43297046 0 14
-2.2176201 -1.4854738 -0.40821394 0 15
-2.2254081 -1.4906905 -0.38446978 0 16
-2.2217727 -1.4882554 -0.35877138 0 17
-2.2115526 -1.4814095 -0.33222756 0 18
-2.2198653 -1.4869777 -0.30854654 0 19
-2.2234204 -1.4893591 -0.28412399 0 20
-2.2283881 -1.4926867 -0.25983512 0 21
-2.2142284 -1.4832019 -0.23346289 0 22
-2.2168152 -1.4849346 -0.20902541 0 23
-2.2218213 -1.488288 -0.1847671 0 24
-2.2285609 -1.4928025 -0.16055369 0 25
-2.2249227 -1.4903654 -0.13558538 0 26
-2.2145498 -1.4834172 -0.11038515 0 27
-2.2292852 -1.4932877 -0.086406879 0 28
-2.22335 -1.4893119 -0.061544463 0 29
-2.2309337 -1.4943919 -0.037048452 0 30
-2.2355542 -1.4974871 -0.012374364 0 31
-2.2244782 -1.4900676 0.012313054 0 32
-2.2178745 -1.4856442 0.03683158 0 33
-2.2300971 -1.4938315 0.061731227 0 34
-2.2263737 -1.4913373 0.086294025 0 35
-2.2219875 -1.4883993 0.11075588 0 36
-2.2133837 -1.4826361 0.13488221 0 37
-2.2175729 -1.4854423 0.15976208 0 38
-2.2202301 -1.4872221 0.18463476 0 39
-2.2158761 -1.4843055 0.20893686 0 40
-2.2272539 -1.4919269 0.23483625 0 41
-2.2328169 -1.4956534 0.26035154 0 42
-2.2172029 -1.4851943 0.28332946 0 43
-2.2180204 -1.485742 0.30829012 0 44
-2.2303712 -1.4940151 0.33505455 0 45
-2.2181623 -1.485837 0.35818839 0 46
-2.2318571 -1.4950104 0.38558394 0 47
-2.2336326 -1.4961997 0.41116148 0 48
-2.2166228 -1.4848057 0.43317938 0 49
-2.2378485 -1.4990238 0.46279317 0 50
-2.2301352 -1.493857 0.48665637 0 51
-2.2158806 -1.4843087 0.50892591 0 52
-2.2310162 -1.4944472 0.53804547 0 53
-2.229959 -1.493739 0.56351632 0 54
-2.2164891 -1.4847162 0.58578187 0 55
-2.2175555 -1.4854306 0.61184943 0 56
-2.2191482 -1.4864973 0.63820207 0 57
-2.2186291 -1.4861497 0.66407412 0 58
-2.233978 -1.4964311 0.69498974 0 59
-2.2204657 -1.4873799 0.71707308 0 60
-2.210392 -1.4806321 0.74011707 0 61
-2.2195809 -1.4867872 0.76973581 0 62
-2.2264497 -1.4913884 0.79888356 0 63
-2.0305016 -1.3966039 -0.73468083 0 0
-2.0937221 -1.4400878 -0.73217452 0 1
-2.1597254 -1.4854857 -0.72921318 0 2
-2.1731312 -1.4947064 -0.70766896 0 3
-2.159344 -1.4852233 -0.67740154 0 4
-2.1622627 -1.4872309 -0.65262717 0 5
-2.1602876 -1.4858724 -0.62648159 0 6
-2.1604815 -1.4860057 -0.60109818 0 7
-2.1628447 -1.4876312 -0.57639539 0 8
-2.1632187 -1.4878883 -0.55123258 0 9
-2.1648285 -1.4889957 -0.52645904 0 10
-2.1678574 -1.4910789 -0.50206935 0 11
-2.1549981 -1.4822341 -0.47420153 0 12
-2.1700766 -1.4926054 -0.45253918 0 13
-2.1634281 -1.4880325 -0.42632744 0 14
-2.1643054 -1.4886359 -0.40173909 0 15
-2.1677339 -1.490994 -0.37764469 0 16
-2.1645865 -1.4888293 -0.35246661 0 17
-2.1629469 -1.4877015 -0.32764918 0 18
-2.1735022 -1.4949615 -0.30463442 0 19
-2.1646092 -1.4888449 -0.27892706 0 20
-2.1634362 -1.4880379 -0.25437587 0 21
-2.1608732 -1.4862751 -0.22974682 0 22
-2.1680765 -1.4912295 -0.2061432 0 23
-2.1528172 -1.4807342 -0.18052922 0 24
-2.163976 -1.4884093 -0.15720743 0 25
-2.1559322 -1.4828767 -0.13248232 0 26
-2.1779311 -1.4980078 -0.10946976 0 27
-2.1467202 -1.4765404 -0.083904058 0 28
-2.1745591 -1.4956886 -0.060698397 0 29
-2.1741929 -1.4954365 -0.036408797 0 30
-2.1563759 -1.4831818 -0.012036133 0 31
-2.1520386 -1.4801985 0.012011923 0 32
-2.1659312 -1.4897541 0.036270447 0 33
-2.1700118 -1.4925607 0.060571462 0 34
-2.1515405 -1.479856 0.084092461 0 35
-2.1576657 -1.484069 0.10845116 0 36
-2.1630917 -1.487801 0.13292226 0 37
-2.1557527 -1.4827532 0.15661003 0 38
-2.1509573 -1.4794548 0.18037324 0 39
-2.1629241 -1.4876858 0.20565331 0 40
-2.1596496 -1.4854335 0.22961675 0 41
-2.1668384 -1.490378 0.25477591 0 42
-2.1643181 -1.4886446 0.27888954 0 43
-2.153743 -1.4813708 0.30186501 0 44
-2.1573784 -1.4838715 0.32680565 0 45
-2.160089 -1.4857357 0.35173422 0 46
-2.1610773 -1.4864155 0.37648502 0 47
-2.1722319 -1.4940878 0.4032104 0 48
-2.1607175 -1.4861679 0.42579326 0 49
-2.1646125 -1.4888471 0.45139968 0 50
-2.1620708 -1.4870988 0.47575784 0 51
-2.1657178 -1.4896072 0.50157386 0 52
-2.1622517 -1.4872233 0.52583241 0 53
-2.17538 -1.496253 0.55433154 0 54
-2.1734252 -1.4949086 0.57921511 0 55
-2.1714628 -1.4935588 0.60415345 0 56
-2.1710651 -1.4932853 0.62960708 0 57
-2.1635787 -1.4881361 0.65302438 0 58
-2.1615474 -1.4867389 0.67809284 0 59
-2.1531827 -1.4809855 0.70117283 0 60
-2.1633568 -1.4879833 0.73043931 0 61
-2.1756704 -1.4964527 0.76083177 0 62
-2.1619828 -1.4870384 0.78225374 0 63
-2.0178132 -1.4247386 -0.73637313 0 0
-2.0726416 -1.463452 -0.73104036 0 1
-2.1041672 -1.4857116 -0.71656865 0 2
-2.0961728 -1.4800668 -0.6884824 0 3
-2.1150756 -1.4934137 -0.6692245 0 4
-2.0920029 -1.4771225 -0.63685501 0 5
-2.0952976 -1.4794488 -0.61286384 0 6
-2.1022928 -1.4843881 -0.58994246 0 7
-2.1133995 -1.4922303 -0.5680654 0 8
-2.0973408 -1.4808915 -0.53904504 0 9
-2.1084857 -1.4887607 -0.51717001 0 10
-2.1105759 -1.4902366 -0.49300984 0 11
-2.1001477 -1.4828734 -0.46610901 0 12
-2.105839 -1.4868919 -0.44292256 0 13
-2.1063447 -1.487249 -0.41865072 0 14
-2.1093009 -1.4893363 -0.39489862 0 15
-2.0991704 -1.4821833 -0.36884734 0 16
-2.0963712 -1.4802068 -0.3442966 0 17
-2.099647 -1.4825199 -0.32079756 0 18
-2.1014624 -1.4838016 -0.29707223 0 19
-2.1127036 -1.4917389 -0.27458149 0 20
-2.1044531 -1.4859134 -0.24957018 0 21
-2.095037 -1.4792647 -0.224664 0 22
-2.1047237 -1.4861045 -0.20184179 0 23
-2.1134002 -1.4922308 -0.17874901 0 24
-2.1111939 -1.4906728 -0.15469287 0 25
-2.1156514 -1.4938202 -0.1311259 0 26
-2.1117868 -1.4910917 -0.10705864 0 27
-2.1128426 -1.491837 -0.083290644 0 28
-2.1112397 -1.4907054 -0.059438128 0 29
-2.0956273 -1.4796816 -0.035395157 0 30
-2.1033483 -1.4851333 -0.011841187 0 31
-2.1149988 -1.4933594 0.011906777 0 32
-2.0961564 -1.4800552 0.035404094 0 33
-2.1087642 -1.4889573 0.059368428 0 34
-2.1066732 -1.4874809 0.083047442 0 35
-2.106226 -1.4871651 0.10677671 0 36
-2.1171639 -1.4948883 0.13121964 0 37
-2.1140256 -1.4926723 0.15490036 0 38
-2.1034417 -1.4851993 0.17790674 0 39
-2.1066267 -1.4874481 0.20202428 0 40
-2.1073501 -1.4879589 0.22598442 0 41
-2.1108418 -1.4904244 0.25032783 0 42
-2.1089187 -1.4890664 0.27408957 0 43
-2.1042559 -1.4857742 0.29746714 0 44
-2.112253 -1.4914206 0.32272357 0 45
-2.1083024 -1.4886312 0.34625614 0 46
-2.1019661 -1.4841574 0.3693386 0 47
-2.106534 -1.4873827 0.39438063 0 48
-2.1062672 -1.4871943 0.41863534 0 49
-2.0990701 -1.4821125 0.44149888 0 50
-2.1058693 -1.4869134 0.46737885 0 51
-2.1029122 -1.4848254 0.49121967 0 52
-2.0939224 -1.4784778 0.51359791 0 53
-2.1093903 -1.4893994 0.54214191 0 54
-2.0950954 -1.4793061 0.5631454 0 55
-2.1109884 -1.4905277 0.59238255 0 56
-2.1024237 -1.4844805 0.61494827 0 57
-2.1048703 -1.486208 0.6407721 0 58
-2.1113496 -1.4907829 0.66804558 0 59
-2.1148934 -1.4932852 0.69463116 0 60
-2.094517 -1.4788977 0.71328223 0 61
-2.117631 -1.495218 0.74690855 0 62
-2.102747 -1.4847087 0.7673685 0 63
-1.9923787 -1.4438148 -0.73351473 0 0
-2.0535355 -1.4881331 -0.73070031 0 1
-2.0558953 -1.4898432 -0.7063151 0 2
-2.0486636 -1.4846026 -0.67882276 0 3
-2.0515552 -1.486698 -0.65486097 0 4
-2.0565083 -1.4902874 -0.63158047 0 5
-2.0592375 -1.4922652 -0.60763776 0 6
-2.0564203 -1.4902236 -0.58216792 0 7
-2.0478077 -1.4839824 -0.55529773 0 8
-2.0517409 -1.4868326 -0.53198397 0 9
-2.0608726 -1.49345 -0.50995725 0 10
-2.0471621 -1.4835145 -0.48242167 0 11
-2.0425344 -1.480161 -0.45732713 0 12
-2.0538135 -1.4883345 -0.43579638 0 13
-2.0563157 -1.4901477 -0.41231784 0 14
-2.0548398 -1.4890783 -0.38810125 0 15
-2.0628374 -1.4948739 -0.36566544 0 16
-2.0467856 -1.4832417 -0.33912274 0 17
-2.059185 -1.4922271 -0.317395 0 18
-2.0546861 -1.4889668 -0.29302582 0 19
-2.0573008 -1.4908617 -0.26974314 0 20
-2.0546975 -1.4889753 -0.24582233 0 21
-2.0555768 -1.4896123 -0.22237988 0 22
-2.0579739 -1.4913495 -0.1991021 0 23
-2.0649354 -1.4963943 -0.17619286 0 24
-2.0501428 -1.4856745 -0.15154663 0 25
-2.0626774 -1.494758 -0.12897207 0 26
-2.0532327 -1.4879136 -0.10500977 0 27
-2.0498059 -1.4854304 -0.081519552 0 28
-2.0612946 -1.4937559 -0.058544703 0 29
-2.0520196 -1.4870346 -0.034964819 0 30
-2.061389 -1.4938242 -0.011707495 0 31
-2.0516582 -1.4867725 0.011652229 0 32
-2.0631578 -1.4951061 0.035154603 0 33
-2.052531 -1.4874052 0.058295798 0 34
-2.0444694 -1.4815632 0.081307322 0 35
-2.0421724 -1.4798987 0.10444412 0 36
-2.0583992 -1.4916577 0.12870456 0 37
-2.0606623 -1.4932976 0.15232423 0 38
-2.0524457 -1.4873434 0.17512718 0 39
-2.0577936 -1.4912189 0.19908465 0 40
-2.0523226 -1.4872541 0.22202784 0 41
-2.0563831 -1.4901967 0.24602397 0 42
-2.0595245 -1.4924732 0.27003476 0 43
-2.0606 -1.4932526 0.29386926 0 44
-2.0663826 -1.4974431 0.31850442 0 45
-2.0508857 -1.486213 0.33980206 0 46
-2.0521276 -1.4871129 0.363767 0 47
-2.063642 -1.4954569 0.38976371 0 48
-2.0540121 -1.4884784 0.41185594 0 49
-2.0615454 -1.4939376 0.437437 0 50
-2.0448928 -1.4818699 0.45785517 0 51
-2.0590522 -1.4921309 0.48522362 0 52
-2.0591826 -1.4922254 0.50953907 0 53
-2.0560863 -1.4899815 0.53311062 0 54
-2.0593576 -1.4923521 0.55842966 0 55
-2.053544 -1.4881393 0.58135366 0 56
-2.0450604 -1.4819914 0.60345435 0 57
-2.05937 -1.4923613 0.6324594 0 58
-2.0602441 -1.4929945 0.6576345 0 59
-2.0541492 -1.4885777 0.68064034 0 60
-2.0522203 -1.48718 0.70505255 0 61
-2.0494423 -1.4851669 0.72924387 0 62
-2.0683618 -1.4988772 0.76148862 0 63
-1.9779323 -1.4707733 -0.73479885 0 0
-1.9983764 -1.4859754 -0.71752083 0 1
-2.0049293 -1.4908481 -0.69505101 0 2
-2.0009325 -1.4878759 -0.66901869 0 3
-1.9977015 -1.4854735 -0.6434527 0 4
-2.0016704 -1.4884247 -0.62031305 0 5
-2.0022948 -1.488889 -0.59619236 0 6
-1.9964757 -1.484562 -0.57032257 0 7
-2.0033531 -1.489676 -0.54816884 0 8
-2.0151107 -1.4984188 -0.52722383 0 9
-1.9881161 -1.478346 -0.49641454 0 10
-2.0132096 -1.4970052 -0.4787223 0 11
-2.0095198 -1.4942615 -0.45401481 0 12
-1.9959662 -1.4841832 -0.42736202 0 13
-1.9952152 -1.4836247 -0.40369394 0 14
-1.9923979 -1.4815297 -0.37971979 0 15
-2.0054851 -1.4912612 -0.35872239 0 16
-2.0022032 -1.4888209 -0.33474401 0 17
-2.007946 -1.4930912 -0.31230351 0 18
-2.0118206 -1.4959723 -0.28951412 0 19
-1.9986326 -1.4861659 -0.26442698 0 20
-2.000541 -1.4875849 -0.24151325 0 21
-1.9866183 -1.4772321 -0.21686843 0 22
-1.9971012 -1.4850271 -0.19496478 0 23
-2.0004983 -1.4875531 -0.17224243 0 24
-2.0000353 -1.4872088 -0.14918321 0 25
-2.005312 -1.4911325 -0.12652209 0 26
-1.9986529 -1.486181 -0.10314521 0 27
-2.0009377 -1.4878799 -0.080297634 0 28
-1.9873345 -1.4777647 -0.056955889 0 29
-1.9952781 -1.4836715 -0.034306258 0 30
-2.0101137 -1.4947031 -0.011519795 0 31
-2.0046773 -1.4906605 0.01148864 0 32
-1.9988078 -1.4862962 0.034366947 0 33
-2.0010784 -1.4879845 0.057349779 0 34
-1.993912 -1.4826556 0.080015689 0 35
-1.9939044 -1.4826499 0.10290015 0 36
-1.9966699 -1.4847064 0.12597685 0 37
-1.9970542 -1.4849923 0.14896086 0 38
-1.985545 -1.476434 0.17095496 0 39
-2.0011022 -1.4880022 0.19535537 0 40
-1.9944105 -1.4830264 0.21771908 0 41
-2.0040443 -1.4901899 0.24193618 0 42
-1.990607 -1.4801981 0.26336515 0 43
-1.9927409 -1.4817848 0.28676847 0 44
-2.0130043 -1.4968525 0.31309023 0 45
-1.9979726 -1.4856751 0.33403671 0 46
-1.9983754 -1.4859746 0.35745066 0 47
-2.0027349 -1.4892163 0.38168991 0 48
-1.9865109 -1.4771522 0.40193278 0 49
-1.9988121 -1.4862993 0.42797136 0 50
-2.0019615 -1.4886411 0.45230713 0 51
-1.9940531 -1.4827607 0.47416711 0 52
-2.0074675 -1.4927354 0.50124639 0 53
-1.9885449 -1.4786648 0.52027333 0 54
-1.9931315 -1.4820753 0.54537195 0 55
-2.0087409 -1.4936823 0.57382625 0 56
-2.0082517 -1.4933184 0.59796602 0 57
-1.9841639 -1.475407 0.61488783 0 58
-1.9936202 -1.4824386 0.64213806 0 59
-1.9964961 -1.4845772 0.66753542 0 60
-1.9941285 -1.4828166 0.69130665 0 61
-1.9981127 -1.4857793 0.71742612 0 62
-1.9999785 -1.4871666 0.742989 0 63
-1.9583019 -1.4939163 -0.7342751 0 0
-1.9528142 -1.4897299 -0.70768541 0 1
-1.9436835 -1.4827644 -0.68008822 0 2
-1.9531803 -1.4900091 -0.65912879 0 3
-1.9381497 -1.4785428 -0.63007963 0 4
-1.9423821 -1.4817716 -0.60754031 0 5
-1.9465221 -1.4849298 -0.5849784 0 6
-1.9483339 -1.4863119 -0.56174856 0 7
-1.9583067 -1.4939198 -0.54082853 0 8
-1.9497826 -1.4874171 -0.51487809 0 9
-1.9414115 -1.4810312 -0.48926306 0 10
-1.9441259 -1.4831018 -0.46659616 0 11
-1.9506545 -1.4880823 -0.44481575 0 12
-1.9460647 -1.4845809 -0.42055434 0 13
-1.956378 -1.4924484 -0.39951891 0 14
-1.9440862 -1.4830716 -0.37395969 0 15
-1.9305651 -1.4727569 -0.34853438 0 16
-1.9488596 -1.4867129 -0.32885715 0 17
-1.9357879 -1.4767411 -0.30388182 0 18
-1.9408761 -1.4806228 -0.28190351 0 19
-1.9458519 -1.4844185 -0.25983918 0 20
-1.9484988 -1.4864378 -0.23741916 0 21
-1.9518363 -1.4889839 -0.21505393 0 22
-1.9557428 -1.491964 -0.19270365 0 23
-1.9493196 -1.4870639 -0.16939755 0 24
-1.9342176 -1.4755431 -0.1456162 0 25
-1.9430434 -1.4822761 -0.123734 0 26
-1.9454534 -1.4841145 -0.10133387 0 27
-1.9457225 -1.4843198 -0.078808337 0 28
-1.9491717 -1.4869511 -0.056381915 0 29
-1.9499956 -1.4875796 -0.033839632 0 30
-1.9441841 -1.4831463 -0.011245626 0 31
-1.9528744 -1.4897758 0.011295892 0 32
-1.9396864 -1.4797151 0.033660728 0 33
-1.9562545 -1.4923543 0.056586795 0 34
-1.9487699 -1.4866445 0.078931771 0 35
-1.9556098 -1.4918625 0.10186289 0 36
-1.9601033 -1.4952904 0.12482038 0 37
-1.9493074 -1.4870547 0.14675224 0 38
-1.9478698 -1.485958 0.16927156 0 39
-1.957778 -1.4935166 0.19290417 0 40
-1.9421482 -1.4815931 0.21398649 0 41
-1.9531745 -1.4900047 0.23798887 0 42
-1.9471115 -1.4853795 0.26000738 0 43
-1.9525427 -1.4895227 0.28359801 0 44
-1.9419181 -1.4814177 0.30484414 0 45
-1.9451349 -1.4838716 0.32822865 0 46
-1.9575 -1.4933044 0.35339704 0 47
-1.9401889 -1.4800985 0.37321001 0 48
-1.9502438 -1.4877689 0.39826623 0 49
-1.9450997 -1.4838446 0.42034578 0 50
-1.9605834 -1.4956567 0.4470799 0 51
-1.9492643 -1.4870218 0.46782941 0 52
-1.9250175 -1.4685247 0.48513153 0 53
-1.9545494 -1.4910536 0.51613688 0 54
-1.9383619 -1.4787047 0.5353204 0 55
-1.9436922 -1.482771 0.56041032 0 56
-1.9368731 -1.477569 0.58207864 0 57
-1.9486651 -1.4865648 0.60950553 0 58
-1.9508374 -1.4882218 0.63420433 0 59
-1.9587994 -1.4942957 0.66102505 0 60
-1.9538409 -1.4905131 0.68364227 0 61
-1.9417466 -1.4812868 0.70367461 0 62
-1.9541178 -1.4907242 0.73270619 0 63
-1.8996317 -1.4864614 -0.71907556 0 0
-1.882234 -1.4728477 -0.68861884 0 1
-1.9054435 -1.4910091 -0.67307234 0 2
-1.9044019 -1.4901941 -0.64880252 0 3
-1.8900075 -1.4789305 -0.62029403 0 4
-1.895618 -1.4833207 -0.59857315 0 5
-1.9075472 -1.4926553 -0.57873768 0 6
-1.9015942 -1.4879971 -0.55350608 0 7
-1.8936037 -1.4817445 -0.52795142 0 8
-1.9046535 -1.490391 -0.50776196 0 9
-1.8945988 -1.4825232 -0.48202333 0 10
-1.9009854 -1.4875206 -0.46059743 0 11
-1.8912022 -1.4798654 -0.43537527 0 12
-1.9051048 -1.490744 -0.41563264 0 13
-1.9010764 -1.487592 -0.39193144 0 14
-1.9111084 -1.4954419 -0.37112528 0 15
-1.9023615 -1.4885975 -0.34672102 0 16
-1.9066559 -1.4919579 -0.32480675 0 17
-1.9096004 -1.4942619 -0.30263239 0 18
-1.8879085 -1.477288 -0.27682769 0 19
-1.9012998 -1.4877667 -0.25631347 0 20
-1.9090425 -1.4938253 -0.23483193 0 21
-1.8970544 -1.4844447 -0.21101327 0 22
-1.9023926 -1.4886218 -0.18923624 0 23
-1.9009954 -1.4875284 -0.16677506 0 24
-1.8929789 -1.4812555 -0.14387195 0 25
-1.901127 -1.4876314 -0.12222038 0 26
-1.8872828 -1.4767984 -0.099242285 0 27
-1.9008567 -1.48742 -0.077726051 0 28
-1.9012558 -1.4877323 -0.05552087 0 29
-1.8987699 -1.485787 -0.033265211 0 30
-1.9030125 -1.4891069 -0.011112553 0 31
-1.8981227 -1.4852806 0.011083999 0 32
-1.9050187 -1.4906768 0.033374686 0 33
-1.9003174 -1.486998 0.055493467 0 34
-1.9032102 -1.4892616 0.07782229 0 35
-1.9139959 -1.4977014 0.10064698 0 36
-1.8999896 -1.4867415 0.12214726 0 37
-1.9079813 -1.492995 0.14501217 0 38
-1.9006675 -1.487272 0.1667463 0 39
-1.9030119 -1.4891064 0.18929784 0 40
-1.9072511 -1.4924235 0.21214746 0 41
-1.89171 -1.4802626 0.23269986 0 42
-1.9049531 -1.4906254 0.25680599 0 43
-1.9103379 -1.4948391 0.28011656 0 44
-1.9001513 -1.4868679 0.30113488 0 45
-1.8987536 -1.4857743 0.32346055 0 46
-1.8978741 -1.4850861 0.34590316 0 47
-1.9142672 -1.4979137 0.37173873 0 48
-1.8963238 -1.483873 0.39095163 0 49
-1.8908557 -1.4795942 0.41252396 0 50
-1.9005533 -1.4871826 0.43752798 0 51
-1.9060085 -1.4914513 0.46181452 0 52
-1.9003347 -1.4870116 0.48348266 0 53
-1.9008443 -1.4874103 0.50674647 0 54
-1.897404 -1.4847182 0.52901095 0 55
-1.911299 -1.495591 0.55633092 0 56
-1.8929002 -1.481194 0.57429385 0 57
-1.9070104 -1.4922353 0.60217053 0 58
-1.8975422 -1.4848264 0.62276691 0 59
-1.8861589 -1.475919 0.64258736 0 60
-1.9034512 -1.4894501 0.67236859 0 61
-1.8940165 -1.4820676 0.69292951 0 62
-1.8971152 -1.4844923 0.71812302 0 63
-1.8428892 -1.4789519 -0.7044273 0 0
-1.8450186 -1.4806608 -0.68161297 0 1
-1.8504133 -1.4849901 -0.66003394 0 2
-1.8450921 -1.4807198 -0.63475156 0 3
-1.8518269 -1.4861246 -0.6137144 0 4
-1.8585558 -1.4915246 -0.59261662 0 5
-1.8542087 -1.488036 -0.56806356 0 6
-1.8527575 -1.4868714 -0.54457158 0 7
-1.8408097 -1.477283 -0.5182575 0 8
-1.8409268 -1.4773771 -0.49557862 0 9
-1.857944 -1.4910337 -0.47732618 0 10
-1.8387138 -1.475601 -0.44987172 0 11
-1.8460405 -1.4814808 -0.42913982 0 12
-1.8517269 -1.4860444 -0.4079431 0 13
-1.8582406 -1.4912717 -0.38685155 0 14
-1.842567 -1.4786934 -0.36131865 0 15
-1.853848 -1.4877465 -0.34118745 0 16
-1.8506722 -1.4851979 -0.31835675 0 17
-1.8472168 -1.482425 -0.29561239 0 18
-1.8545166 -1.488283 -0.27459407 0 19
-1.8565302 -1.489899 -0.25272879 0 20
-1.8556935 -1.4892275 -0.23050462 0 21
-1.8502167 -1.4848324 -0.20781861 0 22
-1.8619874 -1.4942784 -0.18703061 0 23
-1.8371433 -1.4743407 -0.16275147 0 24
-1.8413914 -1.4777499 -0.14132152 0 25
-1.8438414 -1.4797161 -0.11969829 0 26
-1.8510981 -1.4855397 -0.098292641 0 27
-1.8479377 -1.4830034 -0.076302081 0 28
-1.848196 -1.4832107 -0.054499883 0 29
-1.8586855 -1.4916286 -0.032881808 0 30
-1.8471622 -1.4823811 -0.010892036 0 31
-1.8441089 -1.4799308 0.010874032 0 32
-1.8423012 -1.47848 0.032591958 0 33
-1.8545535 -1.4883127 0.054687355 0 34
-1.8426716 -1.4787773 0.076084644 0 35
-1.8361998 -1.4735835 0.097501546 0 36
-1.8540058 -1.4878732 0.12035813 0 37
-1.8554516 -1.4890335 0.14240061 0 38
-1.847625 -1.4827524 0.16368003 0 39
-1.8440496 -1.4798831 0.18522882 0 40
-1.8499374 -1.4846083 0.20778723 0 41
-1.8503637 -1.4849504 0.2298426 0 42
-1.8492317 -1.4840419 0.25173524 0 43
-1.8373263 -1.4744875 0.27204874 0 44
-1.8499357 -1.4846067 0.29604748 0 45
-1.8524846 -1.4866524 0.31866851 0 46
-1.8550689 -1.4887264 0.34141219 0 47
-1.8543857 -1.4881781 0.36363626 0 48
-1.8532107 -1.4872351 0.38580438 0 49
-1.8585974 -1.4915581 0.4094567 0 50
-1.8452282 -1.480829 0.428951 0 51
-1.8513997 -1.4857817 0.45297554 0 52
-1.854045 -1.4879047 0.4763245 0 53
-1.8484287 -1.4833975 0.49759811 0 54
-1.8424767 -1.4786209 0.51872683 0 55
-1.8537747 -1.4876877 0.54487056 0 56
-1.8390329 -1.4758571 0.56341422 0 57
-1.8507289 -1.4852433 0.59012097 0 58
-1.8523607 -1.486553 0.6138913 0 59
-1.8433064 -1.4792868 0.63413727 0 60
-1.8534788 -1.4874502 0.66112739 0 61
-1.8548063 -1.4885156 0.68522888 0 62
-1.8490096 -1.4838636 0.70676678 0 63
-1.8023831 -1.4832448 -0.69586319 0 0
-1.8080463 -1.4879054 -0.67466235 0 1
-1.7992266 -1.4806473 -0.64822114 0 2
-1.8062682 -1.4864421 -0.6276359 0 3
-1.8071644 -1.4871796 -0.6049276 0 4
-1.8114684 -1.4907215 -0.58340317 0 5
-1.8042344 -1.4847683 -0.55830443 0 6
-1.8042139 -1.4847515 -0.53562915 0 7
-1.8008897 -1.482016 -0.51211047 0 8
-1.7994845 -1.4808595 -0.48928729 0 9
-1.8101399 -1.4896282 -0.46971515 0 10
-1.7987065 -1.4802192 -0.44450298 0 11
-1.8060265 -1.4862431 -0.42405435 0 12
-1.809051 -1.4887322 -0.4025439 0 13
-1.8005035 -1.481698 -0.37859613 0 14
-1.8000799 -1.4813495 -0.35653213 0 15
-1.802152 -1.4830548 -0.33500415 0 16
-1.8011503 -1.4822303 -0.31294954 0 17
-1.7940361 -1.4763758 -0.28998512 0 18
-1.8077823 -1.4876881 -0.27036247 0 19
-1.8058231 -1.4860758 -0.24829483 0 20
-1.7997862 -1.4811078 -0.2258053 0 21
-1.8175188 -1.4957006 -0.20619614 0 22
-1.7948503 -1.4770459 -0.18209751 0 23
-1.7935361 -1.4759643 -0.16048402 0 24
-1.7999387 -1.4812332 -0.13952745 0 25
-1.8063235 -1.4864875 -0.11844035 0 26
-1.8084623 -1.4882476 -0.096993096 0 27
-1.8032675 -1.4839727 -0.075205401 0 28
-1.8009483 -1.482064 -0.053639974 0 29
-1.804184 -1.4847269 -0.032238174 0 30
-1.8087728 -1.4885031 -0.010772781 0 31
-1.8064356 -1.4865798 0.010758861 0 32
-1.7969543 -1.4787773 0.032108989 0 33
-1.8080305 -1.4878923 0.053850915 0 34
-1.8114358 -1.4906946 0.075546063 0 35
-1.8066784 -1.4867797 0.096897431 0 36
-1.8131953 -1.4921427 0.11889093 0 37
-1.8017098 -1.4826908 0.13966475 0 38
-1.8102046 -1.4896814 0.1619755 0 39
-1.8056947 -1.48597 0.18319774 0 40
-1.7989624 -1.4804298 0.20409092 0 41
-1.7966118 -1.4784955 0.22540703 0 42
-1.8039994 -1.484575 0.24804409 0 43
-1.8116132 -1.4908407 0.27093539 0 44
-1.8061987 -1.4863849 0.29195109 0 45
-1.8033895 -1.484073 0.31333861 0 46
-1.8054323 -1.4857541 0.33561391 0 47
-1.8037797 -1.4843942 0.35726494 0 48
-1.8086916 -1.4884363 0.38031784 0 49
-1.810907 -1.4902595 0.4029569 0 50
-1.7957281 -1.4777682 0.42163631 0 51
-1.802977 -1.4837337 0.44555834 0 52
-1.8099517 -1.4894732 0.4696663 0 53
-1.8012723 -1.4823307 0.48977339 0 54
-1.8043352 -1.4848514 0.51309019 0 55
-1.7993665 -1.4807624 0.53419012 0 56
-1.8127291 -1.4917591 0.56093305 0 57
-1.8103127 -1.4897704 0.583031 0 58
-1.801775 -1.4827443 0.60312355 0 59
-1.8084847 -1.4882661 0.62840605 0 60
-1.8068677 -1.4869354 0.65097404 0 61
-1.8069892 -1.4870354 0.67426789 0 62
-1.8119596 -1.4911257 0.69956046 0 63
-1.7669972 -1.4909395 -0.6892274 0 0
-1.7676948 -1.491528 -0.66639864 0 1
-1.7617463 -1.486509 -0.64125478 0 2
-1.7665902 -1.4905961 -0.62017077 0 3
-1.7522583 -1.4785032 -0.59258926 0 4
-1.7606279 -1.4855653 -0.5728693 0 5
-1.7537771 -1.4797848 -0.54828006 0 6
-1.7600448 -1.4850733 -0.52789783 0 7
-1.7560163 -1.4816741 -0.50449276 0 8
-1.7566185 -1.4821823 -0.48255098 0 9
-1.7668664 -1.4908291 -0.46320805 0 10
-1.7610356 -1.4859092 -0.43967566 0 11
-1.7724164 -1.495512 -0.42044878 0 12
-1.7591093 -1.4842839 -0.39546239 0 13
-1.751097 -1.4775233 -0.37199947 0 14
-1.7550771 -1.4808817 -0.35119879 0 15
-1.7558066 -1.4814972 -0.32975039 0 16
-1.7565444 -1.4821197 -0.30834252 0 17
-1.7575712 -1.4829861 -0.28701687 0 18
-1.761755 -1.4865162 -0.26619244 0 19
-1.7685436 -1.4922442 -0.24567342 0 20
-1.7626318 -1.4872561 -0.22342138 0 21
-1.7542701 -1.4802008 -0.20107034 0 22
-1.7600254 -1.4850569 -0.18040337 0 23
-1.7579491 -1.483305 -0.15891977 0 24
-1.764292 -1.4886569 -0.13817275 0 25
-1.7615538 -1.4863465 -0.11669439 0 26
-1.7598648 -1.4849213 -0.095358767 0 27
-1.7641869 -1.4885682 -0.074333295 0 28
-1.768363 -1.4920919 -0.05321189 0 29
-1.7665228 -1.4905392 -0.03189031 0 30
-1.7600106 -1.4850445 -0.01059032 0 31
-1.7664634 -1.4904891 0.010629147 0 32
-1.752439 -1.4786557 0.031636063 0 33
-1.7599437 -1.484988 0.052958544 0 34
-1.762424 -1.4870807 0.07425902 0 35
-1.7724984 -1.4955812 0.096043319 0 36
-1.7500813 -1.4766663 0.11593439 0 37
-1.7678158 -1.4916302 0.13844872 0 38
-1.7647531 -1.489046 0.15953484 0 39
-1.75472 -1.4805803 0.17985956 0 40
-1.7578444 -1.4832166 0.20148002 0 41
-1.7567309 -1.482277 0.22267342 0 42
-1.7709799 -1.4943 0.24601185 0 43
-1.7541304 -1.4800828 0.26504037 0 44
-1.749728 -1.4763682 0.28573602 0 45
-1.7523515 -1.4785819 0.30760652 0 46
-1.761891 -1.486631 0.3308931 0 47
-1.7545394 -1.480428 0.35109121 0 48
-1.7530224 -1.479148 0.37240851 0 49
-1.7582343 -1.4835455 0.39526567 0 50
-1.7646993 -1.4890006 0.41861817 0 51
-1.7624657 -1.4871159 0.44003272 0 52
-1.7647756 -1.4890649 0.4626599 0 53
-1.770115 -1.4935702 0.48625854 0 54
-1.7621107 -1.4868164 0.50624371 0 55
-1.7543867 -1.4802991 0.52620077 0 56
-1.7667096 -1.4906968 0.5523231 0 57
-1.7615781 -1.486367 0.57317847 0 58
-1.7601188 -1.4851358 0.59524763 0 59
-1.7673997 -1.4912791 0.62045491 0 60
-1.7587602 -1.4839894 0.64016789 0 61
-1.7616078 -1.486392 0.66410393 0 62
-1.7572248 -1.4826938 0.68541563 0 63
-1.7129259 -1.4817524 -0.67519248 0 0
-1.7133439 -1.482114 -0.65273023 0 1
-1.7198424 -1.4877355 -0.63261318 0 2
-1.7277402 -1.4945674 -0.61293757 0 3
-1.7160453 -1.4844508 -0.58647126 0 4
-1.725812 -1.4928994 -0.56747115 0 5
-1.7111925 -1.480253 -0.54061645 0 6
-1.7191441 -1.4871315 -0.52107567 0 7
-1.730811 -1.4972239 -0.50250274 0 8
-1.7195611 -1.4874922 -0.47735965 0 9
-1.7233222 -1.4907455 -0.45656347 0 10
-1.7054341 -1.4752717 -0.43029031 0 11
-1.7196565 -1.4875747 -0.41224122 0 12
-1.7066721 -1.4763426 -0.38772589 0 13
-1.7140334 -1.4827105 -0.36797109 0 14
-1.7186737 -1.4867245 -0.34754622 0 15
-1.707862 -1.4773719 -0.32413343 0 16
-1.7092183 -1.4785452 -0.30320346 0 17
-1.7112161 -1.4802734 -0.28239805 0 18
-1.7163513 -1.4847155 -0.26207083 0 19
-1.7167945 -1.485099 -0.24100333 0 20
-1.7086874 -1.478086 -0.21887094 0 21
-1.7162143 -1.484597 -0.19878581 0 22
-1.7153463 -1.4838462 -0.17768054 0 23
-1.706663 -1.4763348 -0.15591279 0 24
-1.7136607 -1.4823881 -0.1356248 0 25
-1.7083234 -1.477771 -0.11436326 0 26
-1.7188165 -1.4868481 -0.094118111 0 27
-1.724324 -1.4916122 -0.073420949 0 28
-1.7122221 -1.4811436 -0.052066658 0 29
-1.712235 -1.4811548 -0.031236706 0 30
-1.7235295 -1.490925 -0.010480328 0 31
-1.7155516 -1.4840238 0.010431816 0 32
-1.7166036 -1.4849339 0.031316403 0 33
-1.7154617 -1.483946 0.052165173 0 34
-1.7233562 -1.4907751 0.073379748 0 35
-1.7247063 -1.4919429 0.094440617 0 36
-1.7107104 -1.479836 0.11452305 0 37
-1.7269214 -1.4938592 0.13667428 0 38
-1.7133985 -1.4821613 0.1565281 0 39
-1.7230446 -1.4905056 0.17847796 0 40
-1.7194234 -1.4873731 0.19915752 0 41
-1.7083768 -1.4778173 0.21883115 0 42
-1.7167848 -1.4850906 0.24100198 0 43
-1.7129142 -1.4817424 0.26154605 0 44
-1.7142043 -1.4828583 0.28289118 0 45
-1.7208408 -1.4885992 0.30526522 0 46
-1.7226908 -1.4901996 0.32694775 0 47
-1.7233478 -1.4907678 0.3484914 0 48
-1.7109718 -1.4800621 0.36731386 0 49
-1.7225511 -1.4900787 0.39133334 0 50
-1.710561 -1.4797068 0.41006082 0 51
-1.7185318 -1.4866018 0.43359497 0 52
-1.7281338 -1.494908 0.45783827 0 53
-1.7163585 -1.4847218 0.47647059 0 54
-1.706993 -1.4766203 0.49558771 0 55
-1.7206907 -1.4884694 0.52154446 0 56
-1.7253981 -1.4925414 0.54510438 0 57
-1.7156707 -1.4841268 0.56413656 0 58
-1.7198699 -1.4877592 0.58777833 0 59
-1.7170002 -1.4852769 0.60912746 0 60
-1.7251835 -1.4923558 0.63457781 0 61
-1.7050428 -1.4749333 0.64956778 0 62
-1.7071192 -1.4767294 0.6729036 0 63
-1.6704993 -1.4813499 -0.66559869 0 0
-1.6765102 -1.4866803 -0.64561337 0 1
-1.6780928 -1.4880837 -0.62393987 0 2
-1.67462 -1.4850042 -0.6005252 0 3
-1.6749914 -1.4853334 -0.57863903 0 4
-1.683951 -1.4932786 -0.5597021 0 5
-1.6699567 -1.4808688 -0.53330141 0 6
-1.6726686 -1.4832736 -0.51247835 0 7
-1.6692398 -1.4802331 -0.4898743 0 8
-1.6717695 -1.4824764 -0.46911752 0 9
-1.6751659 -1.4854882 -0.44861075 0 10
-1.6780354 -1.4880327 -0.42796171 0 11
-1.6793116 -1.4891645 -0.40692851 0 12
-1.6724324 -1.4830642 -0.38406119 0 13
-1.6785593 -1.4884974 -0.36425731 0 14
-1.6753412 -1.4856437 -0.34245193 0 15
-1.6746662 -1.4850451 -0.32127461 0 16
-1.6765994 -1.4867593 -0.30063745 0 17
-1.6760393 -1.4862627 -0.27958778 0 18
-1.6806668 -1.4903662 -0.25940078 0 19
-1.6737896 -1.4842678 -0.23751049 0 20
-1.6709856 -1.4817812 -0.21635918 0 21
-1.6752833 -1.4855922 -0.19614592 0 22
-1.6740701 -1.4845165 -0.17528261 0 23
-1.6750764 -1.4854088 -0.15468411 0 24
-1.6743401 -1.4847559 -0.13394766 0 25
-1.6682014 -1.4793123 -0.11288652 0 26
-1.6785064 -1.4884504 -0.092906006 0 27
-1.6672556 -1.4784735 -0.071759678 0 28
-1.6823869 -1.4918915 -0.051713344 0 29
-1.6737858 -1.4842644 -0.030865896 0 30
-1.6628664 -1.4745812 -0.010220935 0 31
-1.6597832 -1.4718473 0.010201985 0 32
-1.6798444 -1.4896369 0.030977622 0 33
-1.6794813 -1.4893149 0.05162403 0 34
-1.6716087 -1.4823337 0.071947038 0 35
-1.6717803 -1.482486 0.092533723 0 36
-1.6680077 -1.4791405 0.11287341 0 37
-1.6779658 -1.4879711 0.13423771 0 38
-1.6730074 -1.483574 0.15449305 0 39
-1.6821302 -1.4916639 0.17612654 0 40
-1.6716278 -1.4823507 0.19571793 0 41
-1.6814436 -1.4910551 0.2177133 0 42
-1.6805409 -1.4902546 0.23846848 0 43
-1.6798462 -1.4896386 0.25927413 0 44
-1.6750413 -1.4853778 0.2794213 0 45
-1.6857278 -1.4948542 0.30227432 0 46
-1.6758348 -1.4860812 0.32149881 0 47
-1.6718421 -1.4825407 0.34173667 0 48
-1.6855897 -1.4947317 0.36578298 0 49
-1.6823698 -1.4918764 0.38634327 0 50
-1.6796118 -1.4894307 0.40700126 0 51
-1.6753663 -1.4856658 0.42728099 0 52
-1.6698889 -1.4808087 0.44719759 0 53
-1.6724441 -1.4830747 0.46930683 0 54
-1.6844873 -1.4937541 0.49434903 0 55
-1.6683644 -1.4794568 0.51115966 0 56
-1.6785828 -1.4885182 0.53605616 0 57
-1.6713967 -1.4821458 0.55552936 0 58
-1.6751611 -1.4854839 0.57869768 0 59
-1.6811267 -1.490774 0.60285854 0 60
-1.6669402 -1.4781939 0.61979312 0 61
-1.6777254 -1.4877579 0.64608139 0 62
-1.6732423 -1.4837824 0.66669166 0 63
-1.6335803 -1.48489 -0.65811396 0 0
-1.6277298 -1.4795721 -0.63378668 0 1
-1.6370026 -1.4880008 -0.61541849 0 2
-1.629045 -1.4807676 -0.59066671 0 3
-1.6282934 -1.4800844 -0.5687511 0 4
-1.6314327 -1.4829379 -0.5482657 0 5
-1.6419317 -1.4924812 -0.53017235 0 6
-1.6296816 -1.4813462 -0.50485057 0 7
-1.6296716 -1.4813371 -0.48357126 0 8
-1.6348155 -1.4860128 -0.46384028 0 9
-1.6309904 -1.4825358 -0.44162914 0 10
-1.6412903 -1.4918982 -0.42323703 0 11
-1.6271971 -1.4790878 -0.39867726 0 12
-1.6258559 -1.4778687 -0.37750992 0 13
-1.6393065 -1.490095 -0.35968822 0 14
-1.6318818 -1.4833462 -0.33727136 0 15
-1.6384799 -1.4893438 -0.31782186 0 16
-1.6252199 -1.4772906 -0.29465944 0 17
-1.6351563 -1.4863225 -0.27579582 0 18
-1.6313162 -1.482832 -0.25457883 0 19
-1.6374167 -1.4883772 -0.23492841 0 20
-1.6246166 -1.4767423 -0.21269044 0 21
-1.6329571 -1.4843235 -0.19331264 0 22
-1.6271235 -1.4790208 -0.1722583 0 23
-1.6459177 -1.4961044 -0.1536787 0 24
-1.6338419 -1.4851277 -0.13215874 0 25
-1.6379896 -1.488898 -0.11207253 0 26
-1.6346785 -1.4858882 -0.091484517 0 27
-1.6391219 -1.4899272 -0.071331933 0 28
-1.6384304 -1.4892986 -0.050921265 0 29
-1.632292 -1.483719 -0.030434862 0 30
-1.6294463 -1.4811323 -0.010126696 0 31
-1.6395489 -1.4903153 0.010189482 0 32
-1.6339895 -1.4852619 0.030466512 0 33
-1.6418599 -1.4924159 0.051027853 0 34
-1.6323105 -1.4837358 0.071035519 0 35
-1.637694 -1.4886293 0.091653287 0 36
-1.6319647 -1.4834214 0.1116603 0 37
-1.629391 -1.481082 0.13179871 0 38
-1.6370932 -1.4880831 0.15285476 0 39
-1.6354235 -1.4865655 0.17313699 0 40
-1.6344148 -1.4856486 0.19348522 0 41
-1.6304103 -1.4820086 0.21344894 0 42
-1.6389352 -1.4897575 0.2351463 0 43
-1.642279 -1.492797 0.25628966 0 44
-1.6335661 -1.4848771 0.27552763 0 45
-1.6323594 -1.4837803 0.29595387 0 46
-1.6308491 -1.4824075 0.31634167 0 47
-1.633844 -1.4851297 0.33767688 0 48
-1.6358404 -1.4869444 0.3589277 0 49
-1.6339669 -1.4852414 0.37939322 0 50
-1.629437 -1.4811238 0.39922604 0 51
-1.6366521 -1.4876822 0.422041 0 52
-1.621945 -1.4743139 0.4391799 0 53
-1.6279589 -1.4797803 0.46189487 0 54
-1.6336716 -1.4849731 0.4847582 0 55
-1.6373912 -1.4883541 0.50723886 0 56
-1.6402519 -1.4909544 0.52962995 0 57
-1.6397442 -1.4904928 0.55105889 0 58
-1.6300535 -1.4816842 0.56936592 0 59
-1.6347531 -1.4859561 0.59273636 0 60
-1.6335177 -1.4848331 0.61410838 0 61
-1.6272739 -1.4791577 0.63360918 0 62
-1.630834 -1.4823936 0.65700758 0 63
-1.59552 -1.4865285 -0.65009564 0 0
-1.599498 -1.4902349 -0.62988156 0 1
-1.593431 -1.4845822 -0.60585517 0 2
-1.5885954 -1.480077 -0.58255523 0 3
-1.585115 -1.4768343 -0.55996996 0 4
-1.5961592 -1.4871242 -0.54251593 0 5
-1.5971116 -1.4880115 -0.52156883 0 6
-1.5969777 -1.4878867 -0.50034934 0 7
-1.5880929 -1.4796089 -0.47659633 0 8
-1.5902979 -1.4816632 -0.45634422 0 9
-1.5905534 -1.4819013 -0.43558103 0 10
-1.5905985 -1.4819432 -0.41483289 0 11
-1.5892348 -1.4806727 -0.39380726 0 12
-1.5969307 -1.4878429 -0.37501341 0 13
-1.5841931 -1.4759754 -0.35155115 0 14
-1.5865787 -1.4781981 -0.33163989 0 15
-1.6007514 -1.4914025 -0.31403705 0 16
-1.6002949 -1.4909773 -0.29344225 0 17
-1.5984777 -1.4892843 -0.27267757 0 18
-1.5844778 -1.4762406 -0.25008327 0 19
-1.5960085 -1.4869837 -0.23159327 0 20
-1.5864125 -1.4780432 -0.21005237 0 21
-1.5933349 -1.4844927 -0.19076861 0 22
-1.5841238 -1.4759109 -0.16961458 0 23
-1.5980241 -1.4888617 -0.15090488 0 24
-1.5955478 -1.4865544 -0.13052991 0 25
-1.594426 -1.4855093 -0.11033334 0 26
-1.5890045 -1.4804581 -0.089940391 0 27
-1.5971793 -1.4880745 -0.070297651 0 28
-1.5883489 -1.4798473 -0.049926542 0 29
-1.5970682 -1.4879709 -0.030116972 0 30
-1.599329 -1.4900774 -0.010052634 0 31
-1.5910286 -1.4823439 0.010000462 0 32
-1.5980527 -1.4888883 0.030135538 0 33
-1.5851411 -1.4768586 0.049825709 0 34
-1.5947689 -1.4858288 0.070191555 0 35
-1.5926902 -1.4838921 0.090149008 0 36
-1.601421 -1.4920264 0.11081739 0 37
-1.5824219 -1.4743252 0.1294561 0 38
-1.5869503 -1.4785442 0.14985915 0 39
-1.5887449 -1.4802163 0.17010935 0 40
-1.5866832 -1.4782954 0.18997222 0 41
-1.5999945 -1.4906975 0.21185073 0 42
-1.593153 -1.4843233 0.23117891 0 43
-1.5832829 -1.4751275 0.24989469 0 44
-1.5947694 -1.4858291 0.27204496 0 45
-1.5840728 -1.4758633 0.29046762 0 46
-1.5930288 -1.4842075 0.31252202 0 47
-1.6039099 -1.4943452 0.33526257 0 48
-1.5852225 -1.4769344 0.35177958 0 49
-1.5965061 -1.4874473 0.37491366 0 50
-1.5946265 -1.4856961 0.39514333 0 51
-1.5871589 -1.4787387 0.41393587 0 52
-1.5846013 -1.4763557 0.43395099 0 53
-1.597019 -1.4879252 0.45827287 0 54
-1.5958902 -1.4868735 0.47893631 0 55
-1.5891916 -1.4806324 0.49790987 0 56
-1.5880566 -1.4795749 0.51861173 0 57
-1.5836539 -1.475473 0.53826553 0 58
-1.5932707 -1.4844329 0.56285113 0 59
-1.5928094 -1.4840032 0.58410054 0 60
-1.5954081 -1.4864243 0.6066069 0 61
-1.6019117 -1.4924836 0.63083202 0 62
-1.5887754 -1.4802448 0.64734757 0 63
-1.5635256 -1.4930507 -0.64449126 0 0
-1.5510167 -1.4811057 -0.61791492 0 1
-1.5633774 -1.4929092 -0.60136259 0 2
-1.5504335 -1.4805487 -0.57519352 0 3
-1.5565879 -1.4864258 -0.5563072 0 4
-1.5563732 -1.4862207 -0.53516424 0 5
-1.5533488 -1.4833325 -0.51319492 0 6
-1.5558603 -1.4857309 -0.49315348 0 7
-1.5460473 -1.4763602 -0.46939081 0 8
-1.5527617 -1.482772 -0.45077097 0 9
-1.56037 -1.4900373 -0.43230009 0 10
-1.5580771 -1.4878478 -0.41109163 0 11
-1.5507596 -1.4808601 -0.38875607 0 12
-1.559218 -1.4889373 -0.37042865 0 13
-1.5563917 -1.4862384 -0.34941083 0 14
-1.5483214 -1.4785318 -0.32741857 0 15
-1.5519066 -1.4819554 -0.30800632 0 16
-1.5541743 -1.4841208 -0.28830978 0 17
-1.5590168 -1.4887451 -0.26904854 0 18
-1.5588137 -1.4885513 -0.24890278 0 19
-1.5621127 -1.4917015 -0.22931905 0 20
-1.5584939 -1.4882457 -0.20876303 0 21
-1.5548605 -1.4847761 -0.18833382 0 22
-1.5593516 -1.4890648 -0.16890991 0 23
-1.5547522 -1.4846728 -0.14853136 0 24
-1.5637816 -1.4932952 -0.12942357 0 25
-1.5497314 -1.4798782 -0.10849154 0 26
-1.5578635 -1.4876437 -0.089206412 0 27
-1.5441684 -1.474566 -0.068757303 0 28
-1.5547757 -1.4846952 -0.049441356 0 29
-1.5553458 -1.4852395 -0.029672341 0 30
-1.5601003 -1.4897798 -0.0099204564 0 31
-1.5461935 -1.4764998 0.0098320255 0 32
-1.5502912 -1.4804128 0.029575914 0 33
-1.5573817 -1.4871837 0.049524225 0 34
-1.5586634 -1.4884076 0.069402725 0 35
-1.5594164 -1.4891268 0.089295335 0 36
-1.5635942 -1.4931163 0.10946203 0 37
-1.5402091 -1.4707851 0.12747264 0 38
-1.5559553 -1.4858216 0.1486463 0 39
-1.5575045 -1.487301 0.16870983 0 40
-1.5552619 -1.4851594 0.18838245 0 41
-1.5571283 -1.4869418 0.20858012 0 42
-1.5611451 -1.4907775 0.229177 0 43
-1.549316 -1.4794817 0.24738626 0 44
-1.55827 -1.488032 0.26891965 0 45
-1.5607078 -1.4903599 0.28952178 0 46
-1.5423881 -1.4728659 0.30611718 0 47
-1.5579919 -1.4877664 0.32946354 0 48
-1.5523856 -1.4824128 0.34851146 0 49
-1.5459586 -1.4762754 0.36727858 0 50
-1.5559216 -1.4857894 0.39005011 0 51
-1.5517318 -1.4817885 0.40941745 0 52
-1.5422283 -1.4727134 0.42727393 0 53
-1.5621887 -1.4917741 0.45350763 0 54
-1.5603361 -1.4900049 0.47372898 0 55
-1.5529897 -1.4829897 0.49224362 0 56
-1.5479214 -1.4781499 0.51140189 0 57
-1.5464525 -1.4767472 0.531753 0 58
-1.5576105 -1.4874022 0.55667263 0 59
-1.5527509 -1.4827617 0.57605326 0 60
-1.5436314 -1.4740533 0.59376723 0 61
-1.549376 -1.4795389 0.61726129 0 62
-1.5559876 -1.4858525 0.64138407 0 63
-1.5213293 -1.4889469 -0.63459677 0 0
-1.5105888 -1.4784349 -0.60900527 0 1
-1.5205618 -1.4881958 -0.59188765 0 2
-1.5208206 -1.488449 -0.57095438 0 3
-1.5147257 -1.4824839 -0.54781961 0 4
-1.5207363 -1.4883665 -0.52916348 0 5
-1.5193129 -1.4869733 -0.50795257 0 6
-1.5118114 -1.4796315 -0.48492178 0 7
-1.5110189 -1.4788558 -0.46424183 0 8
-1.5121107 -1.4799246 -0.44421917 0 9
-1.5186353 -1.4863101 -0.42576876 0 10
-1.5169044 -1.4846162 -0.4050144 0 11
-1.5250827 -1.4926203 -0.38689104 0 12
-1.5059429 -1.473888 -0.36205024 0 13
-1.5183928 -1.4860729 -0.3449564 0 14
-1.5114267 -1.479255 -0.32343858 0 15
-1.52265 -1.4902394 -0.30581352 0 16
-1.5042832 -1.4722636 -0.28239164 0 17
-1.5077584 -1.4756647 -0.26331413 0 18
-1.5202723 -1.4879124 -0.24565154 0 19
-1.5174433 -1.4851435 -0.22542538 0 20
-1.5270399 -1.4945359 -0.20699577 0 21
-1.5173256 -1.4850284 -0.18598516 0 22
-1.5119962 -1.4798124 -0.16573885 0 23
-1.5194944 -1.487151 -0.14689894 0 24
-1.5090932 -1.4769711 -0.12639093 0 25
-1.5247855 -1.4923295 -0.10802165 0 26
-1.5148875 -1.4826422 -0.087782837 0 27
-1.5121828 -1.479995 -0.068138264 0 28
-1.5167303 -1.4844458 -0.048808288 0 29
-1.5114689 -1.4792963 -0.029180095 0 30
-1.5141518 -1.4819221 -0.0097434139 0 31
-1.5191268 -1.4867913 0.0097754272 0 32
-1.51411 -1.4818811 0.029231081 0 33
-1.5220321 -1.4896348 0.048978899 0 34
-1.5168167 -1.4845303 0.068347067 0 35
-1.5186683 -1.4863424 0.088001929 0 36
-1.5137005 -1.4814804 0.10723633 0 37
-1.5048423 -1.4728109 0.12603492 0 38
-1.5105714 -1.478418 0.1460363 0 39
-1.5154436 -1.4831865 0.16611676 0 40
-1.5161741 -1.4839014 0.185844 0 41
-1.5199395 -1.4875867 0.20603329 0 42
-1.5018007 -1.469834 0.22310159 0 43
-1.5187857 -1.4864575 0.24541135 0 44
-1.5184867 -1.4861648 0.26518774 0 45
-1.5048804 -1.4728481 0.28250375 0 46
-1.5142654 -1.4820334 0.30412957 0 47
-1.5187504 -1.4864229 0.32500586 0 48
-1.5190234 -1.48669 0.34509966 0 49
-1.5191941 -1.4868572 0.36523601 0 50
-1.5117103 -1.4795326 0.38349867 0 51
-1.5142192 -1.4819881 0.40429747 0 52
-1.5199242 -1.4875716 0.42613012 0 53
-1.5073465 -1.4752617 0.44281957 0 54
-1.5202203 -1.4878615 0.46706885 0 55
-1.5043536 -1.4723325 0.48252967 0 56
-1.5162646 -1.48399 0.50693345 0 57
-1.5173048 -1.485008 0.52796936 0 58
-1.523661 -1.4912289 0.5510512 0 59
-1.5203323 -1.4879711 0.57077104 0 60
-1.5215725 -1.489185 0.59228104 0 61
-1.5215169 -1.4891305 0.61341101 0 62
-1.5191567 -1.4868205 0.63369048 0 63
-1.5010105 -1.5056378 -0.63379604 0 0
-1.488723 -1.4933122 -0.60754693 0 1
-1.4842764 -1.488852 -0.58484548 0 2
-1.4927737 -1.4973755 -0.56729448 0 3
-1.4894054 -1.4939967 -0.54526508 0 4
-1.49997 -1.5045938 -0.52833527 0 5
-1.4922353 -1.4968354 -0.50501519 0 6
-1.4917505 -1.4963491 -0.48435238 0 7
-1.4896326 -1.4942248 -0.46328124 0 8
-1.4925238 -1.4971248 -0.44383967 0 9
-1.4976149 -1.5022315 -0.42502218 0 10
-1.4927925 -1.4973943 -0.4034622 0 11
-1.4924529 -1.4970536 -0.38325435 0 12
-1.4766119 -1.4811639 -0.35935014 0 13
-1.4905028 -1.4950976 -0.34277096 0 14
-1.4954153 -1.5000252 -0.32393488 0 15
-1.4961429 -1.500755 -0.30417311 0 16
-1.4939523 -1.4985577 -0.28389001 0 17
-1.4935124 -1.4981164 -0.26402339 0 18
-1.4813925 -1.4859592 -0.24230336 0 19
-1.492304 -1.4969043 -0.22440824 0 20
-1.4880731 -1.4926604 -0.20418626 0 21
-1.4777768 -1.4823322 -0.18335783 0 22
-1.4890336 -1.4936239 -0.16522256 0 23
-1.5003971 -1.5050224 -0.14683072 0 24
-1.4845647 -1.4891411 -0.12586069 0 25
-1.4936265 -1.4982308 -0.10711127 0 26
-1.493355 -1.4979585 -0.087595843 0 27
-1.4928659 -1.497468 -0.068092413 0 28
-1.4979904 -1.5026082 -0.048796128 0 29
-1.4891317 -1.4937222 -0.029101256 0 30
-1.5022939 -1.5069251 -0.0097856075 0 31
-1.4875931 -1.4921789 0.0096898498 0 32
-1.4915686 -1.4961666 0.029148879 0 33
-1.4947928 -1.4994007 0.048691973 0 34
-1.4882749 -1.4928628 0.067883007 0 35
-1.5023471 -1.5069784 0.088123292 0 36
-1.4941473 -1.4987533 0.10714862 0 37
-1.4963108 -1.5009235 0.12685654 0 38
-1.4840512 -1.4886261 0.1452311 0 39
-1.4871615 -1.4917459 0.16501482 0 40
-1.4853731 -1.4899521 0.18430038 0 41
-1.4981701 -1.5027885 0.20557173 0 42
-1.4870901 -1.4916743 0.2236242 0 43
-1.4929817 -1.4975841 0.24419893 0 44
-1.4850948 -1.4896729 0.26253533 0 45
-1.4881569 -1.4927444 0.28278875 0 46
-1.4875095 -1.492095 0.30241793 0 47
-1.4897726 -1.4943651 0.32271257 0 48
-1.4882519 -1.4928398 0.34225333 0 49
-1.4967999 -1.5014141 0.36426315 0 50
-1.4753034 -1.4798512 0.37885043 0 51
-1.4850456 -1.4896235 0.40136841 0 52
-1.4856645 -1.4902443 0.42163068 0 53
-1.4972742 -1.5018897 0.4452523 0 54
-1.488114 -1.4927014 0.46280897 0 55
-1.4911054 -1.495702 0.48414293 0 56
-1.4930489 -1.4976515 0.50529051 0 57
-1.4826667 -1.4872373 0.52224058 0 58
-1.4950023 -1.4996109 0.54731405 0 59
-1.4847966 -1.4893738 0.56426299 0 60
-1.4953923 -1.5000021 0.58922541 0 61
-1.4928006 -1.4974024 0.60921103 0 62
-1.4966079 -1.5012215 0.63193703 0 63
-1.4929658 -1.5348579 -0.63832015 0 0
-1.4872152 -1.5289458 -0.61455762 0 1
-1.4894668 -1.5312607 -0.59426486 0 2
-1.504528 -1.5467445 -0.57894558 0 3
-1.4841251 -1.5257692 -0.55015898 0 4
-1.4899744 -1.5317825 -0.53140885 0 5
-1.4883771 -1.5301404 -0.51003855 0 6
-1.4919223 -1.5337851 -0.49049473 0 7
-1.493766 -1.5356804 -0.47040397 0 8
-1.496513 -1.5385046 -0.45061767 0 9
-1.4837236 -1.5253564 -0.42637074 0 10
-1.4884458 -1.530211 -0.40734211 0 11
-1.4993129 -1.541383 -0.38985366 0 12
-1.4968376 -1.5388383 -0.36884937 0 13
-1.4920471 -1.5339134 -0.34743744 0 14
-1.4920534 -1.5339199 -0.32726774 0 15
-1.4860339 -1.5277315 -0.30591404 0 16
-1.4880009 -1.5297536 -0.28631195 0 17
-1.4922426 -1.5341144 -0.26711354 0 18
-1.4948311 -1.5367756 -0.24757358 0 19
-1.4964151 -1.538404 -0.22785391 0 20
-1.4938781 -1.5357958 -0.20755839 0 21
-1.4935956 -1.5355053 -0.18764913 0 22
-1.4866382 -1.5283527 -0.16702943 0 23
-1.4877809 -1.5295275 -0.14742549 0 24
-1.49345 -1.5353557 -0.1282049 0 25
-1.492449 -1.5343267 -0.10837162 0 26
-1.4944197 -1.5363525 -0.088759713 0 27
-1.4790776 -1.5205799 -0.068311177 0 28
-1.5002103 -1.5423057 -0.049482476 0 29
-1.5011257 -1.5432467 -0.029704249 0 30
-1.4921955 -1.534066 -0.0098419571 0 31
-1.4970108 -1.5390164 0.009873718 0 32
-1.4824251 -1.5240215 0.029334202 0 33
-1.4920919 -1.5339594 0.049214698 0 34
-1.4917883 -1.5336473 0.068898216 0 35
-1.4888588 -1.5306357 0.088429429 0 36
-1.4871596 -1.5288887 0.10798754 0 37
-1.4849248 -1.5265912 0.12747304 0 38
-1.4987797 -1.5408349 0.14851537 0 39
-1.4996313 -1.5417104 0.16848925 0 40
-1.5007265 -1.5428363 0.18854502 0 41
-1.4988697 -1.5409274 0.20825191 0 42
-1.482497 -1.5240953 0.22573464 0 43
-1.4951752 -1.5371293 0.24763057 0 44
-1.4878141 -1.5295615 0.26632082 0 45
-1.4865987 -1.5283122 0.28604215 0 46
-1.4882458 -1.5300055 0.30636936 0 47
-1.4878446 -1.529593 0.32634455 0 48
-1.5026681 -1.5448325 0.34991068 0 49
-1.4905691 -1.5323939 0.36730471 0 50
-1.4855403 -1.5272241 0.38627249 0 51
-1.4825896 -1.5241905 0.40573946 0 52
-1.4765681 -1.518 0.42431447 0 53
-1.4856312 -1.5273175 0.44734105 0 54
-1.4920213 -1.5338869 0.46985459 0 55
-1.4935781 -1.5354873 0.49103907 0 56
-1.4956032 -1.5375693 0.51251477 0 57
-1.4918205 -1.5336804 0.53206724 0 58
-1.4848342 -1.5264981 0.55042177 0 59
-1.4852178 -1.5268924 0.57151496 0 60
-1.4801776 -1.5217109 0.59055871 0 61
-1.4874998 -1.5292386 0.61467528 0 62
-1.5004066 -1.5425074 0.64150143 0 63
-1.484969 -1.5646765 -0.64307857 0 0
-1.4911693 -1.5712095 -0.6241281 0 1
-1.4932997 -1.5734543 -0.60346788 0 2
-1.4881032 -1.5679787 -0.58000064 0 3
-1.49498 -1.5752248 -0.5613206 0 4
-1.4953817 -1.5756481 -0.54020673 0 5
-1.4870766 -1.5668973 -0.51615644 0 6
-1.4988685 -1.579322 -0.49912536 0 7
-1.4822595 -1.5618215 -0.47279257 0 8
-1.4962144 -1.5765254 -0.45633054 0 9
-1.4954817 -1.5757533 -0.43528473 0 10
-1.4982687 -1.5786901 -0.41531152 0 11
-1.4836183 -1.5632533 -0.39074147 0 12
-1.4963168 -1.5766333 -0.37347013 0 13
-1.4931078 -1.5732521 -0.3521626 0 14
-1.4997044 -1.5802027 -0.33318266 0 15
-1.5003834 -1.5809182 -0.31284618 0 16
-1.4894657 -1.5694145 -0.29028511 0 17
-1.4964479 -1.5767715 -0.27131638 0 18
-1.4963214 -1.5766382 -0.25101233 0 19
-1.4893154 -1.5692561 -0.22969367 0 20
-1.4892453 -1.5691823 -0.20957977 0 21
-1.4904435 -1.5704447 -0.18966492 0 22
-1.5017272 -1.5823342 -0.17089789 0 23
-1.4950675 -1.5753169 -0.15005565 0 24
-1.4725949 -1.5516381 -0.1280428 0 25
-1.4886537 -1.5685588 -0.10948829 0 26
-1.4969416 -1.5772916 -0.090054646 0 27
-1.4932705 -1.5734236 -0.069854967 0 28
-1.496717 -1.577055 -0.0500031 0 29
-1.4966079 -1.5769401 -0.029996289 0 30
-1.4911815 -1.5712223 -0.0099619469 0 31
