# .PCD v0.7 - Point Cloud Data file format
VERSION 0.7
FIELDS x y z intensity ring
SIZE 4 4 4 4 2
TYPE F F F F U
COUNT 1 1 1 1 1
WIDTH 1266
HEIGHT 1
VIEWPOINT 0 0 0 1 0 0 0
POINTS 1266
DATA ascii
-0.75487584 1.378334 0.46848795 0 63
-0.76911563 1.3642467 -0.46687898 0 0
-0.76479352 1.3565803 -0.44870099 0 1
-0.77492744 1.3745557 -0.43896946 0 2
-0.76932216 1.3646132 -0.42030999 0 3
-0.77124339 1.368021 -0.40591314 0 4
-0.77476394 1.3742657 -0.39232266 0 5
-0.77749783 1.379115 -0.37827986 0 6
-0.77514535 1.3749422 -0.36182228 0 7
-0.77664471 1.3776017 -0.34724405 0 8
-0.76797438 1.3622224 -0.32832089 0 9
-0.77385384 1.3726515 -0.31573108 0 10
-0.76217943 1.3519434 -0.29614714 0 11
-0.76735812 1.3611294 -0.28329015 0 12
-0.76686686 1.360258 -0.26829857 0 13
-0.76616704 1.3590167 -0.25330371 0 14
-0.7720226 1.3694031 -0.24042124 0 15
-0.77287221 1.3709102 -0.2258928 0 16
-0.76646358 1.3595426 -0.20938802 0 17
-0.77110547 1.3677763 -0.1959721 0 18
-0.77809179 1.3801686 -0.18296456 0 19
-0.77061051 1.3668984 -0.16659553 0 20
-0.76943725 1.3648174 -0.15178274 0 21
-0.774046 1.3729923 -0.1380716 0 22
-0.77355307 1.3721179 -0.12339621 0 23
-0.77373409 1.3724389 -0.10885524 0 24
-0.7737807 1.3725216 -0.094309583 0 25
-0.76962644 1.3651528 -0.079345092 0 26
-0.76944649 1.3648336 -0.064885214 0 27
-0.77535403 1.3753123 -0.050842263 0 28
-0.7724489 1.3701593 -0.036173709 0 29
-0.77067161 1.3670068 -0.021651844 0 30
-0.77241307 1.3700957 -0.007233182 0 31
-0.77148467 1.368449 0.0072244881 0 32
-0.76959765 1.3651018 0.021621672 0 33
-0.77389657 1.3727272 0.036241502 0 34
-0.77765018 1.3793854 0.050992828 0 35
-0.7764253 1.3772126 0.06547372 0 36
-0.77251965 1.3702848 0.079643369 0 37
-0.7745139 1.3738222 0.094398946 0 38
-0.77199662 1.369357 0.1086108 0 39
-0.7784254 1.3807603 0.12417345 0 40
-0.77089489 1.3674028 0.1375095 0 41
-0.76965487 1.3652034 0.15182567 0 42
-0.77271253 1.3706269 0.16704996 0 43
-0.777098 1.3784058 0.18273088 0 44
-0.76643372 1.3594897 0.19478481 0 45
-0.77630723 1.3770031 0.21207717 0 46
-0.77383518 1.3726183 0.22617425 0 47
-0.76829183 1.3627856 0.23925942 0 48
-0.77563107 1.3758038 0.25643265 0 49
-0.77471519 1.3741792 0.2710444 0 50
-0.78138393 1.3860081 0.28846812 0 51
-0.77075928 1.3671622 0.29948086 0 52
-0.77156323 1.3685883 0.31479651 0 53
-0.77278358 1.3707529 0.33037689 0 54
-0.76844025 1.3630488 0.34357581 0 55
-0.77097648 1.3675475 0.35987633 0 56
-0.76679111 1.3601236 0.37307069 0 57
-0.7738781 1.3726944 0.39187407 0 58
-0.77227777 1.3698558 0.40645754 0 59
-0.77100337 1.3675952 0.4212285 0 60
-0.77067035 1.3670045 0.43655795 0 61
-0.77461278 1.3739976 0.45446193 0 62
-0.77117592 1.3679013 0.46812966 0 63
-0.79866523 1.3768107 -0.47450367 0 0
-0.79741371 1.3746532 -0.45788738 0 1
-0.79586858 1.3719895 -0.44124189 0 2
-0.79934913 1.3779896 -0.42742518 0 3
-0.79181612 1.3650035 -0.40787596 0 4
-0.79366869 1.3681972 -0.39334655 0 5
-0.8034246 1.3850152 -0.38257915 0 6
-0.80146033 1.3816291 -0.3661477 0 7
-0.79138994 1.3642688 -0.34631005 0 8
-0.79336727 1.3676776 -0.33196184 0 9
-0.80057651 1.3801055 -0.31968579 0 10
-0.79455543 1.3697258 -0.30215979 0 11
-0.79000199 1.3618762 -0.28544581 0 12
-0.79689264 1.373755 -0.27287284 0 13
-0.7910974 1.3637645 -0.25598246 0 14
-0.79610193 1.3723918 -0.24264626 0 15
-0.79200554 1.3653301 -0.22656094 0 16
-0.79234719 1.3659191 -0.21185464 0 17
-0.79604995 1.3723023 -0.19800809 0 18
-0.78849876 1.3592849 -0.1814677 0 19
-0.79724705 1.3743659 -0.16868772 0 20
-0.796772 1.373547 -0.15383153 0 21
-0.79258943 1.3663366 -0.13837191 0 22
-0.79784876 1.3754032 -0.12456454 0 23
-0.79567891 1.3716625 -0.1095614 0 24
-0.7959196 1.3720775 -0.094944373 0 25
-0.79749554 1.3747942 -0.080469348 0 26
-0.796363 1.3728418 -0.065726504 0 27
-0.79448134 1.3695982 -0.050988317 0 28
-0.80360156 1.3853203 -0.036832072 0 29
-0.79221642 1.3656936 -0.021783693 0 30
-0.79739422 1.3746196 -0.0073082773 0 31
-0.79428619 1.3692616 0.0072797909 0 32
-0.79653984 1.3731468 0.021902574 0 33
-0.79815418 1.3759297 0.036582399 0 34
-0.79363942 1.3681468 0.050934281 0 35
-0.79810774 1.3758496 0.065870501 0 36
-0.79157788 1.3645929 0.079872243 0 37
-0.7941913 1.3690982 0.094738215 0 38
-0.79666865 1.3733687 0.10969768 0 39
-0.7987904 1.3770264 0.12471156 0 40
-0.79395705 1.3686943 0.13861068 0 41
-0.8013503 1.3814394 0.15471545 0 42
-0.79674953 1.3735082 0.16858244 0 43
-0.78838593 1.3590903 0.18144174 0 44
-0.79709178 1.3740982 0.19826724 0 45
-0.78838134 1.3590825 0.21079426 0 46
-0.79572827 1.3717476 0.22762585 0 47
-0.79314667 1.3672973 0.24174553 0 48
-0.80036265 1.3797369 0.25898048 0 49
-0.8008076 1.3805039 0.2742134 0 50
-0.80041587 1.3798286 0.28920859 0 51
-0.79698306 1.3739108 0.30308297 0 52
-0.79523599 1.3708991 0.31755322 0 53
-0.79864395 1.376774 0.33416972 0 54
-0.79751199 1.3748226 0.34898907 0 55
-0.80065316 1.3802376 0.36577895 0 56
-0.7937848 1.3683974 0.37798882 0 57
-0.79792035 1.3755265 0.39545372 0 58
-0.80352867 1.3851948 0.41390929 0 59
-0.797122 1.3741503 0.4262343 0 60
-0.79390389 1.3686026 0.44015265 0 61
-0.79718095 1.374252 0.45775372 0 62
-0.79714596 1.3741916 0.47360107 0 63
-0.82145333 1.3768086 -0.47794804 0 0
-0.81666601 1.3687847 -0.45924288 0 1
-0.81100583 1.3592979 -0.44033411 0 2
-0.82081276 1.375735 -0.42982402 0 3
-0.82116455 1.3763247 -0.41424471 0 4
-0.81879258 1.372349 -0.39740467 0 5
-0.81612581 1.3678794 -0.38058904 0 6
-0.820508 1.3752241 -0.36709636 0 7
-0.82025599 1.3748018 -0.3515175 0 8
-0.81444633 1.3650645 -0.33373314 0 9
-0.81507528 1.3661186 -0.31874341 0 10
-0.81435186 1.3649061 -0.30328259 0 11
-0.82104462 1.3761235 -0.29052615 0 12
-0.80846989 1.3550475 -0.2711111 0 13
-0.81807971 1.3711542 -0.25923812 0 14
-0.81637841 1.3683027 -0.24367975 0 15
-0.81878561 1.3723373 -0.22937708 0 16
-0.82665604 1.3855287 -0.21645631 0 17
-0.81763059 1.3704014 -0.19916944 0 18
-0.82550234 1.383595 -0.18605426 0 19
-0.81562793 1.3670449 -0.16900736 0 20
-0.82347566 1.3801981 -0.1556987 0 21
-0.81319082 1.3629601 -0.13903211 0 22
-0.81572485 1.3672073 -0.12472127 0 23
-0.81310844 1.3628221 -0.1096456 0 24
-0.81240243 1.3616387 -0.094906121 0 25
-0.81056386 1.3585572 -0.080096297 0 26
-0.81399429 1.3643068 -0.065792106 0 27
-0.81605446 1.3677597 -0.051289573 0 28
-0.80848932 1.35508 -0.03628964 0 29
-0.81899887 1.3726948 -0.022054333 0 30
-0.81490558 1.3658341 -0.0073142899 0 31
-0.81915045 1.3729489 0.0073523908 0 32
-0.81890535 1.372538 0.022051815 0 33
-0.81501174 1.3660121 0.036582407 0 34
-0.81142151 1.3599946 0.05099839 0 35
-0.80781627 1.3539519 0.065292761 0 36
-0.81955898 1.3736335 0.080985151 0 37
-0.81033146 1.3581676 0.094664194 0 38
-0.81696218 1.3692812 0.11016526 0 39
-0.81797403 1.370977 0.12506516 0 40
-0.82618701 1.3847426 0.14125408 0 41
-0.81639993 1.3683387 0.15436086 0 42
-0.82143301 1.3767745 0.17021023 0 43
-0.81456399 1.3652617 0.18358894 0 44
-0.82238805 1.3783752 0.20032834 0 45
-0.81898135 1.3726654 0.21444672 0 46
-0.82066321 1.3754843 0.22990307 0 47
-0.82599628 1.3844229 0.24655057 0 48
-0.81304735 1.3627197 0.2576434 0 49
-0.81426132 1.3647543 0.27305323 0 50
-0.80914772 1.3561835 0.28631642 0 51
-0.81132567 1.359834 0.30215558 0 52
-0.81656903 1.3686222 0.31932756 0 53
-0.81692141 1.3692129 0.33474734 0 54
-0.81779665 1.3706799 0.35046357 0 55
-0.82103521 1.3761078 0.36733225 0 56
-0.8188349 1.37242 0.38185239 0 57
-0.8145175 1.3651837 0.39532974 0 58
-0.82413644 1.3813057 0.41574389 0 59
-0.8110283 1.3593355 0.42470032 0 60
-0.8108449 1.3590282 0.44024673 0 61
-0.81373596 1.3638738 0.4575952 0 62
-0.81583321 1.367389 0.4746781 0 63
-0.84384704 1.3756146 -0.48109925 0 0
-0.84528112 1.3779525 -0.46577084 0 1
-0.83955348 1.3686154 -0.4466629 0 2
-0.8437469 1.3754513 -0.43294418 0 3
-0.83926499 1.3681451 -0.41485757 0 4
-0.83269584 1.3574362 -0.39602137 0 5
-0.84615409 1.3793756 -0.38665333 0 6
-0.83854532 1.3669719 -0.36761814 0 7
-0.83926642 1.3681474 -0.35242811 0 8
-0.84290534 1.3740795 -0.33844557 0 9
-0.84104973 1.3710545 -0.32228369 0 10
-0.84795558 1.3823122 -0.30944371 0 11
-0.84228671 1.373071 -0.29204619 0 12
-0.8424992 1.3734174 -0.27683827 0 13
-0.83858669 1.3670393 -0.26039001 0 14
-0.84509313 1.377646 -0.24717563 0 15
-0.83993781 1.3692418 -0.23056854 0 16
-0.84062284 1.3703586 -0.21568491 0 17
-0.83142281 1.355361 -0.19845438 0 18
-0.83828944 1.3665549 -0.18513496 0 19
-0.83991033 1.3691971 -0.17053738 0 20
-0.83809978 1.3662456 -0.15527557 0 21
-0.83553755 1.3620688 -0.13997865 0 22
-0.83668232 1.3639349 -0.1253518 0 23
-0.84114462 1.3712091 -0.11114413 0 24
-0.83712929 1.3646636 -0.095827185 0 25
-0.83998781 1.3693234 -0.081333846 0 26
-0.84204394 1.3726752 -0.066689938 0 27
-0.84163922 1.3720155 -0.05183332 0 28
-0.82922363 1.351776 -0.036471464 0 29
-0.83468115 1.3606726 -0.022024415 0 30
-0.84329897 1.3747212 -0.0074168523 0 31
-0.83312416 1.3581345 0.0073273638 0 32
-0.83895063 1.3676326 0.022137074 0 33
-0.84118605 1.3712767 0.036997605 0 34
-0.83967531 1.3688139 0.051712371 0 35
-0.84106785 1.3710841 0.066612631 0 36
-0.84479427 1.3771588 0.081799246 0 37
-0.83925718 1.3681324 0.096070766 0 38
-0.83751148 1.3652866 0.11066407 0 39
-0.84174889 1.3721943 0.12611088 0 40
-0.8443833 1.3764888 0.14146058 0 41
-0.84140843 1.3716393 0.15588857 0 42
-0.83963066 1.3687413 0.17048059 0 43
-0.84167284 1.3720702 0.18588217 0 44
-0.83664048 1.3638667 0.19969979 0 45
-0.843786 1.3755151 0.2164965 0 46
-0.84181428 1.3723009 0.23108366 0 47
-0.83811527 1.3662708 0.24513473 0 48
-0.83843917 1.3667989 0.26034421 0 49
-0.84510654 1.3776678 0.27769503 0 50
-0.84200895 1.3726182 0.2919499 0 51
-0.84381652 1.3755648 0.30793327 0 52
-0.84290487 1.3740788 0.32299456 0 53
-0.83943468 1.3684217 0.33705202 0 54
-0.84001201 1.3693628 0.35274121 0 55
-0.84574693 1.3787117 0.37077534 0 56
-0.84036541 1.3699389 0.38400817 0 57
-0.83857006 1.3670123 0.3988151 0 58
-0.84031755 1.3698609 0.41537786 0 59
-0.83933347 1.3682567 0.43067956 0 60
-0.84107614 1.3710976 0.44747296 0 61
-0.83645123 1.3635582 0.46090531 0 62
-0.83042908 1.353741 0.47344932 0 63
-0.86730474 1.3756151 -0.48479262 0 0
-0.86556166 1.3728505 -0.46760857 0 1
-0.8630051 1.3687956 -0.450151 0 2
-0.85541397 1.3567554 -0.43033773 0 3
-0.86485136 1.3717239 -0.41913578 0 4
-0.86378574 1.3700337 -0.40276489 0 5
-0.86687124 1.3749276 -0.38836515 0 6
-0.85922319 1.3627973 -0.36930889 0 7
-0.87070805 1.381013 -0.35847312 0 8
-0.86696404 1.3750747 -0.34129068 0 9
-0.86414415 1.3706023 -0.32465059 0 10
-0.86180776 1.3668965 -0.30834174 0 11
-0.87279028 1.3843156 -0.29669815 0 12
-0.86446428 1.37111 -0.27849478 0 13
-0.86022043 1.3643789 -0.26187828 0 14
-0.86589682 1.3733821 -0.24830221 0 15
-0.86262977 1.3682003 -0.23216179 0 16
-0.86425841 1.3707834 -0.217408 0 17
-0.86973029 1.3794624 -0.20353387 0 18
-0.86222953 1.3675654 -0.18669413 0 19
-0.86371857 1.3699273 -0.17193817 0 20
-0.87445402 1.3869545 -0.15883921 0 21
-0.86237699 1.3677994 -0.14164665 0 22
-0.86777049 1.376354 -0.12746421 0 23
-0.8643167 1.370876 -0.11197012 0 24
-0.86127418 1.3660502 -0.096660927 0 25
-0.86467075 1.3714375 -0.082084753 0 26
-0.86758363 1.3760575 -0.067367479 0 27
-0.86279231 1.3684582 -0.052095797 0 28
-0.86958939 1.3792387 -0.037498087 0 29
-0.87706119 1.3910897 -0.022689611 0 30
-0.86401606 1.370399 -0.0074502905 0 31
-0.86715323 1.3753748 0.0074773417 0 32
-0.86612737 1.3737477 0.022406751 0 33
-0.86411273 1.3705524 0.037261926 0 34
-0.86673194 1.3747067 0.052333675 0 35
-0.859721 1.3635867 0.066756949 0 36
-0.86107719 1.3657378 0.081743605 0 37
-0.86363083 1.3697881 0.096925415 0 38
-0.86082494 1.3653376 0.11151776 0 39
-0.86531156 1.3724538 0.127103 0 40
-0.8622117 1.3675373 0.1416195 0 41
-0.86153394 1.3664622 0.15649237 0 42
-0.86031264 1.3645252 0.17126015 0 43
-0.86431193 1.3708683 0.18714502 0 44
-0.86744583 1.3758389 0.20299926 0 45
-0.86323172 1.369155 0.21714973 0 46
-0.86179602 1.3668779 0.23193739 0 47
-0.86277169 1.3684254 0.24740605 0 48
-0.86274546 1.3683838 0.26264697 0 49
-0.86309057 1.3689312 0.27805221 0 50
-0.86416745 1.3706392 0.29376689 0 51
-0.86340415 1.3694285 0.30891293 0 52
-0.86528325 1.3724089 0.32507852 0 53
-0.86779058 1.3763857 0.34161606 0 54
-0.86974472 1.3794851 0.35807651 0 55
-0.86340219 1.3694254 0.3711051 0 56
-0.85953575 1.3632929 0.38507879 0 57
-0.8658886 1.3733691 0.40374544 0 58
-0.87007207 1.3800044 0.42166591 0 59
-0.86431706 1.3708764 0.43481666 0 60
-0.863415 1.3694457 0.4503648 0 61
-0.85872376 1.362005 0.46391448 0 62
-0.86813653 1.3769344 0.48525757 0 63
-0.88876963 1.3719736 -0.48732391 0 0
-0.89032459 1.374374 -0.4718208 0 1
-0.88578141 1.3673608 -0.45322689 0 2
-0.88869321 1.3718556 -0.43856016 0 3
-0.89172548 1.3765365 -0.42392468 0 4
-0.88808537 1.3709173 -0.40620431 0 5
-0.88612199 1.3678864 -0.38942462 0 6
-0.88063848 1.3594217 -0.37130061 0 7
-0.88579142 1.3673762 -0.35773361 0 8
-0.87610036 1.3524164 -0.33831516 0 9
-0.89052016 1.3746759 -0.32818443 0 10
-0.88174438 1.3611289 -0.30946308 0 11
-0.88835829 1.3713386 -0.29623568 0 12
-0.88562584 1.3671206 -0.27987528 0 13
-0.88429737 1.3650699 -0.26407805 0 14
-0.88182443 1.3612524 -0.24805088 0 15
-0.88815147 1.3710194 -0.23447555 0 16
-0.88976014 1.3735026 -0.21955791 0 17
-0.88962603 1.3732957 -0.2042226 0 18
-0.89227599 1.3773863 -0.18951833 0 19
-0.88342136 1.3637177 -0.17250915 0 20
-0.89421648 1.3803818 -0.15933371 0 21
-0.88441479 1.3652511 -0.1424982 0 22
-0.88599527 1.3676909 -0.12766121 0 23
-0.88319939 1.3633749 -0.11223602 0 24
-0.88822466 1.3711324 -0.09778598 0 25
-0.88826442 1.3711938 -0.08271765 0 26
-0.88224423 1.3619006 -0.067200422 0 27
-0.88279164 1.3627455 -0.05228762 0 28
-0.88932317 1.3728281 -0.037618261 0 29
-0.8848691 1.3659525 -0.022455379 0 30
-0.89193177 1.3768549 -0.0075444444 0 31
-0.8923831 1.3775517 0.0075482619 0 32
-0.89595532 1.3830659 0.022736715 0 33
-0.87945509 1.357595 0.037200846 0 34
-0.88194078 1.3614321 0.052237224 0 35
-0.88575971 1.3673273 0.067468196 0 36
-0.88166326 1.3610038 0.082102939 0 37
-0.8903318 1.3743851 0.098017953 0 38
-0.88872492 1.3719046 0.11293819 0 39
-0.88525772 1.3665524 0.12755494 0 40
-0.88325715 1.3634641 0.14231168 0 41
-0.88982153 1.3735975 0.15855061 0 42
-0.88823169 1.3711432 0.17344849 0 43
-0.89169145 1.376484 0.18939419 0 44
-0.8897047 1.373417 0.20424066 0 45
-0.8918258 1.3766913 0.22006764 0 46
-0.88847166 1.3715136 0.23456009 0 47
-0.8892628 1.3727349 0.25014326 0 48
-0.88972014 1.373441 0.26569745 0 49
-0.89312857 1.3787024 0.28224626 0 50
-0.88802201 1.3708196 0.29612353 0 51
-0.89088553 1.37524 0.31267133 0 52
-0.89050114 1.3746465 0.32817742 0 53
-0.88553888 1.3669864 0.34195995 0 54
-0.88635272 1.3682427 0.35796031 0 55
-0.87987977 1.3582506 0.37098074 0 56
-0.89506179 1.3816867 0.3933534 0 57
-0.88679057 1.3689187 0.40561208 0 58
-0.89239711 1.3775733 0.42424396 0 59
-0.8813197 1.3604733 0.43492141 0 60
-0.88591439 1.3675661 0.45329493 0 61
-0.88559842 1.3670783 0.46931618 0 62
-0.88454664 1.3654547 0.48500842 0 63
-0.91295654 1.3720404 -0.49129805 0 0
-0.9170199 1.3781471 -0.47695112 0 1
-0.91422218 1.3739426 -0.45909998 0 2
-0.90371257 1.3581481 -0.43769747 0 3
-0.91480428 1.3748174 -0.42682722 0 4
-0.90655541 1.3624206 -0.40695894 0 5
-0.90642858 1.3622299 -0.3909578 0 6
-0.90819931 1.3648911 -0.37581629 0 7
-0.91031015 1.3680633 -0.3608146 0 8
-0.90742201 1.3637229 -0.34390882 0 9
-0.91511655 1.3752866 -0.33099166 0 10
-0.9146716 1.3746179 -0.31506327 0 11
-0.90645748 1.3622733 -0.29666278 0 12
-0.91656357 1.3774613 -0.28427798 0 13
-0.91355199 1.3729353 -0.26775256 0 14
-0.9138847 1.3734354 -0.25229958 0 15
-0.9109388 1.3690082 -0.23602943 0 16
-0.9127894 1.3717892 -0.22106151 0 17
-0.91592115 1.3764958 -0.20635778 0 18
-0.91268414 1.3716311 -0.19025625 0 19
-0.91157568 1.3699652 -0.17470421 0 20
-0.90766853 1.3640934 -0.15872988 0 21
-0.91545421 1.3757941 -0.14476262 0 22
-0.90358108 1.3579506 -0.12777948 0 23
-0.91578722 1.3762946 -0.11421797 0 24
-0.92101175 1.3841463 -0.099514268 0 25
-0.91021752 1.3679242 -0.083189316 0 26
-0.90948355 1.3668211 -0.067989908 0 27
-0.90536642 1.3606336 -0.052629769 0 28
-0.90569049 1.3611207 -0.037599783 0 29
-0.91323793 1.3724635 -0.022745304 0 30
-0.91406363 1.3737042 -0.0075881947 0 31
-0.91536725 1.3756634 0.0075990167 0 32
-0.91739225 1.3787067 0.022848772 0 33
-0.91942191 1.3817569 0.038169842 0 34
-0.91730368 1.3785735 0.05332369 0 35
-0.92085445 1.3839099 0.068839952 0 36
-0.90922111 1.3664267 0.083098248 0 37
-0.91089135 1.3689368 0.098420769 0 38
-0.90796733 1.3645424 0.11324267 0 39
-0.90871936 1.3656726 0.12850611 0 40
-0.90456706 1.3594323 0.14304101 0 41
-0.90966243 1.3670899 0.15907855 0 42
-0.91096795 1.3690519 0.17458774 0 43
-0.90768683 1.3641208 0.18921453 0 44
-0.91301292 1.3721253 0.20570256 0 45
-0.91890866 1.3809856 0.22254349 0 46
-0.90811694 1.3647672 0.23529826 0 47
-0.90591633 1.3614601 0.25009972 0 48
-0.91189569 1.3704462 0.26726711 0 49
-0.91815019 1.3798457 0.28477007 0 50
-0.90668249 1.3626115 0.29673642 0 51
-0.91151661 1.3698764 0.3139765 0 52
-0.92136717 1.3846804 0.33325246 0 53
-0.90938479 1.3666726 0.34465271 0 54
-0.91207093 1.3707095 0.36151251 0 55
-0.90792549 1.3644795 0.37570298 0 56
-0.90964407 1.3670623 0.39234471 0 57
-0.90978706 1.3672773 0.40840966 0 58
-0.90946203 1.3667887 0.42433465 0 59
-0.90555263 1.3609135 0.43858871 0 60
-0.9108128 1.3688188 0.45738786 0 61
-0.90817213 1.3648502 0.47234929 0 62
-0.91121876 1.3694289 0.49036288 0 63
-0.93477994 1.3680619 -0.49395201 0 0
-0.93643087 1.370478 -0.47824585 0 1
-0.93498969 1.3683689 -0.46104437 0 2
-0.93384385 1.3666918 -0.44411802 0 3
-0.92752272 1.3574408 -0.42494124 0 4
-0.93437958 1.367476 -0.41186982 0 5
-0.93844455 1.373425 -0.39745259 0 6
-0.9342314 1.367259 -0.37960267 0 7
-0.93285692 1.3652475 -0.36306983 0 8
-0.92534703 1.3542566 -0.34436506 0 9
-0.94149321 1.3778868 -0.33437842 0 10
-0.93365431 1.3664144 -0.31579053 0 11
-0.93351614 1.3662124 -0.29999766 0 12
-0.93410486 1.3670739 -0.28448322 0 13
-0.93247628 1.3646904 -0.2683605 0 14
-0.9249981 1.3537461 -0.2507531 0 15
-0.94134873 1.3776753 -0.23950131 0 16
-0.93984354 1.3754725 -0.22350052 0 17
-0.93704909 1.3713828 -0.20730296 0 18
-0.93298668 1.3654374 -0.19097403 0 19
-0.92704189 1.3567371 -0.17445782 0 20
-0.94321066 1.3804003 -0.16196476 0 21
-0.94061238 1.3765976 -0.14605314 0 22
-0.94191009 1.3784969 -0.1307928 0 23
-0.93371344 1.366501 -0.1143494 0 24
-0.9406274 1.3766197 -0.099797167 0 25
-0.9329617 1.3654009 -0.083727203 0 26
-0.93973255 1.3753101 -0.068981759 0 27
-0.9376328 1.3722371 -0.053520516 0 28
-0.93285376 1.3652428 -0.038027652 0 29
-0.93515968 1.3686177 -0.022870412 0 30
-0.93707097 1.3714148 -0.0076386207 0 31
-0.93948787 1.374952 0.0076583219 0 32
-0.92762542 1.3575912 0.022686152 0 33
-0.93641841 1.3704598 0.038172964 0 34
-0.93655729 1.370663 0.053459123 0 35
-0.93981671 1.3754332 0.068987936 0 36
-0.94569278 1.384033 0.084869727 0 37
-0.92884433 1.359375 0.098547027 0 38
-0.93518513 1.3686548 0.11452964 0 39
-0.93386078 1.3667166 0.12967508 0 40
-0.93745399 1.3719754 0.14556272 0 41
-0.93275779 1.3651024 0.16016982 0 42
-0.93599504 1.3698401 0.17614269 0 43
-0.94009328 1.375838 0.19242868 0 44
-0.93425369 1.3672917 0.20668453 0 45
-0.93704283 1.3713737 0.2228345 0 46
-0.92937183 1.360147 0.2364541 0 47
-0.93268812 1.3650005 0.25283778 0 48
-0.93110436 1.3626826 0.26796567 0 49
-0.93757439 1.3721515 0.28553987 0 50
-0.93231791 1.3644586 0.29961258 0 51
-0.93252778 1.3647658 0.31540948 0 52
-0.94007075 1.375805 0.33387321 0 53
-0.93513477 1.3685812 0.34800753 0 54
-0.9308567 1.3623202 0.36229134 0 55
-0.93014723 1.3612819 0.37794319 0 56
-0.93940383 1.3748289 0.39785886 0 57
-0.93466532 1.3678942 0.4119958 0 58
-0.93295968 1.3653978 0.42743215 0 59
-0.93696433 1.3712587 0.44560206 0 60
-0.93152016 1.3632911 0.45933357 0 61
-0.94970155 1.3898998 0.48502338 0 62
-0.92969173 1.3606153 0.49126333 0 63
-0.96239179 1.3719485 -0.49959031 0 0
-0.95667005 1.3637918 -0.47998142 0 1
-0.9686718 1.380901 -0.46924463 0 2
-0.96306682 1.3729107 -0.44995314 0 3
-0.96413326 1.374431 -0.43393844 0 4
-0.95775318 1.3653358 -0.41474101 0 5
-0.95445281 1.360631 -0.39711648 0 6
-0.96145451 1.3706123 -0.38378704 0 7
-0.95927423 1.3675042 -0.36677915 0 8
-0.96050906 1.3692645 -0.35115805 0 9
-0.95964062 1.3680265 -0.33482385 0 10
-0.97131383 1.3846674 -0.32274485 0 11
-0.95243686 1.3577571 -0.30069 0 12
-0.96488601 1.3755041 -0.28868473 0 13
-0.95855671 1.3664814 -0.27101001 0 14
-0.95898932 1.3670981 -0.25539124 0 15
-0.96248615 1.3720831 -0.24056841 0 16
-0.9635058 1.3735366 -0.22509407 0 17
-0.9526698 1.3580892 -0.20704859 0 18
-0.96198756 1.3713722 -0.19344391 0 19
-0.95707017 1.3643621 -0.17693819 0 20
-0.96715647 1.3787409 -0.1631531 0 21
-0.96273875 1.3724431 -0.14685726 0 22
-0.96351665 1.3735521 -0.13143782 0 23
-0.9607898 1.3696648 -0.11559403 0 24
-0.96206415 1.3714814 -0.1002747 0 25
-0.95823318 1.3660201 -0.084481321 0 26
-0.96741408 1.3791081 -0.069763638 0 27
-0.95666057 1.3637784 -0.053645354 0 28
-0.96777081 1.3796166 -0.038756561 0 29
-0.95651066 1.3635645 -0.022980779 0 30
-0.9634366 1.373438 -0.0077152918 0 31
-0.96387553 1.3740636 0.0077188066 0 32
-0.97023678 1.383132 0.023310559 0 33
-0.96529466 1.3760867 0.038657397 0 34
-0.96283132 1.372575 0.053991381 0 35
-0.96499157 1.3756547 0.069588944 0 36
-0.95046622 1.3549478 0.083796561 0 37
-0.96424955 1.3745968 0.10050248 0 38
-0.96417254 1.374487 0.11600101 0 39
-0.96121836 1.3702756 0.1311243 0 40
-0.95356089 1.3593595 0.14545725 0 41
-0.96109539 1.3701004 0.16213062 0 42
-0.96027052 1.3689245 0.17752987 0 43
-0.96324372 1.373163 0.1936965 0 44
-0.9641977 1.3745229 0.20955402 0 45
-0.95692754 1.3641589 0.22355725 0 46
-0.95609915 1.362978 0.23897201 0 47
-0.95427775 1.3603815 0.2541365 0 48
-0.96477926 1.3753519 0.2727693 0 49
-0.96434647 1.374735 0.28852329 0 50
-0.96150136 1.3706791 0.3035517 0 51
-0.9680835 1.3800623 0.32167149 0 52
-0.95530754 1.3618494 0.33331203 0 53
-0.96305507 1.372894 0.35208887 0 54
-0.95461923 1.3608682 0.36499929 0 55
-0.95315254 1.3587774 0.38047314 0 56
-0.963943 1.3741598 0.40106502 0 57
-0.96317858 1.3730701 0.41709042 0 58
-0.95477909 1.3610961 0.4297283 0 59
-0.95862037 1.3665721 0.44787574 0 60
-0.95688236 1.3640945 0.46353358 0 61
-0.97132939 1.3846896 0.48733634 0 62
-0.95808053 1.3658025 0.49735227 0 63
-0.98850006 1.3729455 -0.50434148 0 0
-0.99094927 1.3763473 -0.48865187 0 1
-0.98526031 1.3684458 -0.46909362 0 2
-0.98224682 1.3642602 -0.45104241 0 3
-0.98287994 1.3651396 -0.43478787 0 4
-0.99268734 1.3787613 -0.42249519 0 5
-0.97878742 1.3594555 -0.40025586 0 6
-0.98124301 1.362866 -0.38496748 0 7
-0.98452032 1.3674179 -0.36997503 0 8
-0.98267502 1.3648551 -0.35309941 0 9
-0.98575097 1.3691273 -0.33803439 0 10
-0.97852391 1.3590895 -0.31956342 0 11
-0.98548716 1.3687608 -0.30578741 0 12
-0.98796636 1.3722042 -0.29051986 0 13
-0.9826082 1.3647622 -0.27304474 0 14
-0.98299128 1.3652942 -0.2572929 0 15
-0.98226041 1.3642792 -0.2412996 0 16
-0.99356806 1.3799845 -0.22813568 0 17
-0.98795706 1.3721913 -0.21103469 0 18
-0.98918009 1.37389 -0.19550003 0 19
-0.97946048 1.3603902 -0.17797156 0 20
-0.98113328 1.3627136 -0.16267186 0 21
-0.99168068 1.3773631 -0.1486773 0 22
-0.99316841 1.3794295 -0.13315882 0 23
-0.99044073 1.375641 -0.11711739 0 24
-0.98958987 1.3744591 -0.10137443 0 25
-0.98145896 1.363166 -0.085044749 0 26
-0.98928761 1.3740393 -0.070117302 0 27
-0.98570693 1.369066 -0.054326024 0 28
-0.98738962 1.3714032 -0.038863968 0 29
-0.98332787 1.3657618 -0.023219837 0 30
-0.9805373 1.3618859 -0.0077175451 0 31
-0.98512608 1.3682593 0.0077536628 0 32
-0.98713416 1.3710483 0.023309717 0 33
-0.98762947 1.3717363 0.038873408 0 34
-0.98693013 1.370765 0.05439344 0 35
-0.98683202 1.3706287 0.069943257 0 36
-0.98617405 1.3697149 0.085453324 0 37
-0.99743646 1.3853574 0.10217825 0 38
-0.98225754 1.3642751 0.11614975 0 39
-0.98491478 1.3679658 0.13205221 0 40
-0.98534608 1.3685648 0.14772759 0 41
-0.9960131 1.3833805 0.16513893 0 42
-0.97916615 1.3599814 0.17791808 0 43
-0.97908574 1.3598698 0.193505 0 44
-0.98739451 1.37141 0.21091452 0 45
-0.98638386 1.3700062 0.22648609 0 46
-0.98578084 1.3691688 0.24216443 0 47
-0.98439175 1.3672394 0.25765944 0 48
-0.98267704 1.3648578 0.27306384 0 49
-0.97967535 1.3606887 0.28808179 0 50
-0.98637825 1.3699985 0.30606392 0 51
-0.98153955 1.3632779 0.32054827 0 52
-0.98521751 1.3683863 0.33785143 0 53
-0.98618525 1.3697304 0.3543607 0 54
-0.97941607 1.3603286 0.36805689 0 55
-0.99383014 1.3803486 0.38990572 0 56
-0.98771346 1.371853 0.40390599 0 57
-0.9970814 1.3848642 0.42436531 0 58
-0.98251617 1.3646343 0.43462694 0 59
-0.98431194 1.3671285 0.45199072 0 60
-0.98469841 1.3676654 0.46882612 0 61
-0.98475122 1.3677386 0.48559549 0 62
-0.97643751 1.3561916 0.49818704 0 63
-1.0070555 1.363055 -0.50521892 0 0
-1.020305 1.3809882 -0.4947165 0 1
-1.012202 1.3700207 -0.47386426 0 2
-1.0147796 1.3735094 -0.45819116 0 3
-1.0095291 1.366403 -0.4391107 0 4
-1.0072038 1.3632556 -0.42150706 0 5
-1.0184586 1.3784891 -0.40951607 0 6
-1.0161804 1.3754054 -0.39200938 0 7
-1.0092583 1.3660363 -0.37293082 0 8
-1.0144334 1.3730409 -0.35841718 0 9
-1.013903 1.372323 -0.34187576 0 10
-1.0148453 1.3735983 -0.32588446 0 11
-1.0096892 1.3666197 -0.30805948 0 12
-1.007455 1.3635957 -0.29129803 0 13
-1.0102617 1.3673946 -0.27603588 0 14
-1.0012347 1.3551763 -0.25768682 0 15
-1.0181475 1.378068 -0.24593417 0 16
-1.0107828 1.3680999 -0.22820844 0 17
-1.0125439 1.3704835 -0.2126708 0 18
-1.0185368 1.378595 -0.19793674 0 19
-1.0060109 1.361641 -0.17973994 0 20
-1.0104315 1.3676244 -0.16472881 0 21
-1.0112205 1.3686923 -0.14907229 0 22
-1.0070179 1.363004 -0.13275853 0 23
-1.0104346 1.3676286 -0.11748417 0 24
-1.0153881 1.3743331 -0.10227831 0 25
-1.0070831 1.3630923 -0.085806251 0 26
-1.0156866 1.3747373 -0.070784897 0 27
-1.0103375 1.3674971 -0.054752607 0 28
-1.0140151 1.3724748 -0.039244719 0 29
-1.003999 1.358918 -0.023311613 0 30
-1.0090337 1.3657323 -0.0078090634 0 31
-1.0074836 1.3636343 0.0077970675 0 32
-1.0064532 1.3622396 0.023368595 0 33
-1.0058396 1.3614092 0.038928308 0 34
-1.0067662 1.3626633 0.054559071 0 35
-1.0032651 1.3579246 0.069919214 0 36
-1.0119617 1.3696954 0.086221918 0 37
-1.0118163 1.3694987 0.10191852 0 38
-1.0070553 1.3630546 0.11709125 0 39
-1.0097864 1.3667512 0.1331235 0 40
-1.0088267 1.3654523 0.14871942 0 41
-1.0123719 1.3702508 0.16504516 0 42
-1.0146787 1.3733729 0.18128859 0 43
-1.0123383 1.3702053 0.19673218 0 44
-1.0193318 1.379671 0.2140965 0 45
-1.0105947 1.3678452 0.22816595 0 46
-1.0052942 1.360671 0.24282947 0 47
-1.0196749 1.3801353 0.26243278 0 48
-0.99737287 1.3499494 0.27251422 0 49
-1.0100827 1.3671523 0.29205784 0 50
-1.0217584 1.3829554 0.31174186 0 51
-1.0142512 1.3727944 0.32569373 0 52
-1.0070828 1.3630919 0.3395761 0 53
-1.0207036 1.3815277 0.36063257 0 54
-1.0199218 1.3804696 0.37687111 0 55
-1.0175123 1.3772084 0.39252323 0 56
-1.0143248 1.3728939 0.40785387 0 57
-1.0133249 1.3715405 0.42406866 0 58
-1.0120106 1.3697617 0.44019008 0 59
-1.0178713 1.3776941 0.45958716 0 60
-1.0191795 1.3794649 0.4771308 0 61
-1.0073545 1.3634596 0.48843715 0 62
-1.0147872 1.3735198 0.50909775 0 63
-1.0337558 1.3637844 -0.51016229 0 0
-1.0390586 1.3707801 -0.49559918 0 1
-1.0307832 1.3598628 -0.47469899 0 2
-1.0325897 1.362246 -0.45863476 0 3
-1.0434138 1.3765258 -0.44645321 0 4
-1.0373825 1.368569 -0.42706171 0 5
-1.0397254 1.3716599 -0.41125429 0 6
-1.0439785 1.3772707 -0.39616987 0 7
-1.0395707 1.3714558 -0.37787157 0 8
-1.0466194 1.3807548 -0.3637628 0 9
-1.0452513 1.3789499 -0.34670237 0 10
-1.0273886 1.3553845 -0.32453594 0 11
-1.0399687 1.3719809 -0.31212702 0 12
-1.0389981 1.3707004 -0.29552272 0 13
-1.0374055 1.3685993 -0.27883315 0 14
-1.0337777 1.3638133 -0.2617265 0 15
-1.046755 1.3809335 -0.24872385 0 16
-1.0365713 1.3674986 -0.23021689 0 17
-1.0369198 1.3679587 -0.21424142 0 18
-1.033306 1.363191 -0.19753446 0 19
-1.0337375 1.3637605 -0.1816839 0 20
-1.0347576 1.3651061 -0.16594552 0 21
-1.0435512 1.376707 -0.15133139 0 22
-1.0401802 1.37226 -0.13489568 0 23
-1.029884 1.3586764 -0.11779413 0 24
-1.0422372 1.3749735 -0.10327191 0 25
-1.0380354 1.3694303 -0.087002151 0 26
-1.0391048 1.3708411 -0.071236804 0 27
-1.043246 1.3763044 -0.055614661 0 28
-1.0375757 1.3688239 -0.039502155 0 29
-1.0368041 1.367806 -0.023680996 0 30
-1.039849 1.371823 -0.0079164011 0 31
-1.0371064 1.3682048 0.0078955218 0 32
-1.0332203 1.363078 0.023599142 0 33
-1.0372548 1.3684006 0.03948994 0 34
-1.0315771 1.3609102 0.054992598 0 35
-1.0452191 1.3789073 0.071655966 0 36
-1.0273448 1.3553267 0.086106122 0 37
-1.0292149 1.3577938 0.10198157 0 38
-1.038005 1.3693901 0.11872298 0 39
-1.0367388 1.3677198 0.13444938 0 40
-1.0436058 1.3767792 0.15133932 0 41
-1.0387255 1.3703407 0.16658185 0 42
-1.0345675 1.3648553 0.18182975 0 43
-1.0359715 1.3667076 0.19804402 0 44
-1.0335721 1.363542 0.2135497 0 45
-1.0367793 1.3677732 0.23026308 0 46
-1.0426517 1.3755202 0.24774885 0 47
-1.0323421 1.3619193 0.26136303 0 48
-1.0325799 1.362233 0.27753612 0 49
-1.0423843 1.3751675 0.29648584 0 50
-1.029202 1.3577769 0.30889559 0 51
-1.0377862 1.3691016 0.32782039 0 52
-1.0384248 1.3699441 0.34443811 0 53
-1.0345072 1.3647757 0.35955307 0 54
-1.0433109 1.37639 0.37923107 0 55
-1.0401336 1.3721983 0.39471081 0 56
-1.0390629 1.3707858 0.41099221 0 57
-1.0352671 1.3657783 0.42619085 0 58
-1.0340908 1.3642262 0.44246408 0 59
-1.0486214 1.3833959 0.46575543 0 60
-1.0327547 1.3624637 0.47560692 0 61
-1.0359657 1.3666998 0.494124 0 62
-1.0410908 1.3734611 0.51378214 0 63
-1.0672134 1.3725351 -0.5183056 0 0
-1.0578179 1.3604517 -0.49653023 0 1
-1.0515032 1.3523302 -0.476547 0 2
-1.0636036 1.3678925 -0.46490392 0 3
-1.0646954 1.3692967 -0.44832087 0 4
-1.0549322 1.3567404 -0.42738616 0 5
-1.0567702 1.3591042 -0.41135475 0 6
-1.0606778 1.3641297 -0.39611158 0 7
-1.0613395 1.3649807 -0.37965465 0 8
-1.0668861 1.3721141 -0.36491501 0 9
-1.064381 1.3688923 -0.34743807 0 10
-1.06642 1.3715146 -0.33151296 0 11
-1.0646183 1.3691976 -0.31444827 0 12
-1.0617397 1.3654953 -0.29719284 0 13
-1.0647345 1.369347 -0.28163159 0 14
-1.0711391 1.3775839 -0.26687667 0 15
-1.057361 1.3598639 -0.24725203 0 16
-1.0600175 1.3632803 -0.23168355 0 17
-1.0577023 1.3603028 -0.21506307 0 18
-1.0669705 1.3722225 -0.20072916 0 19
-1.058376 1.3611693 -0.18305866 0 20
-1.0595114 1.3626297 -0.16721557 0 21
-1.0604782 1.363873 -0.15134262 0 22
-1.0626863 1.3667127 -0.13562468 0 23
-1.0629928 1.3671069 -0.11964922 0 24
-1.0667695 1.3719641 -0.10402325 0 25
-1.0559886 1.3580987 -0.08710061 0 26
-1.0640051 1.3684089 -0.071784876 0 27
-1.0589345 1.3618875 -0.055554058 0 28
-1.0579346 1.3606017 -0.039637294 0 29
-1.0618726 1.3656663 -0.023868211 0 30
-1.0684195 1.3740861 -0.008004671 0 31
-1.0668226 1.3720325 0.0079927081 0 32
-1.0582054 1.3609499 0.023785781 0 33
-1.0650978 1.3698143 0.039905678 0 34
-1.0606472 1.3640903 0.055643916 0 35
-1.0573844 1.359894 0.071338199 0 36
-1.0626203 1.3666279 0.087647617 0 37
-1.071239 1.3777122 0.10445908 0 38
-1.0638226 1.3681742 0.11974262 0 39
-1.0704081 1.3766437 0.13661017 0 40
-1.0554209 1.3573687 0.15062086 0 41
-1.0669188 1.3721563 0.16838464 0 42
-1.0629194 1.3670125 0.18384449 0 43
-1.0626923 1.3667206 0.19992432 0 44
-1.0601258 1.3634197 0.21555583 0 45
-1.0635128 1.3677758 0.23244753 0 46
-1.0636842 1.3679962 0.24873066 0 47
-1.068759 1.3745227 0.26628363 0 48
-1.063832 1.3681864 0.28139287 0 49
-1.066258 1.3713062 0.29845753 0 50
-1.0645171 1.3690673 0.31441838 0 51
-1.0571548 1.3595988 0.32863274 0 52
-1.0623873 1.3663282 0.34678727 0 53
-1.067001 1.3722619 0.36495429 0 54
-1.0638036 1.3681496 0.38053605 0 55
-1.0701954 1.3763702 0.39966595 0 56
-1.0650978 1.3698143 0.41459635 0 57
-1.0683297 1.3739706 0.43281388 0 58
-1.0721176 1.3788422 0.45144618 0 59
-1.0636569 1.367961 0.4649272 0 60
-1.0578806 1.3605322 0.47943729 0 61
-1.0632521 1.3674403 0.49908096 0 62
-1.0599226 1.3631583 0.51476467 0 63
-1.0905749 1.367543 -0.52144504 0 0
-1.0871264 1.3632187 -0.50238103 0 1
-1.0963396 1.3747717 -0.48916879 0 2
-1.0870868 1.363169 -0.46780631 0 3
-1.0869195 1.3629594 -0.45058781 0 4
-1.0972053 1.3758572 -0.43762511 0 5
-1.0927018 1.3702101 -0.41875121 0 6
-1.09188 1.3691795 -0.40144625 0 7
-1.0899878 1.3668066 -0.38386139 0 8
-1.086494 1.3624257 -0.3658638 0 9
-1.0873322 1.3634769 -0.34943068 0 10
-1.0940629 1.3719169 -0.33483666 0 11
-1.089317 1.3659656 -0.3167583 0 12
-1.0844047 1.3598058 -0.29883412 0 13
-1.0939081 1.3717227 -0.28486514 0 14
-1.0940365 1.3718836 -0.26835826 0 15
-1.0827402 1.3577186 -0.24926387 0 16
-1.0911486 1.3682624 -0.23479269 0 17
-1.095499 1.3737177 -0.2192971 0 18
-1.0920584 1.3694034 -0.2022658 0 19
-1.09463 1.372628 -0.18639581 0 20
-1.0923494 1.3697683 -0.16972707 0 21
-1.0928384 1.3703814 -0.15354437 0 22
-1.0823739 1.3572592 -0.13599703 0 23
-1.0868961 1.3629298 -0.12044423 0 24
-1.0986682 1.3776916 -0.10547386 0 25
-1.0847017 1.3601781 -0.088082731 0 26
-1.0895075 1.3662045 -0.072366558 0 27
-1.0979999 1.3768537 -0.056711029 0 28
-1.0914069 1.3685863 -0.04025783 0 29
-1.0933539 1.3710278 -0.024195058 0 30
-1.0927329 1.370249 -0.0080599841 0 31
-1.0870502 1.3631232 0.008018068 0 32
-1.093531 1.3712499 0.024198979 0 33
-1.0970412 1.3756516 0.040465657 0 34
-1.0920404 1.3693807 0.056403223 0 35
-1.0880631 1.3643934 0.072270624 0 36
-1.0850461 1.3606101 0.0881107 0 37
-1.0897043 1.3664513 0.10461332 0 38
-1.1053685 1.3860936 0.12249126 0 39
-1.0919627 1.3692832 0.13720182 0 40
-1.0919867 1.3693132 0.15342468 0 41
-1.0885756 1.3650359 0.1691407 0 42
-1.0931582 1.3707825 0.1861452 0 43
-1.0963159 1.3747419 0.20305432 0 44
-1.0905145 1.3674673 0.21829928 0 45
-1.0899465 1.366755 0.23453403 0 46
-1.1008801 1.3804654 0.25343996 0 47
-1.0934972 1.3712075 0.268226 0 48
-1.0881152 1.3644586 0.28335661 0 49
-1.0943905 1.3723277 0.30158594 0 50
-1.0922476 1.3696405 0.31761047 0 51
-1.0916747 1.3689221 0.33410576 0 52
-1.0872396 1.3633606 0.34940091 0 53
-1.0823627 1.3572451 0.36447263 0 54
-1.0959178 1.3742429 0.38594982 0 55
-1.0879399 1.3642387 0.39999765 0 56
-1.0834303 1.3585838 0.41519812 0 57
-1.1017193 1.3815176 0.43942556 0 58
-1.0885717 1.365031 0.4512727 0 59
-1.0898598 1.3666464 0.46899965 0 60
-1.0911919 1.3683167 0.48687196 0 61
-1.09859 1.3775938 0.50767863 0 62
-1.0906655 1.3676565 0.52148837 0 63
-1.1127565 1.3606939 -0.52401125 0 0
-1.1147826 1.3631715 -0.50737703 0 1
-1.1190112 1.3683423 -0.4917399 0 2
-1.1137049 1.3618537 -0.4720189 0 3
-1.118166 1.3673087 -0.45653671 0 4
-1.1278124 1.3791045 -0.44303557 0 5
-1.1174707 1.3664587 -0.42177224 0 6
-1.1096687 1.3569182 -0.40182161 0 7
-1.1231172 1.3733631 -0.38955185 0 8
-1.116275 1.3649964 -0.3702122 0 9
-1.1268398 1.3779151 -0.35665497 0 10
-1.1190956 1.3684455 -0.33732247 0 11
-1.1214392 1.3713113 -0.3211714 0 12
-1.1180696 1.367191 -0.3034555 0 13
-1.1176673 1.366699 -0.28665429 0 14
-1.1247101 1.375311 -0.2717135 0 15
-1.11798 1.3670813 -0.25348747 0 16
-1.1188982 1.368204 -0.23712569 0 17
-1.1180968 1.3672241 -0.22043861 0 18
-1.1256508 1.3764613 -0.2053372 0 19
-1.1128228 1.360775 -0.18663031 0 20
-1.1073536 1.3540872 -0.16945845 0 21
-1.1278754 1.3791816 -0.15607254 0 22
-1.1108695 1.3583865 -0.13746829 0 23
-1.1154239 1.3639557 -0.12173778 0 24
-1.1151556 1.3636276 -0.10543897 0 25
-1.1100211 1.3573492 -0.088776723 0 26
-1.1182556 1.3674183 -0.073153682 0 27
-1.1117218 1.3594286 -0.056552093 0 28
-1.1165409 1.3653216 -0.040562592 0 29
-1.108452 1.3554302 -0.024158511 0 30
-1.1118513 1.3595871 -0.0080770776 0 31
-1.12544 1.3762035 0.0081757931 0 32
-1.1183845 1.3675759 0.024374988 0 33
-1.1118443 1.3595785 0.04039197 0 34
-1.1225007 1.3726091 0.057100404 0 35
-1.1208792 1.3706264 0.073325306 0 36
-1.1224071 1.3724948 0.089767322 0 37
-1.1190907 1.3684394 0.10581104 0 38
-1.1134056 1.3614877 0.12151749 0 39
-1.1216804 1.3716061 0.13880612 0 40
-1.1186154 1.3678583 0.15479115 0 41
-1.1178285 1.3668962 0.17106144 0 42
-1.1230626 1.3732965 0.18834764 0 43
-1.1222615 1.3723168 0.20471895 0 44
-1.1224158 1.3725054 0.22129013 0 45
-1.1210198 1.3707986 0.23757535 0 46
-1.1208738 1.3706199 0.2541436 0 47
-1.1170448 1.3659378 0.26986167 0 48
-1.1181631 1.3673053 0.28678146 0 49
-1.1170839 1.3659855 0.30318797 0 50
-1.1163812 1.3651263 0.31972283 0 51
-1.1168704 1.3657246 0.33665174 0 52
-1.1166728 1.3654828 0.35343704 0 53
-1.1237166 1.374096 0.37268022 0 54
-1.1283784 1.3797966 0.39137673 0 55
-1.1246002 1.3751765 0.40722841 0 56
-1.1188558 1.3681523 0.422295 0 57
-1.1124997 1.3603799 0.43702033 0 58
-1.1190897 1.3684382 0.45691386 0 59
-1.1181298 1.3672646 0.47389433 0 60
-1.1221601 1.3721927 0.49312365 0 61
-1.1286418 1.3801187 0.51368487 0 62
-1.1220658 1.3720776 0.52839512 0 63
-1.1482124 1.3693411 -0.53273833 0 0
-1.1545411 1.3768886 -0.51772755 0 1
-1.1407171 1.3604023 -0.49389002 0 2
-1.1387384 1.3580426 -0.47551531 0 3
-1.1443825 1.3647736 -0.46035397 0 4
-1.1523293 1.3742509 -0.44599462 0 5
-1.1433101 1.3634946 -0.42516458 0 6
-1.14556 1.366178 -0.40870416 0 7
-1.1555454 1.3780862 -0.39489213 0 8
-1.1434913 1.3637108 -0.37364882 0 9
-1.1410104 1.3607521 -0.35581726 0 10
-1.1441026 1.3644397 -0.33977726 0 11
-1.1492757 1.370609 -0.32429224 0 12
-1.1465743 1.3673875 -0.30660528 0 13
-1.1450615 1.3655834 -0.28935164 0 14
-1.1433637 1.3635587 -0.2721487 0 15
-1.1567285 1.3794973 -0.25840753 0 16
-1.1481947 1.36932 -0.23974794 0 17
-1.1449115 1.3654046 -0.2223983 0 18
-1.1505206 1.3720939 -0.20678052 0 19
-1.1540375 1.3762881 -0.19068976 0 20
-1.1578006 1.3807759 -0.17456692 0 21
-1.1460437 1.3667548 -0.15624918 0 22
-1.1445848 1.3650149 -0.13955286 0 23
-1.1481153 1.3692253 -0.12345883 0 24
-1.1326883 1.3508273 -0.1055182 0 25
-1.1493912 1.3707469 -0.090570539 0 26
-1.1463624 1.3671348 -0.073887043 0 27
-1.1472782 1.368227 -0.057500627 0 28
-1.1593515 1.3826253 -0.041497067 0 29
-1.1470475 1.3679519 -0.024631223 0 30
-1.1409824 1.3607187 -0.0081665339 0 31
-1.1499285 1.3713876 0.0082305642 0 32
-1.1506457 1.3722432 0.024708491 0 33
-1.1425289 1.362563 0.040894933 0 34
-1.1579977 1.381011 0.058037885 0 35
-1.1492912 1.3706278 0.074075818 0 36
-1.1480827 1.3691865 0.090467438 0 37
-1.1437236 1.3639878 0.10654622 0 38
-1.1459117 1.3665974 0.12322187 0 39
-1.1445785 1.3650074 0.13955209 0 40
-1.1391524 1.3585364 0.15530963 0 41
-1.1432011 1.3633648 0.1723657 0 42
-1.1458949 1.3665773 0.18934429 0 43
-1.147819 1.3688719 0.20629497 0 44
-1.1467696 1.3676205 0.22275923 0 45
-1.1527026 1.374696 0.24068919 0 46
-1.1447175 1.3651732 0.25572434 0 47
-1.1479247 1.3689981 0.27323434 0 48
-1.1403915 1.360014 0.28817156 0 49
-1.1380448 1.3572154 0.30432439 0 50
-1.1436464 1.3638958 0.32270384 0 51
-1.1443484 1.3647329 0.33985025 0 52
-1.1502587 1.3717815 0.35870129 0 53
-1.1596819 1.3830196 0.37893933 0 54
-1.1493386 1.3706841 0.39277104 0 55
-1.1495634 1.3709524 0.41013244 0 56
-1.1447701 1.3652359 0.42570758 0 57
-1.1480947 1.3692007 0.44435564 0 58
-1.1469262 1.3678071 0.4613772 0 59
-1.1457989 1.3664629 0.47846362 0 60
-1.1459146 1.3666008 0.4961403 0 61
-1.1507033 1.3723117 0.51600659 0 62
-1.1447284 1.3651862 0.53112185 0 63
-1.1754386 1.3673061 -0.53752917 0 0
-1.1766391 1.3687024 -0.52005041 0 1
-1.1756259 1.3675238 -0.50168574 0 2
-1.1727571 1.3641869 -0.48267958 0 3
-1.1718817 1.3631685 -0.46463808 0 4
-1.1701889 1.3611994 -0.44639498 0 5
-1.170483 1.3615415 -0.42901111 0 6
-1.1807662 1.3735033 -0.41520774 0 7
-1.1800482 1.3726681 -0.39746746 0 8
-1.1727955 1.3642315 -0.37771428 0 9
-1.1708302 1.3619455 -0.35986671 0 10
-1.1796081 1.3721561 -0.34528479 0 11
-1.1721747 1.3635093 -0.3259981 0 12
-1.1708167 1.3619295 -0.3085863 0 13
-1.1714693 1.3626889 -0.29176852 0 14
-1.1714073 1.3626168 -0.27481481 0 15
-1.1696179 1.3605351 -0.25753012 0 16
-1.175438 1.3673054 -0.24190754 0 17
-1.1712964 1.3624877 -0.22425216 0 18
-1.1715519 1.3627849 -0.20753297 0 19
-1.1770419 1.3691709 -0.19169451 0 20
-1.1741807 1.3658428 -0.17449117 0 21
-1.1685513 1.3592945 -0.15702714 0 22
-1.1825652 1.3755959 -0.14211051 0 23
-1.1707845 1.3618921 -0.12408633 0 24
-1.1667219 1.3571665 -0.10712594 0 25
-1.175289 1.3671319 -0.091279678 0 26
-1.1775497 1.3697616 -0.074805908 0 27
-1.1758842 1.3678243 -0.058086973 0 28
-1.183357 1.3765168 -0.041747302 0 29
-1.1800214 1.3726369 -0.024974959 0 30
-1.1778091 1.3700635 -0.0083089108 0 31
-1.175043 1.3668457 0.0082893958 0 32
-1.1721624 1.363495 0.024808623 0 33
-1.1784915 1.3708572 0.041575655 0 34
-1.1728508 1.3642958 0.057937127 0 35
-1.1657721 1.3560615 0.074057713 0 36
-1.1742665 1.3659425 0.09120027 0 37
-1.1694776 1.3603719 0.10737896 0 38
-1.1689193 1.3597226 0.12388865 0 39
-1.1751022 1.3669147 0.14121367 0 40
-1.1905693 1.3849064 0.15998584 0 41
-1.1713777 1.3625822 0.17407462 0 42
-1.1777642 1.3700112 0.19181216 0 43
-1.1775292 1.3697379 0.2085918 0 44
-1.1718335 1.3631124 0.22435501 0 45
-1.1743782 1.3660724 0.24168941 0 46
-1.1699843 1.3609614 0.25761083 0 47
-1.1798437 1.3724301 0.27679399 0 48
-1.172568 1.3639667 0.29204211 0 49
-1.1609313 1.3504306 0.30598086 0 50
-1.1847396 1.3781252 0.32949257 0 51
-1.1847341 1.3781188 0.34678519 0 52
-1.1768806 1.3689833 0.36172631 0 53
-1.1801424 1.3727776 0.38008046 0 54
-1.171764 1.3630315 0.39467713 0 55
-1.1737972 1.3653967 0.41275716 0 56
-1.1672841 1.3578204 0.42783859 0 57
-1.181513 1.3743719 0.4507148 0 58
-1.1781492 1.370459 0.46712306 0 59
-1.1770395 1.3691682 0.48444209 0 60
-1.1786572 1.3710499 0.50297928 0 61
-1.1730981 1.3645835 0.51848543 0 62
-1.1767806 1.368867 0.5381428 0 63
-1.1981285 1.3595207 -0.54021955 0 0
-1.2013786 1.3632087 -0.5235365 0 1
-1.2039334 1.3661075 -0.50655884 0 2
-1.2110097 1.374137 -0.49143186 0 3
-1.2088385 1.3716733 -0.4725678 0 4
-1.2118473 1.3750875 -0.45580187 0 5
-1.2130431 1.3764445 -0.43837371 0 6
-1.2105323 1.3735954 -0.41970363 0 7
-1.2057118 1.3681257 -0.40041488 0 8
-1.209584 1.3725194 -0.38409796 0 9
-1.2074393 1.3700857 -0.36591303 0 10
-1.2164969 1.3803635 -0.35108766 0 11
-1.2036581 1.3657953 -0.33005837 0 12
-1.2026311 1.3646299 -0.31252521 0 13
-1.1980494 1.359431 -0.29420298 0 14
-1.2031692 1.3652403 -0.27830675 0 15
-1.1941421 1.3549973 -0.25924173 0 16
-1.208811 1.3716422 -0.24528609 0 17
-1.2078375 1.3705375 -0.22800438 0 18
-1.2102946 1.3733257 -0.21138857 0 19
-1.2001156 1.3617755 -0.19271064 0 20
-1.2029229 1.364961 -0.1762549 0 21
-1.1980288 1.3594075 -0.15873 0 22
-1.2082711 1.3710296 -0.14316285 0 23
-1.2136813 1.3771685 -0.12682839 0 24
-1.208809 1.37164 -0.10943338 0 25
-1.2121964 1.3754836 -0.092825495 0 26
-1.2136495 1.3771325 -0.076017722 0 27
-1.2099572 1.3729428 -0.058931712 0 28
-1.2024949 1.3644753 -0.041827384 0 29
-1.205371 1.3677388 -0.025153618 0 30
-1.2058784 1.3683145 -0.0083875963 0 31
-1.2022707 1.364221 0.0083625028 0 32
-1.2033967 1.3654987 0.02511242 0 33
-1.2072673 1.3698905 0.041993387 0 34
-1.2089505 1.3718005 0.058882676 0 35
-1.2107013 1.3737872 0.075833052 0 36
-1.2010084 1.3627887 0.091968767 0 37
-1.2082759 1.371035 0.10938512 0 38
-1.2025055 1.3644873 0.12566054 0 39
-1.2080089 1.3707321 0.14313178 0 40
-1.2052284 1.367577 0.1596839 0 41
-1.2056984 1.3681102 0.17666154 0 42
-1.1982837 1.3596969 0.19241649 0 43
-1.2048935 1.3671969 0.2104452 0 44
-1.1960348 1.357145 0.22577637 0 45
-1.2162743 1.3801109 0.2468005 0 46
-1.2044472 1.3666905 0.2614789 0 47
-1.2030531 1.3651087 0.2782799 0 48
-1.2038348 1.3659956 0.29562366 0 49
-1.2078177 1.3705151 0.31387302 0 50
-1.2038494 1.3660123 0.33011082 0 51
-1.2028654 1.3648957 0.34715351 0 52
-1.1974818 1.3587869 0.36289543 0 53
-1.2048672 1.3671672 0.38260019 0 54
-1.2140032 1.3775338 0.40316841 0 55
-1.2060453 1.3685039 0.41814798 0 56
-1.2142185 1.3777782 0.43879849 0 57
-1.2001765 1.3618445 0.4514122 0 58
-1.199248 1.3607911 0.46881863 0 59
-1.2032506 1.3653328 0.48828322 0 60
-1.2110653 1.3742001 0.50955963 0 61
-1.2013625 1.3631904 0.52352947 0 62
-1.1951782 1.356173 0.53888929 0 63
-1.2330399 1.3649281 -0.54835159 0 0
-1.2379913 1.3704091 -0.53210789 0 1
-1.2360786 1.3682919 -0.51296604 0 2
-1.2309163 1.3625773 -0.49267358 0 3
-1.2364405 1.3686924 -0.4767428 0 4
-1.2315849 1.3633176 -0.45688576 0 5
-1.2362454 1.3684765 -0.44064415 0 6
-1.2372811 1.3696229 -0.42310661 0 7
-1.2312616 1.3629596 -0.40330356 0 8
-1.2300535 1.3616225 -0.38525215 0 9
-1.2311137 1.3627958 -0.36798134 0 10
-1.234519 1.3665655 -0.35141262 0 11
-1.2357899 1.3679723 -0.33423141 0 12
-1.2327176 1.3645713 -0.31595939 0 13
-1.234257 1.3662754 -0.29894617 0 14
-1.2304333 1.3620428 -0.28071794 0 15
-1.2281306 1.3594937 -0.2629714 0 16
-1.2402925 1.3729566 -0.2482297 0 17
-1.2319593 1.363732 -0.22937503 0 18
-1.2272669 1.3585377 -0.21141924 0 19
-1.2303834 1.3619875 -0.19486694 0 20
-1.2323776 1.3641951 -0.17809932 0 21
-1.2363591 1.3686024 -0.16156656 0 22
-1.2355043 1.367656 -0.14438605 0 23
-1.2381198 1.3705515 -0.12761143 0 24
-1.2328815 1.3647529 -0.11008511 0 25
-1.229844 1.3613904 -0.092887953 0 26
-1.2371261 1.3694514 -0.076427668 0 27
-1.2346289 1.3666872 -0.059310358 0 28
-1.23516 1.3672749 -0.042375591 0 29
-1.2344098 1.3664446 -0.025407048 0 30
-1.2276183 1.3589267 -0.0084219454 0 31
-1.2380651 1.3704909 0.0084936153 0 32
-1.2272427 1.3585109 0.025259532 0 33
-1.2411423 1.3738971 0.042580828 0 34
-1.2338369 1.3658104 0.059272312 0 35
-1.2380557 1.3704804 0.07648509 0 36
-1.2245344 1.3555129 0.092486925 0 37
-1.2329117 1.3647863 0.1100878 0 38
-1.2330062 1.3648908 0.12708437 0 39
-1.2244174 1.3553834 0.14309041 0 40
-1.228138 1.359502 0.16049223 0 41
-1.2430763 1.3760381 0.17964545 0 42
-1.2386484 1.3711365 0.19617595 0 43
-1.225459 1.3565363 0.21110778 0 44
-1.2385833 1.3710644 0.23060833 0 45
-1.2287602 1.3601906 0.24592163 0 46
-1.2325581 1.3643948 0.26391944 0 47
-1.2382869 1.3707362 0.28250968 0 48
-1.2355276 1.3676819 0.29925391 0 49
-1.231961 1.3637339 0.31576547 0 50
-1.2330642 1.3649551 0.33349422 0 51
-1.2311163 1.3627988 0.35044405 0 52
-1.2314572 1.3631761 0.36808404 0 53
-1.2332786 1.3651924 0.38626224 0 54
-1.2397666 1.3723743 0.4060894 0 55
-1.2320714 1.3638561 0.42132509 0 56
-1.2278556 1.3591893 0.43765372 0 57
-1.2375526 1.3699236 0.45909965 0 58
-1.239324 1.3718843 0.47785461 0 59
-1.2278811 1.3592175 0.49145874 0 60
-1.2442393 1.3773255 0.51635271 0 61
-1.2310203 1.3626925 0.52911168 0 62
-1.2271256 1.3583813 0.54572141 0 63
-1.2672223 1.3685559 -0.55602711 0 0
-1.2695044 1.3710206 -0.5383659 0 1
-1.2679652 1.3693583 -0.51917177 0 2
-1.2556291 1.3560357 -0.49585342 0 3
-1.2701577 1.3717262 -0.48320317 0 4
-1.2517383 1.3518338 -0.45816088 0 5
-1.2636678 1.3647172 -0.44440347 0 6
-1.2692933 1.3707926 -0.42825717 0 7
-1.2665799 1.3678622 -0.40933183 0 8
-1.2632403 1.3642555 -0.39036262 0 9
-1.2669898 1.368305 -0.37364742 0 10
-1.2675726 1.3689343 -0.35600299 0 11
-1.2610412 1.3618805 -0.33650622 0 12
-1.2645453 1.365665 -0.31978881 0 13
-1.2641474 1.3652352 -0.30209693 0 14
-1.2657866 1.3670055 -0.28492713 0 15
-1.2653365 1.3665195 -0.26731986 0 16
-1.2622819 1.3632205 -0.24925686 0 17
-1.2682307 1.369645 -0.23297495 0 18
-1.2679846 1.3693793 -0.21551657 0 19
-1.2637557 1.3648121 -0.1974795 0 20
-1.2708994 1.3725271 -0.1812136 0 21
-1.2732431 1.3750583 -0.16416454 0 22
-1.2678806 1.3692669 -0.14619097 0 23
-1.2641085 1.3651932 -0.12855011 0 24
-1.263887 1.3649541 -0.11134653 0 25
-1.2567425 1.3572382 -0.093651958 0 26
-1.2626914 1.3636628 -0.076965317 0 27
-1.2528871 1.3530744 -0.059383698 0 28
-1.2600977 1.3608618 -0.042653829 0 29
-1.2606733 1.3614833 -0.025601098 0 30
-1.2691653 1.3706542 -0.0085906973 0 31
-1.2641844 1.365275 0.0085569825 0 32
-1.2713422 1.3730054 0.025817756 0 33
-1.2669247 1.3682346 0.04288492 0 34
-1.2680184 1.3694158 0.060100883 0 35
-1.2658066 1.367027 0.077155195 0 36
-1.2748742 1.3768197 0.095003128 0 37
-1.2707083 1.3723208 0.11194747 0 38
-1.2651471 1.3663148 0.12865572 0 39
-1.260662 1.3614711 0.14535865 0 40
-1.2665323 1.3678108 0.16329931 0 41
-1.2784541 1.3806859 0.18229081 0 42
-1.2702823 1.3718606 0.19849937 0 43
-1.2702664 1.3718435 0.2159044 0 44
-1.2704375 1.3720282 0.23338033 0 45
-1.2679725 1.3693662 0.25038055 0 46
-1.2643951 1.3655027 0.26712096 0 47
-1.2628089 1.3637897 0.28425685 0 48
