# .PCD v0.7 - Point Cloud Data file format
VERSION 0.7
FIELDS x y z intensity ring
SIZE 4 4 4 4 2
TYPE F F F F U
COUNT 1 1 1 1 1
WIDTH 1251
HEIGHT 1
VIEWPOINT 0 0 0 1 0 0 0
POINTS 1251
DATA ascii
0.60907555 -1.3161258 -0.40343922 0 2
0.60520381 -1.3077595 -0.38663113 0 3
0.61045456 -1.3191056 -0.37568921 0 4
0.59941661 -1.2952542 -0.35492492 0 5
0.6075452 -1.312819 -0.34564188 0 6
0.60411966 -1.3054168 -0.32973787 0 7
0.60641497 -1.3103766 -0.31704146 0 8
0.60379452 -1.3047142 -0.30183852 0 9
0.6035049 -1.3040885 -0.28792068 0 10
0.60931277 -1.3166384 -0.27683711 0 11
0.6078831 -1.313549 -0.26241407 0 12
0.60496676 -1.3072474 -0.2474934 0 13
0.60169661 -1.3001809 -0.23261052 0 14
0.59937888 -1.2951727 -0.21826191 0 15
0.60699689 -1.3116342 -0.20745069 0 16
0.60587978 -1.3092202 -0.19354433 0 17
0.60790664 -1.3135999 -0.18065545 0 18
0.60694873 -1.31153 -0.16688676 0 19
0.61248034 -1.3234831 -0.1548297 0 20
0.60517144 -1.3076895 -0.13959223 0 21
0.60298103 -1.3029565 -0.12576938 0 22
0.60500824 -1.307337 -0.11285134 0 23
0.60704738 -1.3117431 -0.099865139 0 24
0.60437858 -1.3059764 -0.086135209 0 25
0.60244846 -1.3018056 -0.072626263 0 26
0.60967594 -1.3174232 -0.06011739 0 27
0.60296947 -1.3029314 -0.046233188 0 28
0.60288882 -1.3027573 -0.033013701 0 29
0.61291373 -1.3244195 -0.020135323 0 30
0.6040194 -1.3052002 -0.0066140029 0 31
0.61150557 -1.3213768 0.0066959765 0 32
0.6088028 -1.3155365 0.020000271 0 33
0.60663557 -1.3108534 0.033218872 0 34
0.6007427 -1.2981198 0.046062451 0 35
0.60836112 -1.3145821 0.059987739 0 36
0.60835207 -1.3145624 0.073337957 0 37
0.60023588 -1.2970245 0.085544795 0 38
0.61046785 -1.3191344 0.10042784 0 39
0.6051209 -1.3075805 0.11287235 0 40
0.60721451 -1.3121043 0.12665239 0 41
0.60625368 -1.3100281 0.13984187 0 42
0.60921669 -1.3164308 0.15400468 0 43
0.60910535 -1.3161902 0.16747975 0 44
0.60030538 -1.2971748 0.17839655 0 45
0.60533303 -1.3080387 0.19336969 0 46
0.6113264 -1.3209896 0.20893036 0 47
0.60055876 -1.2977222 0.21869156 0 48
0.5996787 -1.2958206 0.23183045 0 49
0.60408568 -1.3053434 0.24713293 0 50
0.60573477 -1.3089069 0.26148668 0 51
0.60017848 -1.2969005 0.27268702 0 52
0.60490131 -1.3071059 0.28858691 0 53
0.60416836 -1.3055221 0.30202538 0 54
0.60662597 -1.3108326 0.31715178 0 55
0.60855544 -1.315002 0.33215901 0 56
0.60543287 -1.3082545 0.34444013 0 57
0.60581744 -1.3090855 0.35871494 0 58
0.60544318 -1.3082768 0.37260506 0 59
0.60156602 -1.2998987 0.38430718 0 60
0.6065408 -1.3106486 0.40176025 0 61
0.60829484 -1.3144388 0.41731182 0 62
0.6097436 -1.3175694 0.43280637 0 63
0.62356126 -1.3050824 -0.43119067 0 0
0.6236394 -1.3052461 -0.41679642 0 1
0.62140816 -1.3005762 -0.4009847 0 2
0.62523746 -1.3085908 -0.38912046 0 3
0.62384659 -1.3056797 -0.37402192 0 4
0.62552643 -1.3091955 -0.36082551 0 5
0.62490612 -1.3078972 -0.34634298 0 6
0.63249755 -1.3237857 -0.33631682 0 7
0.62735105 -1.3130144 -0.3195219 0 8
0.61881679 -1.2951525 -0.30136403 0 9
0.6257478 -1.3096588 -0.29082736 0 10
0.62190396 -1.3016138 -0.27526513 0 11
0.62103963 -1.2998048 -0.26117417 0 12
0.62673134 -1.3117174 -0.24977984 0 13
0.6249038 -1.3078924 -0.23534711 0 14
0.63237202 -1.3235229 -0.22433293 0 15
0.61640811 -1.2901113 -0.20522988 0 16
0.62138766 -1.3005333 -0.19337508 0 17
0.6130684 -1.2831215 -0.17748718 0 18
0.62849146 -1.3154012 -0.16835001 0 19
0.62363386 -1.3052346 -0.15358037 0 20
0.62329835 -1.3045323 -0.14006276 0 21
0.62212485 -1.3020762 -0.12641327 0 22
0.62748414 -1.3132929 -0.11402289 0 23
0.62010103 -1.2978405 -0.099379696 0 24
0.62185353 -1.3015083 -0.086338326 0 25
0.6238451 -1.3056766 -0.073264644 0 26
0.61956549 -1.2967196 -0.059515778 0 27
0.62289017 -1.303678 -0.046527945 0 28
0.62628114 -1.3107752 -0.033409517 0 29
0.61997211 -1.2975706 -0.019841535 0 30
0.61790413 -1.2932423 -0.0065914118 0 31
0.62112528 -1.2999841 0.0066257729 0 32
0.63137877 -1.3214442 0.020206591 0 33
0.6223684 -1.302586 0.033200789 0 34
0.6182999 -1.2940707 0.046185065 0 35
0.61875916 -1.295032 0.059438325 0 36
0.62358117 -1.3051242 0.073233649 0 37
0.62536675 -1.3088614 0.086826101 0 38
0.62551773 -1.3091773 0.10024779 0 39
0.62235832 -1.3025649 0.11309146 0 40
0.62228215 -1.3024054 0.12644523 0 41
0.6258257 -1.309822 0.14063069 0 42
0.62287682 -1.30365 0.15339392 0 43
0.62155867 -1.3008912 0.16649297 0 44
0.62614942 -1.3104994 0.18127422 0 45
0.62490565 -1.3078963 0.19446987 0 46
0.63006175 -1.3186877 0.20977579 0 47
0.61969584 -1.2969924 0.21983609 0 48
0.63174659 -1.322214 0.23792419 0 49
0.62517029 -1.3084501 0.24915768 0 50
0.62779921 -1.3139523 0.26401687 0 51
0.62352717 -1.3050112 0.2759836 0 52
0.62221605 -1.3022671 0.28918594 0 53
0.62123835 -1.3002207 0.30254334 0 54
0.62442535 -1.3068911 0.31803182 0 55
0.61559844 -1.2884167 0.3273311 0 56
0.62441754 -1.3068746 0.3460722 0 57
0.62187296 -1.301549 0.35871804 0 58
0.6229437 -1.30379 0.37348059 0 59
0.63139099 -1.3214698 0.39295012 0 60
0.62820375 -1.3147991 0.40536979 0 61
0.6257115 -1.3095828 0.41818124 0 62
0.62484556 -1.3077705 0.43207878 0 63
0.65052795 -1.319563 -0.43858472 0 0
0.64697236 -1.3123507 -0.42157364 0 1
0.64773858 -1.313905 -0.40751901 0 2
0.64741862 -1.313256 -0.39284527 0 3
0.64849037 -1.3154299 -0.37907052 0 4
0.64964134 -1.3177646 -0.36536124 0 5
0.64785343 -1.3141381 -0.35007867 0 6
0.63893867 -1.2960548 -0.33124259 0 7
0.64922142 -1.3169129 -0.32238895 0 8
0.6406495 -1.2995251 -0.30419153 0 9
0.64133269 -1.3009109 -0.29061404 0 10
0.64346111 -1.3052284 -0.27768183 0 11
0.64754659 -1.3135155 -0.26550898 0 12
0.6467008 -1.3117999 -0.2512908 0 13
0.64202511 -1.3023156 -0.23574637 0 14
0.64544648 -1.3092556 -0.22324303 0 15
0.64150095 -1.3012522 -0.20824128 0 16
0.64446241 -1.3072594 -0.1955387 0 17
0.64607161 -1.3105236 -0.18236271 0 18
0.64481586 -1.3079764 -0.16840181 0 19
0.65029818 -1.319097 -0.15614058 0 20
0.64080387 -1.2998383 -0.14039418 0 21
0.64251888 -1.3033171 -0.12729117 0 22
0.64558464 -1.3095359 -0.11437728 0 23
0.63986909 -1.2979422 -0.099982411 0 24
0.64590967 -1.3101951 -0.087434851 0 25
0.64796555 -1.3143654 -0.074193671 0 26
0.64225554 -1.302783 -0.060151998 0 27
0.63586801 -1.2898262 -0.046309136 0 28
0.64416134 -1.3066487 -0.033503704 0 29
0.6370725 -1.2922695 -0.019878758 0 30
0.64337647 -1.3050567 -0.0066914437 0 31
0.63726169 -1.2926532 0.0066278465 0 32
0.64727473 -1.3129641 0.020197101 0 33
0.64717203 -1.3127558 0.033660293 0 34
0.64632547 -1.3110386 0.04707073 0 35
0.64406753 -1.3064585 0.0603217 0 36
0.64561725 -1.309602 0.07392478 0 37
0.64297247 -1.3042371 0.087037243 0 38
0.65057313 -1.3196548 0.10165497 0 39
0.64843231 -1.3153123 0.1148818 0 40
0.64459622 -1.3075309 0.12770273 0 41
0.65161932 -1.3217769 0.14276375 0 42
0.64668816 -1.3117743 0.1552738 0 43
0.64296168 -1.3042153 0.16791756 0 44
0.64409459 -1.3065133 0.18180464 0 45
0.64224881 -1.3027693 0.19486707 0 46
0.64829111 -1.3150258 0.21044549 0 47
0.65362108 -1.3258374 0.2260704 0 48
0.64357466 -1.3054587 0.23631532 0 49
0.64509737 -1.3085475 0.25066778 0 50
0.64795792 -1.3143499 0.26567763 0 51
0.65034336 -1.3191887 0.28065184 0 52
0.64651263 -1.3114182 0.2929613 0 53
0.64371336 -1.30574 0.30564627 0 54
0.64701957 -1.3124466 0.32129556 0 55
0.64332134 -1.3049449 0.33351469 0 56
0.63815111 -1.2944572 0.34483585 0 57
0.64479607 -1.3079363 0.36263624 0 58
0.64712834 -1.3126671 0.37827438 0 59
0.63713491 -1.2923961 0.38660526 0 60
0.64646786 -1.3113275 0.40671954 0 61
0.64973551 -1.3179556 0.42337409 0 62
0.6465385 -1.3114707 0.43589503 0 63
0.73334545 -1.4425554 -0.4824245 0 0
0.74303603 -1.4616176 -0.47242275 0 1
0.74171561 -1.4590203 -0.45532212 0 2
0.73947585 -1.4546144 -0.43781793 0 3
0.73603266 -1.4478413 -0.41980422 0 4
0.73997521 -1.4555967 -0.40606841 0 5
0.73563814 -1.4470652 -0.38787013 0 6
0.74396783 -1.4634504 -0.37633479 0 7
0.73849279 -1.4526807 -0.35782179 0 8
0.74022883 -1.4560956 -0.34294608 0 9
0.73859328 -1.4528782 -0.32656661 0 10
0.73520112 -1.4462056 -0.30957404 0 11
0.7422514 -1.4600742 -0.29695624 0 12
0.74395168 -1.4634187 -0.28206629 0 13
0.74539739 -1.4662626 -0.2670632 0 14
0.7406128 -1.4568509 -0.24994364 0 15
0.73778206 -1.4512825 -0.233685 0 16
0.74299711 -1.4615411 -0.21996596 0 17
0.74122781 -1.4580606 -0.2041457 0 18
0.74228239 -1.4601351 -0.18915308 0 19
0.73909402 -1.4538633 -0.17315544 0 20
0.74119335 -1.4579928 -0.15844871 0 21
0.74083489 -1.4572877 -0.14320792 0 22
0.74053741 -1.4567025 -0.12801674 0 23
0.74001414 -1.4556732 -0.1128251 0 24
0.7490111 -1.473371 -0.098931417 0 25
0.73927754 -1.4542243 -0.082595363 0 26
0.74354768 -1.462624 -0.067949176 0 27
0.74303269 -1.461611 -0.052800838 0 28
0.73801064 -1.4517322 -0.037453633 0 29
0.73950732 -1.4546763 -0.022515215 0 30
0.73817885 -1.4520631 -0.0074911662 0 31
0.74449414 -1.4644858 0.0075552552 0 32
0.74246293 -1.4604902 0.022605201 0 33
0.73448437 -1.4447956 0.037274677 0 34
0.74108875 -1.457787 0.052662697 0 35
0.73960167 -1.4548619 0.067588575 0 36
0.74571544 -1.4668882 0.083314635 0 37
0.74027508 -1.4561865 0.097777545 0 38
0.73711652 -1.4499733 0.11238331 0 39
0.73982722 -1.4553055 0.12789397 0 40
0.74341512 -1.4623634 0.14370669 0 41
0.74078923 -1.4571979 0.15836233 0 42
0.74104822 -1.4577073 0.17361328 0 43
0.73613578 -1.4480441 0.18758675 0 44
0.74395019 -1.4634157 0.2048955 0 45
0.74191993 -1.4594221 0.21964706 0 46
0.73710424 -1.4499491 0.23347031 0 47
0.73263109 -1.4411502 0.24724996 0 48
0.74277377 -1.4611017 0.26612321 0 49
0.73258245 -1.4410545 0.27775568 0 50
0.75036466 -1.4760336 0.30020213 0 51
0.74557418 -1.4666103 0.31394187 0 52
0.74168539 -1.4589608 0.32793379 0 53
0.73537713 -1.4465519 0.3406983 0 54
0.73824519 -1.4521936 0.35770184 0 55
0.74113673 -1.4578815 0.3749027 0 56
0.74458706 -1.4646685 0.39258853 0 57
0.7396518 -1.4549605 0.40589094 0 58
0.73469418 -1.4452084 0.41904083 0 59
0.74069399 -1.4570106 0.43853915 0 60
0.73927265 -1.4542146 0.4538224 0 61
0.75033593 -1.4759772 0.47706401 0 62
0.74188101 -1.4593456 0.48803955 0 63
0.75844777 -1.4475929 -0.48719123 0 0
0.75659871 -1.4440637 -0.46972054 0 1
0.76447624 -1.4590989 -0.45824566 0 2
0.76406926 -1.4583222 -0.44172838 0 3
0.75750571 -1.4457948 -0.42187974 0 4
0.75990731 -1.4503785 -0.40718868 0 5
0.76108688 -1.4526299 -0.39184058 0 6
0.76439559 -1.458945 -0.37756476 0 7
0.7620374 -1.4544442 -0.36053702 0 8
0.75908375 -1.4488068 -0.34340182 0 9
0.75956839 -1.4497317 -0.32793394 0 10
0.76092714 -1.452325 -0.3128632 0 11
0.76369423 -1.4576064 -0.29834172 0 12
0.76148415 -1.4533882 -0.28191641 0 13
0.76255065 -1.4554237 -0.26677671 0 14
0.76167452 -1.4537514 -0.25099978 0 15
0.75997764 -1.4505128 -0.23504803 0 16
0.76367974 -1.4575787 -0.22076625 0 17
0.7636137 -1.4574527 -0.20535974 0 18
0.76358426 -1.4573964 -0.19000028 0 19
0.7580955 -1.4469205 -0.1734257 0 20
0.76169181 -1.4537846 -0.15899722 0 21
0.76779598 -1.465435 -0.14492539 0 22
0.76275706 -1.4558177 -0.12875351 0 23
0.76762784 -1.4651141 -0.11427979 0 24
0.76613146 -1.4622582 -0.09881033 0 25
0.75862092 -1.4479233 -0.082761057 0 26
0.76492727 -1.4599599 -0.06825722 0 27
0.75983244 -1.4502357 -0.052723445 0 28
0.76805872 -1.4659365 -0.038060877 0 29
0.7601158 -1.4507766 -0.022597812 0 30
0.76027751 -1.4510851 -0.0075337817 0 31
0.76605165 -1.4621058 0.0075909989 0 32
0.76247823 -1.4552854 0.022668047 0 33
0.76604199 -1.4620873 0.037960939 0 34
0.76725465 -1.4644018 0.053238455 0 35
0.75989377 -1.4503528 0.067808062 0 36
0.76725382 -1.4644004 0.083702855 0 37
0.76835537 -1.4665028 0.099097155 0 38
0.75725627 -1.4453188 0.11273574 0 39
0.76329297 -1.4568405 0.12884398 0 40
0.76067084 -1.4518359 0.14358048 0 41
0.76856017 -1.4668937 0.16043094 0 42
0.7676875 -1.4652281 0.17562 0 43
0.75944287 -1.4494921 0.18896979 0 44
0.76139385 -1.4532158 0.20476276 0 45
0.75656927 -1.4440075 0.21871074 0 46
0.75367421 -1.4384819 0.23309849 0 47
0.75849283 -1.4476788 0.2499513 0 48
0.76546317 -1.4609827 0.26779565 0 49
0.76392442 -1.4580458 0.28281987 0 50
0.76278478 -1.4558706 0.29798642 0 51
0.76155567 -1.4535247 0.31312165 0 52
0.768565 -1.4669029 0.3318181 0 53
0.76003414 -1.4506207 0.34383175 0 54
0.76530176 -1.4606745 0.36208144 0 55
0.76987535 -1.4694039 0.38027143 0 56
0.7605536 -1.4516121 0.39156601 0 57
0.75902045 -1.4486859 0.40671349 0 58
0.75826621 -1.4472463 0.42230329 0 59
0.77136922 -1.4722551 0.44594869 0 60
0.76657009 -1.4630953 0.45950076 0 61
0.76100469 -1.4524732 0.47245592 0 62
0.75993615 -1.4504336 0.48814732 0 63
0.78538167 -1.4551898 -0.49296096 0 0
0.78213602 -1.4491761 -0.47447598 0 1
0.78128237 -1.4475944 -0.45761511 0 2
0.7876088 -1.4593164 -0.44492942 0 3
0.78827065 -1.4605427 -0.4289791 0 4
0.7862339 -1.4567689 -0.41166586 0 5
0.78005129 -1.4453133 -0.39242464 0 6
0.77951562 -1.4443209 -0.3762323 0 7
0.78412646 -1.4528642 -0.36250806 0 8
0.78453398 -1.4536192 -0.34680283 0 9
0.79106772 -1.4657252 -0.33372685 0 10
0.78080958 -1.4467185 -0.31370002 0 11
0.78489155 -1.4542817 -0.29961401 0 12
0.7833057 -1.4513433 -0.28336665 0 13
0.78708059 -1.4583375 -0.26906449 0 14
0.78604323 -1.4564157 -0.25310946 0 15
0.78064954 -1.4464219 -0.23592278 0 16
0.78964299 -1.4630853 -0.22305408 0 17
0.78591031 -1.4561694 -0.20652497 0 18
0.78560358 -1.455601 -0.19101116 0 19
0.79213494 -1.4677025 -0.17707069 0 20
0.78309071 -1.4509449 -0.15972772 0 21
0.79045397 -1.4645879 -0.14579184 0 22
0.78671473 -1.4576598 -0.12976217 0 23
0.78540832 -1.4552392 -0.11425421 0 24
0.78895164 -1.4618044 -0.0994277 0 25
0.78868884 -1.4613174 -0.084074616 0 26
0.78414667 -1.4529015 -0.068372853 0 27
0.7898224 -1.4634178 -0.053551715 0 28
0.77734643 -1.4403018 -0.037640639 0 29
0.79387361 -1.470924 -0.023061948 0 30
0.77924401 -1.4438176 -0.0075452277 0 31
0.78264183 -1.4501133 0.007578128 0 32
0.7805441 -1.4462265 0.022674726 0 33
0.78428113 -1.4531506 0.037976429 0 34
0.79194897 -1.467358 0.053695899 0 35
0.79146391 -1.4664593 0.069010876 0 36
0.78610575 -1.4565314 0.083799258 0 37
0.78515446 -1.4547688 0.098949164 0 38
0.78433645 -1.4532531 0.11409828 0 39
0.77996081 -1.4451457 0.12864816 0 40
0.78890699 -1.4617217 0.14550652 0 41
0.78894997 -1.4618013 0.16092286 0 42
0.78880751 -1.4615374 0.17632689 0 43
0.78564239 -1.4556729 0.19102058 0 44
0.78695679 -1.4581083 0.20679997 0 45
0.7837081 -1.4520888 0.22137763 0 46
0.78529817 -1.4550351 0.23732767 0 47
0.79053468 -1.4647374 0.2545557 0 48
0.78798234 -1.4600084 0.26937276 0 49
0.79023206 -1.4641768 0.28587231 0 50
0.78705376 -1.458288 0.30043939 0 51
0.78559107 -1.4555779 0.31562105 0 52
0.7896443 -1.4630878 0.33312634 0 53
0.78329521 -1.4513239 0.34625521 0 54
0.78225762 -1.4494014 0.36164406 0 55
0.78442103 -1.4534099 0.37859988 0 56
0.78727627 -1.4587002 0.39605936 0 57
0.78526324 -1.4549704 0.41115761 0 58
0.77917773 -1.4436948 0.42403069 0 59
0.77500266 -1.4359591 0.43780807 0 60
0.78595334 -1.456249 0.46035102 0 61
0.77875251 -1.442907 0.4724234 0 62
0.777843 -1.4412218 0.48822916 0 63
0.80983919 -1.4573443 -0.49702668 0 0
0.81263757 -1.4623802 -0.48203436 0 1
0.80752981 -1.4531884 -0.46248755 0 2
0.80854696 -1.4550189 -0.44661671 0 3
0.80470252 -1.4481006 -0.42819861 0 4
0.80755419 -1.4532323 -0.41344133 0 5
0.80783367 -1.4537352 -0.39737836 0 6
0.80258185 -1.4442843 -0.3787649 0 7
0.8100332 -1.4576935 -0.36617064 0 8
0.81170595 -1.4607036 -0.35084778 0 9
0.81202942 -1.4612857 -0.33496419 0 10
0.81179744 -1.4608682 -0.3189086 0 11
0.80350929 -1.4459534 -0.29991108 0 12
0.80673963 -1.4517665 -0.28536454 0 13
0.80990589 -1.4574642 -0.27072033 0 14
0.80735928 -1.4528815 -0.25420138 0 15
0.80577445 -1.4500296 -0.23810934 0 16
0.80525291 -1.449091 -0.22241333 0 17
0.80088317 -1.4412276 -0.20578697 0 18
0.8016215 -1.4425561 -0.19057843 0 19
0.81000125 -1.457636 -0.17704447 0 20
0.80302167 -1.4450758 -0.16015652 0 21
0.80173302 -1.4427569 -0.1445891 0 22
0.81057864 -1.458675 -0.13072996 0 23
0.80831158 -1.4545952 -0.11497533 0 24
0.80789977 -1.4538542 -0.099555135 0 25
0.80464524 -1.4479976 -0.083871186 0 26
0.81290483 -1.4628611 -0.069306709 0 27
0.80876601 -1.455413 -0.053618658 0 28
0.813465 -1.4638691 -0.038515043 0 29
0.80575275 -1.4499905 -0.022887353 0 30
0.81170887 -1.4607089 -0.0076850783 0 31
0.81128681 -1.4599493 0.0076810825 0 32
0.8128252 -1.4627178 0.023088247 0 33
0.8047449 -1.4481769 0.038102172 0 34
0.80387205 -1.4466062 0.053294208 0 35
0.80382109 -1.4465145 0.068532243 0 36
0.79861438 -1.4371446 0.083242565 0 37
0.81688136 -1.470017 0.1006619 0 38
0.80712789 -1.4524652 0.11480696 0 39
0.8104822 -1.4585013 0.1307144 0 40
0.80597895 -1.4503976 0.14535484 0 41
0.81233627 -1.4618379 0.16201425 0 42
0.80455351 -1.4478325 0.17585373 0 43
0.80615419 -1.4507129 0.19165605 0 44
0.80485278 -1.4483711 0.20680697 0 45
0.80918682 -1.4561702 0.22349989 0 46
0.8088544 -1.4555721 0.23901947 0 47
0.80241925 -1.4439918 0.252646 0 48
0.80711049 -1.4524338 0.26978597 0 49
0.8176558 -1.4714106 0.28922588 0 50
0.80255568 -1.4442372 0.29955512 0 51
0.8113429 -1.4600502 0.31873003 0 52
0.80727375 -1.4527277 0.33300248 0 53
0.81356901 -1.4640563 0.35165307 0 54
0.81018859 -1.457973 0.36624086 0 55
0.8026011 -1.444319 0.37877399 0 56
0.81248933 -1.4621133 0.39966851 0 57
0.80867016 -1.4552406 0.4140127 0 58
0.81124574 -1.4598753 0.43168038 0 59
0.81340885 -1.4637681 0.44930229 0 60
0.80381936 -1.4465114 0.46036252 0 61
0.80212986 -1.4434711 0.47580147 0 62
0.81116879 -1.4597369 0.4978427 0 63
0.83361149 -1.4576188 -0.5005784 0 0
0.83187425 -1.4545813 -0.4827989 0 1
0.83501536 -1.4600736 -0.46791121 0 2
0.82999736 -1.4512993 -0.44857383 0 3
0.82437539 -1.4414691 -0.42920271 0 4
0.83185959 -1.4545555 -0.4166964 0 5
0.83523846 -1.4604636 -0.40199465 0 6
0.83599681 -1.4617897 -0.38602242 0 7
0.83635759 -1.4624206 -0.36991352 0 8
0.83510303 -1.4602269 -0.35317305 0 9
0.8312248 -1.4534456 -0.33548462 0 10
0.83444577 -1.4590777 -0.3207334 0 11
0.83609188 -1.461956 -0.30533957 0 12
0.82778376 -1.4474288 -0.28649104 0 13
0.83040267 -1.452008 -0.27158299 0 14
0.83569098 -1.461255 -0.25744489 0 15
0.8272143 -1.4464329 -0.23917097 0 16
0.83421546 -1.458675 -0.22544172 0 17
0.83572668 -1.4613174 -0.21010698 0 18
0.82915568 -1.4498277 -0.19287148 0 19
0.82734764 -1.4466661 -0.17693436 0 20
0.83319455 -1.4568897 -0.16258906 0 21
0.82816905 -1.4481025 -0.14613435 0 22
0.83328462 -1.4570472 -0.13149245 0 23
0.83104777 -1.4531361 -0.11565898 0 24
0.83424246 -1.4587222 -0.10058332 0 25
0.82877553 -1.4491628 -0.084522575 0 26
0.82359999 -1.4401132 -0.068703584 0 27
0.82988298 -1.4510993 -0.053831615 0 28
0.83000648 -1.4513153 -0.038450368 0 29
0.82438779 -1.4414907 -0.022911463 0 30
0.82788998 -1.4476144 -0.0076691662 0 31
0.83213443 -1.4550362 0.0077084848 0 32
0.82936174 -1.4501879 0.023049701 0 33
0.83025891 -1.4517567 0.038462061 0 34
0.84080243 -1.4701927 0.054539923 0 35
0.83403504 -1.4583595 0.069574066 0 36
0.82717973 -1.4463726 0.084359832 0 37
0.83709824 -1.4637157 0.10092764 0 38
0.833498 -1.4574203 0.11599998 0 39
0.83493978 -1.4599414 0.13175364 0 40
0.83198369 -1.4547726 0.14680746 0 41
0.83200431 -1.4548086 0.16235679 0 42
0.82652092 -1.4452206 0.17675756 0 43
0.83861554 -1.4663688 0.19507195 0 44
0.82809919 -1.4479803 0.2081894 0 45
0.83039892 -1.4520015 0.22441031 0 46
0.83094418 -1.452955 0.2402494 0 47
0.82975465 -1.4508749 0.25561613 0 48
0.83428919 -1.4588039 0.27285409 0 49
0.84590018 -1.4791064 0.292761 0 50
0.8434301 -1.4747874 0.30801949 0 51
0.84105933 -1.4706419 0.32327545 0 52
0.82566434 -1.4437228 0.33324042 0 53
0.82366562 -1.440228 0.34833607 0 54
0.83377773 -1.4579095 0.36877245 0 55
0.83642304 -1.462535 0.38621923 0 56
0.82991588 -1.451157 0.39943293 0 57
0.83039111 -1.4519879 0.41596082 0 58
0.83312052 -1.4567604 0.43375576 0 59
0.83440763 -1.459011 0.45095739 0 60
0.83796626 -1.4652334 0.4695648 0 61
0.8323794 -1.4554645 0.48309207 0 62
0.8320657 -1.454916 0.49965021 0 63
0.85618699 -1.4552753 -0.50335109 0 0
0.86159307 -1.4644641 -0.4895587 0 1
0.85590565 -1.4547971 -0.46955761 0 2
0.85560679 -1.4542892 -0.45271558 0 3
0.8619045 -1.4649935 -0.43932968 0 4
0.85422665 -1.4519433 -0.41892552 0 5
0.85976332 -1.4613541 -0.40511909 0 6
0.86329889 -1.4673636 -0.39026812 0 7
0.85363042 -1.45093 -0.36963415 0 8
0.86072701 -1.4629921 -0.35637474 0 9
0.85272843 -1.4493968 -0.33694488 0 10
0.85766113 -1.457781 -0.32274222 0 11
0.85701931 -1.4566901 -0.30641758 0 12
0.85474741 -1.4528284 -0.28961822 0 13
0.85605013 -1.4550427 -0.27409875 0 14
0.85353792 -1.4507726 -0.25742775 0 15
0.85935241 -1.4606557 -0.24325161 0 16
0.85554701 -1.4541876 -0.226357 0 17
0.86353141 -1.4677588 -0.21254377 0 18
0.84564912 -1.437364 -0.19258219 0 19
0.86030364 -1.4622725 -0.18012331 0 20
0.85401362 -1.4515812 -0.16315623 0 21
0.85746723 -1.4574513 -0.14813061 0 22
0.85943425 -1.4607948 -0.13277432 0 23
0.85955769 -1.4610046 -0.11711766 0 24
0.85660338 -1.455983 -0.1011131 0 25
0.86033934 -1.4623332 -0.085901275 0 26
0.85707855 -1.4567908 -0.069996722 0 27
0.85956401 -1.4610153 -0.054587446 0 28
0.84948933 -1.4438913 -0.038527511 0 29
0.8615675 -1.4644207 -0.023442535 0 30
0.85453963 -1.4524753 -0.0077500008 0 31
0.85741597 -1.4573643 0.0077760867 0 32
0.85966539 -1.4611876 0.023390781 0 33
0.85300773 -1.4498715 0.038687084 0 34
0.85206574 -1.4482703 0.054111261 0 35
0.86189795 -1.4649824 0.070390314 0 36
0.8571583 -1.4569263 0.085583657 0 37
0.84863061 -1.4424316 0.100172 0 38
0.85913378 -1.4602841 0.1170599 0 39
0.85783416 -1.458075 0.13252713 0 40
0.85819846 -1.4586942 0.14825693 0 41
0.8581304 -1.4585786 0.16394272 0 42
0.85764354 -1.457751 0.17956635 0 43
0.8601945 -1.462087 0.19589464 0 44
0.85441917 -1.4522705 0.21030094 0 45
0.85453105 -1.4524608 0.2260882 0 46
0.8502717 -1.4452209 0.24068119 0 47
0.85352176 -1.4507452 0.25742289 0 48
0.86085284 -1.4632061 0.27563652 0 49
0.85574651 -1.4545267 0.28995675 0 50
0.86126339 -1.4639039 0.30793503 0 51
0.85444367 -1.4523122 0.32153147 0 52
0.86403322 -1.4686117 0.3414118 0 53
0.85562891 -1.4543269 0.35426396 0 54
0.853329 -1.4504176 0.36950362 0 55
0.85277265 -1.449472 0.38550955 0 56
0.85155833 -1.4474078 0.40125287 0 57
0.8562516 -1.4553852 0.4199186 0 58
0.85927695 -1.4605274 0.43799037 0 59
0.85053509 -1.4456687 0.45003206 0 60
0.85833699 -1.4589297 0.47089145 0 61
0.86408716 -1.4687034 0.49097586 0 62
0.85803455 -1.4584156 0.50443733 0 63
0.88260281 -1.4588315 -0.50829655 0 0
0.87947226 -1.4536572 -0.48952416 0 1
0.87913686 -1.4531027 -0.47246417 0 2
0.87922853 -1.4532543 -0.45572451 0 3
0.87682813 -1.4492867 -0.43781966 0 4
0.87802029 -1.4512572 -0.42181078 0 5
0.87720251 -1.4499055 -0.4049049 0 6
0.87950867 -1.4537174 -0.38948563 0 7
0.87383235 -1.4443351 -0.3706634 0 8
0.87754893 -1.4504782 -0.35592809 0 9
0.87801474 -1.451248 -0.33985946 0 10
0.88310385 -1.4596597 -0.32553765 0 11
0.88059151 -1.4555072 -0.30842316 0 12
0.88656974 -1.4653883 -0.29427299 0 13
0.88928038 -1.4698688 -0.27893049 0 14
0.87780291 -1.4508979 -0.25934565 0 15
0.8807621 -1.4557891 -0.24422631 0 16
0.88247651 -1.4586227 -0.22871917 0 17
0.88549894 -1.4636185 -0.21350482 0 18
0.88100874 -1.4561968 -0.19654208 0 19
0.87591529 -1.4477779 -0.17965101 0 20
0.8767432 -1.4491463 -0.1640819 0 21
0.87905014 -1.4529594 -0.14876142 0 22
0.88397658 -1.4611021 -0.13378012 0 23
0.87361097 -1.4439692 -0.11660437 0 24
0.88340586 -1.4601589 -0.10214976 0 25
0.88086927 -1.4559662 -0.086157024 0 26
0.88635921 -1.4650403 -0.07091143 0 27
0.87299448 -1.4429502 -0.054309458 0 28
0.87974614 -1.4541098 -0.039085872 0 29
0.88135904 -1.4567758 -0.023491867 0 30
0.87942135 -1.453573 -0.0078129666 0 31
0.87685591 -1.4493326 0.0077901739 0 32
0.87841982 -1.4519176 0.023413526 0 33
0.87722838 -1.4499483 0.038974009 0 34
0.87667698 -1.449037 0.054538548 0 35
0.88947129 -1.4701843 0.071160406 0 36
0.88332528 -1.4600257 0.086397246 0 37
0.87733614 -1.4501264 0.10144791 0 38
0.8840673 -1.4612522 0.11800002 0 39
0.87730122 -1.4500687 0.1327699 0 40
0.88036436 -1.4551316 0.14898384 0 41
0.88213462 -1.4580576 0.1650909 0 42
0.88057995 -1.455488 0.18060774 0 43
0.87826431 -1.4516606 0.19592984 0 44
0.87963802 -1.4539311 0.21209167 0 45
0.88342392 -1.4601887 0.22896473 0 46
0.88108766 -1.4563272 0.24431658 0 47
0.87972003 -1.4540666 0.25991207 0 48
0.87993109 -1.4544156 0.275998 0 49
0.88436908 -1.461751 0.29354256 0 50
0.87835938 -1.4518178 0.30764139 0 51
0.8743903 -1.4452573 0.32232559 0 52
0.87454659 -1.4455155 0.33851698 0 53
0.87924463 -1.4532809 0.35661584 0 54
0.87442046 -1.4453071 0.37091288 0 55
0.87956911 -1.4538172 0.38951239 0 56
0.87517875 -1.4465605 0.40397078 0 57
0.88506562 -1.4629023 0.42519543 0 58
0.8837235 -1.4606839 0.44126269 0 59
0.88063937 -1.4555862 0.4564558 0 60
0.88433528 -1.4616951 0.4752579 0 61
0.87298679 -1.4429375 0.48591426 0 62
0.87249893 -1.442131 0.50247765 0 63
0.81377262 -1.3084635 -0.45935604 0 0
0.80975091 -1.3019969 -0.44177175 0 1
0.81025386 -1.3028057 -0.42680353 0 2
0.81488717 -1.3102555 -0.41399261 0 3
0.81460708 -1.3098053 -0.39867914 0 4
0.80735838 -1.2981501 -0.38016662 0 5
0.81718719 -1.3139536 -0.36971682 0 6
0.81254852 -1.3064952 -0.35269159 0 7
0.81231219 -1.3061152 -0.33772954 0 8
0.80934238 -1.3013401 -0.32174936 0 9
0.80922776 -1.3011558 -0.30701727 0 10
0.81371903 -1.3083773 -0.29400751 0 11
0.81186116 -1.30539 -0.27870756 0 12
0.81290263 -1.3070647 -0.26446643 0 13
0.81527454 -1.3108784 -0.25064301 0 14
0.81292319 -1.3070977 -0.23541059 0 15
0.81020916 -1.3027338 -0.22020413 0 16
0.81358516 -1.308162 -0.20667928 0 17
0.8143599 -1.3094077 -0.19245557 0 18
0.8096264 -1.3017968 -0.17703311 0 19
0.81179976 -1.3052913 -0.16319655 0 20
0.8081212 -1.2993765 -0.14823791 0 21
0.8183428 -1.3158119 -0.13573956 0 22
0.80746526 -1.2983218 -0.11977583 0 23
0.81821299 -1.3156031 -0.10704284 0 24
0.80268812 -1.2906407 -0.090974234 0 25
0.81486857 -1.3102256 -0.078119829 0 26
0.80730879 -1.2980702 -0.063305385 0 27
0.80556995 -1.2952744 -0.049120381 0 28
0.81338316 -1.3078372 -0.035420287 0 29
0.81466407 -1.3098968 -0.021283239 0 30
0.80950928 -1.3016084 -0.0070491256 0 31
0.81349385 -1.3080152 0.007083823 0 32
0.80534232 -1.2949084 0.021039708 0 33
0.81416714 -1.3090978 0.03545443 0 34
0.81267905 -1.3067051 0.049553864 0 35
0.81756604 -1.3145629 0.064109713 0 36
0.80469364 -1.2938653 0.077144377 0 37
0.80468154 -1.2938459 0.091200165 0 38
0.80913234 -1.3010023 0.10585486 0 39
0.81517309 -1.3107153 0.12091918 0 40
0.8135941 -1.3081764 0.13495189 0 41
0.80883455 -1.3005235 0.14836878 0 42
0.81428331 -1.3092846 0.16369583 0 43
0.81020474 -1.3027266 0.17715956 0 44
0.80970061 -1.301916 0.19135445 0 45
0.81000489 -1.3024054 0.20576978 0 46
0.81443518 -1.3095288 0.22135273 0 47
0.81648195 -1.3128198 0.23644115 0 48
0.81568038 -1.3115309 0.2507678 0 49
0.80854809 -1.300063 0.26304975 0 50
0.81497556 -1.3103976 0.27977672 0 51
0.81149703 -1.3048046 0.29320469 0 52
0.81584316 -1.3117927 0.30952713 0 53
0.81763589 -1.3146752 0.32504639 0 54
0.81413078 -1.3090394 0.33848566 0 55
0.81077898 -1.30365 0.35192353 0 56
0.81021136 -1.3027372 0.36656079 0 57
0.8125118 -1.3064362 0.38259324 0 58
0.81419241 -1.3091384 0.39847618 0 59
0.80710649 -1.2977451 0.41003978 0 60
0.81514448 -1.3106692 0.42937967 0 61
0.81515473 -1.3106858 0.44471991 0 62
0.81252962 -1.3064648 0.45865434 0 63
0.83109945 -1.300393 -0.46007574 0 0
0.83056486 -1.2995565 -0.44437543 0 1
0.83353961 -1.304211 -0.43058917 0 2
0.83038807 -1.2992799 -0.41371968 0 3
0.82986969 -1.2984688 -0.39830446 0 4
0.83066696 -1.2997162 -0.3835876 0 5
0.83615679 -1.308306 -0.37099272 0 6
0.83237183 -1.3023838 -0.35431793 0 7
0.83542192 -1.3071562 -0.34062925 0 8
0.83239615 -1.3024218 -0.32452297 0 9
0.84247339 -1.3181894 -0.31345716 0 10
0.83031946 -1.2991725 -0.29421118 0 11
0.83035368 -1.299226 -0.27955037 0 12
0.83863062 -1.3121767 -0.2675671 0 13
0.83930373 -1.3132299 -0.25304684 0 14
0.83485693 -1.3062721 -0.23709287 0 15
0.83241266 -1.3024477 -0.22186919 0 16
0.82973427 -1.2982569 -0.2067107 0 17
0.8441146 -1.3207574 -0.19563453 0 18
0.83883536 -1.312497 -0.17987737 0 19
0.83227223 -1.302228 -0.16408068 0 20
0.83018887 -1.2989682 -0.14934465 0 21
0.83245021 -1.3025064 -0.13541271 0 22
0.84079474 -1.3155628 -0.12231094 0 23
0.83227104 -1.3022261 -0.10677904 0 24
0.84193498 -1.3173469 -0.093579367 0 25
0.83205116 -1.301882 -0.078226469 0 26
0.83955514 -1.3136233 -0.064562477 0 27
0.83064425 -1.2996807 -0.049671069 0 28
0.84116995 -1.31615 -0.03592284 0 29
0.83458889 -1.3058528 -0.021382662 0 30
0.84128237 -1.3163258 -0.0071843122 0 31
0.83314025 -1.3035861 0.0071147806 0 32
0.83792281 -1.3110693 0.021468079 0 33
0.8365044 -1.3088498 0.035723593 0 34
0.83374369 -1.3045303 0.049856409 0 35
0.83082271 -1.2999599 0.063890941 0 36
0.83766431 -1.3106648 0.078754202 0 37
0.83420873 -1.3052579 0.092720613 0 38
0.8341558 -1.3051752 0.10702085 0 39
0.83842742 -1.3118588 0.12196657 0 40
0.84093601 -1.3157839 0.13679308 0 41
0.82876587 -1.2967417 0.14908867 0 42
0.83929777 -1.3132206 0.16546574 0 43
0.83382165 -1.3046523 0.17880224 0 44
0.82622629 -1.2927681 0.19148868 0 45
0.83325028 -1.3037583 0.20758663 0 46
0.83025569 -1.2990727 0.22129427 0 47
0.83374733 -1.304536 0.23677775 0 48
0.82873553 -1.2966942 0.24986055 0 49
0.82574487 -1.2920148 0.26345587 0 50
0.83255613 -1.3026721 0.28029186 0 51
0.82623667 -1.2927843 0.29276448 0 52
0.83071786 -1.2997959 0.30908331 0 53
0.83118105 -1.3005207 0.32404926 0 54
0.83076894 -1.2998759 0.33873206 0 55
0.83658695 -1.308979 0.35611221 0 56
0.83256376 -1.3026841 0.36939853 0 57
0.82890457 -1.2969587 0.38277373 0 58
0.8295669 -1.2979951 0.39815915 0 59
0.83236957 -1.3023802 0.41470692 0 60
0.83371598 -1.304487 0.4306803 0 61
0.83246899 -1.3025358 0.44539419 0 62
0.83623105 -1.3084222 0.46291643 0 63
0.85856479 -1.3076507 -0.46634337 0 0
0.86213636 -1.3130904 -0.45259407 0 1
0.85719675 -1.3055671 -0.43448403 0 2
0.85869473 -1.3078486 -0.41977862 0 3
0.85448718 -1.3014402 -0.4024086 0 4
0.86225367 -1.313269 -0.39068711 0 5
0.86658674 -1.3198687 -0.37726468 0 6
0.86062843 -1.3107938 -0.35945779 0 7
0.8656339 -1.3184174 -0.34631136 0 8
0.84869289 -1.2926152 -0.32465521 0 9
0.85255057 -1.2984906 -0.31124225 0 10
0.85845691 -1.3074864 -0.29846188 0 11
0.85989457 -1.3096761 -0.28405249 0 12
0.85818601 -1.3070738 -0.26865804 0 13
0.86183888 -1.3126373 -0.25495541 0 14
0.85919547 -1.3086113 -0.23941693 0 15
0.84927207 -1.2934973 -0.22210667 0 16
0.86264366 -1.313863 -0.21086854 0 17
0.85785836 -1.3065748 -0.19508152 0 18
0.85341132 -1.2998017 -0.17956209 0 19
0.86502498 -1.31749 -0.16733126 0 20
0.85862863 -1.307748 -0.15155651 0 21
0.85805458 -1.3068736 -0.13695329 0 22
0.86479425 -1.3171386 -0.12343678 0 23
0.85716945 -1.3055254 -0.10790569 0 24
0.86136836 -1.3119208 -0.093939207 0 25
0.85449833 -1.3014573 -0.078826338 0 26
0.86243242 -1.3135414 -0.065074742 0 27
0.85004395 -1.2946728 -0.049875382 0 28
0.85395515 -1.3006299 -0.035783134 0 29
0.85249996 -1.2984135 -0.021430878 0 30
0.85736573 -1.3058244 -0.0071839937 0 31
0.85822034 -1.307126 0.0071911546 0 32
0.855079 -1.3023416 0.021495711 0 33
0.85517424 -1.3024867 0.035834219 0 34
0.86587477 -1.3187842 0.050804239 0 35
0.8510775 -1.2962471 0.064217955 0 36
0.84929442 -1.2935313 0.078346282 0 37
0.8544538 -1.3013895 0.093185119 0 38
0.8599 -1.3096843 0.10824943 0 39
0.8591451 -1.3085345 0.12263044 0 40
0.85485226 -1.3019962 0.13644218 0 41
0.86075729 -1.31099 0.15193222 0 42
0.86121601 -1.3116887 0.16659446 0 43
0.86152369 -1.3121573 0.18126896 0 44
0.86104918 -1.3114345 0.19580713 0 45
0.85055548 -1.295452 0.20791365 0 46
0.85610789 -1.3039087 0.2238944 0 47
0.85226756 -1.2980596 0.23748645 0 48
0.85582972 -1.303485 0.25317773 0 49
0.85899234 -1.3083019 0.26891047 0 50
0.85697329 -1.3052268 0.28308749 0 51
0.85492706 -1.3021102 0.29723462 0 52
0.85725492 -1.3056557 0.3129597 0 53
0.85641605 -1.304378 0.3276096 0 54
0.85287744 -1.2989885 0.34120792 0 55
0.85175204 -1.2972745 0.35575041 0 56
0.85786688 -1.3065877 0.37346852 0 57
0.85165405 -1.2971252 0.3858844 0 58
0.86457193 -1.3167999 0.40715787 0 59
0.85473126 -1.3018119 0.41784105 0 60
0.85664982 -1.304734 0.43420678 0 61
0.855093 -1.3023629 0.44889653 0 62
0.85737818 -1.3058434 0.46569884 0 63
0.88768709 -1.3164358 -0.47333333 0 0
0.88767558 -1.3164188 -0.45746896 0 1
0.87380588 -1.29585 -0.43479314 0 2
0.8746779 -1.2971432 -0.41976297 0 3
0.8862955 -1.3143721 -0.40974596 0 4
0.87762809 -1.3015183 -0.39037228 0 5
0.88632149 -1.3144107 -0.37879115 0 6
0.88113189 -1.3067144 -0.36128303 0 7
0.87985712 -1.304824 -0.34555653 0 8
0.88098288 -1.3064935 -0.33083674 0 9
0.88722819 -1.3157552 -0.3179715 0 10
0.87826449 -1.3024621 -0.29975754 0 11
0.88121188 -1.306833 -0.28576443 0 12
0.88598496 -1.3139116 -0.27228218 0 13
0.87701434 -1.3006082 -0.25469434 0 14
0.87908059 -1.3036724 -0.24047282 0 15
0.8847298 -1.3120502 -0.22714326 0 16
0.87701434 -1.3006082 -0.21045609 0 17
0.88488585 -1.3122815 -0.19754326 0 18
0.88733608 -1.3159152 -0.18328157 0 19
0.86995846 -1.2901443 -0.16520433 0 20
0.87437433 -1.2966931 -0.15150991 0 21
0.88569802 -1.313486 -0.13877708 0 22
0.88774967 -1.3165287 -0.12439323 0 23
0.88163745 -1.3074642 -0.10895374 0 24
0.88117325 -1.3067758 -0.094339527 0 25
0.88472259 -1.3120395 -0.080120139 0 26
0.8844949 -1.3117018 -0.065517478 0 27
0.88301897 -1.309513 -0.050861523 0 28
0.88066381 -1.3060204 -0.03622663 0 29
0.87333369 -1.2951498 -0.021552628 0 30
0.87815768 -1.3023038 -0.007223485 0 31
0.87665594 -1.3000766 0.007211132 0 32
0.88043702 -1.305684 0.021727929 0 33
0.88386971 -1.3107747 0.036358505 0 34
0.87906724 -1.3036526 0.050633904 0 35
0.88573247 -1.3135371 0.065609142 0 36
0.88644749 -1.3145975 0.080276348 0 37
0.87943214 -1.3041937 0.094153129 0 38
0.88007683 -1.3051498 0.10876088 0 39
0.88083994 -1.3062814 0.12342502 0 40
0.8775242 -1.3013643 0.13749634 0 41
0.87882936 -1.3032998 0.15228187 0 42
0.87857896 -1.3029286 0.16684136 0 43
0.87175608 -1.2928102 0.18006349 0 44
0.87523645 -1.2979716 0.19538912 0 45
0.87160856 -1.2925915 0.20915887 0 46
0.86340815 -1.2804302 0.22166918 0 47
0.89098233 -1.3213227 0.24372855 0 48
0.878793 -1.3032459 0.25521088 0 49
0.87146473 -1.2923782 0.26781982 0 50
0.87456006 -1.2969685 0.28360733 0 51
0.87387729 -1.2959559 0.29826018 0 52
0.87467235 -1.297135 0.31347165 0 53
0.88259786 -1.3088886 0.33144322 0 54
0.88498271 -1.3124253 0.34756956 0 55
0.88134915 -1.3070366 0.36137211 0 56
0.87691915 -1.300467 0.37477285 0 57
0.87437707 -1.296697 0.38892621 0 58
0.87829918 -1.3025135 0.40604916 0 59
0.87921685 -1.3038745 0.42194125 0 60
0.88243186 -1.3086423 0.43908533 0 61
0.88030034 -1.3054813 0.45366806 0 62
0.87933093 -1.3040437 0.46887764 0 63
0.90643179 -1.3092139 -0.47470835 0 0
0.90393752 -1.3056113 -0.45754132 0 1
0.9077543 -1.3111241 -0.44362968 0 2
0.89968568 -1.2994701 -0.42406392 0 3
0.89672279 -1.2951906 -0.40717295 0 4
0.91304296 -1.3187628 -0.39888179 0 5
0.90449971 -1.3064233 -0.37966585 0 6
0.89549595 -1.2934185 -0.36062416 0 7
0.91328198 -1.319108 -0.35228682 0 8
0.9038868 -1.3055379 -0.33338407 0 9
0.90584195 -1.3083619 -0.31885251 0 10
0.90479076 -1.3068436 -0.30330357 0 11
0.89779931 -1.2967454 -0.28595102 0 12
0.90645307 -1.3092446 -0.27360418 0 13
0.89408076 -1.2913746 -0.25501981 0 14
0.90680909 -1.3097589 -0.24363391 0 15
0.90897512 -1.3128873 -0.22920586 0 16
0.90329218 -1.3046792 -0.21289605 0 17
0.90480834 -1.306869 -0.19838832 0 18
0.90584368 -1.3083644 -0.18376741 0 19
0.89669478 -1.2951502 -0.1672446 0 20
0.91050076 -1.3150909 -0.15495604 0 21
0.89958721 -1.2993279 -0.13843946 0 22
0.90397143 -1.3056602 -0.12440719 0 23
0.89801246 -1.2970533 -0.10899812 0 24
0.90722531 -1.31036 -0.095396429 0 25
0.89718223 -1.2958542 -0.079799429 0 26
0.90303379 -1.304306 -0.06569773 0 27
0.90455854 -1.3065082 -0.051172961 0 28
0.91134387 -1.3163086 -0.036820069 0 29
0.9020015 -1.302815 -0.021863105 0 30
0.90489012 -1.3069872 -0.007310628 0 31
0.89980513 -1.2996427 0.0072695464 0 32
0.9005022 -1.3006494 0.021826765 0 33
0.90385985 -1.3054991 0.036517698 0 34
0.90338576 -1.3048143 0.051106613 0 35
0.90694231 -1.3099513 0.065982081 0 36
0.90017772 -1.3001808 0.080065861 0 37
0.90758401 -1.310878 0.095434144 0 38
0.90847814 -1.3121696 0.11026841 0 39
0.90532416 -1.3076141 0.12459335 0 40
0.90488017 -1.3069727 0.13925399 0 41
0.90139633 -1.3019409 0.15340658 0 42
0.90222585 -1.303139 0.16827621 0 43
0.90154856 -1.3021607 0.18289606 0 44
0.90159571 -1.3022288 0.19768393 0 45
0.90144008 -1.3020041 0.21245952 0 46
0.90246433 -1.3034835 0.22756411 0 47
0.90428084 -1.3061072 0.24295464 0 48
0.90163195 -1.3022811 0.25717363 0 49
0.90879804 -1.3126316 0.27431199 0 50
0.90562916 -1.3080546 0.28844485 0 51
0.90413702 -1.3058994 0.3030844 0 52
0.9004665 -1.3005978 0.31696036 0 53
0.90350693 -1.3049893 0.33324397 0 54
0.90778702 -1.3111713 0.35016719 0 55
0.90433931 -1.3061916 0.36418545 0 56
0.90248907 -1.3035191 0.37882185 0 57
0.90567017 -1.3081138 0.39566085 0 58
0.90370333 -1.3052731 0.4103426 0 59
0.90403181 -1.3057474 0.42611244 0 60
0.90484583 -1.3069232 0.44220829 0 61
0.90450287 -1.3064278 0.45782745 0 62
0.90334761 -1.3047591 0.47309309 0 63
0.92992336 -1.3084702 -0.47854865 0 0
0.92672724 -1.3039731 -0.46092585 0 1
0.91945285 -1.2937374 -0.4415389 0 2
0.92888838 -1.307014 -0.43022069 0 3
0.92274314 -1.2983671 -0.41170746 0 4
0.9311446 -1.3101887 -0.39972138 0 5
0.92377114 -1.2998136 -0.3810173 0 6
0.92929733 -1.3075894 -0.36773342 0 7
0.92343271 -1.2993374 -0.35001284 0 8
0.92943084 -1.3077773 -0.33684888 0 9
0.92394757 -1.3000619 -0.31957442 0 10
0.92231578 -1.2977659 -0.30380592 0 11
0.93030596 -1.3090086 -0.29115579 0 12
0.92217106 -1.2975622 -0.27351183 0 13
0.92464417 -1.3010421 -0.25915465 0 14
0.92989349 -1.3084283 -0.2454948 0 15
0.92687637 -1.3041829 -0.22965863 0 16
0.92897201 -1.3071316 -0.21514398 0 17
0.92227036 -1.297702 -0.19870327 0 18
0.92729181 -1.3047675 -0.18484975 0 19
0.91822034 -1.2920033 -0.16828352 0 20
0.92518806 -1.3018074 -0.15471964 0 21
0.92028254 -1.2949049 -0.13916339 0 22
0.92387253 -1.2999563 -0.12493671 0 23
0.92532474 -1.3019997 -0.11036162 0 24
0.93093556 -1.3098946 -0.09618865 0 25
0.93133026 -1.3104498 -0.081397317 0 26
0.92924583 -1.3075169 -0.066429995 0 27
0.9292528 -1.3075267 -0.0516565 0 28
0.92566806 -1.3024827 -0.036748942 0 29
0.92062145 -1.2953818 -0.021926681 0 30
0.93023431 -1.3089077 -0.0073847943 0 31
0.91967374 -1.2940483 0.007300958 0 32
0.92528862 -1.3019489 0.02203784 0 33
0.93230939 -1.3118275 0.037012603 0 34
0.9231568 -1.2989492 0.051317625 0 35
0.93062073 -1.3094516 0.066528283 0 36
0.92346138 -1.2993778 0.080709584 0 37
0.93299723 -1.3127954 0.096401669 0 38
0.93760604 -1.3192804 0.11182639 0 39
0.92737007 -1.3048776 0.12540968 0 40
0.92852944 -1.3065089 0.14041047 0 41
0.92723536 -1.3046881 0.155062 0 42
0.92041069 -1.2950852 0.16868494 0 43
0.93630147 -1.3174448 0.18664578 0 44
0.91933799 -1.2935759 0.19807148 0 45
0.93241578 -1.3119773 0.21594153 0 46
0.9266507 -1.3038653 0.22960271 0 47
0.92251956 -1.2980525 0.24354807 0 48
0.92949402 -1.3078662 0.26051396 0 49
0.92385989 -1.2999386 0.27401274 0 50
0.91980481 -1.2942327 0.28786927 0 51
0.92817467 -1.3060098 0.3057358 0 52
0.91875654 -1.2927577 0.31777892 0 53
0.928927 -1.3070683 0.33666629 0 54
0.92308164 -1.2988434 0.34987977 0 55
0.92720968 -1.3046519 0.36690733 0 56
0.92204404 -1.2973835 0.38030496 0 57
0.92775851 -1.3054241 0.39826778 0 58
0.92052519 -1.2952464 0.41071787 0 59
0.92509162 -1.3016716 0.42846218 0 60
0.92448264 -1.3008147 0.44395432 0 61
0.92455876 -1.3009219 0.4598473 0 62
0.93832141 -1.3202869 0.4828704 0 63
0.95499676 -1.3093529 -0.48312974 0 0
0.94798023 -1.2997328 -0.46351236 0 1
0.95494187 -1.3092775 -0.45081607 0 2
0.94545555 -1.2962713 -0.43047881 0 3
0.95488894 -1.3092049 -0.4188357 0 4
0.93930674 -1.287841 -0.3963972 0 5
0.94603801 -1.2970698 -0.38359401 0 6
0.95342362 -1.3071959 -0.37089181 0 7
0.94844699 -1.3003727 -0.35340664 0 8
0.95540422 -1.3099115 -0.34039888 0 9
0.94815421 -1.2999713 -0.32239369 0 10
0.95426911 -1.3083552 -0.30900848 0 11
0.95661545 -1.3115722 -0.29432011 0 12
0.94313097 -1.2930841 -0.27499169 0 13
0.95166439 -1.3047839 -0.26221114 0 14
0.94748271 -1.2990506 -0.2459027 0 15
0.95381236 -1.307729 -0.23233083 0 16
0.96016258 -1.3164355 -0.21860208 0 17
0.95767254 -1.3130215 -0.20283678 0 18
0.94975019 -1.3021595 -0.18612073 0 19
0.94508559 -1.2957641 -0.17027415 0 20
0.94501597 -1.2956686 -0.15535937 0 21
0.9520787 -1.305352 -0.14153361 0 22
0.94526559 -1.2960109 -0.12566511 0 23
0.95682931 -1.3118653 -0.11218667 0 24
0.94740474 -1.2989438 -0.096232697 0 25
0.94865674 -1.3006604 -0.081507653 0 26
0.9507944 -1.3035911 -0.066819482 0 27
0.94805962 -1.2998416 -0.051809531 0 28
0.94863236 -1.3006269 -0.037022896 0 29
0.9497956 -1.3022218 -0.022238469 0 30
0.94739443 -1.2989296 -0.0073936656 0 31
0.94814926 -1.2999645 0.0073995567 0 32
0.95570689 -1.3103265 0.022376876 0 33
0.95401186 -1.3080025 0.037232846 0 34
0.95351076 -1.3073155 0.052107424 0 35
0.9526853 -1.3061837 0.06695237 0 36
0.94378161 -1.2939763 0.081088781 0 37
0.94968808 -1.3020743 0.096464634 0 38
0.95058209 -1.3033 0.1114542 0 39
0.94795591 -1.2996994 0.12602277 0 40
0.95112598 -1.3040458 0.14139198 0 41
0.95039141 -1.3030386 0.1562431 0 42
0.9513768 -1.3043896 0.17140763 0 43
0.95446616 -1.3086253 0.18704492 0 44
0.95323008 -1.3069307 0.20189586 0 45
0.95168775 -1.304816 0.21667258 0 46
0.946235 -1.29734 0.23048511 0 47
0.94969302 -1.3020811 0.24647635 0 48
0.95042753 -1.3030881 0.26187032 0 49
0.95622784 -1.3110408 0.27881038 0 50
0.96121013 -1.3178717 0.29573375 0 51
0.94989192 -1.3023537 0.30759105 0 52
0.94970125 -1.3020924 0.32291973 0 53
0.94963413 -1.3020003 0.33834305 0 54
0.94125748 -1.2905155 0.35072771 0 55
0.96093279 -1.3174914 0.37381297 0 56
0.9544161 -1.3085567 0.38699111 0 57
0.95187873 -1.3050779 0.40170273 0 58
0.94862372 -1.300615 0.41608763 0 59
0.95223463 -1.3055658 0.43356544 0 60
0.95143425 -1.3044684 0.44916016 0 61
0.95271939 -1.3062304 0.46582955 0 62
0.95757437 -1.3128868 0.48443374 0 63
0.97672385 -1.3051282 -0.48596579 0 0
0.96868157 -1.2943819 -0.46581677 0 1
0.97426975 -1.301849 -0.45234907 0 2
0.97157556 -1.298249 -0.43507016 0 3
0.97933841 -1.3086219 -0.42246979 0 4
0.97009516 -1.2962708 -0.40263316 0 5
0.96995723 -1.2960864 -0.38680121 0 6
0.9686445 -1.2943324 -0.37059349 0 7
0.98009253 -1.3096296 -0.35917056 0 8
0.98191768 -1.3120685 -0.344071 0 9
0.97332519 -1.3005868 -0.32548994 0 10
0.97303379 -1.3001975 -0.30988422 0 11
0.97232461 -1.2992499 -0.29421571 0 12
0.98232853 -1.3126174 -0.28169319 0 13
0.97557557 -1.3035939 -0.26436275 0 14
0.96848989 -1.2941258 -0.24720608 0 15
0.97425836 -1.3018339 -0.23339421 0 16
0.96926558 -1.2951622 -0.21703227 0 17
0.9719134 -1.2987003 -0.20245536 0 18
0.97538656 -1.3033413 -0.18798974 0 19
0.97459954 -1.3022897 -0.17269343 0 20
0.97637928 -1.3046678 -0.15786612 0 21
0.97981417 -1.3092576 -0.1432526 0 22
0.97882968 -1.3079422 -0.12797941 0 23
0.9742735 -1.301854 -0.11234654 0 24
0.96844333 -1.2940636 -0.09674608 0 25
0.98393661 -1.3147662 -0.083143525 0 26
0.98482984 -1.3159597 -0.068069063 0 27
0.97043031 -1.2967186 -0.052156735 0 28
0.97833472 -1.3072808 -0.037551906 0 29
0.9829405 -1.3134351 -0.022634661 0 30
0.9771319 -1.3056735 -0.0074998778 0 31
0.98244047 -1.3127669 0.0075406232 0 32
0.98454159 -1.3155745 0.02267153 0 33
0.97908276 -1.3082802 0.037580617 0 34
0.9826383 -1.3130313 0.052812867 0 35
0.97420239 -1.301759 0.067334518 0 36
0.97812122 -1.3069954 0.082652122 0 37
0.98218471 -1.3124253 0.098118819 0 38
0.97600442 -1.3041669 0.11254615 0 39
0.97108871 -1.2975985 0.1269673 0 40
0.97590292 -1.3040313 0.14268075 0 41
0.98121375 -1.3111278 0.15864778 0 42
0.97975689 -1.3091811 0.17360729 0 43
0.97582793 -1.3039311 0.18807481 0 44
0.9784897 -1.3074878 0.20382525 0 45
0.97816223 -1.3070502 0.21902435 0 46
0.97775203 -1.3065021 0.23423114 0 47
0.98004997 -1.3095727 0.25015676 0 48
0.96901637 -1.2948294 0.26258534 0 49
0.97501808 -1.3028489 0.27959687 0 50
0.97174293 -1.2984726 0.2940397 0 51
0.97499985 -1.3028246 0.31051034 0 52
0.97689986 -1.3053635 0.32668534 0 53
0.98243815 -1.3127639 0.34425336 0 54
0.97603399 -1.3042065 0.35768327 0 55
0.97473794 -1.3024746 0.37292477 0 56
0.98145223 -1.3114465 0.39138523 0 57
0.97737241 -1.3059949 0.40565357 0 58
0.9789027 -1.3080397 0.42228183 0 59
0.9755227 -1.3035233 0.43683767 0 60
0.97697449 -1.3054632 0.45360485 0 61
0.97695518 -1.3054373 0.46979535 0 62
0.97477818 -1.3025284 0.48499772 0 63
1.0047703 -1.3087456 -0.49187601 0 0
1.0106488 -1.3164028 -0.4781777 0 1
0.99886972 -1.3010601 -0.45630822 0 2
0.99759912 -1.2994051 -0.43953526 0 3
1.0015098 -1.3044989 -0.42508236 0 4
1.0009229 -1.3037343 -0.40874341 0 5
0.99884856 -1.3010325 -0.39191318 0 6
0.99997842 -1.3025042 -0.37642545 0 7
0.99626541 -1.2976679 -0.35922262 0 8
1.006498 -1.3109961 -0.34700909 0 9
0.99681723 -1.2983867 -0.32798207 0 10
0.99819714 -1.300184 -0.31278276 0 11
0.99926734 -1.301578 -0.29750293 0 12
1.0026675 -1.3060069 -0.28289908 0 13
0.99638724 -1.2978265 -0.26565772 0 14
0.99686551 -1.2984495 -0.25035459 0 15
1.0024308 -1.3056984 -0.23627907 0 16
0.99696702 -1.2985817 -0.21964295 0 17
1.0063818 -1.3108447 -0.2062621 0 18
0.9891029 -1.2883384 -0.18756588 0 19
1.0022376 -1.3054469 -0.17473313 0 20
1.0019882 -1.3051219 -0.15939985 0 21
0.99589688 -1.2971878 -0.14326105 0 22
1.0098941 -1.3154198 -0.12991634 0 23
0.99039567 -1.2900224 -0.11236797 0 24
1.0011564 -1.3040386 -0.09840475 0 25
0.99954224 -1.301936 -0.083103135 0 26
0.99950534 -1.301888 -0.067971773 0 27
1.0019339 -1.3050513 -0.052983437 0 28
0.99870038 -1.3008394 -0.037716787 0 29
0.99508524 -1.2961307 -0.022545611 0 30
1.0087117 -1.3138796 -0.0076176855 0 31
0.99511266 -1.2961663 0.0075149867 0 32
1.0079544 -1.312893 0.022837184 0 33
1.0000387 -1.3025826 0.037767328 0 34
0.99376911 -1.2944163 0.052551668 0 35
1.0088011 -1.313996 0.06860394 0 36
0.99306649 -1.2935013 0.082564741 0 37
0.99666661 -1.2981905 0.097963437 0 38
1.0020643 -1.3052212 0.11369187 0 39
0.99959731 -1.3020078 0.12859172 0 40
1.0051471 -1.3092365 0.1445917 0 41
1.0011365 -1.3040127 0.15926437 0 42
1.0043772 -1.3082337 0.17510617 0 43
0.99837595 -1.3004169 0.18932436 0 44
1.0049894 -1.3090311 0.20597672 0 45
0.99457294 -1.2954633 0.21911551 0 46
1.0000316 -1.3025734 0.23571359 0 47
1.0009501 -1.3037698 0.25138041 0 48
0.9954477 -1.2966027 0.26540723 0 49
1.0059415 -1.3102713 0.2838228 0 50
1.0003166 -1.3029447 0.29781529 0 51
1.0003332 -1.3029664 0.31345209 0 52
0.99625343 -1.2976522 0.32779658 0 53
0.99965829 -1.3020872 0.34465098 0 54
0.99820185 -1.3001902 0.35992086 0 55
1.0107012 -1.3164709 0.38046184 0 56
1.0045165 -1.3084152 0.39413708 0 57
0.99947673 -1.3018508 0.40815288 0 58
1.0163722 -1.3238577 0.43139055 0 59
0.99866039 -1.3007873 0.44000283 0 60
1.0111336 -1.3170341 0.46191064 0 61
1.004127 -1.3079078 0.47509193 0 62
0.998671 -1.3008013 0.4888902 0 63
1.0275816 -1.3049222 -0.49515054 0 0
1.0255164 -1.3022997 -0.47759932 0 1
1.0308759 -1.3091056 -0.4635407 0 2
1.0306023 -1.3087583 -0.44695196 0 3
1.022372 -1.2983066 -0.42712879 0 4
1.0280658 -1.3055371 -0.41324073 0 5
1.0264939 -1.3035409 -0.39644107 0 6
1.0240097 -1.3003863 -0.37942374 0 7
1.0189172 -1.2939193 -0.36162591 0 8
1.0239078 -1.3002568 -0.34747282 0 9
1.0226636 -1.2986768 -0.33120692 0 10
1.0192155 -1.2942981 -0.31435803 0 11
1.0252585 -1.3019723 -0.30045193 0 12
1.0228531 -1.2989175 -0.28406641 0 13
1.0254444 -1.3022082 -0.26911533 0 14
1.022083 -1.2979397 -0.25266045 0 15
1.0207392 -1.2962332 -0.23681964 0 16
1.0228084 -1.2988609 -0.22180067 0 17
1.0279801 -1.3054283 -0.20738313 0 18
1.0290823 -1.3068279 -0.19208546 0 19
1.0210178 -1.2965869 -0.17521447 0 20
1.0278165 -1.3052206 -0.16094333 0 21
1.0284034 -1.3059659 -0.14561607 0 22
1.032917 -1.3116976 -0.13079326 0 23
1.0263172 -1.3033167 -0.1146166 0 24
1.0227902 -1.2988377 -0.098953858 0 25
1.0244173 -1.3009039 -0.083834969 0 26
1.0275005 -1.3048192 -0.068779275 0 27
1.0141191 -1.2878263 -0.052786402 0 28
1.0233474 -1.2995452 -0.038041234 0 29
1.0293372 -1.3071517 -0.022955747 0 30
1.023176 -1.2993275 -0.0076056849 0 31
1.0212717 -1.2969093 0.0075915302 0 32
1.0267584 -1.3038769 0.022898236 0 33
1.0265132 -1.3035655 0.03815892 0 34
1.0247205 -1.301289 0.053338218 0 35
1.0206105 -1.2960695 0.068318069 0 36
