# .PCD v0.7 - Point Cloud Data file format
VERSION 0.7
FIELDS x y z intensity ring
SIZE 4 4 4 4 2
TYPE F F F F U
COUNT 1 1 1 1 1
WIDTH 1330
HEIGHT 1
VIEWPOINT 0 0 0 1 0 0 0
POINTS 1330
DATA ascii
6.6882148 1.4617834 0.28351691 0 36
6.6735821 1.4585853 0.34586015 0 37
6.6808562 1.4601752 0.40932804 0 38
6.6946645 1.4631931 0.473465 0 39
6.6748991 1.4588732 0.5352515 0 40
6.6752334 1.4589462 0.59855694 0 41
6.6941686 1.4630847 0.66381532 0 42
6.6748853 1.4588701 0.72539347 0 43
6.6885195 1.46185 0.79061973 0 44
6.6824484 1.4605231 0.85372412 0 45
6.687809 1.4616947 0.91842908 0 46
6.6679959 1.4573643 0.97969633 0 47
6.6895781 1.4620814 1.0472323 0 48
6.684948 1.4610693 1.111009 0 49
6.6819215 1.460408 1.1751714 0 50
6.6795926 1.4598989 1.2396092 0 51
6.6941915 1.4630897 1.3075247 0 52
6.6708722 1.4579929 1.3681775 0 53
6.6850948 1.4611015 1.4366825 0 54
6.6852422 1.4611337 1.5025573 0 55
6.6815381 1.4603242 1.5677979 0 56
6.6874871 1.4616244 1.6356051 0 57
6.6707602 1.4579686 1.6980511 0 58
6.6722507 1.4582943 1.7652876 0 59
0 0 0 0 60
0 0 0 0 61
0 0 0 0 62
0 0 0 0 63
2.4032378 0.55630064 -0.73538113 0 0
2.4709849 0.57198274 -0.73077887 0 1
2.5722413 0.59542155 -0.73449355 0 2
2.660877 0.6159389 -0.7328065 0 3
2.7754157 0.6424523 -0.73633045 0 4
2.8895707 0.66887683 -0.73758203 0 5
2.9964814 0.6936245 -0.73490071 0 6
3.1269078 0.72381556 -0.73575002 0 7
3.2756011 0.75823498 -0.73825514 0 8
3.4148684 0.79047257 -0.73591685 0 9
3.5584867 0.8237173 -0.7318579 0 10
3.7586818 0.87005836 -0.73618829 0 11
3.9476504 0.91380078 -0.7346409 0 12
4.1725402 0.96585816 -0.73587143 0 13
4.3918247 1.016618 -0.7319243 0 14
4.664742 1.079793 -0.73227382 0 15
4.9923172 1.1556199 -0.73552918 0 16
5.3596606 1.2406524 -0.73807526 0 17
5.7147121 1.3228396 -0.73211265 0 18
6.2056022 1.4364707 -0.73556858 0 19
6.3279276 1.4647864 -0.68959314 0 20
6.309689 1.4605647 -0.62742257 0 21
6.3120179 1.4611037 -0.56755608 0 22
6.3140769 1.4615803 -0.50772041 0 23
6.3338914 1.466167 -0.44919121 0 24
6.3206019 1.4630908 -0.38832864 0 25
6.3330941 1.4659824 -0.32912362 0 26
6.3304052 1.46536 -0.26909268 0 27
6.3165503 1.462153 -0.2087891 0 28
6.3171329 1.4622878 -0.14912359 0 29
6.3247108 1.4640419 -0.089571379 0 30
6.319169 1.4627591 -0.029829282 0 31
6.3134074 1.4614253 0.029802084 0 32
6.3146191 1.4617058 0.089428455 0 33
6.3085284 1.4602959 0.14892046 0 34
6.3236103 1.4637872 0.20902246 0 35
6.3289948 1.4650335 0.26903272 0 36
6.3216634 1.4633365 0.3285296 0 37
6.3169971 1.4622563 0.38810715 0 38
6.307076 1.4599599 0.44728953 0 39
6.3269382 1.4645574 0.50875461 0 40
6.3353362 1.4665015 0.5696528 0 41
6.3085446 1.4602997 0.62730879 0 42
6.3342409 1.4662479 0.69028115 0 43
6.3056211 1.459623 0.74742407 0 44
6.3099575 1.4606268 0.80836958 0 45
6.3312302 1.465551 0.87186944 0 46
6.3257551 1.4642836 0.93198752 0 47
6.3139052 1.4615406 0.99116033 0 48
6.3165636 1.4621559 1.0526937 0 49
6.3236899 1.4638056 1.1152494 0 50
6.3128386 1.4612937 1.1747923 0 51
6.3267851 1.464522 1.2391858 0 52
6.3149734 1.4617878 1.2987721 0 53
6.3127961 1.4612838 1.3604311 0 54
6.3219814 1.4634101 1.4248486 0 55
6.3299494 1.4652545 1.489414 0 56
6.3175797 1.4623913 1.5494152 0 57
6.3147488 1.4617358 1.6118814 0 58
6.320364 1.4630357 1.6768214 0 59
6.334487 1.4663048 1.7445199 0 60
0 0 0 0 61
0 0 0 0 62
0 0 0 0 63
2.3913517 0.58461851 -0.73388827 0 0
2.4815927 0.60667992 -0.73606664 0 1
2.5687273 0.6279819 -0.73563951 0 2
2.6660962 0.65178579 -0.73639542 0 3
2.7784133 0.67924422 -0.73928571 0 4
2.8627903 0.69987208 -0.73288751 0 5
3.0023527 0.73399115 -0.73849839 0 6
3.1079512 0.75980699 -0.73343247 0 7
3.2553117 0.79583251 -0.73583227 0 8
3.3936663 0.82965636 -0.73349082 0 9
3.5546136 0.86900342 -0.73320359 0 10
3.7368333 0.91355109 -0.73405373 0 11
3.938354 0.96281725 -0.73505855 0 12
4.1397572 1.0120547 -0.73222923 0 13
4.3911781 1.0735201 -0.73396099 0 14
4.6792502 1.1439456 -0.73670375 0 15
4.9973774 1.2217188 -0.73843217 0 16
5.2824197 1.2914037 -0.72957009 0 17
5.7262673 1.3999119 -0.73574257 0 18
5.9483047 1.4541938 -0.70713639 0 19
5.9404306 1.4522688 -0.64926225 0 20
5.9564466 1.4561844 -0.59403253 0 21
5.9568477 1.4562825 -0.5371899 0 22
5.9572797 1.456388 -0.48043376 0 23
5.9531145 1.4553698 -0.42342418 0 24
5.9504271 1.4547126 -0.3666569 0 25
5.9616318 1.4574519 -0.31072703 0 26
5.9587803 1.4567548 -0.25403789 0 27
5.9666648 1.4586824 -0.19780181 0 28
5.9736986 1.460402 -0.14142963 0 29
5.9523096 1.455173 -0.084544405 0 30
5.9614739 1.4574133 -0.028223263 0 31
5.9691873 1.4592991 0.02825978 0 32
5.9544802 1.4557036 0.084575228 0 33
5.95929 1.4568795 0.1410885 0 34
5.9749193 1.4607004 0.19807546 0 35
5.9687214 1.4591851 0.25446171 0 36
5.9649277 1.4582578 0.31089881 0 37
5.9546833 1.4557533 0.36691916 0 38
5.952323 1.4551762 0.42336789 0 39
5.9615555 1.4574333 0.48077857 0 40
5.9575024 1.4564425 0.53724897 0 41
5.9775095 1.4613336 0.59613305 0 42
5.9538808 1.4555571 0.65073228 0 43
5.9603519 1.4571391 0.70856857 0 44
5.9650416 1.4582856 0.76642168 0 45
5.9454856 1.4535047 0.82114798 0 46
5.9401617 1.4522032 0.87774169 0 47
5.9491773 1.4544072 0.93664175 0 48
5.9463563 1.4537176 0.99390036 0 49
5.9507771 1.4547982 1.0525576 0 50
5.9543457 1.4556707 1.1113253 0 51
5.9647121 1.458205 1.1716924 0 52
5.9597578 1.4569938 1.2293082 0 53
5.9560642 1.4560908 1.2873152 0 54
5.9570222 1.4563251 1.3465282 0 55
5.9625125 1.4576672 1.4070686 0 56
5.9362564 1.4512484 1.4601603 0 57
5.9598875 1.4570256 1.5257587 0 58
5.95327 1.4554077 1.5840578 0 59
5.9533858 1.4554361 1.6443691 0 60
5.9623675 1.4576319 1.70752 0 61
5.9632316 1.4578431 1.7687576 0 62
0 0 0 0 63
2.3951569 0.61685508 -0.73732811 0 0
2.4624012 0.63417339 -0.73263186 0 1
2.5460103 0.65570629 -0.73138756 0 2
2.6454949 0.68132788 -0.73296386 0 3
2.7557645 0.70972693 -0.73552579 0 4
2.8592572 0.73638076 -0.7342456 0 5
2.9736841 0.76585054 -0.73370761 0 6
3.1016862 0.79881656 -0.73421651 0 7
3.2336667 0.83280712 -0.73319894 0 8
3.388371 0.87265015 -0.73461008 0 9
3.5638521 0.91784394 -0.7373814 0 10
3.758019 0.96785021 -0.74049723 0 11
3.9164009 1.0086403 -0.73322058 0 12
4.1521869 1.0693654 -0.73669791 0 13
4.3873887 1.1299398 -0.73559439 0 14
4.6786585 1.2049543 -0.73888749 0 15
4.9353385 1.2710602 -0.73151928 0 16
5.3030772 1.3657687 -0.73468709 0 17
5.6449018 1.4538031 -0.72753018 0 18
5.6421809 1.4531024 -0.67281759 0 19
5.6154513 1.4462183 -0.61564058 0 20
5.6259012 1.4489095 -0.56280166 0 21
5.635159 1.4512939 -0.50975078 0 22
5.6308074 1.4501731 -0.45550856 0 23
5.6330938 1.450762 -0.40190071 0 24
5.6246552 1.4485888 -0.34765461 0 25
5.6425958 1.4532092 -0.29500759 0 26
5.6326156 1.4506388 -0.24087492 0 27
5.6372776 1.4518396 -0.1874599 0 28
5.620965 1.4476383 -0.13348986 0 29
5.6370578 1.4517828 -0.080314167 0 30
5.6316886 1.4504001 -0.026744382 0 31
5.6378393 1.4519842 0.026773592 0 32
5.642746 1.4532478 0.080395207 0 33
5.6321278 1.4505132 0.13375497 0 34
5.6336012 1.4508927 0.18733765 0 35
5.6415033 1.4529278 0.241255 0 36
5.6277399 1.4493831 0.29423088 0 37
5.6329756 1.4507316 0.34816888 0 38
5.6358881 1.4514817 0.40210006 0 39
5.635282 1.4513257 0.45587054 0 40
5.6304049 1.4500695 0.50932068 0 41
5.6298318 1.449922 0.56319493 0 42
5.6387606 1.4522215 0.61819607 0 43
5.6408448 1.4527583 0.67265826 0 44
5.6307716 1.450164 0.72570908 0 45
5.6366587 1.4516801 0.78090137 0 46
5.6319518 1.4504678 0.83477175 0 47
5.6344376 1.4511081 0.88983101 0 48
5.6196394 1.4472969 0.94219482 0 49
5.6424546 1.4531728 1.0011072 0 50
5.6328144 1.4506902 1.054564 0 51
5.6205678 1.447536 1.1075023 0 52
5.6442075 1.4536242 1.1678189 0 53
5.6364679 1.4516309 1.2220049 0 54
5.6431613 1.4533548 1.2795259 0 55
5.6332068 1.4507911 1.3334662 0 56
5.6267066 1.4491171 1.3882973 0 57
5.6349673 1.4512445 1.4470366 0 58
5.6294169 1.449815 1.5025164 0 59
5.6230998 1.4481881 1.5579425 0 60
5.6362453 1.4515736 1.6191134 0 61
5.625886 1.4489057 1.6738554 0 62
5.6443782 1.4536682 1.7375726 0 63
2.3694532 0.64140242 -0.73178804 0 0
2.4703414 0.6687125 -0.73738503 0 1
2.5547223 0.69155413 -0.7362774 0 2
2.6412542 0.71497798 -0.73416924 0 3
2.7440948 0.74281657 -0.73479348 0 4
2.8607907 0.77440572 -0.73702902 0 5
2.9798782 0.80664229 -0.73762745 0 6
3.1044621 0.84036672 -0.73726404 0 7
3.2331831 0.87521106 -0.73547393 0 8
3.3668084 0.91138291 -0.73230952 0 9
3.5247474 0.95413643 -0.73166269 0 10
3.7124515 1.0049472 -0.73389786 0 11
3.9160795 1.0600686 -0.73554522 0 12
4.1305404 1.1181223 -0.73524106 0 13
4.3870692 1.1875638 -0.73793328 0 14
4.6151733 1.2493109 -0.73123229 0 15
4.937171 1.3364744 -0.73417121 0 16
5.289196 1.4317663 -0.73514748 0 17
5.3632517 1.451813 -0.69347882 0 18
5.3370376 1.4447169 -0.63850009 0 19
5.3423791 1.4461627 -0.58760786 0 20
5.339498 1.445383 -0.53588808 0 21
5.338881 1.4452159 -0.48452067 0 22
5.3481455 1.4477237 -0.4340497 0 23
5.3422894 1.4461385 -0.38239267 0 24
5.3354464 1.4442861 -0.33085155 0 25
5.3392439 1.445314 -0.28005567 0 26
5.3318276 1.4433066 -0.22875361 0 27
5.3350964 1.4441913 -0.17798835 0 28
5.3252354 1.4415221 -0.12687808 0 29
5.3361053 1.4444646 -0.076273635 0 30
5.329812 1.4427609 -0.025393127 0 31
5.331212 1.4431399 0.025399797 0 32
5.3458533 1.4471031 0.076412968 0 33
5.3499513 1.4482125 0.12746696 0 34
5.3477621 1.4476199 0.1784109 0 35
5.3387284 1.4451746 0.22904967 0 36
5.3322921 1.4434323 0.27969104 0 37
5.3462491 1.4472103 0.33152142 0 38
5.3365378 1.4445816 0.38198099 0 39
5.3575516 1.4502699 0.43481308 0 40
5.343833 1.4465563 0.48497006 0 41
5.3512506 1.4485643 0.53706759 0 42
5.3369808 1.4447014 0.58701414 0 43
5.337811 1.4449263 0.63859266 0 44
5.3526287 1.4489373 0.69210517 0 45
5.3407912 1.445733 0.74231875 0 46
5.3509793 1.4484909 0.79570574 0 47
5.3423901 1.4461657 0.84645313 0 48
5.3279333 1.4422524 0.89619273 0 49
5.353591 1.4491978 0.95294553 0 50
5.3509107 1.4484723 1.0050452 0 51
5.3533697 1.4491379 1.0582836 0 52
5.3513012 1.448578 1.1108165 0 53
5.3487935 1.4478992 1.1634082 0 54
5.3468223 1.4473655 1.2162776 0 55
5.3364792 1.4445657 1.2673352 0 56
5.3371458 1.4447461 1.3211362 0 57
5.3416281 1.4459594 1.3761702 0 58
5.3288569 1.4425024 1.426922 0 59
5.3390293 1.445256 1.4840492 0 60
5.3428249 1.4462835 1.5398155 0 61
5.3434949 1.4464649 1.5950077 0 62
5.3434939 1.4464645 1.6502986 0 63
2.3798676 0.67573482 -0.73751497 0 0
2.4658449 0.70014709 -0.73855692 0 1
2.5413671 0.7215907 -0.73493004 0 2
2.632333 0.74741936 -0.73418862 0 3
2.7269034 0.77427143 -0.73268408 0 4
2.8285692 0.80313826 -0.73121673 0 5
2.9632521 0.84137982 -0.73601723 0 6
3.0730116 0.87254471 -0.73228765 0 7
3.2200093 0.91428292 -0.73497897 0 8
3.3530226 0.95205051 -0.73180199 0 9
3.5240819 1.0006207 -0.73402309 0 10
3.7079837 1.0528375 -0.73551834 0 11
3.9094739 1.1100482 -0.73681259 0 12
4.0792456 1.1582528 -0.72859067 0 13
4.3460155 1.2339989 -0.73352468 0 14
4.6076908 1.3082985 -0.73254025 0 15
4.9304538 1.3999431 -0.73567659 0 16
5.1098943 1.450893 -0.71265209 0 17
5.0990171 1.4478047 -0.66156471 0 18
5.1265697 1.4556279 -0.61541551 0 19
5.1074376 1.4501957 -0.56368548 0 20
5.1041164 1.4492525 -0.51401412 0 21
5.1192513 1.4535499 -0.46617538 0 22
5.1177506 1.4531239 -0.41676977 0 23
5.113296 1.451859 -0.36725178 0 24
5.1069622 1.4500605 -0.31776488 0 25
5.1091304 1.4506762 -0.26890102 0 26
5.1084914 1.4504948 -0.21992032 0 27
5.1203742 1.4538687 -0.17140831 0 28
5.109427 1.4507605 -0.12215208 0 29
5.1136327 1.4519545 -0.073343292 0 30
5.1074233 1.4501915 -0.024416702 0 31
5.107677 1.4502635 0.024417914 0 32
5.1186285 1.4533731 0.073414952 0 33
5.1048193 1.4494522 0.12204192 0 34
5.105845 1.4497433 0.17092192 0 35
5.10745 1.4501991 0.21987548 0 36
5.1066761 1.4499794 0.26877186 0 37
5.1134834 1.4519123 0.31817067 0 38
5.1185617 1.4533542 0.36763 0 39
5.1146755 1.4522507 0.41651934 0 40
5.1170511 1.4529252 0.46597502 0 41
5.1073112 1.4501597 0.51433587 0 42
5.1050811 1.4495264 0.56342536 0 43
5.115808 1.4525722 0.61412358 0 44
5.102972 1.4489276 0.66207784 0 45
5.1007538 1.4482979 0.71137732 0 46
5.1125207 1.4516388 0.76284289 0 47
5.1030765 1.4489573 0.81129771 0 48
5.104156 1.4492638 0.86148441 0 49
5.1103363 1.4510186 0.91275287 0 50
5.1164327 1.4527496 0.96428621 0 51
5.1067238 1.4499929 1.0129734 0 52
5.1215715 1.4542087 1.0667607 0 53
5.1016736 1.4485589 1.1134477 0 54
5.116498 1.4527681 1.1678594 0 55
5.1078048 1.4502999 1.2171715 0 56
5.1076384 1.4502525 1.2686433 0 57
5.1223736 1.4544365 1.3241909 0 58
5.1108165 1.4511549 1.3732111 0 59
5.0968819 1.4471984 1.4215803 0 60
5.1027274 1.4488583 1.475642 0 61
5.1078978 1.4503262 1.5298907 0 62
5.0961413 1.4469882 1.5792814 0 63
2.3624382 0.70228761 -0.7347343 0 0
2.4561005 0.73013079 -0.73827153 0 1
2.5290246 0.75180912 -0.73397869 0 2
2.637666 0.78410518 -0.73830944 0 3
2.7358737 0.81329966 -0.73772562 0 4
2.8540778 0.8484385 -0.74045205 0 5
2.961345 0.88032603 -0.73817647 0 6
3.0825651 0.91636145 -0.73719364 0 7
3.2120435 0.95485181 -0.73578519 0 8
3.3704512 1.001942 -0.73823893 0 9
3.5079231 1.0428087 -0.73327285 0 10
3.6795726 1.0938352 -0.73249531 0 11
3.8849115 1.1548768 -0.73480421 0 12
4.0884485 1.2153828 -0.73284829 0 13
4.3483233 1.2926364 -0.73654127 0 14
4.6176491 1.3726995 -0.73675132 0 15
4.8709192 1.4479897 -0.72939497 0 16
4.8577738 1.4440819 -0.67991519 0 17
4.8855505 1.4523392 -0.63613772 0 18
4.8610687 1.4450614 -0.58563238 0 19
4.8644733 1.4460735 -0.53879231 0 20
4.8696132 1.4476016 -0.49215373 0 21
4.8697581 1.4476445 -0.44504309 0 22
4.8591385 1.4444876 -0.39712584 0 23
4.8682022 1.4471819 -0.35089999 0 24
4.8694835 1.4475629 -0.3040731 0 25
4.8551049 1.4432886 -0.25644597 0 26
4.8663559 1.4466332 -0.21024629 0 27
4.8770437 1.4498103 -0.16384704 0 28
4.8732429 1.4486805 -0.11692261 0 29
4.8694015 1.4475385 -0.070090353 0 30
4.8774438 1.4499294 -0.02340072 0 31
4.8682628 1.4471999 0.023356671 0 32
4.8702674 1.4477959 0.070102818 0 33
4.8735905 1.4487838 0.11693095 0 34
4.8586969 1.4443564 0.16323069 0 35
4.8734121 1.4487307 0.21055114 0 36
4.8657899 1.4464649 0.25701034 0 37
4.8719511 1.4482964 0.30422717 0 38
4.8711872 1.4480695 0.35111517 0 39
4.8620429 1.445351 0.39736322 0 40
4.8570056 1.4438535 0.44387767 0 41
4.8741918 1.4489626 0.49261644 0 42
4.8577528 1.4440757 0.53804791 0 43
4.8719239 1.4482883 0.58694017 0 44
4.878684 1.4502981 0.63524365 0 45
4.8740301 1.4489145 0.68219048 0 46
4.8557019 1.4434661 0.72711629 0 47
4.8691821 1.4474733 0.77688366 0 48
4.8613176 1.4451354 0.82343483 0 49
4.8657036 1.4464393 0.87217009 0 50
4.8662663 1.4466065 0.92042071 0 51
4.8661847 1.4465822 0.96871507 0 52
4.8669744 1.4468169 1.0173599 0 53
4.8690028 1.44742 1.0664707 0 54
4.8582907 1.4442356 1.1128922 0 55
4.8590517 1.4444617 1.1620393 0 56
4.8864222 1.4525983 1.2180418 0 57
4.8708186 1.4479597 1.2636682 0 58
4.8663516 1.4466318 1.3122069 0 59
4.8743358 1.4490052 1.3643759 0 60
4.8812971 1.4510748 1.4166601 0 61
4.8643951 1.4460502 1.4621732 0 62
4.8637385 1.445855 1.5126556 0 63
2.3389816 0.72673231 -0.73016316 0 0
2.445272 0.75975722 -0.73776907 0 1
2.5138717 0.78107148 -0.73231304 0 2
2.6104391 0.81107539 -0.73342454 0 3
2.7042835 0.84023327 -0.731938 0 4
2.8249576 0.87772727 -0.73564166 0 5
2.9271617 0.90948254 -0.7323879 0 6
3.0519314 0.9482491 -0.73260075 0 7
3.1918876 0.99173409 -0.73390597 0 8
3.3482709 1.0403231 -0.73612702 0 9
3.5054131 1.0891479 -0.73549205 0 10
3.6876819 1.1457797 -0.73685867 0 11
3.8760903 1.204319 -0.73588109 0 12
4.082818 1.2685503 -0.7345795 0 13
4.2868819 1.3319539 -0.72885317 0 14
4.5697727 1.4198494 -0.73184288 0 15
4.6360974 1.4404566 -0.69683129 0 16
4.6445527 1.4430839 -0.65250617 0 17
4.6648016 1.4493753 -0.60966897 0 18
4.6474276 1.443977 -0.5619908 0 19
4.6575675 1.4471276 -0.51780707 0 20
4.6578879 1.4472271 -0.47251824 0 21
4.6512256 1.4451572 -0.42666337 0 22
4.6563616 1.4467529 -0.38197842 0 23
4.6532917 1.445799 -0.33666524 0 24
4.6567621 1.4468774 -0.29187867 0 25
4.6474004 1.4439687 -0.24639426 0 26
4.6489873 1.4444617 -0.20160724 0 27
4.6599212 1.4478589 -0.15713894 0 28
4.6338654 1.4397633 -0.11159561 0 29
4.6554227 1.4464612 -0.067261271 0 30
4.6521902 1.4454569 -0.022403592 0 31
4.6526837 1.4456102 0.022405969 0 32
4.6356683 1.4403234 0.066975862 0 33
4.6607985 1.4481316 0.11224423 0 34
4.6537595 1.4459444 0.15693115 0 35
4.6332874 1.4395838 0.20092639 0 36
4.6468606 1.4438009 0.24636565 0 37
4.644568 1.4430887 0.29111439 0 38
4.6443429 1.4430187 0.33601782 0 39
4.6520238 1.4454052 0.38162258 0 40
4.6447072 1.4431319 0.42606544 0 41
4.6409311 1.4419585 0.47079808 0 42
4.6497507 1.4446989 0.51693809 0 43
4.6579733 1.4472536 0.56326604 0 44
4.6579986 1.4472616 0.60877985 0 45
4.6526461 1.4455986 0.65364319 0 46
4.6496425 1.4446652 0.69886714 0 47
4.6607952 1.4481305 0.74642003 0 48
4.6462383 1.4436076 0.78995079 0 49
4.6422954 1.4423825 0.83524054 0 50
4.647511 1.4440029 0.88233638 0 51
4.6505113 1.4449352 0.92924762 0 52
4.6524782 1.4455463 0.97616476 0 53
4.6483078 1.4442506 1.0219439 0 54
4.6583729 1.4473778 1.0710927 0 55
4.6630821 1.448841 1.1193492 0 56
4.6409221 1.4419558 1.1611778 0 57
4.6407247 1.4418944 1.208482 0 58
4.6568604 1.446908 1.2604201 0 59
4.6474214 1.4439752 1.3057317 0 60
4.6488695 1.4444251 1.3542569 0 61
4.6618228 1.4484497 1.40653 0 62
4.6472445 1.4439203 1.4507368 0 63
2.3316879 0.75602609 -0.7307331 0 0
2.4248638 0.78623742 -0.73447305 0 1
2.5216229 0.81761056 -0.73744398 0 2
2.6002347 0.84309971 -0.73341489 0 3
2.6940556 0.87352014 -0.73202157 0 4
2.8190641 0.9140529 -0.73697811 0 5
2.9084165 0.94302452 -0.73054391 0 6
3.0526495 0.98979056 -0.73563904 0 7
3.1837423 1.0322961 -0.73489624 0 8
3.337975 1.0823045 -0.73673368 0 9
3.474437 1.1265509 -0.73184395 0 10
3.6434751 1.1813598 -0.73087275 0 11
3.8369789 1.2441015 -0.73130482 0 12
4.0620561 1.3170804 -0.73370242 0 13
4.2918124 1.3915766 -0.73254538 0 14
4.438189 1.4390377 -0.71354979 0 15
4.4720445 1.4500149 -0.67480218 0 16
4.451396 1.4433199 -0.62781572 0 17
4.4334698 1.4375075 -0.58170116 0 18
4.440928 1.4399258 -0.5391202 0 19
4.4447284 1.4411581 -0.49607727 0 20
4.4419103 1.4402442 -0.45237082 0 21
4.43188 1.436992 -0.40813255 0 22
4.4343553 1.4377946 -0.36518916 0 23
4.4497185 1.4427761 -0.3231959 0 24
4.4630871 1.4471105 -0.28083351 0 25
4.4479342 1.4421976 -0.23674135 0 26
4.4539509 1.4441483 -0.19390473 0 27
4.4472871 1.4419876 -0.15055516 0 28
4.449677 1.4427625 -0.10757899 0 29
4.4514246 1.4433292 -0.064565457 0 30
4.4537163 1.4440722 -0.021531684 0 31
4.4516625 1.4434063 0.021521755 0 32
4.4498763 1.4428271 0.064543001 0 33
4.4446549 1.4411342 0.10745757 0 34
4.4432635 1.440683 0.15041895 0 35
4.451808 1.4434534 0.19381145 0 36
4.4529691 1.44383 0.23700933 0 37
4.4560065 1.4448149 0.280388 0 38
4.4541769 1.4442216 0.32351971 0 39
4.4386892 1.4391998 0.36554608 0 40
4.451088 1.44322 0.40990138 0 41
4.4424524 1.4404202 0.45242605 0 42
4.4490337 1.442554 0.49655777 0 43
4.4572053 1.4452035 0.54109621 0 44
4.4393973 1.4394295 0.58247888 0 45
4.4402518 1.4397066 0.62624401 0 46
4.4406743 1.4398435 0.67006862 0 47
4.4508977 1.4431584 0.71559304 0 48
4.4432549 1.4406803 0.75839418 0 49
4.4472103 1.4419628 0.80327034 0 50
4.4329896 1.4373518 0.84490085 0 51
4.4595261 1.4459561 0.89457077 0 52
4.4547982 1.444423 0.938344 0 53
4.4506407 1.4430749 0.98231316 0 54
4.4493747 1.4426645 1.0270394 0 55
4.4554152 1.4446231 1.0736829 0 56
4.451004 1.4431928 1.1180152 0 57
4.4632292 1.4471567 1.1668065 0 58
4.4578028 1.4453973 1.2112622 0 59
4.4334235 1.4374926 1.250479 0 60
4.4512315 1.4432665 1.3017545 0 61
4.4371395 1.4386975 1.3439763 0 62
4.4558105 1.4447514 1.3964169 0 63
2.3358605 0.78924859 -0.7350266 0 0
2.4094281 0.81410593 -0.7327745 0 1
2.4944837 0.84284478 -0.73248279 0 2
2.6043167 0.87995559 -0.73756242 0 3
2.6936464 0.91013861 -0.73489583 0 4
2.7933607 0.94383037 -0.73323721 0 5
2.9214091 0.98709577 -0.73680049 0 6
3.0361099 1.0258514 -0.73463762 0 7
3.1848946 1.0761231 -0.73816085 0 8
3.3151579 1.120137 -0.73468214 0 9
3.474704 1.174045 -0.73488551 0 10
3.6640975 1.2380379 -0.73800761 0 11
3.834305 1.2955482 -0.73377603 0 12
4.0456891 1.3669714 -0.7337268 0 13
4.2660384 1.4414238 -0.73111618 0 14
4.2622828 1.4401548 -0.68806356 0 15
4.2640972 1.440768 -0.64604878 0 16
4.2464647 1.4348102 -0.60135555 0 17
4.2673941 1.4418819 -0.56219471 0 18
4.2609529 1.4397055 -0.5193814 0 19
4.2639694 1.4407247 -0.47784385 0 20
4.2538142 1.4372935 -0.43498188 0 21
4.2683306 1.4421983 -0.39467454 0 22
4.2783685 1.44559 -0.35378012 0 23
4.2529321 1.4369954 -0.31016269 0 24
4.2787333 1.4457132 -0.27033147 0 25
4.2628794 1.4403565 -0.22781727 0 26
4.265306 1.4411763 -0.18644941 0 27
4.2718863 1.4433997 -0.14520715 0 28
4.2585969 1.4389095 -0.10337923 0 29
4.2697129 1.4426653 -0.062182434 0 30
4.2716875 1.4433326 -0.020735895 0 31
4.257606 1.4385746 0.020667538 0 32
4.2727594 1.4436948 0.062226806 0 33
4.2778516 1.4454151 0.10384665 0 34
4.2606397 1.4395996 0.14482486 0 35
4.2720175 1.443444 0.1867428 0 36
4.2640166 1.4407406 0.22787803 0 37
4.2740364 1.4441262 0.27003476 0 38
4.265954 1.4413953 0.31111237 0 39
4.2633505 1.4405156 0.35253826 0 40
4.2728739 1.4437333 0.3950946 0 41
4.2673793 1.4418769 0.43636903 0 42
4.264102 1.4407696 0.47785869 0 43
4.2737522 1.4440302 0.52094156 0 44
4.276464 1.4449464 0.5633896 0 45
4.2559252 1.4380066 0.60269529 0 46
4.2669821 1.4417427 0.64648581 0 47
4.2656636 1.4412972 0.68860936 0 48
4.2664614 1.4415668 0.73118865 0 49
4.2749343 1.4444296 0.77530277 0 50
4.2666717 1.4416378 0.81651855 0 51
4.2599277 1.4393592 0.85801733 0 52
4.2556219 1.4379042 0.90004641 0 53
4.2679615 1.4420735 0.94583577 0 54
4.2606521 1.4396039 0.98748845 0 55
4.2721677 1.4434948 1.0337225 0 56
4.2605534 1.4395705 1.0745424 0 57
4.2642307 1.4408129 1.11933 0 58
4.2792754 1.4458964 1.167496 0 59
4.2607794 1.4396468 1.2066853 0 60
4.2672453 1.4418316 1.2530384 0 61
4.2680573 1.442106 1.2980356 0 62
4.2775064 1.4452987 1.3460056 0 63
2.3199971 0.81580591 -0.73313612 0 0
2.4103308 0.8475709 -0.73616296 0 1
2.5021505 0.87985849 -0.73785526 0 2
2.5881145 0.91008693 -0.7360875 0 3
2.6845233 0.94398826 -0.73551804 0 4
2.7734842 0.97527051 -0.73111242 0 5
2.8976202 1.0189219 -0.73390526 0 6
3.0025713 1.0558269 -0.72960865 0 7
3.1509602 1.1080066 -0.7333982 0 8
3.2918603 1.1575528 -0.73261809 0 9
3.4548364 1.2148619 -0.7337876 0 10
3.6165733 1.2717352 -0.73152989 0 11
3.8156576 1.3417413 -0.73330939 0 12
4.0130382 1.4111484 -0.73089695 0 13
4.090816 1.4384984 -0.70406467 0 14
4.0910239 1.4385715 -0.66322261 0 15
4.0997405 1.4416364 -0.62378585 0 16
4.0888071 1.4377918 -0.58148885 0 17
4.0839829 1.4360956 -0.54031736 0 18
4.1030564 1.4428025 -0.50225949 0 19
4.0936041 1.4394788 -0.46070057 0 20
4.0867004 1.4370512 -0.41966859 0 21
4.0904226 1.43836 -0.37983084 0 22
4.0945697 1.4398181 -0.34002 0 23
4.1031117 1.442822 -0.30050758 0 24
4.1068478 1.4441358 -0.26057395 0 25
4.0969214 1.4406452 -0.21987823 0 26
4.0874286 1.4373071 -0.17943285 0 27
4.0940294 1.4396282 -0.13975272 0 28
4.0923939 1.4390532 -0.099766605 0 29
4.1000519 1.441746 -0.059965216 0 30
4.1084843 1.4447111 -0.020028383 0 31
4.0991693 1.4414356 0.019982973 0 32
4.1047511 1.4433984 0.06003394 0 33
4.1074405 1.444344 0.10013341 0 34
4.0979681 1.4410133 0.13988717 0 35
4.0952282 1.4400498 0.17977525 0 36
4.0931454 1.4393173 0.21967556 0 37
4.0953941 1.4401081 0.25984722 0 38
4.0944014 1.4397591 0.29986966 0 39
4.1001587 1.4417835 0.34048414 0 40
4.1045089 1.4433132 0.38113886 0 41
4.1004653 1.4418914 0.42108211 0 42
4.088644 1.4377346 0.46014234 0 43
4.0899849 1.4382061 0.50065941 0 44
4.0902863 1.4383121 0.54115129 0 45
4.0862956 1.4369087 0.5811317 0 46
4.0958633 1.4402732 0.62319601 0 47
4.0974984 1.440848 0.66427219 0 48
4.0887504 1.4377718 0.70370913 0 49
4.1073747 1.4443209 0.74807853 0 50
4.0988665 1.4413291 0.78773767 0 51
4.0985713 1.4412253 0.82902431 0 52
4.0988655 1.4413289 0.87057567 0 53
4.1123614 1.4460746 0.91522431 0 54
4.0970798 1.440701 0.95361125 0 55
4.1099825 1.445238 0.99870354 0 56
4.0872564 1.4372466 1.0352147 0 57
4.1016169 1.4422963 1.0812187 0 58
4.0932956 1.4393703 1.1215 0 59
4.0928907 1.4392278 1.164062 0 60
4.0979424 1.4410042 1.2084358 0 61
4.0944653 1.4397814 1.2505311 0 62
4.1012831 1.4421788 1.2960355 0 63
2.3079767 0.84360671 -0.73256028 0 0
2.4043117 0.87881887 -0.73756933 0 1
2.4811287 0.90689683 -0.73488909 0 2
2.5753474 0.9413355 -0.73569292 0 3
2.6807973 0.97987926 -0.7377426 0 4
2.7770534 1.0150626 -0.7352879 0 5
2.8961551 1.0585964 -0.7367754 0 6
3.0271347 1.1064718 -0.73882765 0 7
3.1477244 1.1505495 -0.7358824 0 8
3.2845674 1.2005681 -0.73422503 0 9
3.4435351 1.2586735 -0.73461896 0 10
3.6230919 1.3243048 -0.73608661 0 11
3.8097005 1.3925136 -0.73539972 0 12
3.9246664 1.4345356 -0.71796018 0 13
3.9174409 1.4318945 -0.67720443 0 14
3.9237974 1.434218 -0.63892317 0 15
3.9241779 1.4343572 -0.59971184 0 16
3.9144235 1.4307917 -0.55914873 0 17
3.9393384 1.4398985 -0.52348351 0 18
3.9307423 1.4367565 -0.48329243 0 19
3.9214132 1.4333465 -0.44327196 0 20
3.9279017 1.4357183 -0.40514365 0 21
3.9152684 1.4311005 -0.36517271 0 22
3.9277551 1.4356647 -0.32760867 0 23
3.9174607 1.4319018 -0.28817844 0 24
3.9338648 1.4378978 -0.25070131 0 25
3.9250405 1.4346725 -0.21158433 0 26
3.9343061 1.4380592 -0.17347413 0 27
3.9195955 1.4326822 -0.13438949 0 28
3.9296126 1.4363436 -0.096221529 0 29
3.9189184 1.4324347 -0.057569306 0 30
3.9093034 1.4289203 -0.019141609 0 31
3.9158878 1.431327 0.019173848 0 32
3.9183848 1.4322397 0.057561468 0 33
3.9290278 1.4361298 0.096207209 0 34
3.9171228 1.4317784 0.13430472 0 35
3.9287913 1.4360434 0.17323096 0 36
3.9351041 1.4383508 0.21212681 0 37
3.9314153 1.4370025 0.2505452 0 38
3.9262731 1.435123 0.28882673 0 39
3.9240839 1.4343228 0.32730246 0 40
3.9220474 1.4335784 0.365805 0 41
3.9289401 1.4360977 0.40525073 0 42
3.9357936 1.4386029 0.4448975 0 43
3.9307172 1.4367474 0.48328936 0 44
3.9243875 1.4344337 0.52149677 0 45
3.9286573 1.4359944 0.56118196 0 46
3.9298766 1.4364401 0.60058272 0 47
3.914541 1.4308347 0.63741595 0 48
3.931047 1.436868 0.67955655 0 49
3.9274457 1.4355515 0.71846861 0 50
3.9222782 1.4336628 0.75713092 0 51
3.9073455 1.4282045 0.79383707 0 52
3.9124131 1.4300568 0.83464599 0 53
3.9295454 1.4363191 0.87840205 0 54
3.9306331 1.4367167 0.91891259 0 55
3.9115219 1.4297311 0.9546786 0 56
3.9124248 1.4300611 0.99531209 0 57
3.9169793 1.431726 1.0371093 0 58
3.9277 1.4356445 1.0808843 0 59
3.9136317 1.4305023 1.1179971 0 60
3.9333007 1.4376917 1.16501 0 61
3.9291787 1.436185 1.2053519 0 62
3.9249825 1.4346513 1.2458038 0 63
2.289968 0.86908889 -0.73018104 0 0
2.4026709 0.91186196 -0.74044979 0 1
2.461782 0.93429583 -0.73250622 0 2
2.54984 0.96771556 -0.73175019 0 3
2.6441047 1.0034909 -0.73098546 0 4
2.7577128 1.0466075 -0.7335192 0 5
2.8792331 1.0927269 -0.73583311 0 6
3.0011055 1.1389799 -0.73583746 0 7
3.1307864 1.1881964 -0.73528266 0 8
3.2749991 1.242928 -0.73544705 0 9
3.4320068 1.3025156 -0.73552084 0 10
3.5891485 1.3621541 -0.73253804 0 11
3.7705326 1.430993 -0.73118037 0 12
3.7825046 1.4355366 -0.69513041 0 13
3.7739429 1.4322873 -0.65539318 0 14
3.784317 1.4362245 -0.61904013 0 15
3.7673314 1.429778 -0.57838494 0 16
3.7784851 1.4340111 -0.54220867 0 17
3.7824497 1.4355158 -0.50494272 0 18
3.7847741 1.4363979 -0.46748167 0 19
3.774755 1.4325955 -0.42865276 0 20
3.7847495 1.4363886 -0.39217034 0 21
3.788193 1.4376955 -0.35494259 0 22
3.7763317 1.4331938 -0.31642464 0 23
3.7749274 1.4326609 -0.27896819 0 24
3.7827866 1.4356436 -0.24217996 0 25
3.7791107 1.4342486 -0.20465302 0 26
3.7825358 1.4355484 -0.16754784 0 27
3.7675369 1.4298561 -0.12976895 0 28
3.7663624 1.4294103 -0.09264753 0 29
3.7670546 1.429673 -0.055592462 0 30
3.7720289 1.4315609 -0.018554242 0 31
3.7792835 1.4343141 0.018589929 0 32
3.7725017 1.4317403 0.055672847 0 33
3.7684658 1.4302086 0.092699267 0 34
3.7870457 1.43726 0.13044091 0 35
3.7936873 1.4397806 0.1680418 0 36
3.7656455 1.4291382 0.20392382 0 37
3.779772 1.4344996 0.24198698 0 38
3.7845194 1.4363012 0.27967703 0 39
3.7874448 1.4374114 0.31735584 0 40
3.7799811 1.4345789 0.35417315 0 41
3.7831578 1.4357846 0.39200541 0 42
3.779743 1.4344884 0.42921919 0 43
3.7844784 1.4362857 0.46744516 0 44
3.7781212 1.4338731 0.50436491 0 45
3.78509 1.4365178 0.5431565 0 46
3.7639349 1.428489 0.57786345 0 47
3.7837231 1.435999 0.61894298 0 48
3.7648666 1.4288425 0.65381688 0 49
3.7764547 1.4332405 0.6940186 0 50
3.7837865 1.4360231 0.73375058 0 51
3.7729418 1.4319074 0.77004993 0 52
3.7737682 1.4322209 0.80876446 0 53
3.7793705 1.4343472 0.84871072 0 54
3.7825909 1.4355693 0.88836259 0 55
3.7735467 1.4321369 0.92523134 0 56
3.7658088 1.4292002 0.9624114 0 57
3.7827976 1.4356477 1.0061797 0 58
3.7830441 1.4357413 1.045855 0 59
3.7880893 1.4376562 1.0871016 0 60
3.7863889 1.4370108 1.1266445 0 61
3.7762489 1.4331625 1.1637559 0 62
3.7886658 1.4378749 1.208057 0 63
2.2941062 0.90308332 -0.73498583 0 0
2.3646832 0.93086624 -0.73221493 0 1
2.4634511 0.96974665 -0.73649532 0 2
2.5618217 1.0084705 -0.73869157 0 3
2.6513877 1.0437285 -0.73649138 0 4
2.7563443 1.0850451 -0.73664832 0 5
2.8655517 1.1280349 -0.7358259 0 6
2.9718969 1.1698982 -0.73214763 0 7
3.0945582 1.2181842 -0.73023707 0 8
3.2678757 1.2864113 -0.73734385 0 9
3.4227574 1.347381 -0.73703361 0 10
3.5959034 1.4155406 -0.73741353 0 11
3.6477504 1.4359503 -0.7107408 0 12
3.6469693 1.4356428 -0.67341572 0 13
3.6433828 1.434231 -0.63573438 0 14
3.6449473 1.4348469 -0.59908277 0 15
3.6451268 1.4349176 -0.56228966 0 16
3.654366 1.4385546 -0.52689624 0 17
3.6390185 1.432513 -0.4881098 0 18
3.6430173 1.4340872 -0.45211631 0 19
3.6358907 1.4312817 -0.41485086 0 20
3.6520948 1.4376606 -0.38022789 0 21
3.6514204 1.4373951 -0.34375748 0 22
3.6558852 1.4391527 -0.3077918 0 23
3.6529043 1.4379792 -0.27123684 0 24
3.6494586 1.4366229 -0.23475732 0 25
3.6334102 1.4303052 -0.19770028 0 26
3.64308 1.4341118 -0.16213949 0 27
3.6486335 1.4362979 -0.12627222 0 28
3.6347332 1.4308261 -0.089835621 0 29
3.6583493 1.4401226 -0.054245468 0 30
3.6554677 1.4389883 -0.018066561 0 31
3.6384692 1.4322968 0.01798255 0 32
3.632339 1.4298836 0.053859793 0 33
3.6539142 1.4383767 0.090309694 0 34
3.6460197 1.435269 0.12618177 0 35
3.6382999 1.4322301 0.16192675 0 36
3.6476607 1.435915 0.19847567 0 37
3.6459756 1.4352516 0.23453327 0 38
3.6494005 1.4365999 0.27097666 0 39
3.6548903 1.438761 0.30770802 0 40
3.6420853 1.4337204 0.34287867 0 41
3.642741 1.4339783 0.37925404 0 42
3.657907 1.4399486 0.4173629 0 43
3.6435735 1.4343061 0.45218536 0 44
3.6441476 1.4345322 0.48879778 0 45
3.6545455 1.4386253 0.52692217 0 46
3.6406281 1.4331466 0.56159568 0 47
3.6493866 1.4365945 0.59981245 0 48
3.6635416 1.4421666 0.63925189 0 49
3.6456776 1.4351344 0.67317724 0 50
3.6422722 1.4337938 0.7096734 0 51
3.6475194 1.4358594 0.74799848 0 52
3.6507049 1.4371134 0.78611821 0 53
3.6518223 1.4375533 0.82397527 0 54
3.6418483 1.433627 0.85938364 0 55
3.640547 1.4331148 0.89687431 0 56
3.6533923 1.4381714 0.93813026 0 57
3.6550648 1.4388297 0.97683638 0 58
3.6511412 1.4372852 1.0141988 0 59
3.6544464 1.4385862 1.0537457 0 60
3.6418612 1.433632 1.0888033 0 61
3.6359572 1.4313079 1.12586 0 62
3.651161 1.4372929 1.1697592 0 63
2.2832484 0.9313935 -0.73512095 0 0
2.36148 0.96330607 -0.73483533 0 1
2.4483407 0.99873871 -0.73559374 0 2
2.542284 1.0370605 -0.73667932 0 3
2.6268535 1.0715585 -0.73328102 0 4
2.7314672 1.114233 -0.73360604 0 5
2.833637 1.1559106 -0.73122531 0 6
2.9879718 1.2188677 -0.73974425 0 7
3.1110487 1.2690736 -0.73775506 0 8
3.2307417 1.3178995 -0.7325663 0 9
3.3835919 1.3802508 -0.73219925 0 10
3.4976723 1.426787 -0.72081256 0 11
3.5137041 1.4333268 -0.68800479 0 12
3.5061543 1.4302471 -0.65061241 0 13
3.4958248 1.4260334 -0.61300033 0 14
3.4998832 1.4276888 -0.57808179 0 15
3.5025887 1.4287926 -0.54297119 0 16
3.5116999 1.4325093 -0.50882757 0 17
3.4993062 1.4274535 -0.47168857 0 18
3.5104029 1.4319803 -0.43781042 0 19
3.5053482 1.4299183 -0.40193194 0 20
3.5012672 1.4282535 -0.36632568 0 21
3.5121164 1.4326792 -0.33227631 0 22
3.5007308 1.4280347 -0.29618523 0 23
3.5081193 1.4310486 -0.26177305 0 24
3.5120127 1.4326369 -0.22703193 0 25
3.4982603 1.4270269 -0.19128686 0 26
3.5113087 1.4323497 -0.15704687 0 27
3.5172133 1.4347583 -0.12232535 0 28
3.5048604 1.4297192 -0.087053642 0 29
3.4998307 1.4276675 -0.052151345 0 30
3.4987664 1.4272333 -0.017377514 0 31
3.5095606 1.4316365 0.017431127 0 32
3.5031655 1.4290278 0.052201036 0 33
3.5030327 1.4289737 0.087008245 0 34
3.5071118 1.4306376 0.12197402 0 35
3.5212514 1.4364055 0.15749156 0 36
3.4954386 1.4258758 0.19113256 0 37
3.5088131 1.4313316 0.22682509 0 38
3.5224979 1.4369141 0.26284596 0 39
3.5108304 1.4321545 0.29703969 0 40
3.5097709 1.4317223 0.33205441 0 41
3.5122628 1.4327389 0.36747611 0 42
3.5178893 1.435034 0.4033699 0 43
3.5093701 1.4315588 0.43768162 0 44
3.5008559 1.4280857 0.47189748 0 45
3.5114567 1.4324101 0.50879234 0 46
3.5020571 1.4285756 0.54288876 0 47
3.5080023 1.4310008 0.57942289 0 48
3.5029647 1.428946 0.61425233 0 49
3.5111094 1.4322684 0.65153188 0 50
3.4978998 1.4268799 0.68491024 0 51
3.4960051 1.4261069 0.720469 0 52
3.5140662 1.4334745 0.76043355 0 53
3.5157652 1.4341675 0.79719496 0 54
3.5220959 1.4367501 0.83523095 0 55
3.5119398 1.4326071 0.86946505 0 56
3.5114336 1.4324006 0.90613192 0 57
3.4919555 1.424455 0.93785483 0 58
3.5116019 1.4324692 0.98025686 0 59
3.5019584 1.4285355 1.0147648 0 60
3.5048425 1.4297119 1.0530154 0 61
3.5147862 1.4337682 1.0937163 0 62
3.5108192 1.4321499 1.130353 0 63
2.265759 0.95691991 -0.73322302 0 0
2.3552661 0.99472237 -0.73665226 0 1
2.4247892 1.0240847 -0.73224586 0 2
2.5328114 1.0697068 -0.73769021 0 3
2.6059043 1.1005768 -0.73115563 0 4
2.7041104 1.142053 -0.72997516 0 5
2.8372257 1.1982729 -0.73589796 0 6
2.9631445 1.2514534 -0.73735166 0 7
3.0802002 1.3008908 -0.73417753 0 8
3.212352 1.3567036 -0.73212385 0 9
3.3568625 1.4177362 -0.7301324 0 10
3.3989351 1.435505 -0.70404899 0 11
3.391268 1.4322671 -0.66742915 0 12
3.396246 1.4343694 -0.63344252 0 13
3.3923428 1.4327209 -0.59789854 0 14
3.387485 1.4306693 -0.56238002 0 15
3.3897302 1.4316176 -0.52816486 0 16
3.3778551 1.4266021 -0.49193871 0 17
3.3912201 1.4322468 -0.45945835 0 18
3.3826604 1.4286317 -0.42403749 0 19
3.3907385 1.4320433 -0.39078006 0 20
3.392863 1.4329406 -0.35680026 0 21
3.3752744 1.4255123 -0.32096401 0 22
3.3730664 1.4245797 -0.28684434 0 23
3.3965914 1.4345152 -0.2547479 0 24
3.3689625 1.4228464 -0.218899 0 25
3.3803687 1.4276638 -0.18578637 0 26
3.3901181 1.4317813 -0.1524024 0 27
3.4003422 1.4360994 -0.11886586 0 28
3.3950288 1.4338553 -0.084757164 0 29
3.3792605 1.4271958 -0.050612394 0 30
3.3922553 1.4326839 -0.016934719 0 31
3.3862431 1.4301448 0.016904706 0 32
3.3923874 1.4327397 0.050809 0 33
3.3955836 1.4340897 0.084771015 0 34
3.3953989 1.4340116 0.11869305 0 35
3.3921645 1.4326456 0.1524944 0 36
3.3884313 1.4310689 0.1862295 0 37
3.3976622 1.4349675 0.22076377 0 38
3.3926713 1.4328598 0.2544539 0 39
3.3939407 1.4333957 0.28861949 0 40
3.3988297 1.4354606 0.32320392 0 41
3.3924134 1.4327507 0.35675296 0 42
3.3957155 1.4341453 0.39135364 0 43
3.393513 1.4332151 0.42539796 0 44
3.3851063 1.4296646 0.45863003 0 45
3.3817937 1.4282657 0.49251235 0 46
3.3954613 1.434038 0.52905786 0 47
3.3929303 1.432969 0.56328404 0 48
3.384666 1.4294786 0.59654558 0 49
3.3964481 1.4344548 0.63348019 0 50
3.3937292 1.4333065 0.6679135 0 51
3.3835347 1.4290009 0.70085895 0 52
3.3912213 1.4322473 0.73760557 0 53
3.4015319 1.4366019 0.77523971 0 54
3.3977866 1.4350201 0.80987543 0 55
3.3927703 1.4329015 0.84426016 0 56
3.3842356 1.429297 0.87777722 0 57
3.3857453 1.4299346 0.91398263 0 58
3.3917387 1.4324658 0.95164227 0 59
3.3815055 1.428144 0.98487538 0 60
3.3935118 1.4332145 1.0247838 0 61
3.3902588 1.4318408 1.060365 0 62
3.3933399 1.4331421 1.0981199 0 63
2.2538655 0.98472536 -0.73323721 0 0
2.3379714 1.0214716 -0.73511595 0 1
2.4328344 1.0629177 -0.73856652 0 2
2.4938159 1.089561 -0.73017955 0 3
2.6057134 1.1384495 -0.73497427 0 4
2.7178249 1.1874316 -0.73756325 0 5
2.8185103 1.2314216 -0.73491561 0 6
2.9377344 1.2835112 -0.73490041 0 7
3.0672858 1.3401129 -0.73497152 0 8
3.2259433 1.4094311 -0.73911548 0 9
3.2762856 1.4314259 -0.71638083 0 10
3.2768564 1.4316753 -0.68235683 0 11
3.2743342 1.4305733 -0.6478287 0 12
3.2549236 1.4220928 -0.61029947 0 13
3.2747428 1.4307518 -0.58022857 0 14
3.2733965 1.4301637 -0.5463177 0 15
3.2594528 1.4240717 -0.5105558 0 16
3.2640936 1.4260993 -0.47788867 0 17
3.2660916 1.4269722 -0.44484904 0 18
3.2744219 1.4306117 -0.41264313 0 19
3.2794678 1.4328163 -0.37995797 0 20
3.2715263 1.4293466 -0.34586242 0 21
3.270232 1.428781 -0.31262228 0 22
3.2814107 1.4336652 -0.28052795 0 23
3.2672448 1.4274759 -0.24634463 0 24
3.2571352 1.423059 -0.21275389 0 25
3.2657397 1.4268184 -0.18043694 0 26
3.2744882 1.4306407 -0.14798394 0 27
3.2731409 1.430052 -0.11502529 0 28
3.2742894 1.4305538 -0.082175836 0 29
3.2665803 1.4271857 -0.049183872 0 30
3.2717519 1.4294451 -0.016419653 0 31
3.266552 1.4271733 0.016393555 0 32
3.2632766 1.4257421 0.049134124 0 33
3.2748055 1.4307793 0.082188793 0 34
3.2674344 1.4275588 0.11482475 0 35
3.2672033 1.4274578 0.14765471 0 36
3.2734931 1.4302058 0.18086533 0 37
3.2906079 1.4376835 0.21494031 0 38
3.2814872 1.4336985 0.24741848 0 39
3.2730513 1.4300128 0.27981329 0 40
3.2733831 1.4301579 0.31292352 0 41
3.2765019 1.4315205 0.34638843 0 42
3.2774639 1.4319408 0.37972581 0 43
3.2740078 1.4304308 0.41259095 0 44
3.2603343 1.4244567 0.44406486 0 45
3.2700644 1.4287078 0.47876284 0 46
3.2761412 1.4313627 0.51316977 0 47
3.2701521 1.4287461 0.54577619 0 48
3.2777739 1.4320761 0.5807656 0 49
3.2739418 1.4304018 0.61386538 0 50
3.2740586 1.4304529 0.64777416 0 51
3.2674029 1.427545 0.68038827 0 52
3.2655401 1.4267311 0.71403122 0 53
3.2745225 1.4306557 0.75024581 0 54
3.2665882 1.4271891 0.7827276 0 55
3.260958 1.4247292 0.81575769 0 56
3.2775526 1.4319794 0.85460907 0 57
3.2745302 1.4306589 0.88864183 0 58
3.2567656 1.4228975 0.91861165 0 59
3.2688861 1.428193 0.95711708 0 60
3.2673323 1.4275142 0.99190569 0 61
3.2641571 1.4261268 1.0263315 0 62
3.2615542 1.4249898 1.0610628 0 63
2.2624278 1.0217756 -0.74005425 0 0
2.3272214 1.0510381 -0.73574394 0 1
2.4124172 1.089515 -0.73637968 0 2
2.4989152 1.1285799 -0.73568034 0 3
2.5745549 1.1627408 -0.73016322 0 4
2.698807 1.2188566 -0.73641384 0 5
2.7996244 1.2643886 -0.73398972 0 6
2.9247899 1.3209168 -0.73566985 0 7
3.0486622 1.376861 -0.7345103 0 8
3.1634355 1.4286957 -0.72876394 0 9
3.1609406 1.4275689 -0.69494563 0 10
3.1545858 1.4246989 -0.66049385 0 11
3.1519778 1.4235212 -0.62703621 0 12
3.1577387 1.4261229 -0.59532034 0 13
3.1700289 1.4316735 -0.56475157 0 14
3.1459692 1.4208075 -0.52792645 0 15
3.1599338 1.4271144 -0.49767843 0 16
3.1655853 1.4296666 -0.46600488 0 17
3.1739147 1.4334285 -0.43466219 0 18
3.1662035 1.4299458 -0.40119094 0 19
3.1592016 1.4267837 -0.36802888 0 20
3.1606514 1.4274384 -0.33597106 0 21
3.1681509 1.4308254 -0.3045226 0 22
3.1555419 1.4251307 -0.27124503 0 23
3.1521657 1.423606 -0.23896967 0 24
3.1664827 1.4300719 -0.20796543 0 25
3.1700613 1.4316882 -0.17610994 0 26
3.1543348 1.4245856 -0.14333466 0 27
3.163944 1.4289254 -0.11179689 0 28
3.1764841 1.4345889 -0.080157854 0 29
3.1588364 1.4266186 -0.047822114 0 30
3.1674743 1.4305197 -0.015983393 0 31
3.1768486 1.4347534 0.016030697 0 32
3.1717174 1.432436 0.048017122 0 33
3.1537461 1.4243197 0.07958407 0 34
3.1494761 1.4223913 0.11128567 0 35
3.1676371 1.4305934 0.14393914 0 36
3.146596 1.4210905 0.17480634 0 37
3.170748 1.4319983 0.20824558 0 38
3.1512976 1.4232138 0.23890385 0 39
3.1568239 1.4257097 0.27135524 0 40
3.1520295 1.4235445 0.302973 0 41
3.1634164 1.4286871 0.33626497 0 42
3.1547506 1.4247735 0.36751035 0 43
3.1613081 1.427735 0.40057066 0 44
3.1652298 1.4295061 0.43347281 0 45
3.1738632 1.4334052 0.46722347 0 46
3.1603358 1.4272959 0.49774173 0 47
3.1744432 1.4336672 0.53270471 0 48
3.1658795 1.4297994 0.56401235 0 49
3.1476855 1.4215826 0.59342498 0 50
3.1536772 1.4242886 0.62737429 0 51
3.1601338 1.4272046 0.66165549 0 52
3.1601622 1.4272174 0.69477451 0 53
3.1650045 1.4294043 0.72912538 0 54
3.1671913 1.4303919 0.76306731 0 55
3.1639938 1.4289479 0.79583663 0 56
3.1503162 1.4227707 0.82593203 0 57
3.1541278 1.4244921 0.86065555 0 58
3.1729226 1.4329804 0.89986479 0 59
3.1499212 1.4225923 0.92733639 0 60
3.1577227 1.4261158 0.9638809 0 61
3.1600752 1.4271781 0.99904811 0 62
3.1562946 1.4254707 1.0324436 0 63
2.2352479 1.0427769 -0.73530221 0 0
2.3129761 1.0790384 -0.73537952 0 1
2.3874228 1.1137689 -0.73287535 0 2
2.4848986 1.1592427 -0.73569471 0 3
2.5628591 1.1956125 -0.73096043 0 4
2.6852112 1.2526916 -0.73685139 0 5
2.7934232 1.3031743 -0.73650938 0 6
2.899785 1.3527936 -0.733509 0 7
3.0317304 1.4143481 -0.7345655 0 8
3.0655694 1.4301344 -0.71021593 0 9
3.0609334 1.4279717 -0.67676789 0 10
3.063864 1.4293389 -0.6451301 0 11
3.0738223 1.4339846 -0.6149497 0 12
3.0817952 1.4377041 -0.58429164 0 13
3.0587518 1.426954 -0.54801172 0 14
3.0574484 1.4263459 -0.51597595 0 15
3.0469239 1.4214361 -0.4825961 0 16
3.0661988 1.4304281 -0.45392919 0 17
3.0649834 1.4298611 -0.42212015 0 18
3.0801349 1.4369296 -0.39249435 0 19
3.05723 1.426244 -0.35816571 0 20
3.0643024 1.4295435 -0.32757315 0 21
3.0662603 1.4304569 -0.29639721 0 22
3.0657227 1.4302059 -0.26501599 0 23
3.0491955 1.4224958 -0.23247185 0 24
3.0623147 1.4286162 -0.20226245 0 25
3.067528 1.4310483 -0.17137842 0 26
3.0550795 1.4252409 -0.13961026 0 27
3.049891 1.4228203 -0.10837688 0 28
3.0709879 1.4326624 -0.077934347 0 29
3.0657318 1.4302102 -0.046675306 0 30
3.0731273 1.4336604 -0.015595089 0 31
3.0698845 1.4321475 0.015578632 0 32
3.0513074 1.4234811 0.0464557 0 33
3.0675793 1.4310721 0.077847846 0 34
3.0625317 1.4287175 0.10882606 0 35
3.0611668 1.4280807 0.13988844 0 36
3.0558815 1.425615 0.17072774 0 37
3.0551128 1.4252564 0.20178677 0 38
3.0559609 1.4256519 0.23298764 0 39
3.0614324 1.4282045 0.26464513 0 40
3.0713902 1.43285 0.29689306 0 41
3.067441 1.4310077 0.32790866 0 42
3.0658529 1.4302669 0.35917595 0 43
3.0734503 1.4338111 0.39164257 0 44
3.061183 1.4280882 0.42159677 0 45
3.0746098 1.434352 0.45517439 0 46
3.0636814 1.4292537 0.48525026 0 47
3.0509214 1.423301 0.51487446 0 48
3.0538781 1.4246804 0.54713851 0 49
3.0695884 1.4320095 0.58197731 0 50
3.0495265 1.4226502 0.61008906 0 51
3.0615346 1.4282523 0.64463967 0 52
3.0778944 1.4358844 0.68051797 0 53
3.0532384 1.424382 0.70735919 0 54
3.0674672 1.4310199 0.74322432 0 55
3.0677786 1.4311651 0.77600348 0 56
3.0519822 1.4237959 0.80468065 0 57
3.0647433 1.4297491 0.84099925 0 58
3.0604348 1.4277391 0.87287551 0 59
3.0672817 1.4309334 0.90811872 0 60
3.0700173 1.4322096 0.94241369 0 61
3.0770884 1.4355083 0.97831863 0 62
3.0618105 1.4283808 1.0072064 0 63
2.2251432 1.0715715 -0.73625708 0 0
2.3022687 1.1087132 -0.73625404 0 1
2.3857236 1.1489028 -0.73663473 0 2
2.4645112 1.1868449 -0.73392403 0 3
2.551338 1.2286584 -0.73192817 0 4
2.6641977 1.2830087 -0.73535872 0 5
2.7499337 1.3242971 -0.72928137 0 6
2.8980978 1.395649 -0.73736757 0 7
2.9705958 1.4305621 -0.72396046 0 8
2.9554846 1.423285 -0.68871462 0 9
2.9626992 1.4267592 -0.65887761 0 10
2.965981 1.4283397 -0.62817043 0 11
2.957973 1.4244833 -0.59523213 0 12
2.9633744 1.4270844 -0.56512398 0 13
2.9556603 1.4233696 -0.53263718 0 14
2.9651332 1.4279315 -0.50332195 0 15
2.9621248 1.4264828 -0.4719075 0 16
2.96264 1.4267309 -0.4411619 0 17
2.9575932 1.4243004 -0.40971112 0 18
2.9734437 1.4319336 -0.38111386 0 19
2.9765751 1.4334416 -0.35075516 0 20
2.9646704 1.4277086 -0.31877512 0 21
2.9632273 1.4270138 -0.28811201 0 22
2.9686897 1.4296442 -0.25812814 0 23
2.9601674 1.4255402 -0.22700359 0 24
2.9646175 1.4276832 -0.19695428 0 25
2.9536183 1.4223862 -0.16597906 0 26
2.9644809 1.4276173 -0.13626201 0 27
2.9559534 1.4235108 -0.10565285 0 28
2.9559855 1.4235263 -0.075454377 0 29
2.961756 1.4263052 -0.045355886 0 30
2.9532926 1.4222293 -0.015074575 0 31
2.9719338 1.4312066 0.015169727 0 32
2.9556096 1.4233451 0.045261759 0 33
2.9614851 1.4261748 0.07559476 0 34
2.9696987 1.4301301 0.10614415 0 35
2.9584076 1.4246926 0.13598286 0 36
2.9775691 1.4339203 0.16732498 0 37
2.9581831 1.4245845 0.19652681 0 38
2.9714355 1.4309666 0.22786771 0 39
2.9684913 1.4295487 0.25811091 0 40
2.9678919 1.42926 0.28856555 0 41
2.9578693 1.4244334 0.3180438 0 42
2.9616439 1.4262512 0.34899572 0 43
2.966975 1.4288185 0.38028476 0 44
2.9573634 1.4241898 0.40967929 0 45
2.960674 1.4257841 0.44086918 0 46
2.9605002 1.4257004 0.47164869 0 47
2.9669585 1.4288106 0.50363183 0 48
2.9651873 1.4279577 0.53435403 0 49
2.9703641 1.4304506 0.56645691 0 50
2.9776051 1.4339377 0.59918272 0 51
2.9604754 1.4256884 0.62700444 0 52
2.9655645 1.4281392 0.65951484 0 53
2.9669383 1.4288008 0.69138366 0 54
2.9570019 1.4240158 0.72064751 0 55
2.9703159 1.4304273 0.75574213 0 56
2.964375 1.4275664 0.78615111 0 57
2.9595864 1.4252603 0.81689048 0 58
2.9567857 1.4239116 0.84824312 0 59
2.9576423 1.4243242 0.880777 0 60
2.9728258 1.4316361 0.91791308 0 61
2.9656816 1.4281956 0.94841015 0 62
2.9634774 1.4271342 0.98055768 0 63
2.2061744 1.0960552 -0.7343846 0 0
2.2928376 1.1391107 -0.73766166 0 1
2.3628578 1.1738975 -0.73397607 0 2
2.4553814 1.2198644 -0.73561651 0 3
2.5519693 1.2678504 -0.73652613 0 4
2.6594324 1.3212395 -0.73847193 0 5
2.7350261 1.3587954 -0.72970378 0 6
2.8702469 1.4259747 -0.73468715 0 7
2.8736997 1.4276901 -0.70457119 0 8
2.8648725 1.4233047 -0.67162693 0 9
2.8664148 1.424071 -0.64131069 0 10
2.8748276 1.4282506 -0.61253822 0 11
2.8740296 1.4278541 -0.58182937 0 12
2.8671327 1.4244275 -0.55006903 0 13
2.8762171 1.4289408 -0.52144778 0 14
2.8520257 1.4169223 -0.48704302 0 15
2.8650627 1.4233992 -0.45919788 0 16
2.8751762 1.4284238 -0.43072078 0 17
2.864234 1.4229875 -0.39917195 0 18
2.8693802 1.4255443 -0.36999458 0 19
2.8782868 1.4299691 -0.34121928 0 20
2.8643155 1.423028 -0.30984253 0 21
2.8778102 1.4297323 -0.28149506 0 22
2.8692596 1.4254843 -0.2509878 0 23
2.8723216 1.4270054 -0.2215959 0 24
2.8774872 1.4295719 -0.19231908 0 25
2.8615997 1.4216788 -0.16177821 0 26
2.8887775 1.435181 -0.1335834 0 27
2.8614388 1.4215987 -0.10289169 0 28
2.872472 1.4270802 -0.073764965 0 29
2.8695037 1.4256055 -0.044208258 0 30
2.8777101 1.4296825 -0.014777395 0 31
2.8789625 1.4303048 0.014783827 0 32
2.8704023 1.426052 0.044222102 0 33
2.8735797 1.4276307 0.073793411 0 34
2.8799405 1.4307907 0.10355698 0 35
2.8722413 1.4269656 0.13281873 0 36
2.8627164 1.4222335 0.16184133 0 37
2.8761833 1.4289241 0.19223194 0 38
2.8739865 1.4278327 0.22172436 0 39
2.8679748 1.4248459 0.25087541 0 40
2.8891885 1.4353852 0.28260803 0 41
2.8738067 1.4277434 0.31086925 0 42
2.873419 1.4275507 0.34064218 0 43
2.8658688 1.4237996 0.36954176 0 44
2.8785717 1.4301107 0.40117016 0 45
2.8810506 1.4313421 0.43160081 0 46
2.8617318 1.4217443 0.45866403 0 47
2.8834286 1.4325236 0.49240571 0 48
2.8747323 1.4282031 0.5211786 0 49
2.8675244 1.4246222 0.5501442 0 50
2.8727117 1.4271992 0.58156258 0 51
2.8830585 1.4323397 0.61429197 0 52
2.8788183 1.4302331 0.64408576 0 53
2.8698788 1.4257919 0.6728006 0 54
2.8766079 1.429135 0.70528424 0 55
2.8702519 1.4259772 0.73468846 0 56
2.8741465 1.4279121 0.76682097 0 57
2.8689625 1.4253366 0.79665428 0 58
2.8742292 1.4279531 0.82953382 0 59
2.8650937 1.4234146 0.85836375 0 60
2.8604202 1.4210927 0.88853419 0 61
2.8722405 1.4269652 0.9240697 0 62
2.8699858 1.425845 0.95535219 0 63
2.182745 1.1180856 -0.73110682 0 0
2.2793779 1.1675848 -0.73789465 0 1
2.3581421 1.2079308 -0.73706943 0 2
2.438513 1.2490999 -0.73510891 0 3
2.5277812 1.2948265 -0.7340849 0 4
2.6376097 1.3510848 -0.73696977 0 5
2.7298555 1.3983366 -0.73285633 0 6
2.7834444 1.4257869 -0.71690208 0 7
2.7803669 1.4242105 -0.68592983 0 8
2.771487 1.4196619 -0.65377718 0 9
2.7920473 1.4301937 -0.62855935 0 10
2.7832105 1.425667 -0.59670752 0 11
2.7767408 1.422353 -0.56563181 0 12
2.7942448 1.4313192 -0.53942114 0 13
2.7790422 1.423532 -0.50696552 0 14
2.7913272 1.4298248 -0.47964367 0 15
2.7934062 1.4308898 -0.45049912 0 16
2.7988038 1.4336547 -0.42188871 0 17
2.7951007 1.4317577 -0.39196122 0 18
2.7756007 1.4217691 -0.36012918 0 19
2.7904165 1.4293584 -0.33286074 0 20
2.781235 1.4246552 -0.30272758 0 21
