# .PCD v0.7 - Point Cloud Data file format
VERSION 0.7
FIELDS x y z intensity ring
SIZE 4 4 4 4 2
TYPE F F F F U
COUNT 1 1 1 1 1
WIDTH 1287
HEIGHT 1
VIEWPOINT 0 0 0 1 0 0 0
POINTS 1287
DATA ascii
2.5579422 -1.2708179 -0.38319698 0 17
2.550801 -1.26727 -0.3554906 0 18
2.5565641 -1.2701331 -0.32965821 0 19
2.5581877 -1.2709398 -0.30327171 0 20
2.5493314 -1.2665399 -0.27576968 0 21
2.5607018 -1.2721889 -0.25047687 0 22
2.5575507 -1.2706233 -0.22372113 0 23
2.5459461 -1.264858 -0.19641645 0 24
2.5474393 -1.2655998 -0.17026007 0 25
2.5525262 -1.2681271 -0.14430499 0 26
2.5810442 -1.2822952 -0.11935313 0 27
2.557234 -1.270466 -0.091953091 0 28
2.55303 -1.2683774 -0.065561704 0 29
2.5470529 -1.2654079 -0.039240502 0 30
2.5627711 -1.273217 -0.013160145 0 31
2.5549777 -1.269345 0.013120124 0 32
2.5567868 -1.2702438 0.039390463 0 33
2.5580137 -1.2708534 0.06568969 0 34
2.5528963 -1.268311 0.091797121 0 35
2.544172 -1.2639767 0.11764808 0 36
2.5634055 -1.2735322 0.14492005 0 37
2.5590572 -1.2713718 0.17103657 0 38
2.5652828 -1.2744647 0.19790827 0 39
2.5576305 -1.270663 0.22372814 0 40
2.5577667 -1.2707307 0.25018975 0 41
2.5431316 -1.2634598 0.27509901 0 42
2.5448179 -1.2642975 0.3016867 0 43
2.5570109 -1.2703551 0.32971585 0 44
2.561836 -1.2727523 0.35702848 0 45
2.547986 -1.2658715 0.38170549 0 46
2.556242 -1.2699732 0.40970165 0 47
2.5559661 -1.2698361 0.43648463 0 48
2.5523877 -1.2680583 0.46273869 0 49
2.5519607 -1.2678462 0.48960227 0 50
2.5593708 -1.2715276 0.51812869 0 51
2.5524087 -1.2680687 0.54384053 0 52
2.5418539 -1.2628249 0.56869578 0 53
2.5477061 -1.2657325 0.59727204 0 54
2.5545058 -1.2691107 0.62631154 0 55
2.5557826 -1.269745 0.65419489 0 56
2.5530589 -1.2683917 0.68115497 0 57
2.5593057 -1.2714952 0.71066868 0 58
2.551008 -1.2673728 0.73624867 0 59
2.55354 -1.2686307 0.76502424 0 60
2.5641875 -1.2739205 0.79651523 0 61
2.5646367 -1.2741437 0.82510597 0 62
2.5559013 -1.2698039 0.85080069 0 63
2.2121537 -1.0653161 -0.7319591 0 0
2.2991703 -1.107221 -0.73526317 0 1
2.3821814 -1.147197 -0.73554105 0 2
2.4700627 -1.1895183 -0.73557723 0 3
2.5611498 -1.2333835 -0.73474306 0 4
2.638828 -1.2707914 -0.72835636 0 5
2.6400917 -1.2713999 -0.70015126 0 6
2.6308711 -1.2669595 -0.66937667 0 7
2.6320722 -1.267538 -0.64145923 0 8
2.6600909 -1.281031 -0.61987919 0 9
2.6308556 -1.266952 -0.5850786 0 10
2.6300688 -1.2665731 -0.55702698 0 11
2.6234457 -1.2633836 -0.5279153 0 12
2.6282594 -1.2657018 -0.50121659 0 13
2.6281817 -1.2656645 -0.47362253 0 14
2.6318331 -1.2674228 -0.44674531 0 15
2.6349151 -1.268907 -0.41977847 0 16
2.6484199 -1.2754105 -0.3943719 0 17
2.636976 -1.2698995 -0.36529648 0 18
2.6326611 -1.2678216 -0.33743489 0 19
2.6497381 -1.2760453 -0.3122412 0 20
2.6213582 -1.2623783 -0.28186056 0 21
2.6337428 -1.2683425 -0.25607651 0 22
2.6393135 -1.2710251 -0.2294888 0 23
2.6331348 -1.2680497 -0.20192476 0 24
2.6308155 -1.2669327 -0.17477815 0 25
2.6337633 -1.2683524 -0.14800476 0 26
2.6316903 -1.267354 -0.12096534 0 27
2.6288161 -1.2659699 -0.093960181 0 28
2.6442642 -1.2734092 -0.067497388 0 29
2.6290309 -1.2660733 -0.040260583 0 30
2.6256518 -1.2644461 -0.01340219 0 31
2.6248305 -1.2640506 0.013397997 0 32
2.6312766 -1.2671548 0.040294975 0 33
2.6424937 -1.2725567 0.067452192 0 34
2.6269243 -1.2650589 0.093892567 0 35
2.6339705 -1.268452 0.12107015 0 36
2.634376 -1.2686474 0.14803919 0 37
2.635251 -1.2690687 0.17507283 0 38
2.6280434 -1.2655977 0.2015343 0 39
2.6227639 -1.2630553 0.22804983 0 40
2.6304874 -1.2667748 0.25575998 0 41
2.632427 -1.2677088 0.28305075 0 42
2.6264267 -1.2648191 0.3094942 0 43
2.6275325 -1.2653517 0.33677754 0 44
2.6296282 -1.266361 0.36427861 0 45
2.6440921 -1.2733264 0.39372745 0 46
2.6333907 -1.2681729 0.41953561 0 47
2.6271544 -1.2651696 0.44595107 0 48
2.6427081 -1.2726599 0.47624031 0 49
2.6277514 -1.265457 0.50111967 0 50
2.6212108 -1.2623074 0.52746564 0 51
2.6383817 -1.2705765 0.55878764 0 52
2.6303284 -1.2666982 0.58496135 0 53
2.6440229 -1.273293 0.61613488 0 54
2.6307528 -1.2669026 0.64113772 0 55
2.6349864 -1.2689414 0.67042375 0 56
2.6329107 -1.2679417 0.6982469 0 57
2.6240978 -1.2636976 0.72429055 0 58
2.6385279 -1.2706468 0.75694126 0 59
2.6305993 -1.2668287 0.78338456 0 60
2.6249022 -1.2640851 0.81048542 0 61
2.6273749 -1.2652758 0.84022141 0 62
2.6372149 -1.2700145 0.87260371 0 63
2.2377739 -1.0439554 -0.73613322 0 0
2.3044667 -1.0750686 -0.732674 0 1
2.4011695 -1.1201819 -0.73709524 0 2
2.4684289 -1.1515595 -0.73081863 0 3
2.5640235 -1.1961558 -0.73129261 0 4
2.6781726 -1.2494081 -0.73491997 0 5
2.7060924 -1.2624331 -0.71348387 0 6
2.717756 -1.2678744 -0.68746424 0 7
2.7209768 -1.2693769 -0.65927225 0 8
2.7224722 -1.2700745 -0.6307289 0 9
2.7156124 -1.2668743 -0.60041797 0 10
2.7070608 -1.2628849 -0.5700013 0 11
2.7020435 -1.2605442 -0.54057157 0 12
2.7095935 -1.2640665 -0.51372421 0 13
2.7183895 -1.2681699 -0.48703179 0 14
2.7317493 -1.2744024 -0.46101087 0 15
2.7181652 -1.2680652 -0.43052468 0 16
2.7091465 -1.2638578 -0.40107012 0 17
2.7105212 -1.2644992 -0.37330243 0 18
2.7154133 -1.2667814 -0.34601873 0 19
2.7127669 -1.2655468 -0.3178106 0 20
2.7287419 -1.2729994 -0.29170179 0 21
2.7357144 -1.2762523 -0.26444528 0 22
2.7169993 -1.2675213 -0.23487066 0 23
2.7203159 -1.2690686 -0.20739795 0 24
2.7158816 -1.2669998 -0.17938092 0 25
2.7170517 -1.2675458 -0.15179782 0 26
2.7162726 -1.2671824 -0.12412755 0 27
2.7196009 -1.2687351 -0.096640132 0 28
2.7334969 -1.2752177 -0.069369629 0 29
2.7250419 -1.2712733 -0.041488353 0 30
2.7162795 -1.2671854 -0.013784206 0 31
2.7139382 -1.2660933 0.013772325 0 32
2.705792 -1.262293 0.041195277 0 33
2.7409906 -1.2787137 0.069559805 0 34
2.7243681 -1.2709589 0.096809529 0 35
2.7137582 -1.2660092 0.12401264 0 36
2.6979442 -1.2586317 0.1507303 0 37
2.7277358 -1.2725301 0.18016388 0 38
2.721168 -1.2694662 0.20746292 0 39
2.7160063 -1.2670581 0.23478481 0 40
2.713424 -1.2658533 0.2622906 0 41
2.7095482 -1.2640454 0.28965002 0 42
2.707258 -1.2629769 0.31716523 0 43
2.7071233 -1.2629141 0.34496239 0 44
2.7071118 -1.2629087 0.37283286 0 45
2.7154286 -1.2667886 0.40200013 0 46
2.7055061 -1.2621596 0.42851961 0 47
2.7112062 -1.2648187 0.457544 0 48
2.7148111 -1.2665005 0.48639065 0 49
2.7108474 -1.2646513 0.51396191 0 50
2.7228534 -1.2702523 0.54473478 0 51
2.7117436 -1.2650694 0.57098728 0 52
2.7235234 -1.2705648 0.60216701 0 53
2.7242444 -1.2709012 0.63113946 0 54
2.7036564 -1.2612966 0.65507567 0 55
2.7123888 -1.2653705 0.68610662 0 56
2.7242925 -1.2709236 0.71828246 0 57
2.7067697 -1.2627491 0.74276733 0 58
2.7066555 -1.2626958 0.77197307 0 59
2.7121561 -1.2652619 0.80297804 0 60
2.7065952 -1.2626677 0.83085275 0 61
2.7164369 -1.2672589 0.86365432 0 62
2.7133939 -1.2658393 0.89259213 0 63
2.2508662 -1.016554 -0.73627239 0 0
2.3191936 -1.0474125 -0.73320591 0 1
2.4200416 -1.0929583 -0.73870701 0 2
2.4926357 -1.1257439 -0.73383164 0 3
2.5926518 -1.1709139 -0.73529559 0 4
2.7000272 -1.2194077 -0.73674679 0 5
2.7813499 -1.2561352 -0.72919858 0 6
2.7942917 -1.2619801 -0.70284575 0 7
2.8106253 -1.2693568 -0.67716032 0 8
2.7953162 -1.2624428 -0.64395988 0 9
2.791126 -1.2605504 -0.61364043 0 10
2.7964375 -1.2629492 -0.58550626 0 11
2.8005283 -1.2647967 -0.55712092 0 12
2.7981021 -1.263701 -0.52751893 0 13
2.7821712 -1.2565061 -0.49565339 0 14
2.7992406 -1.2642152 -0.46974176 0 15
2.793699 -1.2617124 -0.4399977 0 16
2.7861919 -1.258322 -0.41015449 0 17
2.7918987 -1.2608994 -0.38234577 0 18
2.8021352 -1.2655225 -0.35505971 0 19
2.8027337 -1.2657927 -0.32650238 0 20
2.8002806 -1.2646848 -0.29766434 0 21
2.8040893 -1.266405 -0.26952901 0 22
2.7984643 -1.2638646 -0.24055125 0 23
2.7852213 -1.2578837 -0.21115115 0 24
2.7936428 -1.261687 -0.18347839 0 25
2.7984219 -1.2638454 -0.15546384 0 26
2.8012698 -1.2651316 -0.1272912 0 27
2.7997644 -1.2644517 -0.098928727 0 28
2.7930629 -1.2614253 -0.070482314 0 29
2.7897344 -1.2599219 -0.042234223 0 30
2.8032939 -1.2660457 -0.014145703 0 31
2.7986224 -1.2639359 0.01412213 0 32
2.7992096 -1.2642012 0.042377669 0 33
2.7931905 -1.2614827 0.070485525 0 34
2.8049877 -1.2668108 0.099113293 0 35
2.7913635 -1.2606575 0.12684105 0 36
2.8006425 -1.2648484 0.15558721 0 37
2.8027558 -1.2658027 0.18407692 0 38
2.7997329 -1.2644374 0.21225129 0 39
2.8005025 -1.2647851 0.24072646 0 40
2.7906399 -1.2603309 0.26823625 0 41
2.8047893 -1.2667211 0.29814363 0 42
2.8012943 -1.2651427 0.32633471 0 43
2.8032329 -1.2660182 0.3551988 0 44
2.8016086 -1.2652847 0.38367552 0 45
2.7901917 -1.2601284 0.41074327 0 46
2.8020184 -1.2654698 0.44130802 0 47
2.7980621 -1.263683 0.46954402 0 48
2.7894564 -1.2597964 0.49695128 0 49
2.7950547 -1.2623247 0.52694446 0 50
2.7922664 -1.2610654 0.55547732 0 51
2.7919495 -1.2609223 0.58456659 0 52
2.8047922 -1.2667224 0.61664498 0 53
2.7967131 -1.2630737 0.64428174 0 54
2.797998 -1.263654 0.6741181 0 55
2.783587 -1.2571455 0.70015317 0 56
2.7942071 -1.2619419 0.7325694 0 57
2.7981389 -1.2637177 0.76351815 0 58
2.8012838 -1.2651379 0.79446524 0 59
2.792218 -1.2610435 0.82202858 0 60
2.7920852 -1.2609836 0.85227162 0 61
2.7860837 -1.2582731 0.88081187 0 62
2.7975011 -1.2634296 0.91508007 0 63
2.2583888 -0.98670155 -0.73470867 0 0
2.3368087 -1.0209637 -0.73475039 0 1
2.408489 -1.0522811 -0.73117566 0 2
2.5068965 -1.0952759 -0.7340095 0 3
2.603436 -1.1374545 -0.73433185 0 4
2.7231257 -1.1897476 -0.73900175 0 5
2.8152959 -1.2300172 -0.73407745 0 6
2.8803086 -1.2584215 -0.72053486 0 7
2.8939984 -1.2644027 -0.69344902 0 8
2.8984783 -1.2663599 -0.66408795 0 9
2.909322 -1.2710977 -0.63614184 0 10
2.8887367 -1.2621038 -0.60153663 0 11
2.8871834 -1.2614253 -0.57123071 0 12
2.892971 -1.2639538 -0.5424332 0 13
2.895628 -1.2651147 -0.51305592 0 14
2.910049 -1.2714152 -0.48567632 0 15
2.9022532 -1.2680093 -0.45460457 0 16
2.8978164 -1.2660708 -0.42426282 0 17
2.9001272 -1.2670804 -0.39500386 0 18
2.8876116 -1.2616123 -0.36389723 0 19
2.906527 -1.2698765 -0.3367492 0 20
2.8872304 -1.2614458 -0.30523506 0 21
2.8920536 -1.2635529 -0.2764698 0 22
2.8961873 -1.265359 -0.24759518 0 23
2.8849676 -1.260457 -0.21752159 0 24
2.8829169 -1.2595612 -0.18831021 0 25
2.8869562 -1.261326 -0.1595086 0 26
2.8923149 -1.2636672 -0.13071238 0 27
2.9017746 -1.2678002 -0.10197467 0 28
2.9069943 -1.2700807 -0.072957724 0 29
2.8970206 -1.2657231 -0.043619525 0 30
2.8952608 -1.2649542 -0.014530189 0 31
2.8937025 -1.2642734 0.014522369 0 32
2.878026 -1.2574242 0.043333527 0 33
2.8908026 -1.2630064 0.072551355 0 34
2.9093225 -1.2710979 0.10223991 0 35
2.8880725 -1.2618136 0.13052066 0 36
2.897604 -1.265978 0.1600969 0 37
2.9001775 -1.2671024 0.18943766 0 38
2.9016447 -1.2677435 0.21877901 0 39
2.8875904 -1.261603 0.24686022 0 40
2.8970761 -1.2657474 0.27694994 0 41
2.8877642 -1.2616789 0.30529147 0 42
2.8793306 -1.2579943 0.33359826 0 43
2.9004109 -1.2672043 0.3655102 0 44
2.9010434 -1.2674807 0.39512864 0 45
2.8976958 -1.2660182 0.42424518 0 46
2.8926628 -1.2638191 0.45310232 0 47
2.8989873 -1.2665824 0.48383015 0 48
2.8960609 -1.2653039 0.51313263 0 49
2.8902943 -1.2627844 0.54193133 0 50
2.8988168 -1.266508 0.5735324 0 51
2.9011405 -1.2675232 0.60411954 0 52
2.8888845 -1.2621685 0.6316731 0 53
2.8876166 -1.2616144 0.6615994 0 54
2.8983288 -1.2662947 0.69448668 0 55
2.9033837 -1.2685032 0.72630733 0 56
2.8899343 -1.262627 0.75353914 0 57
2.9015894 -1.2677193 0.78743327 0 58
2.8908048 -1.2630074 0.81538785 0 59
2.8905487 -1.2628955 0.84634137 0 60
2.8832936 -1.2597258 0.87531817 0 61
2.8948462 -1.2647731 0.91021115 0 62
2.8893316 -1.2623638 0.93996978 0 63
2.2623887 -0.95549649 -0.73213232 0 0
2.343796 -0.989878 -0.73306477 0 1
2.4422755 -1.0314698 -0.73752642 0 2
2.5199931 -1.064293 -0.73395675 0 3
2.6185675 -1.1059248 -0.73470855 0 4
2.7153871 -1.1468158 -0.73301935 0 5
2.836879 -1.1981266 -0.73580801 0 6
2.9554615 -1.2482086 -0.73543984 0 7
2.995348 -1.2650542 -0.71395266 0 8
2.9990425 -1.2666146 -0.68350875 0 9
2.9925652 -1.2638791 -0.65089613 0 10
2.9990733 -1.2666277 -0.62122238 0 11
2.9970882 -1.2657893 -0.58985132 0 12
3.0024099 -1.2680368 -0.55998713 0 13
2.9990509 -1.2666181 -0.52858108 0 14
2.9882374 -1.2620512 -0.49609813 0 15
2.9855692 -1.2609242 -0.46519122 0 16
2.9914739 -1.2634181 -0.43566754 0 17
2.9884109 -1.2621244 -0.40488386 0 18
2.9931803 -1.2641388 -0.37521374 0 19
2.9995837 -1.2668432 -0.34569979 0 20
3.0023334 -1.2680045 -0.31573138 0 21
2.9955709 -1.2651484 -0.28485695 0 22
2.9907682 -1.2631201 -0.25433385 0 23
2.9937644 -1.2643855 -0.22453545 0 24
2.9954071 -1.2650793 -0.19462717 0 25
2.9853594 -1.2608358 -0.16407651 0 26
2.9973304 -1.2658916 -0.13474469 0 27
2.9926484 -1.2639141 -0.10461409 0 28
3.0075693 -1.2702159 -0.075084209 0 29
2.9990335 -1.2666109 -0.044917598 0 30
3.0023851 -1.2680264 -0.014988421 0 31
2.9850643 -1.2607111 0.014901952 0 32
3.0017743 -1.2677684 0.044958651 0 33
2.9754658 -1.2566572 0.074282743 0 34
2.9876771 -1.2618145 0.10444031 0 35
2.9984994 -1.2663853 0.13479723 0 36
2.9876604 -1.2618074 0.16420297 0 37
2.9795136 -1.2583668 0.19359449 0 38
3.0096393 -1.27109 0.22572608 0 39
2.9963887 -1.2654938 0.25481182 0 40
2.9905391 -1.2630233 0.28437847 0 41
2.9877172 -1.2618315 0.31419432 0 42
3.0022023 -1.2679491 0.34600154 0 43
2.9917006 -1.2635139 0.37502828 0 44
2.9828372 -1.2597705 0.40412873 0 45
2.9852805 -1.2608024 0.43476555 0 46
3.0005262 -1.2672412 0.4675217 0 47
2.9948153 -1.2648294 0.49719021 0 48
2.9977531 -1.26607 0.52835238 0 49
2.9856834 -1.2609726 0.55686742 0 50
2.9998884 -1.2669719 0.59040248 0 51
2.9871194 -1.261579 0.61874628 0 52
2.9905069 -1.2630097 0.65044844 0 53
2.9922841 -1.2637603 0.68196845 0 54
2.995904 -1.2652891 0.71408522 0 55
2.996675 -1.2656147 0.74569547 0 56
3.0016716 -1.267725 0.77855068 0 57
2.9915607 -1.2634547 0.80757236 0 58
2.9944324 -1.2646676 0.84016746 0 59
3.0049019 -1.2690892 0.87518817 0 60
2.9934511 -1.2642531 0.90397227 0 61
2.9860909 -1.2611446 0.93395412 0 62
2.9861636 -1.2611754 0.96635336 0 63
2.276545 -0.92865902 -0.73296267 0 0
2.3613091 -0.96323633 -0.73478216 0 1
2.4441106 -0.99701315 -0.73432285 0 2
2.5439117 -1.0377245 -0.73715097 0 3
2.6275578 -1.0718458 -0.73347759 0 4
2.7249138 -1.1115597 -0.73184597 0 5
2.8405123 -1.1587151 -0.73299944 0 6
2.9626811 -1.2085508 -0.7334829 0 7
3.0905728 -1.2607211 -0.73289943 0 8
3.0968013 -1.2632618 -0.70219547 0 9
3.0916476 -1.2611595 -0.66902339 0 10
3.0909245 -1.2608645 -0.63698858 0 11
3.0919998 -1.2613032 -0.60543251 0 12
3.089339 -1.2602178 -0.57326692 0 13
3.0816858 -1.2570958 -0.54038018 0 14
3.0800912 -1.2564454 -0.50874406 0 15
3.0918102 -1.2612258 -0.47929227 0 16
3.1006718 -1.2648406 -0.44927165 0 17
3.0943649 -1.2622679 -0.41710454 0 18
3.0786757 -1.255868 -0.38396627 0 19
3.0830557 -1.2576547 -0.35351083 0 20
3.086287 -1.2589728 -0.32290769 0 21
3.1035194 -1.2660023 -0.29361954 0 22
3.0916731 -1.2611699 -0.26157621 0 23
3.0891306 -1.2601328 -0.23050843 0 24
3.0845714 -1.2582729 -0.19940023 0 25
3.0878096 -1.2595938 -0.16884318 0 26
3.0892146 -1.260167 -0.13816828 0 27
3.0834377 -1.2578105 -0.10723905 0 28
3.0861857 -1.2589315 -0.076654606 0 29
3.0855391 -1.2586677 -0.045977943 0 30
3.0920923 -1.2613409 -0.015357664 0 31
3.0818851 -1.2571771 0.015306967 0 32
3.086163 -1.2589222 0.045987237 0 33
3.0956559 -1.2627946 0.076889828 0 34
3.0966175 -1.2631868 0.10769743 0 35
3.0847399 -1.2583417 0.13796814 0 36
3.0961413 -1.2629926 0.16929877 0 37
3.0816224 -1.2570699 0.1992096 0 38
3.0878036 -1.2595915 0.23040943 0 39
3.0938604 -1.2620622 0.26176125 0 40
3.0824928 -1.2574251 0.29163024 0 41
3.0883038 -1.2597954 0.32311869 0 42
3.0878057 -1.2595923 0.35405546 0 43
3.0786915 -1.2558744 0.3839682 0 44
3.089602 -1.2603251 0.41646257 0 45
3.1004705 -1.2647586 0.4492425 0 46
3.0854387 -1.2586268 0.47830459 0 47
3.0926981 -1.261588 0.51082635 0 48
3.0907228 -1.2607822 0.54196483 0 49
3.0889208 -1.2600472 0.57318932 0 50
3.0821195 -1.2572727 0.60349786 0 51
3.0934091 -1.261878 0.63750058 0 52
3.0849435 -1.2584248 0.66757268 0 53
3.0833735 -1.2577844 0.6991508 0 54
3.0812695 -1.2569261 0.73069322 0 55
3.0963795 -1.2630898 0.76658314 0 56
3.0856507 -1.2587131 0.79625785 0 57
3.0903103 -1.260614 0.82998264 0 58
3.0959225 -1.2629033 0.86422068 0 59
3.0875671 -1.2594949 0.89468634 0 60
3.0870523 -1.259285 0.92749202 0 61
3.0952616 -1.2626338 0.96317041 0 62
3.0876732 -1.2595382 0.99411571 0 63
2.2987168 -0.90489835 -0.73646301 0 0
2.3705006 -0.93315631 -0.7340163 0 1
2.4563475 -0.96695018 -0.73437148 0 2
2.5512681 -1.0043161 -0.73564851 0 3
2.6363955 -1.0378268 -0.73232687 0 4
2.7490079 -1.0821571 -0.73468769 0 5
2.855514 -1.1240836 -0.73324841 0 6
2.968673 -1.1686291 -0.7313534 0 7
3.1039441 -1.221879 -0.73245186 0 8
3.1939499 -1.2573102 -0.72066373 0 9
3.2149608 -1.2655811 -0.69228804 0 10
3.2029676 -1.26086 -0.65683401 0 11
3.2085159 -1.263044 -0.62515873 0 12
3.2067432 -1.2623463 -0.59212768 0 13
3.2117016 -1.2642982 -0.56041026 0 14
3.1869106 -1.2545391 -0.52379996 0 15
3.2100008 -1.2636286 -0.495168 0 16
3.2233307 -1.268876 -0.46474844 0 17
3.2061656 -1.2621188 -0.43005025 0 18
3.2065163 -1.2622569 -0.39794439 0 19
3.211297 -1.2641388 -0.36640522 0 20
3.2212896 -1.2680725 -0.33537579 0 21
3.2125847 -1.2646458 -0.30244395 0 22
3.1989036 -1.2592602 -0.26931816 0 23
3.2060671 -1.2620801 -0.23805812 0 24
3.193517 -1.2571397 -0.20542814 0 25
3.2002273 -1.2597812 -0.17413004 0 26
3.2036684 -1.2611358 -0.14258297 0 27
3.2175343 -1.2665942 -0.1113527 0 28
3.2122676 -1.264521 -0.07939402 0 29
3.2078636 -1.2627872 -0.047565732 0 30
3.2010908 -1.2601212 -0.015820878 0 31
3.200778 -1.259998 0.015819332 0 32
3.2033882 -1.2610255 0.047499374 0 33
3.2108138 -1.2639487 0.079358086 0 34
3.205303 -1.2617793 0.11092941 0 35
3.2112153 -1.2641066 0.14291885 0 36
3.1983893 -1.2590576 0.17403002 0 37
3.2264335 -1.2700974 0.20754553 0 38
3.2082262 -1.26293 0.23821844 0 39
3.2130873 -1.2648436 0.27051231 0 40
3.2005551 -1.2599103 0.30131146 0 41
3.2017353 -1.2603748 0.33333993 0 42
3.2125146 -1.2646183 0.36654416 0 43
3.1988151 -1.2592252 0.39698863 0 44
3.2048676 -1.2616079 0.42987615 0 45
3.1954067 -1.2578835 0.46072227 0 46
3.216944 -1.2663618 0.49623907 0 47
3.1933129 -1.2570593 0.52485228 0 48
3.2117708 -1.2643254 0.5604223 0 49
3.2001286 -1.2597424 0.59090626 0 50
3.2008924 -1.2600431 0.62367338 0 51
3.2177031 -1.2666607 0.65985584 0 52
3.2041812 -1.2613378 0.68996686 0 53
3.2205303 -1.2677735 0.72666109 0 54
3.2060378 -1.2620686 0.75654346 0 55
3.205107 -1.2617022 0.78960055 0 56
3.1913221 -1.2562757 0.81947827 0 57
3.2070975 -1.2624857 0.85711461 0 58
3.1974897 -1.2587036 0.88818532 0 59
3.2014167 -1.2602495 0.92311639 0 60
3.2051594 -1.2617228 0.95824301 0 61
3.2111745 -1.2640907 0.99432766 0 62
3.2061443 -1.2621105 1.0271847 0 63
2.2956796 -0.87125659 -0.73200226 0 0
2.3934379 -0.90835786 -0.73760432 0 1
2.4824593 -0.94214326 -0.73865873 0 2
2.5474253 -0.96679914 -0.73105723 0 3
2.6581411 -1.008818 -0.73486596 0 4
2.7711949 -1.0517242 -0.73710525 0 5
2.8877542 -1.0959609 -0.73801082 0 6
3.0007572 -1.1388477 -0.73575199 0 7
3.1296017 -1.1877469 -0.73500448 0 8
3.26507 -1.2391598 -0.7332173 0 9
3.3260493 -1.2623026 -0.71281284 0 10
3.3167193 -1.2587618 -0.67693585 0 11
3.3324208 -1.2647208 -0.64622188 0 12
3.3362293 -1.2661661 -0.61311609 0 13
3.319597 -1.2598538 -0.57649022 0 14
3.3142383 -1.2578201 -0.54214442 0 15
3.3188539 -1.2595718 -0.50953174 0 16
3.3281832 -1.2631125 -0.47759083 0 17
3.3291533 -1.2634807 -0.44442934 0 18
3.3113723 -1.2567325 -0.4090088 0 19
3.3175716 -1.2590852 -0.37673604 0 20
3.3114216 -1.2567511 -0.34312478 0 21
3.3179362 -1.2592236 -0.3108809 0 22
3.3268089 -1.262591 -0.27875847 0 23
3.3341849 -1.2653903 -0.2463972 0 24
3.3185048 -1.2594393 -0.21245591 0 25
3.3221302 -1.2608153 -0.17990582 0 26
3.3249218 -1.2618747 -0.14727777 0 27
3.3178923 -1.2592069 -0.1142814 0 28
3.3299294 -1.2637752 -0.081911854 0 29
3.3213611 -1.2605233 -0.049015123 0 30
3.3143737 -1.2578715 -0.016303081 0 31
3.3208337 -1.2603232 0.016334858 0 32
3.3134093 -1.2575054 0.048897773 0 33
3.3223286 -1.2608905 0.081724882 0 34
3.3230622 -1.261169 0.11445948 0 35
3.3139508 -1.2577111 0.14679182 0 36
3.3239229 -1.2614956 0.18000288 0 37
3.3233826 -1.2612906 0.2127682 0 38
3.3194101 -1.2597829 0.24530533 0 39
3.3192608 -1.2597263 0.27812597 0 40
3.3213775 -1.2605296 0.31120333 0 41
3.3242545 -1.2616215 0.3444545 0 42
3.3184683 -1.2594255 0.37683788 0 43
3.3287485 -1.263327 0.41115505 0 44
3.3233523 -1.2612791 0.44365495 0 45
3.3218098 -1.2606937 0.47667626 0 46
3.3235209 -1.261343 0.5102483 0 47
3.3126709 -1.2572253 0.54188806 0 48
3.3156414 -1.2583526 0.57580328 0 49
3.3189886 -1.2596229 0.60994768 0 50
3.3252957 -1.2620165 0.64484012 0 51
3.3145781 -1.2579491 0.67649883 0 52
3.3197386 -1.2599076 0.71146041 0 53
3.3272984 -1.2627766 0.74719155 0 54
3.3186324 -1.2594877 0.77939934 0 55
3.3130651 -1.2573749 0.81232643 0 56
3.3085144 -1.2556477 0.84554261 0 57
3.3287323 -1.2633209 0.88540363 0 58
3.3203418 -1.2601366 0.9179371 0 59
3.3107207 -1.2564851 0.95010686 0 60
3.3220541 -1.2607864 0.98848122 0 61
3.3205137 -1.2602018 1.0233085 0 62
3.3223531 -1.2608999 1.0593681 0 63
2.3074226 -0.84340423 -0.73238444 0 0
2.4088547 -0.8804794 -0.73896301 0 1
2.4799378 -0.90646154 -0.73453635 0 2
2.5756426 -0.94144338 -0.7357772 0 3
2.6674314 -0.97499377 -0.73406434 0 4
2.7703187 -1.012601 -0.73350483 0 5
2.8853662 -1.0546529 -0.73403072 0 6
3.0217137 -1.1044904 -0.7375046 0 7
3.1486053 -1.1508715 -0.73608834 0 8
3.2970772 -1.2051406 -0.73702145 0 9
3.4386935 -1.2569039 -0.73358613 0 10
3.4371643 -1.2563449 -0.69831258 0 11
3.4415348 -1.2579424 -0.66433138 0 12
3.4304917 -1.253906 -0.62755817 0 13
3.4379034 -1.2566152 -0.59430724 0 14
3.4475939 -1.2601572 -0.56138164 0 15
3.4461098 -1.2596147 -0.52665114 0 16
3.4476237 -1.2601681 -0.49246958 0 17
3.4377494 -1.2565588 -0.45682928 0 18
3.4496124 -1.260895 -0.42413658 0 19
3.4405744 -1.2575915 -0.38891852 0 20
3.4362481 -1.2560101 -0.35443199 0 21
3.4482148 -1.2603841 -0.32161117 0 22
3.4484181 -1.2604585 -0.28762782 0 23
3.4287152 -1.2532567 -0.25222507 0 24
3.4282043 -1.2530699 -0.21847606 0 25
3.4418862 -1.2580709 -0.18553928 0 26
3.4408371 -1.2576874 -0.15171576 0 27
3.4563501 -1.2633576 -0.11850639 0 28
3.4319139 -1.2544259 -0.084034748 0 29
3.4374917 -1.2564646 -0.0504971 0 30
3.446074 -1.2596016 -0.01687344 0 31
3.4374483 -1.2564487 0.016831204 0 32
3.4358885 -1.2558787 0.050473552 0 33
3.4387426 -1.2569219 0.084201962 0 34
3.4266269 -1.2524934 0.11748729 0 35
3.4502451 -1.2611263 0.15213059 0 36
3.4254079 -1.2520478 0.18465099 0 37
3.4365785 -1.2561308 0.21900974 0 38
3.447367 -1.2600743 0.25359717 0 39
3.4324484 -1.2546211 0.2862958 0 40
3.4441769 -1.2589083 0.32123455 0 41
3.4429119 -1.2584459 0.35511932 0 42
3.4396257 -1.2572446 0.38881126 0 43
3.444279 -1.2589455 0.42348081 0 44
3.4391949 -1.2570872 0.45702139 0 45
3.4418707 -1.2580652 0.49164781 0 46
3.434139 -1.2552391 0.5248217 0 47
3.4441063 -1.2588824 0.56081372 0 48
3.4400954 -1.2574164 0.59468621 0 49
3.4458685 -1.2595265 0.63037115 0 50
3.4477239 -1.2602047 0.66552609 0 51
3.4223223 -1.2509199 0.69529718 0 52
3.447751 -1.2602146 0.7355184 0 53
3.4489543 -1.2606543 0.77097172 0 54
3.4354212 -1.2557079 0.80314082 0 55
3.4427438 -1.2583843 0.84026468 0 56
3.4366102 -1.2561424 0.87426597 0 57
3.4294307 -1.2535182 0.90801966 0 58
3.426312 -1.2523782 0.94290471 0 59
3.4338012 -1.2551156 0.98092514 0 60
3.432631 -1.2546879 1.0167159 0 61
3.4438856 -1.2588017 1.0564789 0 62
3.4304292 -1.2538831 1.0888308 0 63
2.3368464 -0.82173073 -0.73846054 0 0
2.3927324 -0.84138262 -0.73078811 0 1
2.4818661 -0.87272567 -0.73187363 0 2
2.5862927 -0.9094463 -0.73556936 0 3
2.6829264 -0.94342667 -0.73508048 0 4
2.7968535 -0.9834882 -0.7372728 0 5
2.9007068 -1.0200071 -0.73468697 0 6
3.0131159 -1.0595348 -0.73217094 0 7
3.1602616 -1.1112773 -0.73556316 0 8
3.283628 -1.154658 -0.73078597 0 9
3.4444187 -1.2111986 -0.73157489 0 10
3.5703685 -1.2554877 -0.722184 0 11
3.5717642 -1.2559785 -0.68643689 0 12
3.5859926 -1.2609817 -0.65311891 0 13
3.5838861 -1.260241 -0.61681765 0 14
3.5743709 -1.2568951 -0.57946461 0 15
3.5778921 -1.2581333 -0.54438531 0 16
3.5719519 -1.2560444 -0.5079844 0 17
3.5858486 -1.2609311 -0.47441337 0 18
3.5827932 -1.2598567 -0.43857354 0 19
3.5851216 -1.2606754 -0.40347517 0 20
3.5790789 -1.2585505 -0.36754024 0 21
3.580394 -1.2590131 -0.3324703 0 22
3.5862815 -1.2610834 -0.29781091 0 23
3.572706 -1.2563096 -0.26166123 0 24
3.5927267 -1.2633498 -0.22795367 0 25
3.5692298 -1.2550873 -0.19155747 0 26
3.5767157 -1.2577196 -0.15701322 0 27
3.5790558 -1.2585424 -0.12217371 0 28
3.569948 -1.2553397 -0.087030135 0 29
3.5815566 -1.2594218 -0.05238197 0 30
3.600822 -1.2661964 -0.017553588 0 31
3.5777905 -1.2580975 0.017441312 0 32
3.5750904 -1.257148 0.0522874 0 33
3.5926578 -1.2633256 0.087583765 0 34
3.5974462 -1.2650093 0.12280148 0 35
3.585855 -1.2609333 0.15741442 0 36
3.5812848 -1.2593262 0.19220445 0 37
3.571949 -1.2560434 0.22663535 0 38
3.5820525 -1.2595962 0.26234576 0 39
3.5846863 -1.2605224 0.29767844 0 40
3.5862761 -1.2610813 0.33301648 0 41
3.5849111 -1.2606014 0.36813915 0 42
3.5759306 -1.2574435 0.40244079 0 43
3.5781147 -1.2582115 0.4380008 0 44
3.5794184 -1.25867 0.47356266 0 45
3.5850251 -1.2606416 0.50984365 0 46
3.5723519 -1.2561851 0.54354239 0 47
3.5870404 -1.2613502 0.58151853 0 48
3.5801387 -1.2589232 0.61617267 0 49
3.5860083 -1.2609873 0.65312177 0 50
3.5882614 -1.2617795 0.68960744 0 51
3.5999513 -1.2658901 0.72816771 0 52
3.5772908 -1.2579218 0.7597962 0 53
3.58512 -1.2606748 0.79788435 0 54
3.5683351 -1.2547727 0.83054388 0 55
3.5929852 -1.2634405 0.87307602 0 56
3.5858214 -1.2609215 0.90821189 0 57
3.5940313 -1.2638085 0.94741517 0 58
3.5864265 -1.2611344 0.9826256 0 59
3.5881526 -1.2617413 1.0205091 0 60
3.5755274 -1.2573018 1.0543817 0 61
3.5802407 -1.2589592 1.0934768 0 62
3.5919783 -1.2630866 1.1350915 0 63
2.3437963 -0.79192996 -0.73752379 0 0
2.4135604 -0.81550211 -0.7340312 0 1
2.5092134 -0.84782171 -0.736808 0 2
2.6014912 -0.87900078 -0.73676217 0 3
2.6879339 -0.90820843 -0.73333722 0 4
2.7971714 -0.94511789 -0.73423743 0 5
2.914964 -0.98491806 -0.73517501 0 6
3.0471988 -1.0295981 -0.73732072 0 7
3.1697071 -1.0709915 -0.73464084 0 8
3.3159447 -1.1204029 -0.73485655 0 9
3.4769888 -1.174817 -0.73536873 0 10
3.6437099 -1.2311493 -0.7339012 0 11
3.7208099 -1.2572001 -0.71205628 0 12
3.7330983 -1.2613521 -0.67703527 0 13
3.7105019 -1.2537172 -0.63590795 0 14
3.7109933 -1.2538832 -0.59906852 0 15
3.7261963 -1.2590201 -0.56455195 0 16
3.7227368 -1.2578512 -0.52718878 0 17
3.7261603 -1.2590079 -0.49089149 0 18
3.7242301 -1.2583557 -0.45395851 0 19
3.7162569 -1.2556617 -0.41646415 0 20
3.7161567 -1.2556279 -0.38000268 0 21
3.721431 -1.2574099 -0.34410504 0 22
3.7310233 -1.260651 -0.3085199 0 23
3.7133274 -1.2546719 -0.2708098 0 24
3.7205019 -1.2570961 -0.23506229 0 25
3.7190785 -1.256615 -0.1987554 0 26
3.7245576 -1.2584665 -0.16281167 0 27
3.7282617 -1.2597179 -0.12672862 0 28
3.721359 -1.2573856 -0.09033756 0 29
3.7271204 -1.2593323 -0.054280329 0 30
3.7233286 -1.258051 -0.018074015 0 31
3.7225893 -1.2578013 0.018070428 0 32
3.7238102 -1.2582139 0.054232121 0 33
3.7293692 -1.2600921 0.090532005 0 34
3.7241738 -1.2583367 0.12658967 0 35
3.7152431 -1.2553192 0.16240451 0 36
3.7291813 -1.2600287 0.19929531 0 37
3.7294748 -1.2601278 0.2356292 0 38
3.7205226 -1.257103 0.27133453 0 39
3.7207279 -1.2571725 0.30766857 0 40
3.7215452 -1.2574486 0.34411559 0 41
3.7349572 -1.2619802 0.38192517 0 42
3.7329037 -1.2612864 0.41832969 0 43
3.7360072 -1.2623351 0.45539409 0 44
3.7211804 -1.2573253 0.49023545 0 45
3.7154901 -1.2554027 0.52616251 0 46
3.723721 -1.2581837 0.56417692 0 47
3.7362382 -1.2624131 0.60314381 0 48
3.7211659 -1.2573204 0.63773555 0 49
3.7253151 -1.2587223 0.67562371 0 50
3.7204788 -1.2570882 0.71199292 0 51
3.7118957 -1.2541882 0.74763495 0 52
3.7118096 -1.254159 0.78503233 0 53
3.7232962 -1.2580402 0.82513088 0 54
3.7092252 -1.2532858 0.85968459 0 55
3.7254078 -1.2587537 0.90142477 0 56
3.7282784 -1.2597235 0.9402988 0 57
3.7257667 -1.2588749 0.97798705 0 58
3.7376409 -1.262887 1.0197241 0 59
3.7045734 -1.251714 1.0491635 0 60
3.7212331 -1.2573432 1.0927068 0 61
3.720608 -1.2571319 1.1315409 0 62
3.7310402 -1.2606567 1.1740487 0 63
2.340065 -0.75874227 -0.73335838 0 0
2.4221466 -0.78535646 -0.73365009 0 1
2.5059185 -0.8125186 -0.73285127 0 2
2.6004906 -0.84318262 -0.73348701 0 3
2.7082515 -0.87812304 -0.73587883 0 4
2.81568 -0.91295564 -0.73609346 0 5
2.9141405 -0.94488043 -0.73198164 0 6
3.0564377 -0.99101889 -0.736552 0 7
3.2027497 -1.0384591 -0.73928368 0 8
3.3452375 -1.0846592 -0.73833662 0 9
3.4635806 -1.1230308 -0.72955716 0 10
3.6636047 -1.1878866 -0.73491079 0 11
3.8457971 -1.2469606 -0.7329855 0 12
3.876292 -1.2568483 -0.70014912 0 13
3.8818014 -1.2586347 -0.66256285 0 14
3.8792284 -1.2578003 -0.62368292 0 15
3.8643966 -1.2529913 -0.58311206 0 16
3.8819749 -1.258691 -0.54750574 0 17
3.883204 -1.2590895 -0.50950253 0 18
3.868896 -1.2544502 -0.46967658 0 19
3.8780434 -1.2574161 -0.43282938 0 20
3.8644652 -1.2530136 -0.39356297 0 21
3.8659954 -1.2535098 -0.35602012 0 22
3.871264 -1.255218 -0.31881604 0 23
3.8774717 -1.2572308 -0.28163195 0 24
3.8765721 -1.2569392 -0.2439279 0 25
3.8715489 -1.2553104 -0.20606323 0 26
3.8711908 -1.2551943 -0.16853401 0 27
3.8731022 -1.2558141 -0.13111714 0 28
3.8880706 -1.2606673 -0.094001129 0 29
3.8869689 -1.2603102 -0.056378338 0 30
3.8720245 -1.2554647 -0.01871947 0 31
3.8712459 -1.2552122 0.018715706 0 32
3.8660207 -1.2535179 0.056074496 0 33
3.8802941 -1.2581459 0.093813121 0 34
3.8729248 -1.2557565 0.13111113 0 35
3.8737383 -1.2560203 0.16864492 0 36
3.8856416 -1.2598798 0.20681332 0 37
3.8751447 -1.2564763 0.24383809 0 38
3.8716037 -1.2553282 0.28120574 0 39
3.885407 -1.2598038 0.3199808 0 40
3.8759017 -1.2567217 0.3569324 0 41
3.8682494 -1.2542405 0.39394835 0 42
3.878072 -1.2574254 0.43283257 0 43
3.8706167 -1.2550081 0.46988547 0 44
3.8811891 -1.2584361 0.50923818 0 45
3.8830283 -1.2590325 0.54765433 0 46
3.8697982 -1.2547427 0.58392715 0 47
3.8839071 -1.2593174 0.62443513 0 48
3.8807197 -1.258284 0.66237825 0 49
3.879709 -1.2579563 0.70076632 0 50
3.882169 -1.2587539 0.73991781 0 51
3.8784418 -1.2575454 0.77800661 0 52
3.8610156 -1.2518951 0.81327158 0 53
3.8722131 -1.2555257 0.8546468 0 54
3.8691525 -1.2545334 0.89310795 0 55
3.8665104 -1.2536767 0.93176633 0 56
3.8880413 -1.2606579 0.97660863 0 57
3.8738627 -1.2560607 1.0127305 0 58
3.8706605 -1.2550224 1.0517255 0 59
3.866852 -1.2537875 1.0906733 0 60
3.8790915 -1.257756 1.1344333 0 61
3.8813665 -1.2584937 1.1756368 0 62
3.8815665 -1.2585585 1.2164532 0 63
2.3488097 -0.72978598 -0.73323119 0 0
2.4437807 -0.75929385 -0.73731905 0 1
2.5241654 -0.78426975 -0.73531169 0 2
2.6032574 -0.80884409 -0.73140687 0 3
2.7181587 -0.84454441 -0.73569345 0 4
2.8228486 -0.87707204 -0.73509246 0 5
2.9410071 -0.91378438 -0.73585206 0 6
3.0664852 -0.95277101 -0.7360943 0 7
3.1862519 -0.98998314 -0.73261023 0 8
3.3299289 -1.0346241 -0.73209447 0 9
3.4979393 -1.0868258 -0.73392397 0 10
3.6716893 -1.1408107 -0.73366302 0 11
3.8787072 -1.2051321 -0.73637795 0 12
4.0253725 -1.2507017 -0.72424394 0 13
4.0390849 -1.2549622 -0.68672287 0 14
4.0390663 -1.2549564 -0.64685094 0 15
4.0322695 -1.2528447 -0.6060726 0 16
4.0335178 -1.2532325 -0.56666279 0 17
4.0434537 -1.2563196 -0.52846158 0 18
4.0387158 -1.2548475 -0.48838225 0 19
4.0419455 -1.255851 -0.44936505 0 20
4.050211 -1.2584192 -0.41087264 0 21
4.0316801 -1.2526615 -0.36983162 0 22
4.0369973 -1.2543136 -0.33116972 0 23
4.0448995 -1.2567688 -0.29264814 0 24
4.0405545 -1.2554189 -0.25325575 0 25
4.0408893 -1.2555228 -0.21423846 0 26
4.0306621 -1.2523452 -0.17479303 0 27
4.0361118 -1.2540386 -0.13610323 0 28
4.040288 -1.255336 -0.097300716 0 29
4.0375819 -1.2544953 -0.058334745 0 30
4.0434165 -1.2563081 -0.019471915 0 31
4.0243359 -1.2503796 0.019380027 0 32
4.0434256 -1.2563108 0.058419168 0 33
4.0296693 -1.2520368 0.097044989 0 34
4.0332446 -1.2531476 0.13600653 0 35
4.0446997 -1.2567068 0.17540179 0 36
4.045526 -1.2569635 0.21448429 0 37
4.0270691 -1.2512289 0.2524105 0 38
4.024725 -1.2505006 0.29118851 0 39
4.0432277 -1.2562494 0.3316808 0 40
4.0320601 -1.2527796 0.36986646 0 41
4.0291634 -1.2518795 0.40873742 0 42
4.03791 -1.2545972 0.44891641 0 43
4.0426183 -1.2560601 0.4888542 0 44
4.0169291 -1.2480783 0.52499485 0 45
4.0351887 -1.2537516 0.56689751 0 46
4.0482173 -1.2577997 0.60846967 0 47
4.0379643 -1.254614 0.64667445 0 48
4.0355368 -1.2538598 0.68611956 0 49
4.0291357 -1.2518709 0.72492099 0 50
4.0372081 -1.254379 0.76646954 0 51
4.0285578 -1.2516913 0.80497116 0 52
4.0458503 -1.2570642 0.84888452 0 53
4.0356698 -1.2539011 0.8872537 0 54
4.0294056 -1.2519549 0.92647535 0 55
4.0342197 -1.2534506 0.9683941 0 56
4.0387931 -1.2548715 1.0105226 0 57
4.0480552 -1.2577493 1.0541462 0 58
4.0204511 -1.2491727 1.0881703 0 59
4.0507302 -1.2585804 1.1380863 0 60
4.0398936 -1.2552135 1.1768566 0 61
4.0363464 -1.2541113 1.217816 0 62
4.0287156 -1.2517405 1.2576498 0 63
2.3815067 -0.70795614 -0.74066472 0 0
2.4511621 -0.72866273 -0.73678714 0 1
2.5321934 -0.75275111 -0.73489839 0 2
2.6361527 -0.78365541 -0.73788589 0 3
2.7310688 -0.81187129 -0.73642999 0 4
2.8195903 -0.83818632 -0.73150474 0 5
2.9457619 -0.87569362 -0.73429209 0 6
3.0821934 -0.91625094 -0.73710471 0 7
3.2351899 -0.96173257 -0.74108732 0 8
3.3620605 -0.9994477 -0.73640114 0 9
3.5023489 -1.0411516 -0.73210764 0 10
3.6852789 -1.0955316 -0.73363125 0 11
3.8781712 -1.1528732 -0.73352933 0 12
4.0868578 -1.2149098 -0.73256308 0 13
4.211854 -1.2520678 -0.7134254 0 14
4.2358184 -1.2591918 -0.67582977 0 15
4.2273946 -1.2566876 -0.63303047 0 16
4.2297049 -1.2573743 -0.59200788 0 17
4.2082472 -1.2509956 -0.54794741 0 18
4.2031889 -1.2494919 -0.50637496 0 19
4.219347 -1.2542953 -0.4673377 0 20
4.2042365 -1.2498033 -0.42490655 0 21
4.2196941 -1.2543985 -0.3856343 0 22
4.2068582 -1.2505827 -0.34381652 0 23
4.229301 -1.2572544 -0.30484802 0 24
4.216733 -1.2535181 -0.26331231 0 25
4.2158499 -1.2532556 -0.2226806 0 26
4.2074099 -1.2507467 -0.18177716 0 27
4.2072325 -1.250694 -0.14134437 0 28
4.2099719 -1.2515082 -0.10100889 0 29
4.2169547 -1.2535841 -0.060699016 0 30
4.2242112 -1.2557412 -0.020266676 0 31
4.214951 -1.2529885 0.02022225 0 32
4.2164373 -1.2534304 0.060691565 0 33
4.2221656 -1.2551332 0.10130145 0 34
4.2198114 -1.2544334 0.14176697 0 35
4.2057528 -1.250254 0.18170555 0 36
4.2224369 -1.2552137 0.22302851 0 37
4.2195029 -1.2543417 0.26348528 0 38
4.2250962 -1.2560045 0.30454496 0 39
4.2119899 -1.2521081 0.3442359 0 40
4.2009153 -1.248816 0.38391811 0 41
4.2022715 -1.2492193 0.42470798 0 42
4.2132268 -1.2524759 0.46665981 0 43
4.2129507 -1.2523938 0.50755101 0 44
4.2045455 -1.2498952 0.54746538 0 45
4.213192 -1.2524655 0.58969665 0 46
4.216558 -1.2534661 0.63140774 0 47
4.2082038 -1.2509828 0.67142379 0 48
4.2228508 -1.2553369 0.7152881 0 49
4.2126265 -1.2522974 0.75510699 0 50
4.2217898 -1.2550215 0.79852247 0 51
4.2256961 -1.2561827 0.84121251 0 52
4.2182689 -1.2539748 0.88175881 0 53
4.2136054 -1.2525885 0.92291731 0 54
4.2163515 -1.2534047 0.96584266 0 55
4.2187338 -1.254113 1.0089077 0 56
4.2262363 -1.2563432 1.0534768 0 57
4.2175183 -1.2537518 1.0941783 0 58
4.2089329 -1.2511995 1.1349345 0 59
4.2170506 -1.2536125 1.1803951 0 60
4.2175512 -1.2537615 1.2240264 0 61
4.2119465 -1.2520952 1.2660557 0 62
4.2246542 -1.2558728 1.3138959 0 63
2.3653929 -0.67162496 -0.73302931 0 0
2.4586022 -0.69809055 -0.73638761 0 1
2.5288081 -0.71802467 -0.73129815 0 2
2.617703 -0.74326527 -0.73010814 0 3
2.7382877 -0.77750385 -0.73574287 0 4
2.8306952 -0.80374187 -0.73176634 0 5
2.9467754 -0.83670151 -0.73192477 0 6
3.0735452 -0.87269628 -0.73241484 0 7
3.2155755 -0.91302407 -0.73396701 0 8
3.3756773 -0.95848304 -0.73674649 0 9
3.5341325 -1.0034745 -0.73611653 0 10
3.7119346 -1.0539593 -0.73630202 0 11
3.9085481 -1.1097853 -0.73663807 0 12
4.097147 -1.1633357 -0.73178798 0 13
4.3306623 -1.2296395 -0.73093337 0 14
4.3992114 -1.2491032 -0.69939578 0 15
4.4191399 -1.2547617 -0.65938312 0 16
4.4031024 -1.2502081 -0.6140793 0 17
4.4072971 -1.251399 -0.57181847 0 18
4.4115024 -1.252593 -0.52957571 0 19
4.405159 -1.2507919 -0.48617804 0 20
4.4081621 -1.2516447 -0.44392753 0 21
4.413219 -1.2530805 -0.40188184 0 22
4.4038854 -1.2504303 -0.35863534 0 23
4.4144578 -1.2534323 -0.31705919 0 24
4.4098625 -1.2521275 -0.27439004 0 25
4.426703 -1.2569093 -0.23298387 0 26
4.4181528 -1.2544814 -0.19020127 0 27
4.4026675 -1.2500845 -0.14738254 0 28
4.4164948 -1.2540107 -0.10558601 0 29
4.4089632 -1.2518722 -0.06323643 0 30
4.4204664 -1.2551383 -0.021132614 0 31
4.4139814 -1.2532971 0.021101613 0 32
4.40132 -1.249702 0.06312681 0 33
4.404397 -1.2505757 0.10529678 0 34
4.4051881 -1.2508003 0.14746693 0 35
4.4072309 -1.2513802 0.18973108 0 36
4.4071422 -1.2513551 0.23195434 0 37
4.4043636 -1.2505661 0.27404788 0 38
4.407104 -1.2513443 0.31653103 0 39
4.4034867 -1.2503171 0.35860285 0 40
4.3893538 -1.2463043 0.3997086 0 41
4.403965 -1.250453 0.44350484 0 42
4.4058027 -1.2509748 0.48624909 0 43
4.4099984 -1.252166 0.52939516 0 44
4.4244304 -1.2562639 0.57404137 0 45
4.3991032 -1.2490724 0.61352152 0 46
4.4163132 -1.2539592 0.6589613 0 47
4.4000611 -1.2493445 0.6995309 0 48
4.4175892 -1.2543213 0.74560493 0 49
4.410706 -1.252367 0.7877925 0 50
4.4030986 -1.2502071 0.82984531 0 51
4.4174972 -1.2542952 0.8762579 0 52
4.4208736 -1.2552539 0.9208138 0 53
4.4003253 -1.2494195 0.96037734 0 54
4.4120369 -1.2527449 1.0070637 0 55
4.4014583 -1.2497413 1.0488518 0 56
4.412652 -1.2529196 1.0960215 0 57
4.4077358 -1.2515236 1.139449 0 58
4.4199038 -1.2549787 1.1875718 0 59
4.4103317 -1.2522608 1.2300935 0 60
4.4095755 -1.252046 1.2751914 0 61
4.4122577 -1.2528075 1.3215362 0 62
4.4112496 -1.2525214 1.3670352 0 63
2.3640294 -0.6399343 -0.73011303 0 0
2.4777429 -0.67071611 -0.7395944 0 1
2.5506227 -0.69044441 -0.73509592 0 2
2.6446936 -0.715909 -0.73512524 0 3
2.7560842 -0.7460621 -0.73800391 0 4
2.8656659 -0.77572542 -0.73828501 0 5
2.9760485 -0.80560565 -0.73667949 0 6
3.0985568 -0.83876818 -0.7358616 0 7
3.2558479 -0.88134629 -0.74062961 0 8
3.3781483 -0.91445261 -0.73477608 0 9
3.5244982 -0.95406896 -0.73161095 0 10
3.71785 -1.0064086 -0.73496509 0 11
3.9097025 -1.0583423 -0.73434746 0 12
4.1304355 -1.118094 -0.7352224 0 13
4.378973 -1.1853722 -0.73657149 0 14
4.5958791 -1.2440879 -0.72817534 0 15
4.6038065 -1.2462338 -0.68459904 0 16
4.6014867 -1.2456059 -0.63956249 0 17
4.5887642 -1.242162 -0.59333611 0 18
4.602941 -1.2459996 -0.55067599 0 19
4.598896 -1.2449045 -0.50583225 0 20
4.5955801 -1.244007 -0.46122625 0 21
4.5910664 -1.2427851 -0.41665405 0 22
4.5956292 -1.2440203 -0.3729763 0 23
4.5909963 -1.2427661 -0.32861626 0 24
4.6025643 -1.2458975 -0.28540546 0 25
4.5938163 -1.2435296 -0.24095628 0 26
4.5927505 -1.243241 -0.19704467 0 27
4.5742488 -1.2382327 -0.15260513 0 28
4.5834179 -1.2407148 -0.10920368 0 29
4.5979028 -1.2446357 -0.065721855 0 30
4.6109595 -1.2481701 -0.021968259 0 31
4.605 -1.246557 0.021939864 0 32
4.6147552 -1.2491976 0.065962739 0 33
4.5916133 -1.2429333 0.10939894 0 34
4.5946822 -1.2437639 0.15328683 0 35
4.5831308 -1.2406369 0.19663195 0 36
4.5960393 -1.2441313 0.24107288 0 37
4.5935049 -1.2434453 0.28484371 0 38
4.602715 -1.2459384 0.32945511 0 39
4.6011662 -1.2455192 0.37342569 0 40
4.5949974 -1.2438493 0.41701084 0 41
4.5998158 -1.2451535 0.46165133 0 42
4.5897155 -1.2424195 0.50482249 0 43
4.5843086 -1.2409558 0.54844683 0 44
4.6004562 -1.245327 0.59484786 0 45
4.6082249 -1.2474298 0.64049906 0 46
4.6041913 -1.246338 0.68465626 0 47
4.597611 -1.2445567 0.72844964 0 48
4.5912437 -1.2428331 0.77227676 0 49
4.5898871 -1.242466 0.8170054 0 50
4.5991883 -1.2449838 0.86385149 0 51
4.5956955 -1.2440382 0.9085024 0 52
4.6013069 -1.2455572 0.95513356 0 53
4.5998158 -1.2451537 1.0004991 0 54
4.5973592 -1.2444886 1.0457922 0 55
4.600769 -1.2454116 1.0926149 0 56
4.5976977 -1.2445801 1.1380962 0 57
4.6009078 -1.2454492 1.1853375 0 58
4.6043229 -1.2463737 1.2329117 0 59
4.5886111 -1.2421205 1.2754612 0 60
4.5830855 -1.2406247 1.3208567 0 61
4.5899763 -1.2424901 1.370086 0 62
4.6031852 -1.2460656 1.4216597 0 63
2.3910196 -0.61578953 -0.73605448 0 0
2.4691327 -0.63590699 -0.7346347 0 1
2.5497527 -0.65667009 -0.73246258 0 2
2.6350079 -0.67862695 -0.73005831 0 3
2.7457433 -0.70714605 -0.73285109 0 4
2.8604536 -0.73668885 -0.73455286 0 5
2.9679036 -0.7643618 -0.73228139 0 6
3.0994983 -0.79825306 -0.73369861 0 7
3.2454717 -0.83584744 -0.73587561 0 8
3.395303 -0.87443537 -0.73611295 0 9
3.568903 -0.91914481 -0.73842645 0 10
3.7319651 -0.96114028 -0.73536348 0 11
3.9106073 -1.0071483 -0.73213595 0 12
4.1495757 -1.0686928 -0.73623455 0 13
4.3819056 -1.1285276 -0.73467499 0 14
4.6686602 -1.2023792 -0.7373085 0 15
4.8246331 -1.2425488 -0.71511042 0 16
4.8294683 -1.2437942 -0.6690734 0 17
4.8114285 -1.2391481 -0.62010992 0 18
4.8328824 -1.2446734 -0.57631052 0 19
4.8256083 -1.2428001 -0.52904749 0 20
4.8233609 -1.2422212 -0.48251751 0 21
4.827323 -1.2432417 -0.43667474 0 22
4.8315482 -1.2443298 -0.39085186 0 23
4.819922 -1.2413355 -0.34388384 0 24
4.8197103 -1.241281 -0.29790172 0 25
4.8226523 -1.2420387 -0.25213909 0 26
4.8342476 -1.245025 -0.20673327 0 27
4.8332553 -1.2447695 -0.16072325 0 28
4.8113065 -1.2391167 -0.11426163 0 29
4.8378611 -1.2459556 -0.068927586 0 30
4.8338509 -1.2449229 -0.022955522 0 31
4.8269262 -1.2431395 0.022922639 0 32
4.8298836 -1.2439011 0.068813927 0 33
4.8310466 -1.2442006 0.11473043 0 34
4.836627 -1.2456379 0.16083539 0 35
4.8258395 -1.2428596 0.20637371 0 36
4.8331151 -1.2447333 0.25268611 0 37
4.821692 -1.2417914 0.29802421 0 38
4.8395791 -1.2463981 0.34528631 0 39
4.8287635 -1.2436126 0.39062661 0 40
4.8249164 -1.2426218 0.43645701 0 41
4.824039 -1.2423959 0.48258534 0 42
4.8332357 -1.2447644 0.52988368 0 43
4.8350296 -1.2452265 0.57656658 0 44
4.8308444 -1.2441485 0.6226123 0 45
4.8282433 -1.2434787 0.66890371 0 46
4.8251591 -1.2426844 0.71518844 0 47
4.8241692 -1.2424294 0.76186758 0 48
4.8207898 -1.241559 0.80825883 0 49
4.8338389 -1.2449198 0.85763931 0 50
4.8289032 -1.2436486 0.90405738 0 51
4.8354659 -1.2453388 0.9528023 0 52
4.8385239 -1.2461264 1.0011184 0 53
4.8284879 -1.2435416 1.0468322 0 54
4.8168898 -1.2405547 1.0921777 0 55
4.829042 -1.2436844 1.1431081 0 56
4.8188996 -1.2410723 1.1889842 0 57
4.8360267 -1.2454833 1.241872 0 58
4.8330464 -1.2447157 1.2899616 0 59
4.8282943 -1.2434918 1.3377328 0 60
4.8396435 -1.2464147 1.3902752 0 61
4.8263431 -1.2429893 1.4359695 0 62
4.8243499 -1.2424759 1.4851339 0 63
2.4049137 -0.58793402 -0.73805034 0 0
2.4827676 -0.60696709 -0.73641515 0 1
2.5585823 -0.62550169 -0.7327342 0 2
2.6588042 -0.65000314 -0.73438132 0 3
2.7678037 -0.67665046 -0.73646265 0 4
2.873472 -0.70248342 -0.73562205 0 5
2.9945545 -0.73208469 -0.73658025 0 6
3.1055605 -0.75922251 -0.73286831 0 7
3.2442605 -0.79313082 -0.73333424 0 8
3.4018393 -0.83165443 -0.73525733 0 9
3.5679419 -0.87226188 -0.73595279 0 10
3.7306976 -0.91205108 -0.73284847 0 11
3.9385653 -0.96286887 -0.73509789 0 12
4.1462517 -1.0136424 -0.73337799 0 13
4.3954287 -1.0745592 -0.73467141 0 14
4.6628423 -1.1399343 -0.73412049 0 15
4.9815907 -1.2178594 -0.73609948 0 16
5.0790987 -1.2416974 -0.70148885 0 17
5.0960107 -1.245832 -0.65476376 0 18
5.0832787 -1.2427192 -0.60430181 0 19
5.092927 -1.245078 -0.55663389 0 20
5.0988193 -1.2465185 -0.50850189 0 21
5.0926256 -1.2450043 -0.45925418 0 22
5.098824 -1.2465197 -0.41120231 0 23
5.0719643 -1.2399532 -0.36075106 0 24
5.0675159 -1.2388657 -0.31225318 0 25
5.0905714 -1.2445022 -0.26532638 0 26
5.0880866 -1.2438947 -0.21691802 0 27
5.0798364 -1.2418777 -0.16840242 0 28
5.0845637 -1.2430334 -0.12037901 0 29
5.0797534 -1.2418574 -0.072150938 0 30
5.0983772 -1.2464104 -0.024137126 0 31
5.0756993 -1.2408663 0.024029763 0 32
5.0919123 -1.2448299 0.072323635 0 33
5.0878859 -1.2438456 0.12045767 0 34
5.0895863 -1.2442613 0.16872564 0 35
5.0907445 -1.2445444 0.21703131 0 36
5.076921 -1.241165 0.26461491 0 37
5.0851512 -1.2431771 0.31333983 0 38
5.0939574 -1.2453299 0.36231533 0 39
5.0810728 -1.24218 0.40977076 0 40
5.0783224 -1.2415075 0.45796427 0 41
5.0797806 -1.2418641 0.50660318 0 42
5.0837412 -1.2428323 0.55562991 0 43
5.0841913 -1.2429423 0.60441029 0 44
5.0656438 -1.2384081 0.65086204 0 45
5.0911551 -1.2446448 0.70315397 0 46
5.0786366 -1.2415844 0.75043941 0 47
5.0900917 -1.2443848 0.80138683 0 48
5.0826244 -1.2425593 0.84953237 0 49
5.0829182 -1.2426312 0.89905304 0 50
5.075829 -1.240898 0.94735801 0 51
5.0771317 -1.2412165 0.99733847 0 52
5.0897021 -1.2442896 1.0498434 0 53
5.0849071 -1.2431173 1.0990276 0 54
5.0817828 -1.2423536 1.1486887 0 55
5.0879664 -1.2438653 1.200688 0 56
5.0713258 -1.239797 1.2474103 0 57
5.0793362 -1.2417555 1.3003335 0 58
5.0832944 -1.2427231 1.352573 0 59
5.093873 -1.2453092 1.4069653 0 60
5.0812874 -1.2422324 1.4551938 0 61
5.0827465 -1.2425891 1.5075964 0 62
5.0868874 -1.2436014 1.5611284 0 63
2.3876233 -0.55268627 -0.73060316 0 0
2.4945183 -0.57743019 -0.73773873 0 1
2.5665729 -0.59410942 -0.73287499 0 2
2.6752355 -0.61926258 -0.73676085 0 3
2.771543 -0.64155579 -0.73530293 0 4
2.8845959 -0.66772527 -0.73631221 0 5
2.9914861 -0.69246817 -0.7336756 0 6
3.1218703 -0.72264946 -0.73456472 0 7
3.281023 -0.75949007 -0.73947716 0 8
3.4166818 -0.7908923 -0.73630768 0 9
3.5621359 -0.82456195 -0.73260838 0 10
3.7494082 -0.86791176 -0.73437196 0 11
3.9449618 -0.91317838 -0.73414052 0 12
4.1755176 -0.96654731 -0.73639649 0 13
4.3850341 -1.0150461 -0.73079252 0 14
4.6750326 -1.0821749 -0.73388922 0 15
4.9941678 -1.1560482 -0.73580182 0 16
5.3586507 -1.2404187 -0.7379362 0 17
5.3621359 -1.2412254 -0.68694401 0 18
5.3703599 -1.243129 -0.63656479 0 19
5.3761473 -1.2444687 -0.58587182 0 20
5.3733807 -1.2438283 -0.53431797 0 21
5.3708 -1.2432309 -0.48292485 0 22
5.3668094 -1.2423072 -0.43154982 0 23
5.3655705 -1.2420204 -0.38051918 0 24
5.3669105 -1.2423307 -0.32973522 0 25
5.3633137 -1.241498 -0.27872527 0 26
5.379931 -1.2453446 -0.22868995 0 27
5.3820291 -1.2458302 -0.17789915 0 28
5.3715606 -1.243407 -0.12680221 0 29
5.3690729 -1.2428312 -0.076037511 0 30
5.3648591 -1.2418557 -0.025324516 0 31
5.3557048 -1.2397367 0.025281303 0 32
5.3572102 -1.2400851 0.075869501 0 33
5.3721619 -1.2435462 0.12681641 0 34
5.3623886 -1.2412839 0.17724995 0 35
5.3718209 -1.2434673 0.22834522 0 36
5.3762021 -1.2444814 0.27939507 0 37
5.370584 -1.243181 0.32996091 0 38
5.3696289 -1.2429599 0.38080698 0 39
5.3766184 -1.2445778 0.43233857 0 40
5.3861098 -1.2467749 0.48430151 0 41
5.3653059 -1.2419591 0.53351504 0 42
5.374557 -1.2441007 0.58569854 0 43
5.3614321 -1.2410624 0.63550651 0 44
5.380075 -1.2453779 0.68924218 0 45
5.3682213 -1.2426341 0.73925412 0 46
5.3833084 -1.2461264 0.79313475 0 47
5.3673644 -1.2424356 0.84257179 0 48
5.3786821 -1.2450554 0.89639008 0 49
5.3829856 -1.2460517 0.94934624 0 50
5.3736472 -1.24389 1.0000128 0 51
5.3559179 -1.239786 1.0490284 0 52
5.3767824 -1.2446158 1.1058185 0 53
5.376049 -1.2444459 1.1585586 0 54
5.3660507 -1.2421316 1.2094009 0 55
5.3880773 -1.2472302 1.2677948 0 56
5.374424 -1.2440698 1.3181019 0 57
5.3658609 -1.2420876 1.3696716 0 58
5.3756495 -1.2443535 1.4261843 0 59
5.3741875 -1.2440151 1.4800532 0 60
5.3695641 -1.2429448 1.5332583 0 61
5.3762083 -1.2444829 1.5899812 0 62
5.3785114 -1.245016 1.6458029 0 63
2.4190571 -0.52871174 -0.73817658 0 0
2.4788563 -0.54178149 -0.73108125 0 1
2.5869019 -0.56539607 -0.7366389 0 2
2.6876073 -0.58740634 -0.738123 0 3
2.7973387 -0.6113894 -0.74009621 0 4
2.9081609 -0.63561076 -0.74027634 0 5
2.9974315 -0.65512186 -0.73310262 0 6
3.1340578 -0.68498307 -0.7353949 0 7
3.2843163 -0.71782374 -0.73817426 0 8
3.4171281 -0.74685121 -0.73436922 0 9
3.5882444 -0.78425056 -0.73593903 0 10
3.7795305 -0.82605827 -0.73822647 0 11
3.9472635 -0.86271816 -0.7325393 0 12
4.1753659 -0.91257244 -0.73433524 0 13
4.4225049 -0.96658742 -0.73500091 0 14
4.6722608 -1.0211744 -0.73142767 0 15
4.9902859 -1.0906823 -0.73319852 0 16
5.3591914 -1.1713107 -0.73597157 0 17
5.6408334 -1.2328666 -0.72065139 0 18
5.6482954 -1.2344975 -0.66765952 0 19
5.6565585 -1.2363034 -0.61472678 0 20
5.6436191 -1.2334754 -0.55963939 0 21
5.657825 -1.2365803 -0.50732762 0 22
5.6482625 -1.2344903 -0.45292684 0 23
