# .PCD v0.7 - Point Cloud Data file format
VERSION 0.7
FIELDS x y z intensity ring
SIZE 4 4 4 4 2
TYPE F F F F U
COUNT 1 1 1 1 1
WIDTH 1205
HEIGHT 1
VIEWPOINT 0 0 0 1 0 0 0
POINTS 1205
DATA ascii
-0.28436768 -1.2821908 -0.0060398714 0 31
-0.28624314 -1.290647 0.006079705 0 32
-0.2861484 -1.2902198 0.018234108 0 33
-0.28288269 -1.2754951 0.030046737 0 34
-0.28516224 -1.2857734 0.042411584 0 35
-0.28502399 -1.2851499 0.054515049 0 36
-0.28619951 -1.2904503 0.066923186 0 37
-0.28550413 -1.2873149 0.078925617 0 38
-0.28374723 -1.2793932 0.090543427 0 39
-0.28406647 -1.2808326 0.10277782 0 40
-0.28470275 -1.2837015 0.11518525 0 41
-0.28543448 -1.2870009 0.12770952 0 42
-0.28569865 -1.288192 0.14008908 0 43
-0.28404361 -1.2807295 0.15149172 0 44
-0.28377011 -1.2794963 0.16357419 0 45
-0.28701097 -1.2941091 0.17783877 0 46
-0.28818056 -1.2993827 0.19104119 0 47
-0.28586593 -1.2889463 0.20191701 0 48
-0.28618994 -1.2904072 0.21460515 0 49
-0.28438094 -1.2822506 0.22566622 0 50
-0.28469077 -1.2836474 0.2383825 0 51
-0.28378937 -1.2795832 0.25010023 0 52
-0.28578529 -1.2885827 0.2644636 0 53
-0.28308457 -1.2764053 0.27449575 0 54
-0.28707182 -1.2943835 0.2911191 0 55
-0.2861008 -1.2900052 0.30289975 0 56
-0.28319636 -1.2769095 0.31251395 0 57
-0.28485507 -1.2843883 0.32716405 0 58
-0.28641209 -1.2914088 0.34190121 0 59
-0.28418934 -1.2813866 0.35215747 0 60
-0.28677121 -1.2930281 0.36844823 0 61
-0.28518417 -1.2858722 0.37949488 0 62
-0.2856288 -1.287877 0.3932623 0 63
-0.2690053 -1.2876215 -0.39214459 0 0
-0.26937187 -1.2893761 -0.37952271 0 1
-0.26797903 -1.2827091 -0.36454132 0 2
-0.26895919 -1.2874008 -0.35287473 0 3
-0.27152863 -1.2996997 -0.34318635 0 4
-0.26294252 -1.2586013 -0.31974775 0 5
-0.26630402 -1.2746915 -0.31114614 0 6
-0.26964927 -1.2907039 -0.30226237 0 7
-0.2700806 -1.2927685 -0.289987 0 8
-0.26929274 -1.2889974 -0.27647069 0 9
-0.26566181 -1.2716174 -0.26029161 0 10
-0.26935244 -1.2892832 -0.25132978 0 11
-0.26800463 -1.2828315 -0.23760103 0 12
-0.26895571 -1.2873842 -0.22597055 0 13
-0.26978612 -1.2913589 -0.21419553 0 14
-0.27048755 -1.2947164 -0.20228457 0 15
-0.27038294 -1.2942157 -0.18977836 0 16
-0.26812136 -1.2833904 -0.17589943 0 17
-0.26830611 -1.2842746 -0.1637509 0 18
-0.26749924 -1.2804126 -0.15105373 0 19
-0.26699731 -1.27801 -0.13861428 0 20
-0.26951364 -1.2900547 -0.12767404 0 21
-0.26823324 -1.2839259 -0.11490074 0 22
-0.26512697 -1.2690575 -0.10156365 0 23
-0.27012673 -1.2929894 -0.091263659 0 24
-0.26625383 -1.2744513 -0.077930324 0 25
-0.26862812 -1.2858161 -0.066506527 0 26
-0.26857781 -1.2855753 -0.054388888 0 27
-0.26734465 -1.2796726 -0.042098731 0 28
-0.26998889 -1.2923295 -0.030362803 0 29
-0.26973173 -1.2910987 -0.018198278 0 30
-0.269205 -1.2885773 -0.006053905 0 31
-0.26950023 -1.2899904 0.0060605439 0 32
-0.26997226 -1.2922499 0.018214505 0 33
-0.26971507 -1.2910188 0.03033201 0 34
-0.26781109 -1.2819053 0.042172182 0 35
-0.26763991 -1.2810858 0.054198951 0 36
-0.2671375 -1.278681 0.066137478 0 37
-0.26763079 -1.2810421 0.078333348 0 38
-0.2695151 -1.2900617 0.091057017 0 39
-0.26942623 -1.2896363 0.10321059 0 40
-0.26673552 -1.276757 0.11425918 0 41
-0.27059174 -1.2952151 0.12818475 0 42
-0.2692762 -1.2889181 0.13979739 0 43
-0.26815578 -1.2835552 0.15142447 0 44
-0.26685601 -1.2773337 0.16286591 0 45
-0.27007419 -1.2927377 0.17718056 0 46
-0.27030495 -1.2938424 0.18972361 0 47
-0.26930609 -1.2890612 0.20140103 0 48
-0.26580074 -1.2722826 0.21103136 0 49
-0.2683081 -1.2842842 0.22542644 0 50
-0.26916087 -1.2883662 0.23862612 0 51
-0.27226278 -1.3032138 0.2540454 0 52
-0.26847011 -1.2850598 0.26304317 0 53
-0.26742506 -1.2800575 0.27455324 0 54
-0.26813284 -1.2834452 0.28789568 0 55
-0.26893669 -1.2872931 0.3014636 0 56
-0.2713058 -1.298633 0.31699017 0 57
-0.27139777 -1.2990732 0.33002964 0 58
-0.26834339 -1.284453 0.33916047 0 59
-0.26988101 -1.2918131 0.35408413 0 60
-0.26506624 -1.2687668 0.36057892 0 61
-0.26853472 -1.285369 0.37834325 0 62
-0.26913965 -1.2882645 0.39234039 0 63
-0.25362578 -1.2932426 -0.39287701 0 0
-0.25349441 -1.2925727 -0.37951744 0 1
-0.25319859 -1.2910643 -0.36600333 0 2
-0.25052109 -1.2774118 -0.34926599 0 3
-0.25302607 -1.2901847 -0.33982667 0 4
-0.25101808 -1.279946 -0.32436165 0 5
-0.25434205 -1.2968948 -0.31577861 0 6
-0.25153291 -1.2825711 -0.29961082 0 7
-0.25021014 -1.2758261 -0.28547484 0 8
-0.25085694 -1.2791241 -0.27367076 0 9
-0.25297043 -1.289901 -0.26337749 0 10
-0.25455076 -1.2979591 -0.25239179 0 11
-0.25068179 -1.278231 -0.23616016 0 12
-0.2537564 -1.2939087 -0.22655097 0 13
-0.2523872 -1.2869271 -0.21292956 0 14
-0.2525633 -1.287825 -0.20070748 0 15
-0.25449425 -1.297671 -0.18981178 0 16
-0.25114378 -1.2805868 -0.17507868 0 17
-0.25029257 -1.2762465 -0.16232258 0 18
-0.24982326 -1.2738535 -0.14990619 0 19
-0.25113094 -1.2805214 -0.13854127 0 20
-0.24942084 -1.2718015 -0.12555453 0 21
-0.25103375 -1.2800258 -0.11426683 0 22
-0.25402054 -1.2952555 -0.10340251 0 23
-0.25561556 -1.3033885 -0.091768876 0 24
-0.2517187 -1.2835183 -0.078289568 0 25
-0.25270569 -1.2885511 -0.066482238 0 26
-0.25304648 -1.2902888 -0.054452542 0 27
-0.25261915 -1.2881098 -0.04227091 0 28
-0.252859 -1.2893327 -0.030217059 0 29
-0.25151616 -1.2824857 -0.018031919 0 30
-0.24912564 -1.2702963 -0.0059531759 0 31
-0.25117719 -1.2807572 0.0060022003 0 32
-0.25458449 -1.2981311 0.018251896 0 33
-0.24878408 -1.2685547 0.0297301 0 34
-0.25041339 -1.2768625 0.041901816 0 35
-0.25062451 -1.2779391 0.053931363 0 36
-0.25513771 -1.300952 0.067122057 0 37
-0.24966756 -1.2730595 0.077651627 0 38
-0.25285596 -1.2893173 0.09077815 0 39
-0.25105378 -1.2801279 0.10219485 0 40
-0.25206539 -1.2852862 0.11473642 0 41
-0.25079417 -1.2788042 0.12624586 0 42
-0.2513741 -1.2817613 0.13867541 0 43
-0.25302866 -1.2901978 0.15182959 0 44
-0.25210232 -1.2854744 0.16349626 0 45
-0.25278753 -1.2889684 0.17622457 0 46
-0.25104603 -1.2800884 0.18723996 0 47
-0.25430354 -1.2966985 0.20209043 0 48
-0.25083002 -1.2789869 0.21161582 0 49
-0.25302961 -1.2902027 0.2259021 0 50
-0.25164995 -1.2831678 0.23707224 0 51
-0.25296146 -1.2898552 0.25081599 0 52
-0.25374794 -1.2938654 0.26418698 0 53
-0.25044751 -1.2770365 0.27322409 0 54
-0.25364861 -1.2933589 0.28939793 0 55
-0.25382999 -1.2942839 0.30234694 0 56
-0.25285199 -1.2892971 0.31392863 0 57
-0.25209078 -1.2854155 0.32574776 0 58
-0.25053954 -1.2775058 0.33648711 0 59
-0.25301462 -1.2901263 0.35274234 0 60
-0.25307268 -1.2904223 0.36582133 0 61
-0.24861468 -1.2676909 0.37221178 0 62
-0.25112143 -1.2804729 0.38899764 0 63
-0.23645927 -1.2894673 -0.39081725 0 0
-0.23670873 -1.2908278 -0.37812188 0 1
-0.23512158 -1.2821727 -0.36263561 0 2
-0.23636296 -1.2889422 -0.35159737 0 3
-0.23657288 -1.2900869 -0.33900905 0 4
-0.23671015 -1.2908355 -0.32635897 0 5
-0.23497273 -1.2813609 -0.31126922 0 6
-0.23902999 -1.3034861 -0.30378705 0 7
-0.23674172 -1.2910076 -0.28819865 0 8
-0.23598005 -1.286854 -0.27468297 0 9
-0.23601656 -1.2870531 -0.26218361 0 10
-0.23520416 -1.2826229 -0.24882844 0 11
-0.23415278 -1.2768896 -0.23536256 0 12
-0.23446973 -1.278618 -0.223352 0 13
-0.23668769 -1.2907131 -0.21305832 0 14
-0.23529504 -1.2831186 -0.199508 0 15
-0.23382473 -1.2751006 -0.18607578 0 16
-0.23530908 -1.2831951 -0.17502645 0 17
-0.23662008 -1.2903444 -0.16373321 0 18
-0.23642048 -1.2892559 -0.15136518 0 19
-0.23795706 -1.2976352 -0.14006567 0 20
-0.2382527 -1.2992474 -0.12796514 0 21
-0.23591964 -1.2865247 -0.11457934 0 22
-0.23615411 -1.2878033 -0.10256801 0 23
-0.23428816 -1.2776277 -0.089745492 0 24
-0.23628299 -1.288506 -0.078410655 0 25
-0.23624264 -1.288286 -0.066313669 0 26
-0.23550017 -1.2842371 -0.054070856 0 27
-0.23723264 -1.2936847 -0.04235493 0 28
-0.23483038 -1.2805846 -0.029942099 0 29
-0.23343885 -1.2729963 -0.017856788 0 30
-0.23434772 -1.2779526 -0.0059751002 0 31
-0.23859452 -1.3011113 0.00608338 0 32
-0.23458499 -1.2792464 0.017944463 0 33
-0.23610206 -1.2875195 0.030104246 0 34
-0.23407832 -1.2764835 0.041791763 0 35
-0.23344477 -1.2730286 0.053598933 0 36
-0.23451488 -1.2788641 0.065828681 0 37
-0.23567143 -1.2851712 0.078207709 0 38
-0.23659495 -1.2902073 0.090629123 0 39
-0.23513339 -1.2822371 0.10212468 0 40
-0.23565981 -1.2851077 0.11445316 0 41
-0.23444353 -1.278475 0.12591924 0 42
-0.24012515 -1.3094583 0.14134185 0 43
-0.23536989 -1.2835268 0.15069255 0 44
-0.23572364 -1.2854558 0.16311291 0 45
-0.23679331 -1.291289 0.17613044 0 46
-0.23490131 -1.2809715 0.1869325 0 47
-0.23571379 -1.2854022 0.19986306 0 48
-0.23653306 -1.2898698 0.21291912 0 49
-0.23601423 -1.2870405 0.22482328 0 50
-0.23583706 -1.2860743 0.23705554 0 51
-0.23451929 -1.2788881 0.24810389 0 52
-0.23541911 -1.2837951 0.26151991 0 53
-0.23508064 -1.2819494 0.27363607 0 54
-0.23570465 -1.2853522 0.28693616 0 55
-0.23214677 -1.2659503 0.29503906 0 56
-0.23403348 -1.276239 0.31002501 0 57
-0.23477748 -1.2802962 0.32369435 0 58
-0.23546608 -1.2840513 0.33742303 0 59
-0.23790967 -1.2973768 0.35389814 0 60
-0.23215154 -1.2659763 0.35805482 0 61
-0.2348101 -1.2804741 0.37508899 0 62
-0.23468265 -1.2797791 0.38788089 0 63
-0.21727802 -1.2728938 -0.3849552 0 0
-0.22052039 -1.2918888 -0.37760985 0 1
-0.21804696 -1.2773986 -0.36049977 0 2
-0.22114721 -1.2955611 -0.3526344 0 3
-0.21888055 -1.2822821 -0.33622545 0 4
-0.22118372 -1.2957748 -0.32689542 0 5
-0.21971023 -1.2871426 -0.31199387 0 6
-0.21926709 -1.2845466 -0.29872209 0 7
-0.21853422 -1.2802531 -0.28517643 0 8
-0.22174269 -1.2990495 -0.27668321 0 9
-0.21862371 -1.2807775 -0.26033789 0 10
-0.22147951 -1.2975076 -0.25116873 0 11
-0.21886791 -1.2822081 -0.23582898 0 12
-0.21914852 -1.2838519 -0.22377865 0 13
-0.21970853 -1.2871326 -0.21200532 0 14
-0.22014149 -1.2896692 -0.2000905 0 15
-0.22026719 -1.2904055 -0.18789977 0 16
-0.22256224 -1.3038508 -0.17745715 0 17
-0.21844068 -1.2797052 -0.1620301 0 18
-0.22285995 -1.3055948 -0.15295015 0 19
-0.2188824 -1.282293 -0.13810869 0 20
-0.21623418 -1.2667787 -0.12449595 0 21
-0.22113717 -1.2955022 -0.11512802 0 22
-0.21803491 -1.277328 -0.10151249 0 23
-0.21804863 -1.2774084 -0.089534976 0 24
-0.22129048 -1.2964003 -0.078719512 0 25
-0.21906139 -1.2833415 -0.065915518 0 26
-0.21901076 -1.2830449 -0.053903196 0 27
-0.21901439 -1.2830662 -0.041915938 0 28
-0.2188369 -1.2820264 -0.02991063 0 29
-0.21802677 -1.2772803 -0.017877925 0 30
-0.21971425 -1.2871662 -0.006005093 0 31
-0.21838605 -1.2793851 0.0059687914 0 32
-0.21796854 -1.2769392 0.017873148 0 33
-0.21860027 -1.2806401 0.029878289 0 34
-0.21973442 -1.2872843 0.04205374 0 35
-0.21864702 -1.2809139 0.05381367 0 36
-0.21926084 -1.2845099 0.065975532 0 37
-0.21802156 -1.2772498 0.077556662 0 38
-0.21727 -1.2728468 0.089215249 0 39
-0.21835062 -1.2791775 0.10165948 0 40
-0.21794817 -1.2768198 0.11346777 0 41
-0.21860237 -1.2806524 0.12585942 0 42
-0.22246577 -1.3032856 0.14036968 0 43
-0.21974115 -1.2873238 0.15080971 0 44
-0.21919149 -1.2841038 0.16258703 0 45
-0.21978548 -1.2875835 0.17524314 0 46
-0.22074999 -1.293234 0.18831162 0 47
-0.21941204 -1.2853957 0.19942749 0 48
-0.22092216 -1.2942425 0.2131764 0 49
-0.21665026 -1.2692163 0.22122762 0 50
-0.21876021 -1.2815771 0.23571293 0 51
-0.21967515 -1.2869371 0.24912252 0 52
-0.22044918 -1.2914717 0.26251167 0 53
-0.21705768 -1.271603 0.2708374 0 54
-0.2205666 -1.2921596 0.28782856 0 55
-0.21978989 -1.2876093 0.29943433 0 56
-0.22089961 -1.2941105 0.31368282 0 57
-0.21725056 -1.272733 0.32108247 0 58
-0.21957514 -1.2863512 0.3372924 0 59
-0.21811518 -1.2777983 0.34779963 0 60
-0.21818163 -1.2781875 0.36072242 0 61
-0.21883644 -1.2820237 0.37472636 0 62
-0.21882524 -1.2819581 0.38769644 0 63
-0.20434034 -1.2927381 -0.39016721 0 0
-0.20198752 -1.2778533 -0.3727532 0 1
-0.20342654 -1.2869571 -0.36246398 0 2
-0.20073096 -1.2699038 -0.34495294 0 3
-0.20039648 -1.2677877 -0.33175367 0 4
-0.20287789 -1.2834861 -0.32314146 0 5
-0.20339596 -1.2867635 -0.3112722 0 6
-0.20457572 -1.2942272 -0.30036563 0 7
-0.20294999 -1.2839422 -0.28542069 0 8
-0.20375757 -1.2890513 -0.27399933 0 9
-0.20364447 -1.2883358 -0.26134548 0 10
-0.20286174 -1.283384 -0.24793307 0 11
-0.20472485 -1.2951707 -0.23773214 0 12
-0.20294386 -1.2839035 -0.22333577 0 13
-0.20425388 -1.2921913 -0.21240877 0 14
-0.20353344 -1.2876334 -0.19937128 0 15
-0.20233896 -1.2800766 -0.18601938 0 16
-0.20262246 -1.2818701 -0.17411326 0 17
-0.20212458 -1.2787204 -0.16157852 0 18
-0.20332348 -1.2863051 -0.15038611 0 19
-0.20304419 -1.2845381 -0.13807116 0 20
-0.20524658 -1.2984715 -0.12735297 0 21
-0.20313665 -1.2851231 -0.11397506 0 22
-0.20292573 -1.2837887 -0.10181994 0 23
-0.20273234 -1.2825654 -0.089714915 0 24
-0.20334329 -1.2864304 -0.077956393 0 25
-0.20288345 -1.2835213 -0.065791644 0 26
-0.20325182 -1.2858517 -0.05391204 0 27
-0.20306307 -1.2846576 -0.041883189 0 28
-0.20559312 -1.3006637 -0.030284183 0 29
-0.20534417 -1.2990888 -0.018146461 0 30
-0.2037134 -1.2887719 -0.0060004443 0 31
-0.2029316 -1.2838259 0.0059774159 0 32
-0.20357803 -1.2879153 0.017990384 0 33
-0.20410171 -1.2912284 0.030064495 0 34
-0.20302346 -1.284407 0.04187502 0 35
-0.20490672 -1.2963213 0.054350995 0 36
-0.20222658 -1.2793657 0.065578625 0 37
-0.20274346 -1.2826357 0.077726439 0 38
-0.20311004 -1.2849548 0.089882053 0 39
-0.20296302 -1.2840247 0.10183866 0 40
-0.20325089 -1.2858458 0.11403915 0 41
-0.2021092 -1.2786231 0.12540627 0 42
-0.20494512 -1.2965642 0.1393638 0 43
-0.20412584 -1.2913811 0.15097955 0 44
-0.2035763 -1.2879045 0.16273902 0 45
-0.20127937 -1.2733732 0.17295916 0 46
-0.20251335 -1.2811799 0.1861797 0 47
-0.2033501 -1.2864734 0.19919167 0 48
-0.20251557 -1.281194 0.21060106 0 49
-0.2035996 -1.288052 0.22405741 0 50
-0.20113467 -1.2724578 0.23356314 0 51
-0.20335469 -1.2865025 0.24853554 0 52
-0.2044633 -1.293516 0.26239631 0 53
-0.20556216 -1.3004678 0.27642602 0 54
-0.20464423 -1.2946607 0.28780341 0 55
-0.2043955 -1.2930871 0.30010104 0 56
-0.20498028 -1.2967867 0.31369683 0 57
-0.20369834 -1.2886765 0.32444826 0 58
-0.20385395 -1.289661 0.33747748 0 59
-0.20120439 -1.2728989 0.34576651 0 60
-0.20242959 -1.28065 0.36068761 0 61
-0.20103997 -1.2718587 0.37100455 0 62
-0.20347969 -1.2872933 0.38852391 0 63
-0.18692654 -1.2848192 -0.38705418 0 0
-0.18789496 -1.2914754 -0.37602443 0 1
-0.1880942 -1.292845 -0.36344337 0 2
-0.18598913 -1.278376 -0.34660685 0 3
-0.1862898 -1.2804426 -0.3344405 0 4
-0.18753126 -1.2889756 -0.32391849 0 5
-0.18781754 -1.2909434 -0.31170109 0 6
-0.18770735 -1.2901859 -0.29886946 0 7
-0.18763284 -1.2896739 -0.28616032 0 8
-0.1872499 -1.2870418 -0.27306214 0 9
-0.18640865 -1.2812595 -0.25942543 0 10
-0.18670407 -1.28329 -0.24745271 0 11
-0.18644898 -1.2815367 -0.23479101 0 12
-0.18650621 -1.2819301 -0.22257675 0 13
-0.18715851 -1.2864136 -0.2110648 0 14
-0.18833207 -1.29448 -0.20005767 0 15
-0.18815979 -1.2932959 -0.18758997 0 16
-0.1896271 -1.3033812 -0.17670499 0 17
-0.18678817 -1.2838681 -0.16192651 0 18
-0.18680751 -1.2840011 -0.14983685 0 19
-0.18908475 -1.2996534 -0.1394354 0 20
-0.18761028 -1.2895188 -0.12623911 0 21
-0.18662719 -1.2827616 -0.11355351 0 22
-0.18679969 -1.2839472 -0.10164265 0 23
-0.18793389 -1.291743 -0.090188429 0 24
-0.18617576 -1.2796588 -0.077401467 0 25
-0.18713003 -1.2862178 -0.06580694 0 26
-0.18697587 -1.2851582 -0.0537825 0 27
-0.18674669 -1.2835829 -0.04177013 0 28
-0.18754028 -1.2890377 -0.029957525 0 29
-0.18558125 -1.2755725 -0.01778475 0 30
-0.18756151 -1.2891835 -0.0059911697 0 31
-0.18799055 -1.2921325 0.0060048741 0 32
-0.18432409 -1.2669315 0.017664272 0 33
-0.18546434 -1.2747689 0.029625917 0 34
-0.18536451 -1.2740828 0.041460976 0 35
-0.1878389 -1.2910901 0.054030746 0 36
-0.18626022 -1.2802393 0.065501064 0 37
-0.18610519 -1.2791737 0.077372126 0 38
-0.18394637 -1.2643353 0.088274844 0 39
-0.18796988 -1.2919905 0.10227939 0 40
-0.18687268 -1.284449 0.11370288 0 41
-0.18775304 -1.2905 0.12633516 0 42
-0.18812108 -1.2930298 0.13872476 0 43
-0.18594576 -1.278078 0.14914565 0 44
-0.18738151 -1.2879463 0.16244087 0 45
-0.1868033 -1.283972 0.17407361 0 46
-0.18546134 -1.2747482 0.18489969 0 47
-0.18738291 -1.2879559 0.19904941 0 48
-0.18868428 -1.2969007 0.21278545 0 49
-0.18589482 -1.2777277 0.2218471 0 50
-0.18775533 -1.2905158 0.23643608 0 51
-0.18827112 -1.2940609 0.24952963 0 52
-0.18549976 -1.2750124 0.25816053 0 53
-0.18553595 -1.2752612 0.27056271 0 54
-0.18435547 -1.2671472 0.28116196 0 55
-0.18873662 -1.2972605 0.30050826 0 56
-0.1882316 -1.2937894 0.31238827 0 57
-0.18698952 -1.2852521 0.32298276 0 58
-0.18664367 -1.2828749 0.3350758 0 59
-0.18792002 -1.2916477 0.35020521 0 60
-0.18582536 -1.2772504 0.35905945 0 61
-0.18651122 -1.2819645 0.37325525 0 62
-0.18698806 -1.285242 0.38718155 0 63
-0.1707436 -1.2842281 -0.38621441 0 0
-0.16933915 -1.2736646 -0.37020439 0 1
-0.17158727 -1.2905736 -0.36218435 0 2
-0.17169237 -1.2913641 -0.34952947 0 3
-0.17288503 -1.3003346 -0.33905518 0 4
-0.16983989 -1.2774309 -0.32046825 0 5
-0.17014842 -1.2797514 -0.30847025 0 6
-0.17114903 -1.2872773 -0.29768568 0 7
-0.17005348 -1.2790374 -0.28331485 0 8
-0.16987084 -1.2776636 -0.27060881 0 9
-0.16944419 -1.2744546 -0.25760624 0 10
-0.17071754 -1.284032 -0.2471723 0 11
-0.16969076 -1.2763091 -0.23343334 0 12
-0.17105392 -1.286562 -0.22299892 0 13
-0.17240103 -1.2966942 -0.21238767 0 14
-0.17188644 -1.2928238 -0.19945998 0 15
-0.17002465 -1.2788204 -0.18517309 0 16
-0.17157675 -1.2904944 -0.17465864 0 17
-0.17062391 -1.2833278 -0.16158153 0 18
-0.17117058 -1.2874395 -0.14998114 0 19
-0.17147429 -1.2897239 -0.13813342 0 20
-0.17150968 -1.2899899 -0.12606923 0 21
-0.16974859 -1.2767441 -0.11282752 0 22
-0.17159612 -1.2906401 -0.10199774 0 23
-0.17084526 -1.2849926 -0.089563668 0 24
-0.17178434 -1.2920558 -0.078017645 0 25
-0.17046736 -1.2821504 -0.06548664 0 26
-0.17006582 -1.2791302 -0.053438678 0 27
-0.16902454 -1.2712984 -0.041299611 0 28
-0.16947913 -1.2747175 -0.029574053 0 29
-0.17085178 -1.2850417 -0.01788613 0 30
-0.17155603 -1.2903385 -0.0059862807 0 31
-0.17069003 -1.283825 0.0059560626 0 32
-0.17102124 -1.2863162 0.01790387 0 33
-0.17135546 -1.2888299 0.029901471 0 34
-0.17124356 -1.2879884 0.041841805 0 35
-0.17088918 -1.285323 0.0536974 0 36
-0.16995049 -1.2782626 0.065288074 0 37
-0.1705582 -1.2828336 0.077460781 0 38
-0.17004912 -1.2790045 0.089146301 0 39
-0.17096375 -1.2858838 0.10162185 0 40
-0.16955368 -1.2752781 0.11269797 0 41
-0.17109182 -1.2868471 0.12576209 0 42
-0.17151749 -1.2900487 0.13816822 0 43
-0.17148259 -1.2897862 0.15025452 0 44
-0.17126763 -1.2881695 0.16219114 0 45
-0.17104661 -1.286507 0.17411898 0 46
-0.17028724 -1.2807956 0.18545909 0 47
-0.17010137 -1.2793976 0.19738856 0 48
-0.17215157 -1.2948178 0.21208034 0 49
-0.17064933 -1.283519 0.22247148 0 50
-0.17110527 -1.2869482 0.23537919 0 51
-0.16959278 -1.2755723 0.24554384 0 52
-0.17240143 -1.2966973 0.26210216 0 53
-0.17125696 -1.2880892 0.27281696 0 54
-0.16989259 -1.2778273 0.28304678 0 55
-0.17092715 -1.2856085 0.29729974 0 56
-0.17157236 -1.2904614 0.31105179 0 57
-0.16978221 -1.2769971 0.32035944 0 58
-0.17252232 -1.2976065 0.33834386 0 59
-0.17019908 -1.2801324 0.34648946 0 60
-0.17032497 -1.2810793 0.35951987 0 61
-0.17030114 -1.2809 0.37230745 0 62
-0.17231254 -1.2960286 0.3897633 0 63
-0.15249418 -1.265923 -0.38011676 0 0
-0.15590392 -1.2942288 -0.37559599 0 1
-0.15546933 -1.290621 -0.36163381 0 2
-0.15495101 -1.2863182 -0.34762174 0 3
-0.15575096 -1.2929591 -0.33660725 0 4
-0.15365209 -1.2755353 -0.31949458 0 5
-0.15446569 -1.2822895 -0.30860087 0 6
-0.1554265 -1.2902654 -0.29791218 0 7
-0.15348528 -1.2741506 -0.28179303 0 8
-0.15506995 -1.2873056 -0.27222654 0 9
-0.15715125 -1.3045835 -0.26328573 0 10
-0.15475744 -1.2847114 -0.24691811 0 11
-0.15386458 -1.2772993 -0.23325077 0 12
-0.1538953 -1.2775544 -0.22109291 0 13
-0.15440683 -1.2818009 -0.20962144 0 14
-0.15572737 -1.2927631 -0.19914015 0 15
-0.15452339 -1.2827684 -0.18545561 0 16
-0.15420787 -1.2801491 -0.17298876 0 17
-0.15390438 -1.2776297 -0.16061369 0 18
-0.15484644 -1.2854502 -0.14951627 0 19
-0.1558665 -1.2939183 -0.13836692 0 20
-0.15421808 -1.2802339 -0.12492102 0 21
-0.15430814 -1.2809814 -0.11302576 0 22
-0.15599091 -1.294951 -0.1021791 0 23
-0.15476009 -1.2847333 -0.0894062 0 24
-0.1563127 -1.2976223 -0.078231789 0 25
-0.15627973 -1.2973486 -0.066159748 0 26
-0.15524662 -1.2887722 -0.053757682 0 27
-0.1558373 -1.2936758 -0.041961145 0 28
-0.1532336 -1.2720612 -0.029466486 0 29
-0.15470752 -1.284297 -0.017847937 0 30
-0.15440521 -1.2817873 -0.0059373518 0 31
-0.15521461 -1.2885065 0.0059684762 0 32
-0.15510942 -1.2876333 0.017894302 0 33
-0.15430382 -1.2809457 0.029672287 0 34
-0.15538155 -1.2898923 0.041838422 0 35
-0.15550567 -1.2909228 0.053847387 0 36
-0.15402031 -1.2785921 0.065203235 0 37
-0.15536018 -1.2897151 0.077755071 0 38
-0.15564092 -1.2920455 0.089915067 0 39
-0.1525137 -1.266085 0.099901408 0 40
-0.15470929 -1.2843117 0.1133196 0 41
-0.1539437 -1.2779561 0.12469876 0 42
-0.15660985 -1.3000891 0.13902681 0 43
-0.15424746 -1.2804778 0.14893791 0 44
-0.1557229 -1.292726 0.16251147 0 45
-0.15513977 -1.2878853 0.17403418 0 46
-0.15346198 -1.2739571 0.18418173 0 47
-0.1546949 -1.2841921 0.19781984 0 48
-0.15425019 -1.2805004 0.20940879 0 49
-0.15506932 -1.2873005 0.22277956 0 50
-0.15434587 -1.2812947 0.23398037 0 51
-0.15452358 -1.28277 0.24654497 0 52
-0.15481745 -1.2852094 0.25937572 0 53
-0.15310907 -1.2710276 0.26878422 0 54
-0.15496385 -1.2864249 0.28450763 0 55
-0.1546572 -1.2838793 0.29643768 0 56
-0.15374893 -1.2763392 0.30716887 0 57
-0.15455659 -1.283044 0.32137534 0 58
-0.15372112 -1.2761085 0.33222038 0 59
-0.15630387 -1.2975489 0.35065678 0 60
-0.15538178 -1.2898942 0.36143017 0 61
-0.15546021 -1.2905453 0.37452704 0 62
-0.15403102 -1.278681 0.38394761 0 63
-0.13860473 -1.2833247 -0.38480112 0 0
-0.13826233 -1.2801545 -0.37099007 0 1
-0.13988633 -1.2951909 -0.36240491 0 2
-0.13886487 -1.2857333 -0.34697598 0 3
-0.13958971 -1.2924445 -0.33600104 0 4
-0.13777278 -1.2756218 -0.31906778 0 5
-0.13794391 -1.2772063 -0.3069461 0 6
-0.13851592 -1.2825024 -0.29570416 0 7
-0.13853829 -1.2827095 -0.28328776 0 8
-0.13913251 -1.2882113 -0.27203572 0 9
-0.1394778 -1.2914084 -0.26026097 0 10
-0.13974732 -1.2939038 -0.24833581 0 11
-0.13993852 -1.2956741 -0.23627414 0 12
-0.13789903 -1.2767906 -0.2206506 0 13
-0.13873671 -1.2845466 -0.20977564 0 14
-0.13767779 -1.2747422 -0.19608855 0 15
-0.13636051 -1.2625458 -0.18227574 0 16
-0.13868283 -1.2840478 -0.17327206 0 17
-0.13916034 -1.2884691 -0.16174898 0 18
-0.1397678 -1.2940934 -0.15031034 0 19
-0.13883469 -1.2854538 -0.13726884 0 20
-0.13939808 -1.2906702 -0.1257626 0 21
-0.1376 -1.274022 -0.11225393 0 22
-0.13795567 -1.277315 -0.10064606 0 23
-0.1389969 -1.2869557 -0.08943516 0 24
-0.13966317 -1.2931247 -0.077851214 0 25
-0.13819718 -1.2795513 -0.065160565 0 26
-0.13837324 -1.2811815 -0.053366043 0 27
-0.1392356 -1.2891659 -0.041756172 0 28
-0.14045489 -1.3004551 -0.030081928 0 29
-0.13837694 -1.2812157 -0.017780125 0 30
-0.13887557 -1.2858324 -0.0059477296 0 31
-0.13834892 -1.2809563 0.0059251743 0 32
-0.13665007 -1.2652268 0.017558239 0 33
-0.13762669 -1.2742692 0.029476201 0 34
-0.13909444 -1.2878588 0.041713838 0 35
-0.13922705 -1.2890866 0.053695325 0 36
-0.13814533 -1.2790712 0.065136112 0 37
-0.13832197 -1.2807066 0.0771036 0 38
-0.13661902 -1.2649393 0.087905154 0 39
-0.13864051 -1.283656 0.1011457 0 40
-0.13926658 -1.2894527 0.11361352 0 41
-0.13868408 -1.2840594 0.12511843 0 42
-0.13891979 -1.2862418 0.13735297 0 43
-0.13791274 -1.2769177 0.14831536 0 44
-0.13916259 -1.2884898 0.16175158 0 45
-0.13859591 -1.2832431 0.17316346 0 46
-0.13902146 -1.2871832 0.18583268 0 47
-0.13996451 -1.2959146 0.19934542 0 48
-0.13770828 -1.2750245 0.20822062 0 49
-0.13946337 -1.2912747 0.2231537 0 50
-0.13831137 -1.2806085 0.23352683 0 51
-0.14063227 -1.3020974 0.2499084 0 52
-0.1385835 -1.283128 0.25859219 0 53
-0.1382926 -1.2804346 0.27039349 0 54
-0.13737093 -1.271901 0.28090072 0 55
-0.13820852 -1.2796563 0.29504791 0 56
-0.13810161 -1.2786664 0.30729702 0 57
-0.13864957 -1.2837398 0.32109833 0 58
-0.13905339 -1.2874787 0.33471006 0 59
-0.1387203 -1.2843947 0.34661478 0 60
-0.13992682 -1.2955657 0.36250982 0 61
-0.13918002 -1.2886513 0.37345245 0 62
-0.13929096 -1.2896785 0.38670623 0 63
-0.12289322 -1.2857494 -0.38504592 0 0
-0.12227371 -1.2792679 -0.37026942 0 1
-0.1226541 -1.2832476 -0.35861397 0 2
-0.12288175 -1.2856294 -0.34651399 0 3
-0.12247711 -1.2813959 -0.33271202 0 4
-0.1231996 -1.2889549 -0.32199949 0 5
-0.12342723 -1.2913364 -0.30995378 0 6
-0.12259764 -1.282657 -0.29536986 0 7
-0.12230401 -1.2795849 -0.28224424 0 8
-0.12238051 -1.2803854 -0.27004486 0 9
-0.12276177 -1.2843741 -0.25851956 0 10
-0.12227725 -1.279305 -0.24522679 0 11
-0.12366609 -1.2938355 -0.23564373 0 12
-0.12266336 -1.2833445 -0.22150582 0 13
-0.12251096 -1.2817501 -0.20905712 0 14
-0.12388919 -1.2961696 -0.19913526 0 15
-0.12286392 -1.2854429 -0.1853493 0 16
-0.12226228 -1.2791483 -0.17239501 0 17
-0.12137889 -1.269906 -0.15921925 0 18
-0.12164926 -1.2727348 -0.14764459 0 19
-0.12330317 -1.2900385 -0.1375861 0 20
-0.12226637 -1.279191 -0.12448816 0 21
-0.12245035 -1.281116 -0.11273778 0 22
-0.1226158 -1.2828469 -0.10095552 0 23
-0.12205891 -1.2770206 -0.088633724 0 24
-0.12241685 -1.2807655 -0.077010691 0 25
-0.12328701 -1.2898694 -0.065603852 0 26
-0.12273657 -1.2841105 -0.053421147 0 27
-0.12135295 -1.2696346 -0.041072115 0 28
-0.12326955 -1.2896867 -0.029795522 0 29
-0.12273225 -1.2840654 -0.017797383 0 30
-0.12402867 -1.2976289 -0.0059947874 0 31
-0.12230851 -1.279632 0.005911645 0 32
-0.12196899 -1.2760799 0.017686702 0 33
-0.12233812 -1.2799418 0.029570386 0 34
-0.1231613 -1.2885542 0.041684154 0 35
-0.12275364 -1.284289 0.053428575 0 36
-0.12374966 -1.2947098 0.065850034 0 37
-0.12354308 -1.2925484 0.077719182 0 38
-0.12238783 -1.2804619 0.088872574 0 39
-0.12346491 -1.2917306 0.10165463 0 40
-0.12290277 -1.2858493 0.11315431 0 41
-0.12296259 -1.2864753 0.12519704 0 42
-0.12373199 -1.2945248 0.13806458 0 43
-0.12383743 -1.295628 0.15030035 0 44
-0.12402872 -1.2976294 0.16269517 0 45
-0.12246686 -1.2812887 0.17268348 0 46
-0.12290932 -1.2859179 0.1854178 0 47
-0.12271036 -1.2838364 0.19724044 0 48
-0.12326026 -1.2895895 0.21033576 0 49
-0.12499905 -1.3077812 0.22572361 0 50
-0.1228765 -1.2855744 0.23413917 0 51
-0.12344402 -1.2915121 0.24756673 0 52
-0.12246971 -1.2813185 0.25790453 0 53
-0.12274721 -1.2842218 0.27085403 0 54
-0.12329663 -1.28997 0.28453493 0 55
-0.12208905 -1.277336 0.29414454 0 56
-0.12391502 -1.2964399 0.31117874 0 57
-0.12207381 -1.2771765 0.31905708 0 58
-0.122551 -1.2821691 0.33291274 0 59
-0.12351006 -1.2922031 0.34828576 0 60
-0.1229642 -1.286492 0.35952064 0 61
-0.12305138 -1.2874042 0.37262437 0 62
-0.12233268 -1.2798848 0.38328964 0 63
-0.10720822 -1.2887654 -0.3855252 0 0
-0.10592915 -1.2733895 -0.36816314 0 1
-0.10692967 -1.285417 -0.35882562 0 2
-0.10666334 -1.2822152 -0.34521419 0 3
-0.1078443 -1.2964118 -0.33624113 0 4
-0.10760067 -1.293483 -0.32277575 0 5
-0.10690921 -1.2851709 -0.30813506 0 6
-0.10644349 -1.2795726 -0.29433593 0 7
-0.10542854 -1.2673717 -0.2792432 0 8
-0.10682262 -1.28413 -0.27053717 0 9
-0.10686166 -1.2845993 -0.25828087 0 10
-0.1069214 -1.2853174 -0.24610868 0 11
-0.10778173 -1.2956597 -0.23571676 0 12
-0.10677381 -1.2835433 -0.22129679 0 13
-0.10584293 -1.2723531 -0.20729649 0 14
-0.10664692 -1.2820179 -0.19674473 0 15
-0.10654382 -1.2807785 -0.18447389 0 16
-0.10585194 -1.2724613 -0.17130542 0 17
-0.10622238 -1.2769145 -0.15992209 0 18
-0.1071435 -1.2879874 -0.14924987 0 19
-0.10685652 -1.2845376 -0.13684893 0 20
-0.10651664 -1.2804518 -0.12447397 0 21
-0.1073363 -1.290305 -0.11342169 0 22
-0.10654459 -1.2807878 -0.10068276 0 23
-0.10707384 -1.2871499 -0.089238644 0 24
-0.10707016 -1.2871057 -0.077306911 0 25
-0.10595672 -1.273721 -0.064711362 0 26
-0.10660349 -1.2814958 -0.053253815 0 27
-0.10624629 -1.277202 -0.041271534 0 28
-0.10584406 -1.2723666 -0.02936309 0 29
-0.10705034 -1.2868675 -0.017816629 0 30
-0.10568763 -1.2704861 -0.0058629462 0 31
-0.10661512 -1.2816356 0.005914398 0 32
-0.10781009 -1.2960005 0.017943077 0 33
-0.10628484 -1.2776653 0.029485369 0 34
-0.10708893 -1.2873315 0.041598856 0 35
-0.10707299 -1.2871399 0.053488359 0 36
-0.10705772 -1.2869562 0.065383784 0 37
-0.10654994 -1.2808521 0.076931305 0 38
-0.10605991 -1.2749615 0.088393606 0 39
-0.10676598 -1.2834492 0.10089196 0 40
-0.10744393 -1.2915988 0.11353543 0 41
-0.10723578 -1.2890967 0.12531435 0 42
-0.10699951 -1.2862564 0.13703205 0 43
-0.10722326 -1.2889462 0.14936097 0 44
-0.10679799 -1.283834 0.1607887 0 45
-0.10762072 -1.2937242 0.17416793 0 46
-0.10759051 -1.2933609 0.18628618 0 47
-0.10564739 -1.2700025 0.19490078 0 48
-0.1069146 -1.2852358 0.20939539 0 49
-0.10816656 -1.3002858 0.22418337 0 50
-0.1067818 -1.2836392 0.23352993 0 51
-0.10640492 -1.2791088 0.24491985 0 52
-0.10575043 -1.2712411 0.25559509 0 53
-0.10554481 -1.2687693 0.26730102 0 54
-0.10732624 -1.2901841 0.28426954 0 55
-0.10654043 -1.2807379 0.29460397 0 56
-0.10659829 -1.2814333 0.30723894 0 57
-0.10681348 -1.2840202 0.32041439 0 58
-0.10637352 -1.2787313 0.33165547 0 59
-0.10644954 -1.2796452 0.34452224 0 60
-0.10724928 -1.289259 0.35989815 0 61
-0.10592892 -1.2733867 0.36816233 0 62
-0.10557467 -1.2691283 0.37965086 0 63
-0.091035895 -1.2854936 -0.38418254 0 0
-0.091563463 -1.2929434 -0.3734628 0 1
-0.090768188 -1.2817134 -0.35745317 0 2
-0.090362638 -1.2759868 -0.34321216 0 3
-0.089760423 -1.267483 -0.32842696 0 4
-0.091185927 -1.2876121 -0.32100666 0 5
-0.090887226 -1.2833943 -0.3074179 0 6
-0.091449 -1.2913269 -0.29675865 0 7
-0.092264466 -1.3028419 -0.28678679 0 8
-0.090961419 -1.2844419 -0.27034682 0 9
-0.091269813 -1.2887967 -0.25887957 0 10
-0.089964189 -1.2703604 -0.24301454 0 11
-0.090527408 -1.2783134 -0.23234092 0 12
-0.091354631 -1.2899944 -0.22219855 0 13
-0.091068096 -1.2859484 -0.20931321 0 14
-0.091244116 -1.2884339 -0.19754224 0 15
-0.091182612 -1.2875654 -0.18527591 0 16
-0.091101632 -1.2864219 -0.17302096 0 17
-0.091263302 -1.2887048 -0.16124599 0 18
-0.090365484 -1.276027 -0.14772399 0 19
-0.090770379 -1.2817444 -0.13642213 0 20
-0.090650454 -1.280051 -0.12431725 0 21
-0.091501214 -1.2920642 -0.11346885 0 22
-0.091349989 -1.2899289 -0.10130538 0 23
-0.091026939 -1.2853671 -0.089030705 0 24
-0.090683773 -1.2805214 -0.076838657 0 25
-0.091109 -1.2865258 -0.065300062 0 26
-0.089489311 -1.2636547 -0.052462712 0 27
-0.0910592 -1.2858227 -0.041510783 0 28
-0.090564974 -1.2788439 -0.029484639 0 29
-0.091454096 -1.2913989 -0.017862447 0 30
-0.089878105 -1.2691448 -0.0058512134 0 31
-0.092109367 -1.3006518 0.0059964727 0 32
-0.090328887 -1.2755102 0.017642677 0 33
-0.091268599 -1.2887796 0.029713713 0 34
-0.091202922 -1.2878522 0.0415763 0 35
-0.091575816 -1.2931176 0.053685918 0 36
-0.09037707 -1.2761905 0.064775474 0 37
-0.091068871 -1.2859592 0.077164963 0 38
-0.090678342 -1.2804447 0.088689759 0 39
-0.090724625 -1.2810982 0.10061186 0 40
-0.089828379 -1.2684426 0.11139441 0 41
-0.091113709 -1.2865925 0.12495255 0 42
-0.09067934 -1.2804588 0.13628531 0 43
-0.090761013 -1.2816122 0.14837058 0 44
-0.090411365 -1.2766749 0.15974078 0 45
-0.091088645 -1.2862384 0.17299628 0 46
-0.090679869 -1.2804662 0.18425438 0 47
-0.090685263 -1.2805425 0.19633232 0 48
-0.091744855 -1.2955047 0.21086869 0 49
-0.089984626 -1.270649 0.21886633 0 50
-0.090767741 -1.281707 0.23295774 0 51
-0.091098599 -1.2863791 0.24607885 0 52
-0.090119064 -1.2725472 0.25561556 0 53
-0.092249177 -1.302626 0.27417415 0 54
-0.090176143 -1.2733532 0.28029564 0 55
-0.090987317 -1.2848077 0.29526046 0 56
-0.089989312 -1.2707151 0.3043808 0 57
-0.091032244 -1.285442 0.32046565 0 58
-0.090741023 -1.2813299 0.33201492 0 59
-0.090541199 -1.2785082 0.34389034 0 60
-0.090740025 -1.2813157 0.3573423 0 61
-0.091756709 -1.2956719 0.37425095 0 62
-0.091913447 -1.2978853 0.3878859 0 63
-0.074404903 -1.2725211 -0.38000342 0 0
-0.07405144 -1.266476 -0.36552715 0 1
-0.075831696 -1.2969232 -0.36140761 0 2
-0.074473433 -1.2736932 -0.34232304 0 3
-0.073997833 -1.2655592 -0.32766792 0 4
-0.075959519 -1.2991092 -0.32361561 0 5
-0.075280525 -1.2874967 -0.30815554 0 6
-0.074882396 -1.2806876 -0.29407978 0 7
-0.075569175 -1.2924334 -0.2842696 0 8
-0.075138114 -1.2850611 -0.27026224 0 9
-0.075068258 -1.2838663 -0.25768432 0 10
-0.075835079 -1.296981 -0.24790981 0 11
-0.075809807 -1.2965487 -0.23546806 0 12
-0.074379832 -1.2720925 -0.21894088 0 13
-0.073823765 -1.2625822 -0.20534663 0 14
-0.074796855 -1.2792246 -0.19597444 0 15
-0.074920118 -1.2813327 -0.18423258 0 16
-0.075316235 -1.2881074 -0.17311001 0 17
-0.075614378 -1.2932063 -0.16168068 0 18
-0.074587367 -1.2756418 -0.14756207 0 19
-0.074715465 -1.2778326 -0.13589773 0 20
-0.075440057 -1.2902251 -0.1252058 0 21
-0.074866176 -1.2804102 -0.11235605 0 22
-0.075185776 -1.2858762 -0.10090686 0 23
-0.074705385 -1.2776603 -0.088426575 0 24
-0.07399442 -1.2655008 -0.075877003 0 25
-0.07550323 -1.2913055 -0.065490589 0 26
-0.074876532 -1.2805873 -0.053123455 0 27
-0.0745892 -1.2756732 -0.041150399 0 28
-0.07504642 -1.2834928 -0.029568311 0 29
-0.074569166 -1.2753305 -0.017626176 0 30
-0.075535104 -1.2918507 -0.0059511638 0 31
-0.074938573 -1.2816484 0.0059041651 0 32
-0.074874155 -1.2805467 0.017698267 0 33
-0.074496962 -1.2740957 0.029351827 0 34
-0.076587565 -1.3098506 0.042252887 0 35
-0.074449167 -1.2732782 0.05282025 0 36
-0.07600861 -1.2999488 0.065928951 0 37
-0.073630713 -1.2592804 0.075504042 0 38
-0.074889012 -1.2808007 0.088643931 0 39
-0.075213723 -1.2863542 0.10094436 0 40
-0.075396851 -1.2894861 0.11315247 0 41
-0.075735919 -1.2952851 0.12569684 0 42
-0.074356906 -1.2717004 0.13524556 0 43
-0.075469948 -1.2907362 0.14930815 0 44
-0.075068377 -1.2838683 0.16051321 0 45
-0.074390322 -1.2722719 0.17098185 0 46
-0.075049825 -1.283551 0.18455152 0 47
-0.074918412 -1.2813036 0.19629294 0 48
-0.074830316 -1.2797968 0.20814642 0 49
-0.074848518 -1.2801082 0.22032048 0 50
-0.075188629 -1.2859249 0.23353866 0 51
-0.074514098 -1.2743888 0.24359147 0 52
-0.074482478 -1.2738479 0.25567353 0 53
-0.075024888 -1.2831246 0.26985496 0 54
-0.075001821 -1.28273 0.28213537 0 55
-0.074778967 -1.2789186 0.29367357 0 56
-0.075180538 -1.2857866 0.30774623 0 57
-0.075400278 -1.2895447 0.32123303 0 58
-0.075685665 -1.2944256 0.33514178 0 59
-0.075086735 -1.2841823 0.34514213 0 60
-0.075326025 -1.2882748 0.35899764 0 61
-0.074682102 -1.277262 0.36864015 0 62
-0.074466869 -1.273581 0.38031992 0 63
-0.059858706 -1.2973049 -0.38715532 0 0
-0.059230816 -1.2836967 -0.37025914 0 1
-0.059228498 -1.2836465 -0.35747787 0 2
-0.059528068 -1.290139 -0.34652016 0 3
-0.058987841 -1.2784308 -0.33078772 0 4
-0.058842976 -1.2752911 -0.31747812 0 5
-0.059330292 -1.2858526 -0.30756417 0 6
-0.058902375 -1.2765784 -0.29294777 0 7
-0.059607264 -1.2918553 -0.28395981 0 8
-0.059595831 -1.2916076 -0.27146438 0 9
-0.058952969 -1.2776749 -0.25627679 0 10
-0.05904007 -1.2795627 -0.24442318 0 11
-0.059050228 -1.2797829 -0.23227376 0 12
-0.058915932 -1.2768723 -0.21962225 0 13
-0.059960421 -1.2995093 -0.21121658 0 14
-0.059228797 -1.2836529 -0.19652642 0 15
-0.059938177 -1.2990272 -0.18665664 0 16
-0.05948022 -1.289102 -0.17313229 0 17
-0.059928454 -1.2988164 -0.16227768 0 18
-0.059251528 -1.2841456 -0.14845026 0 19
-0.058876883 -1.276026 -0.13561834 0 20
-0.058714315 -1.2725027 -0.12340659 0 21
-0.059027217 -1.2792841 -0.11218508 0 22
-0.059374899 -1.2868193 -0.10091595 0 23
-0.059615336 -1.2920303 -0.089363635 0 24
-0.059175398 -1.2824957 -0.076846547 0 25
-0.059361983 -1.2865396 -0.065206923 0 26
-0.059167832 -1.2823317 -0.053161617 0 27
-0.058758285 -1.2734556 -0.041052457 0 28
-0.05896483 -1.277932 -0.029421279 0 29
-0.059195541 -1.2829322 -0.017719837 0 30
-0.05906482 -1.2800992 -0.005893237 0 31
-0.059001897 -1.2787354 0.0058869584 0 32
-0.059393197 -1.2872159 0.017779006 0 33
-0.058724143 -1.2727157 0.029301185 0 34
-0.059585966 -1.2913938 0.04163073 0 35
-0.059350781 -1.2862967 0.053326 0 36
-0.058859143 -1.2756416 0.064654574 0 37
-0.058960818 -1.277845 0.076567881 0 38
-0.059289757 -1.2849741 0.088875592 0 39
-0.058898408 -1.2764926 0.10010609 0 40
-0.059619758 -1.2921262 0.11331123 0 41
-0.058815598 -1.2746978 0.12361947 0 42
-0.059636794 -1.2924954 0.13736874 0 43
-0.059355281 -1.2863941 0.14871019 0 44
-0.058757205 -1.2734323 0.15910609 0 45
-0.059192136 -1.2828584 0.17229375 0 46
-0.058639776 -1.2708873 0.18261322 0 47
-0.058916628 -1.2768874 0.19549063 0 48
-0.059885759 -1.2978911 0.21095358 0 49
-0.059629515 -1.2923375 0.22228229 0 50
-0.059266776 -1.284476 0.23312555 0 51
-0.058996942 -1.278628 0.24424464 0 52
-0.058844663 -1.2753277 0.25580597 0 53
-0.059239239 -1.2838793 0.26984006 0 54
-0.05909171 -1.2806818 0.28150377 0 55
-0.059271045 -1.2845685 0.29478133 0 56
-0.059011552 -1.2789446 0.30591184 0 57
-0.058911234 -1.2767705 0.31784642 0 58
-0.058652248 -1.2711575 0.32890582 0 59
-0.058937147 -1.2773321 0.34308031 0 60
-0.059074823 -1.2803159 0.35655037 0 61
-0.059329588 -1.2858374 0.37087658 0 62
-0.058902428 -1.2765796 0.38097027 0 63
-0.043549009 -1.287474 -0.38403267 0 0
-0.043431118 -1.2839887 -0.37016132 0 1
-0.043177929 -1.2765036 -0.35531396 0 2
-0.043212805 -1.2775346 -0.34296605 0 3
-0.043211643 -1.2775002 -0.33038449 0 4
-0.04349301 -1.2858185 -0.31994155 0 5
-0.043214452 -1.2775832 -0.30543602 0 6
-0.043039482 -1.2724105 -0.2918478 0 7
-0.043265611 -1.2790958 -0.28101695 0 8
-0.04320696 -1.2773618 -0.26833829 0 9
-0.043918028 -1.2983837 -0.26030254 0 10
-0.042960361 -1.2700714 -0.2424909 0 11
-0.043606024 -1.2891595 -0.2338606 0 12
-0.043309335 -1.2803884 -0.22011879 0 13
-0.043029528 -1.2721162 -0.20666261 0 14
-0.043518692 -1.2865778 -0.19687741 0 15
-0.043090127 -1.2739077 -0.18295726 0 16
-0.043560423 -1.2878114 -0.17287396 0 17
-0.043328524 -1.2809557 -0.15996744 0 18
-0.043679882 -1.2913431 -0.14920893 0 19
-0.0432522 -1.2786993 -0.13583566 0 20
-0.043336384 -1.281188 -0.12418783 0 21
-0.043663647 -1.2908632 -0.11314484 0 22
-0.043594506 -1.2888191 -0.10102309 0 23
-0.04318466 -1.2767025 -0.088260084 0 24
-0.043461617 -1.2848903 -0.076952189 0 25
-0.043123972 -1.2749083 -0.064585648 0 26
-0.04375945 -1.2936954 -0.053606365 0 27
-0.043364894 -1.2820309 -0.041308586 0 28
-0.043798845 -1.2948601 -0.029796354 0 29
-0.043404303 -1.283196 -0.017714771 0 30
-0.043332335 -1.2810683 -0.0058948002 0 31
-0.043552164 -1.2875673 0.005924705 0 32
-0.043167956 -1.2762086 0.017618308 0 33
-0.043780699 -1.2943237 0.029784011 0 34
-0.043488182 -1.2856756 0.041426025 0 35
-0.043107063 -1.2744083 0.052807175 0 36
-0.043322816 -1.2807869 0.064883456 0 37
-0.043273196 -1.2793199 0.076618582 0 38
-0.043246217 -1.2785224 0.088385887 0 39
-0.043401286 -1.2831067 0.10057534 0 40
-0.043298174 -1.2800584 0.1121978 0 41
-0.043274749 -1.2793659 0.1240112 0 42
-0.043027308 -1.2720506 0.13512938 0 43
-0.043270547 -1.2792416 0.14781067 0 44
-0.043326441 -1.280894 0.15995973 0 45
-0.043352902 -1.2816763 0.17205039 0 46
-0.043339562 -1.2812819 0.18401635 0 47
-0.043253567 -1.2787397 0.19567798 0 48
-0.043866102 -1.2968485 0.21068051 0 49
-0.043474719 -1.2852777 0.22095935 0 50
-0.043650262 -1.2904674 0.23409784 0 51
-0.043280482 -1.2795354 0.24429783 0 52
-0.043710541 -1.2922494 0.25907275 0 53
-0.043387134 -1.2826884 0.26945728 0 54
-0.043725651 -1.2926962 0.28400499 0 55
-0.043130126 -1.2750902 0.29246244 0 56
-0.043077003 -1.2735198 0.30446455 0 57
-0.042917915 -1.2688165 0.31571108 0 58
-0.043472882 -1.2852234 0.33238184 0 59
-0.04267716 -1.2616988 0.33871481 0 60
-0.043527145 -1.2868277 0.35818768 0 61
-0.04310092 -1.2742268 0.36734709 0 62
-0.043589607 -1.2886742 0.38439068 0 63
-0.027564345 -1.2808869 -0.38193786 0 0
-0.027606927 -1.2828656 -0.36971176 0 1
-0.027807454 -1.2921839 -0.35955623 0 2
-0.027304735 -1.268823 -0.3405115 0 3
-0.027475445 -1.2767558 -0.33007964 0 4
-0.027495986 -1.2777103 -0.3178159 0 5
-0.027703783 -1.2873664 -0.30767021 0 6
-0.02748419 -1.2771622 -0.29283801 0 7
-0.027603991 -1.2827291 -0.28171936 0 8
-0.027529264 -1.2792567 -0.26864496 0 9
-0.027564719 -1.2809043 -0.25671089 0 10
-0.027700989 -1.2872366 -0.24568461 0 11
-0.027650451 -1.2848881 -0.23300645 0 12
-0.027195232 -1.2637346 -0.21718183 0 13
-0.027554834 -1.2804449 -0.20794488 0 14
-0.027674951 -1.2860266 -0.19672611 0 15
-0.027653826 -1.285045 -0.184494 0 16
-0.027809627 -1.2922848 -0.17341545 0 17
-0.027887667 -1.2959113 -0.16178007 0 18
-0.027533127 -1.2794362 -0.14778286 0 19
-0.027544156 -1.2799487 -0.13592215 0 20
-0.027389551 -1.2727643 -0.12332933 0 21
-0.027693076 -1.2868688 -0.11275636 0 22
-0.027631041 -1.2839862 -0.10061003 0 23
-0.027603239 -1.2826942 -0.088644132 0 24
-0.027558276 -1.2806048 -0.07666944 0 25
-0.027828159 -1.293146 -0.065487273 0 26
-0.027634148 -1.2841306 -0.05319193 0 27
-0.027836289 -1.2935239 -0.041664723 0 28
-0.027817465 -1.2926491 -0.029735358 0 29
-0.027736099 -1.2888682 -0.017787023 0 30
-0.02767479 -1.2860191 -0.0059155682 0 31
-0.02761893 -1.2834234 0.0059036277 0 32
-0.02786446 -1.2948328 0.017869338 0 33
-0.02798179 -1.3002851 0.029911013 0 34
-0.027668789 -1.2857403 0.041414011 0 35
-0.027834868 -1.2934577 0.053578287 0 36
-0.027570887 -1.2811909 0.064881839 0 37
-0.02751383 -1.2785395 0.07654579 0 38
-0.027577125 -1.2814808 0.088560276 0 39
-0.027961746 -1.2993537 0.1018142 0 40
-0.027598131 -1.2824569 0.11236979 0 41
-0.028046928 -1.3033121 0.12628937 0 42
-0.027619036 -1.2834283 0.13629165 0 43
-0.027625866 -1.2837458 0.14828064 0 44
-0.027866097 -1.294909 0.16165493 0 45
-0.027644802 -1.2846256 0.17238763 0 46
-0.02732347 -1.2696936 0.18229002 0 47
-0.027305601 -1.2688633 0.1941006 0 48
-0.027645713 -1.284668 0.20863071 0 49
-0.027523499 -1.2789888 0.21980338 0 50
-0.028012509 -1.3017126 0.23605745 0 51
-0.02736773 -1.2717503 0.24272886 0 52
-0.027771797 -1.290527 0.25863943 0 53
-0.027662057 -1.2854275 0.26994082 0 54
-0.027865548 -1.2948835 0.28438872 0 55
-0.027516296 -1.2786541 0.29318008 0 56
-0.027707998 -1.2875623 0.30771703 0 57
-0.027898824 -1.2964299 0.32247216 0 58
-0.027817728 -1.2926613 0.33419168 0 59
-0.027620893 -1.2835146 0.34445426 0 60
-0.027614897 -1.283236 0.35706642 0 61
-0.027643207 -1.2845515 0.37019759 0 62
-0.027679786 -1.2862513 0.38353741 0 63
-0.011751392 -1.2744408 -0.37994391 0 0
-0.011928215 -1.2936171 -0.37273979 0 1
-0.011796949 -1.2793814 -0.3559266 0 2
-0.011841662 -1.2842306 -0.34458125 0 3
-0.011802862 -1.2800226 -0.33086169 0 4
-0.011754637 -1.2747926 -0.31703022 0 5
-0.011787911 -1.2784011 -0.30546987 0 6
-0.011901587 -1.2907294 -0.29589289 0 7
-0.011856196 -1.2858068 -0.2823419 0 8
-0.011954862 -1.296507 -0.27221608 0 9
-0.011685643 -1.2673103 -0.25393847 0 10
-0.011843772 -1.2844592 -0.24510819 0 11
-0.011864439 -1.2867006 -0.23329102 0 12
-0.011797249 -1.2794138 -0.21983488 0 13
-0.011859845 -1.2862024 -0.20884044 0 14
-0.011743457 -1.2735802 -0.19478534 0 15
-0.011845146 -1.2846084 -0.18439646 0 16
-0.011854729 -1.2856475 -0.17249218 0 17
-0.011694505 -1.2682713 -0.1582996 0 18
-0.011944133 -1.2953434 -0.14959197 0 19
-0.011692215 -1.2680229 -0.13463025 0 20
-0.011888864 -1.2893496 -0.12491281 0 21
-0.011823844 -1.2822981 -0.11233464 0 22
-0.011800157 -1.2797292 -0.10025752 0 23
-0.011923549 -1.2931111 -0.089347132 0 24
-0.011751193 -1.2744191 -0.076284684 0 25
-0.011785882 -1.2781811 -0.064717188 0 26
-0.011908094 -1.2914351 -0.053484391 0 27
-0.011709747 -1.2699243 -0.040896844 0 28
-0.011968699 -1.2980077 -0.029852981 0 29
-0.011732276 -1.2723676 -0.017555987 0 30
-0.011808723 -1.2806582 -0.0058897953 0 31
-0.01193608 -1.2944702 0.0059533166 0 32
-0.01180075 -1.2797935 0.017658452 0 33
-0.011851126 -1.2852569 0.029559724 0 34
-0.011748005 -1.2740734 0.041030463 0 35
-0.011869617 -1.2872622 0.053311571 0 36
-0.011737984 -1.2729867 0.064454176 0 37
-0.011786824 -1.2782834 0.076515995 0 38
-0.011957513 -1.2967945 0.089601643 0 39
-0.011739683 -1.2731709 0.099743724 0 40
-0.011912154 -1.2918754 0.11317365 0 41
-0.011840107 -1.2840619 0.12440054 0 42
-0.011874584 -1.2878008 0.13673015 0 43
-0.011955557 -1.2965825 0.14973505 0 44
-0.011683843 -1.267115 0.15815528 0 45
-0.011763517 -1.2757556 0.17116499 0 46
-0.011921706 -1.2929113 0.18558829 0 47
-0.011877732 -1.2881423 0.19701253 0 48
-0.011930372 -1.293851 0.21008234 0 49
-0.01191458 -1.2921385 0.22202128 0 50
-0.011911901 -1.2918479 0.23422427 0 51
-0.012006614 -1.3021196 0.24847825 0 52
-0.011746738 -1.2739359 0.2552661 0 53
-0.011739787 -1.2731822 0.26731879 0 54
-0.011778856 -1.2774192 0.28050011 0 55
-0.011896481 -1.2901756 0.29576594 0 56
-0.01188832 -1.2892905 0.30807185 0 57
-0.011782384 -1.2778018 0.31777859 0 58
-0.01190039 -1.2905997 0.33359563 0 59
-0.011790144 -1.2786434 0.3430821 0 60
-0.011898919 -1.2904401 0.35900316 0 61
-0.011807458 -1.280521 0.36896631 0 62
-0.01177631 -1.2771431 0.38074958 0 63
0.0039573684 -1.2868237 -0.38362113 0 0
0.0039673261 -1.2900617 -0.37170133 0 1
0.004006173 -1.3026937 -0.36239845 0 2
0.0039855759 -1.2959961 -0.34772497 0 3
0.0039438503 -1.2824281 -0.33147094 0 4
0.0039369799 -1.280194 -0.31836149 0 5
0.0039858902 -1.2960982 -0.30968681 0 6
0.0039412966 -1.2815976 -0.29378837 0 7
0.0039298623 -1.2778796 -0.28059062 0 8
0.0039213849 -1.275123 -0.26771617 0 9
0.0039422438 -1.2819058 -0.25685334 0 10
0.003942362 -1.2819442 -0.244619 0 11
0.0038854512 -1.2634383 -0.2290647 0 12
0.0039880127 -1.2967885 -0.22281185 0 13
0.0039753225 -1.292662 -0.20988135 0 14
0.0039789099 -1.2938285 -0.1978747 0 15
0.0039869072 -1.296429 -0.18608621 0 16
0.0039981981 -1.3001006 -0.17442471 0 17
0.0039493665 -1.2842219 -0.16028441 0 18
0.0039726854 -1.2918046 -0.14917764 0 19
0.0039434661 -1.2823031 -0.13614129 0 20
0.0039909896 -1.2977564 -0.12572253 0 21
0.0039611859 -1.2880652 -0.1128356 0 22
0.0039146175 -1.2729225 -0.099720493 0 23
0.0039658919 -1.2895955 -0.089100853 0 24
0.0039363513 -1.2799897 -0.076615237 0 25
0.0039592446 -1.2874339 -0.065183215 0 26
0.0039364761 -1.2800301 -0.053010058 0 27
0.0039633093 -1.2887557 -0.041501727 0 28
0.0039726603 -1.2917963 -0.029709004 0 29
0.0039577181 -1.2869375 -0.017756352 0 30
0.0039511784 -1.2848109 -0.0059086704 0 31
0.0039631119 -1.2886914 0.0059265164 0 32
0.0039384444 -1.2806703 0.017669881 0 33
0.0039848452 -1.2957585 0.029800124 0 34
0.0039737071 -1.2921368 0.041610606 0 35
0.0039330544 -1.2789177 0.052963987 0 36
0.0038948001 -1.2664783 0.06412223 0 37
0.0039274204 -1.2770855 0.076441407 0 38
0.003938993 -1.2808486 0.088496521 0 39
0.0039630197 -1.2886615 0.10095348 0 40
0.0040032882 -1.3017555 0.11403489 0 41
0.004002016 -1.301342 0.12606987 0 42
0.0039485446 -1.2839546 0.13631663 0 43
0.0039418768 -1.2817864 0.14802074 0 44
0.003940701 -1.281404 0.15993272 0 45
0.0039339629 -1.279213 0.17162238 0 46
0.0039709434 -1.291238 0.1853411 0 47
0.0039267559 -1.2768694 0.19528104 0 48
0.0039688577 -1.2905598 0.20954002 0 49
0.0039688121 -1.290545 0.2217391 0 50
0.0039084987 -1.2709327 0.23042345 0 51
0.0039590136 -1.2873588 0.24565221 0 52
0.0039312299 -1.2783244 0.25613573 0 53
0.0039483379 -1.2838874 0.26955625 0 54
0.0039524804 -1.2852345 0.28220555 0 55
0.0039608344 -1.2879509 0.29524475 0 56
0.0039169923 -1.2736948 0.30433378 0 57
0.0039644479 -1.2891258 0.32058266 0 58
0.0039169062 -1.2736666 0.32920632 0 59
0.0039662332 -1.2897063 0.34603742 0 60
0.003908942 -1.2710769 0.35360292 0 61
0.0039542243 -1.2858014 0.3704738 0 62
0.0039230329 -1.275659 0.38029274 0 63
0.019820459 -1.2893577 -0.3844201 0 0
0.019830272 -1.2899959 -0.37172452 0 1
0.019537061 -1.2709221 -0.35359994 0 2
0.019898428 -1.2944297 -0.3473441 0 3
0.01980973 -1.2886598 -0.33311942 0 4
0.019600559 -1.2750528 -0.31711891 0 5
0.019734012 -1.2837341 -0.30676734 0 6
0.019592 -1.274496 -0.29219356 0 7
0.019830449 -1.2900076 -0.28328574 0 8
0.019818783 -1.2892486 -0.27071258 0 9
0.019652393 -1.2784246 -0.25618491 0 10
0.019797945 -1.2878931 -0.24578203 0 11
0.019660709 -1.2789656 -0.23190613 0 12
0.019620681 -1.2763617 -0.21932703 0 13
0.01972661 -1.2832526 -0.20837724 0 14
0.01994133 -1.2972206 -0.19841598 0 15
0.019585341 -1.2740628 -0.18289655 0 16
0.019659705 -1.2789003 -0.17159988 0 17
0.019931531 -1.2965831 -0.16184558 0 18
0.019808529 -1.2885816 -0.14882234 0 19
