# .PCD v0.7 - Point Cloud Data file format
VERSION 0.7
FIELDS x y z intensity ring
SIZE 4 4 4 4 2
TYPE F F F F U
COUNT 1 1 1 1 1
WIDTH 1249
HEIGHT 1
VIEWPOINT 0 0 0 1 0 0 0
POINTS 1249
DATA ascii
-2.0369532 -1.2930474 -0.27861807 0 19
-2.0459802 -1.2987777 -0.25728938 0 20
-2.0353971 -1.2920594 -0.23355561 0 21
-2.0181005 -1.2810798 -0.20939793 0 22
-2.0231709 -1.2842984 -0.18773115 0 23
-2.0497315 -1.301159 -0.16774386 0 24
-2.0274584 -1.2870201 -0.14374141 0 25
-2.0321078 -1.2899716 -0.12186497 0 26
-2.0353897 -1.2920548 -0.099840537 0 27
-2.0355821 -1.292177 -0.077643566 0 28
-2.0369065 -1.2930177 -0.055486385 0 29
-2.0293875 -1.2882447 -0.033165194 0 30
-2.0345063 -1.2914941 -0.011082324 0 31
-2.0408807 -1.2955406 0.011117047 0 32
-2.0411134 -1.2956882 0.033356823 0 33
-2.0379696 -1.2936925 0.055515338 0 34
-2.0248406 -1.2853584 0.077233851 0 35
-2.0344098 -1.2914329 0.09979248 0 36
-2.0455489 -1.298504 0.12267103 0 37
-2.0318921 -1.2898346 0.14405575 0 38
-2.0438409 -1.2974197 0.16726179 0 39
-2.041126 -1.2956963 0.18939722 0 40
-2.0396996 -1.2947909 0.21163905 0 41
-2.0361507 -1.2925379 0.2336421 0 42
-2.0371513 -1.2931732 0.25617912 0 43
-2.0363562 -1.2926683 0.27853638 0 44
-2.0436335 -1.2972879 0.30211723 0 45
-2.0422385 -1.2964025 0.32453293 0 46
-2.0425267 -1.2965854 0.34725976 0 47
-2.0383248 -1.2939181 0.3692396 0 48
-2.0184748 -1.2813174 0.38818029 0 49
-2.0331967 -1.2906628 0.4137803 0 50
-2.0348063 -1.2916845 0.43696681 0 51
-2.0379035 -1.2936506 0.46060216 0 52
-2.0300364 -1.2886566 0.48178607 0 53
-2.0392969 -1.294535 0.50713575 0 54
-2.0426192 -1.2966441 0.53124136 0 55
-2.0489447 -1.3006594 0.55633247 0 56
-2.036181 -1.2925572 0.57626528 0 57
-2.0303681 -1.2888671 0.59805453 0 58
-2.0313723 -1.2895046 0.62190384 0 59
-2.031101 -1.2893324 0.64548331 0 60
-2.0273836 -1.2869726 0.66803807 0 61
-2.0279596 -1.2873383 0.69209254 0 62
-2.0271342 -1.2868142 0.7157926 0 63
-1.9804939 -1.2916425 -0.70487863 0 0
-1.9796026 -1.2910613 -0.68095595 0 1
-1.9759698 -1.2886921 -0.65626872 0 2
-1.9838183 -1.2938107 -0.63546485 0 3
-1.9808034 -1.2918445 -0.61123919 0 4
-1.9767308 -1.2891885 -0.58688051 0 5
-1.9813356 -1.2921916 -0.56519753 0 6
-1.9879335 -1.2964946 -0.54405421 0 7
-1.9720385 -1.2861282 -0.51695889 0 8
-1.9788724 -1.290585 -0.49601832 0 9
-1.9716344 -1.2858646 -0.47164249 0 10
-1.9953139 -1.301308 -0.45455843 0 11
-1.9860052 -1.2952369 -0.42987469 0 12
-1.9732533 -1.2869204 -0.40477097 0 13
-1.9793998 -1.2909291 -0.38368937 0 14
-1.980348 -1.2915474 -0.36158672 0 15
-1.9804552 -1.2916173 -0.33938125 0 16
-1.9741825 -1.2875265 -0.31621012 0 17
-1.9731776 -1.2868711 -0.2940186 0 18
-1.9837762 -1.2937833 -0.27349979 0 19
-1.9711745 -1.2855647 -0.2498513 0 20
-1.9806155 -1.2917219 -0.2290749 0 21
-1.986263 -1.2954051 -0.20773154 0 22
-1.985191 -1.294706 -0.18567018 0 23
-1.9787378 -1.2904973 -0.16322024 0 24
-1.9867039 -1.2956927 -0.14197086 0 25
-1.9780877 -1.2900733 -0.11956767 0 26
-1.9825586 -1.2929891 -0.098021537 0 27
-1.9769752 -1.2893478 -0.076007105 0 28
-1.9734206 -1.2870296 -0.054184005 0 29
-1.9662255 -1.2823371 -0.032388214 0 30
-1.9849786 -1.2945675 -0.010898425 0 31
-1.9723502 -1.2863315 0.010829091 0 32
-1.9746885 -1.2878565 0.032527622 0 33
-1.9798625 -1.2912308 0.054360878 0 34
-1.9779857 -1.2900069 0.07604596 0 35
-1.9802395 -1.2914767 0.09790688 0 36
-1.9753388 -1.2882806 0.11940151 0 37
-1.9811743 -1.2920865 0.14157572 0 38
-1.9886612 -1.2969692 0.16403879 0 39
-1.9955074 -1.3014342 0.18663505 0 40
-1.9850067 -1.2945857 0.20760016 0 41
-1.9817518 -1.2924631 0.22920631 0 42
-1.9801062 -1.2913898 0.25098345 0 43
-1.9691453 -1.2842413 0.27148268 0 44
-1.9807109 -1.2917842 0.29514113 0 45
-1.9791652 -1.290776 0.3170082 0 46
-1.9863675 -1.2954732 0.34039441 0 47
-1.9810365 -1.2919965 0.36171246 0 48
-1.9862911 -1.2954234 0.3850252 0 49
-1.9711955 -1.2855784 0.40434888 0 50
-1.9854199 -1.2948552 0.42974803 0 51
-1.9850096 -1.2945877 0.45221096 0 52
-1.9856787 -1.295024 0.47500208 0 53
-1.9833953 -1.2935349 0.49715203 0 54
-1.9805832 -1.2917008 0.51919883 0 55
-1.9781294 -1.2901006 0.54137105 0 56
-1.9765581 -1.2890757 0.56383467 0 57
-1.9742004 -1.2875381 0.58612919 0 58
-1.9790467 -1.2906988 0.61069709 0 59
-1.9782575 -1.2901841 0.63368362 0 60
-1.9832628 -1.2934484 0.65869093 0 61
-1.9823198 -1.2928334 0.68189061 0 62
-1.9740108 -1.2874146 0.70257127 0 63
-1.9351556 -1.2962649 -0.69436282 0 0
-1.9195248 -1.2857945 -0.66567838 0 1
-1.9212958 -1.2869807 -0.64331746 0 2
-1.9347687 -1.2960056 -0.62481064 0 3
-1.9228121 -1.2879965 -0.59818619 0 4
-1.9350433 -1.2961897 -0.57919198 0 5
-1.9339402 -1.2954507 -0.55617946 0 6
-1.9268665 -1.2907125 -0.53164494 0 7
-1.9230922 -1.2881842 -0.50824189 0 8
-1.935359 -1.2964011 -0.48907018 0 9
-1.9311726 -1.2935967 -0.46573335 0 10
-1.9298593 -1.2927171 -0.44323477 0 11
-1.9270173 -1.2908134 -0.4205105 0 12
-1.9257593 -1.2899708 -0.39825225 0 13
-1.927518 -1.2911488 -0.3766816 0 14
-1.9343246 -1.2957082 -0.35606563 0 15
-1.9406173 -1.2999233 -0.33526826 0 16
-1.9209175 -1.2867274 -0.31018934 0 17
-1.9338773 -1.2954086 -0.29051414 0 18
-1.9344859 -1.2958162 -0.2688807 0 19
-1.9206063 -1.2865189 -0.24542829 0 20
-1.938141 -1.2982646 -0.22599165 0 21
-1.9293728 -1.2923912 -0.20342839 0 22
-1.9338739 -1.2954062 -0.18234663 0 23
-1.932459 -1.2944585 -0.16070366 0 24
-1.9419895 -1.3008425 -0.13990805 0 25
-1.9369217 -1.2974479 -0.11803479 0 26
-1.9358076 -1.2967016 -0.096491128 0 27
-1.9240235 -1.288808 -0.074574962 0 28
-1.9194758 -1.2857617 -0.053132933 0 29
-1.9342328 -1.2956467 -0.03212123 0 30
-1.929292 -1.2923371 -0.010679124 0 31
-1.929299 -1.2923418 0.010679163 0 32
-1.9171509 -1.2842044 0.031837553 0 33
-1.9192989 -1.2856432 0.053128038 0 34
-1.9231066 -1.2881937 0.074539423 0 35
-1.9429783 -1.3015049 0.096848555 0 36
-1.9220192 -1.2874655 0.11712664 0 37
-1.9238799 -1.2887118 0.13860336 0 38
-1.9366081 -1.2972378 0.16104871 0 39
-1.9183509 -1.2850082 0.18088296 0 40
-1.9107025 -1.2798849 0.20145984 0 41
-1.9301143 -1.2928879 0.22505571 0 42
-1.9342897 -1.2956848 0.24717686 0 43
-1.9344584 -1.2957978 0.26887685 0 44
-1.9304626 -1.2931212 0.29000115 0 45
-1.9416282 -1.3006005 0.31353372 0 46
-1.9294986 -1.2924755 0.33334735 0 47
-1.9357457 -1.2966602 0.35632724 0 48
-1.9317523 -1.2939851 0.37750909 0 49
-1.9258221 -1.2900127 0.39826524 0 50
-1.9321049 -1.2942213 0.4216207 0 51
-1.9228642 -1.2880315 0.44162822 0 52
-1.9191487 -1.2855426 0.46283358 0 53
-1.9286358 -1.2918977 0.48737121 0 54
-1.934783 -1.2960153 0.51133156 0 55
-1.9211438 -1.2868791 0.53006595 0 56
-1.9268932 -1.2907302 0.55415285 0 57
-1.9310154 -1.2934915 0.5779863 0 58
-1.9236962 -1.2885888 0.59846121 0 59
-1.9320064 -1.2941552 0.62391853 0 60
-1.92547 -1.2897769 0.64471513 0 61
-1.9185739 -1.2851574 0.66534859 0 62
-1.9282206 -1.2916194 0.69187444 0 63
-1.8809038 -1.2937088 -0.68055308 0 0
-1.8696396 -1.285961 -0.65381289 0 1
-1.8828208 -1.2950273 -0.63571864 0 2
-1.8774507 -1.2913337 -0.61138213 0 3
-1.8800567 -1.2931261 -0.58978719 0 4
-1.8840593 -1.2958791 -0.56865811 0 5
-1.8822165 -1.2946116 -0.54584122 0 6
-1.8880101 -1.2985966 -0.52529007 0 7
-1.8703183 -1.2864279 -0.49843746 0 8
-1.8729244 -1.2882204 -0.47725967 0 9
-1.8737098 -1.2887607 -0.45566264 0 10
-1.8802714 -1.2932738 -0.43546531 0 11
-1.8717772 -1.2874314 -0.41187954 0 12
-1.877467 -1.2913449 -0.39151952 0 13
-1.8755513 -1.2900273 -0.36959815 0 14
-1.8768667 -1.2909319 -0.34838462 0 15
-1.8727007 -1.2880665 -0.32624644 0 16
-1.8848191 -1.2964017 -0.30691117 0 17
-1.8789594 -1.2923713 -0.28462994 0 18
-1.8806467 -1.2935319 -0.26358828 0 19
-1.8801858 -1.2932149 -0.24227685 0 20
-1.8818495 -1.2943592 -0.22126706 0 21
-1.8824643 -1.294782 -0.20014603 0 22
-1.8656749 -1.2832341 -0.17739052 0 23
-1.8755044 -1.289995 -0.15727453 0 24
-1.8758814 -1.2902542 -0.13627808 0 25
-1.8779842 -1.2917005 -0.11540236 0 26
-1.8683462 -1.2850715 -0.09390904 0 27
-1.8640804 -1.2821374 -0.072857149 0 28
-1.8843025 -1.2960464 -0.052596472 0 29
-1.8692178 -1.2856709 -0.031301714 0 30
-1.8776559 -1.2914747 -0.010480415 0 31
-1.8799889 -1.2930795 0.010493438 0 32
-1.8772209 -1.2911756 0.031435736 0 33
-1.8769752 -1.2910066 0.052391946 0 34
-1.8660767 -1.2835104 0.072935171 0 35
-1.8757968 -1.2901961 0.094283529 0 36
-1.8820559 -1.2945012 0.11565258 0 37
-1.8804355 -1.2933866 0.13660891 0 38
-1.8767073 -1.2908223 0.15737541 0 39
-1.8707811 -1.2867461 0.17787603 0 40
-1.8717836 -1.2874358 0.19901046 0 41
-1.8862033 -1.2973537 0.22177896 0 42
-1.8647691 -1.282611 0.24029027 0 43
-1.8689816 -1.2855085 0.26195332 0 44
-1.8709296 -1.2868484 0.28341359 0 45
-1.8735203 -1.2886302 0.30507132 0 46
-1.8684956 -1.2851741 0.32551384 0 47
-1.8783967 -1.2919843 0.34866861 0 48
-1.8729621 -1.2882464 0.3690879 0 49
-1.8789693 -1.2923782 0.3918328 0 50
-1.8875182 -1.2982582 0.41534331 0 51
-1.8821441 -1.2945619 0.43589905 0 52
-1.8791364 -1.2924931 0.45698231 0 53
-1.8715153 -1.2872511 0.47690058 0 54
-1.8812577 -1.2939521 0.50135279 0 55
-1.8819607 -1.2944357 0.52360696 0 56
-1.8723989 -1.2878588 0.54299408 0 57
-1.8813149 -1.2939914 0.56782979 0 58
-1.8769339 -1.2909782 0.58880752 0 59
-1.8697268 -1.286021 0.60886687 0 60
-1.8752819 -1.289842 0.63317323 0 61
-1.8912383 -1.3008169 0.66136593 0 62
-1.8745925 -1.2893677 0.67826945 0 63
-1.8249782 -1.2885816 -0.66600066 0 0
-1.8241363 -1.2879871 -0.64339012 0 1
-1.8266006 -1.2897271 -0.62204403 0 2
-1.8363738 -1.2966279 -0.6031521 0 3
-1.8391296 -1.2985736 -0.58191323 0 4
-1.8275611 -1.2904054 -0.55635267 0 5
-1.8325803 -1.2939492 -0.5360204 0 6
-1.8264518 -1.2896221 -0.51253635 0 7
-1.8274326 -1.2903146 -0.4911997 0 8
-1.8239434 -1.287851 -0.46877819 0 9
-1.8322242 -1.2936978 -0.4494085 0 10
-1.8282758 -1.2909099 -0.42706728 0 11
-1.8269856 -1.289999 -0.4054831 0 12
-1.8212335 -1.2859375 -0.38306129 0 13
-1.8251938 -1.2887337 -0.36276999 0 14
-1.8310045 -1.2928367 -0.34279662 0 15
-1.8152601 -1.2817198 -0.31896117 0 16
-1.8304546 -1.2924484 -0.30062392 0 17
-1.8246249 -1.2883321 -0.2787779 0 18
-1.8276856 -1.2904932 -0.25836992 0 19
-1.8316295 -1.293278 -0.23805116 0 20
-1.8247453 -1.2884171 -0.21639921 0 21
-1.8113574 -1.2789642 -0.19424327 0 22
-1.8289982 -1.29142 -0.17539987 0 23
-1.8365326 -1.2967399 -0.15533186 0 24
-1.8330771 -1.2943001 -0.13431451 0 25
-1.8175507 -1.2833371 -0.11264992 0 26
-1.824167 -1.2880088 -0.092477523 0 27
-1.8210496 -1.2858077 -0.071787842 0 28
-1.8284293 -1.2910184 -0.05147611 0 29
-1.8264838 -1.2896447 -0.030849325 0 30
-1.8351216 -1.2957436 -0.010331156 0 31
-1.8292698 -1.2916118 0.010298212 0 32
-1.8247751 -1.2884382 0.030820463 0 33
-1.8299574 -1.2920973 0.051519133 0 34
-1.822121 -1.2865642 0.071830079 0 35
-1.8321742 -1.2936625 0.092883453 0 36
-1.8282758 -1.29091 0.11331466 0 37
-1.8217145 -1.2862772 0.13348193 0 38
-1.8289369 -1.2913768 0.15468943 0 39
-1.8223945 -1.2867572 0.17476659 0 40
-1.8284664 -1.2910446 0.19607797 0 41
-1.8434854 -1.3016491 0.21862163 0 42
-1.8208858 -1.285692 0.23665485 0 43
-1.8301629 -1.2922424 0.25872013 0 44
-1.8221337 -1.2865732 0.27839729 0 45
-1.8354225 -1.2959561 0.30143982 0 46
-1.8247608 -1.2884281 0.32063055 0 47
-1.8268234 -1.2898844 0.34201381 0 48
-1.8253335 -1.2888324 0.36279777 0 49
-1.8236362 -1.287634 0.38356668 0 50
-1.8290378 -1.291448 0.40593857 0 51
-1.8188562 -1.284259 0.42486697 0 52
-1.8274807 -1.2903485 0.44824502 0 53
-1.8191174 -1.2844435 0.46753785 0 54
-1.8329641 -1.2942203 0.49268651 0 55
-1.8146915 -1.2813183 0.50923616 0 56
-1.8323821 -1.2938093 0.53596246 0 57
-1.8296813 -1.2919023 0.55699807 0 58
-1.8345125 -1.2953136 0.58045238 0 59
-1.8396857 -1.2989663 0.60423988 0 60
-1.8215419 -1.2861553 0.62032133 0 61
-1.83038 -1.2923957 0.64559233 0 62
-1.8293476 -1.2916667 0.66759521 0 63
-1.779572 -1.2896004 -0.65516776 0 0
-1.7861526 -1.2943691 -0.63555866 0 1
-1.7821009 -1.291433 -0.6122514 0 2
-1.7839582 -1.2927788 -0.59111285 0 3
-1.7904558 -1.2974875 -0.57151747 0 4
-1.7615519 -1.2765417 -0.54099554 0 5
-1.777881 -1.2883749 -0.52461535 0 6
-1.7809485 -1.2905979 -0.50418252 0 7
-1.7833422 -1.2923325 -0.48358342 0 8
-1.7808827 -1.2905501 -0.46175471 0 9
-1.7813624 -1.2908978 -0.44079325 0 10
-1.7741747 -1.2856891 -0.41809112 0 11
-1.7861338 -1.2943554 -0.39991859 0 12
-1.7787071 -1.2889736 -0.37742189 0 13
-1.7660607 -1.2798091 -0.35411799 0 14
-1.7835613 -1.2924913 -0.33686441 0 15
-1.7708724 -1.283296 -0.31391075 0 16
-1.7845104 -1.2931789 -0.29566753 0 17
-1.7908672 -1.2977856 -0.27603751 0 18
-1.7748555 -1.2861824 -0.25311825 0 19
-1.7745268 -1.2859442 -0.23266722 0 20
-1.7918496 -1.2984976 -0.21437541 0 21
-1.780804 -1.2904931 -0.19265395 0 22
-1.7879007 -1.2956358 -0.17297341 0 23
-1.7787348 -1.2889936 -0.15177248 0 24
-1.7901233 -1.2972466 -0.13232599 0 25
-1.7767723 -1.2875714 -0.11109541 0 26
-1.7892145 -1.2965879 -0.091506928 0 27
-1.7767218 -1.2875348 -0.070659168 0 28
-1.7792001 -1.2893307 -0.050532676 0 29
-1.7799054 -1.2898419 -0.030328205 0 30
-1.7949258 -1.3007268 -0.010194139 0 31
-1.7848952 -1.2934579 0.010137171 0 32
-1.7865126 -1.2946299 0.030440787 0 33
-1.7702236 -1.2828258 0.050277729 0 34
-1.7807376 -1.290445 0.070818871 0 35
-1.7847944 -1.2933848 0.09128087 0 36
-1.7905754 -1.2975742 0.11195847 0 37
-1.7846806 -1.2933023 0.13192366 0 38
-1.7815827 -1.2910573 0.15201549 0 39
-1.7942246 -1.3002186 0.17358524 0 40
-1.7881972 -1.2958506 0.19345376 0 41
-1.7901437 -1.2972612 0.21417131 0 42
-1.7830751 -1.2921389 0.23378804 0 43
-1.7733904 -1.2851207 0.2529093 0 44
-1.7878976 -1.2956337 0.27557981 0 45
-1.7825572 -1.2917637 0.29534394 0 46
-1.7908921 -1.2978036 0.31745952 0 47
-1.7732465 -1.2850164 0.3349162 0 48
-1.7707894 -1.2832358 0.35506615 0 49
-1.7831883 -1.292221 0.37837276 0 50
-1.7866442 -1.2947254 0.40003288 0 51
-1.7863899 -1.294541 0.42096969 0 52
-1.7808281 -1.2905107 0.44066101 0 53
-1.7775252 -1.2881171 0.46088415 0 54
-1.7876216 -1.2954336 0.48474383 0 55
-1.7891827 -1.2965648 0.50651354 0 56
-1.7872242 -1.2951456 0.5273723 0 57
-1.7819251 -1.2913055 0.54725242 0 58
-1.7815394 -1.291026 0.56867135 0 59
-1.7917211 -1.2984043 0.59368509 0 60
-1.7842644 -1.2930007 0.61299467 0 61
-1.7789795 -1.289171 0.63300633 0 62
-1.7700278 -1.282684 0.65165395 0 63
-1.7403405 -1.2941021 -0.64653385 0 0
-1.7385226 -1.2927504 -0.62421983 0 1
-1.7215245 -1.2801106 -0.59680277 0 2
-1.7459711 -1.2982889 -0.58377153 0 3
-1.7371072 -1.2916977 -0.55951613 0 4
-1.7402407 -1.2940278 -0.53929657 0 5
-1.7361923 -1.2910175 -0.51695919 0 6
-1.7461133 -1.2983947 -0.49880287 0 7
-1.7378054 -1.292217 -0.47550815 0 8
-1.7352912 -1.2903475 -0.45401323 0 9
-1.733197 -1.2887902 -0.43276355 0 10
-1.7403907 -1.2941394 -0.41384855 0 11
-1.7293479 -1.2859281 -0.39071503 0 12
-1.7400856 -1.2939125 -0.37257469 0 13
-1.7446299 -1.2972916 -0.35299274 0 14
-1.7313132 -1.2873895 -0.32996118 0 15
-1.7441336 -1.2969226 -0.31197429 0 16
-1.7303189 -1.2866501 -0.28928825 0 17
-1.7298049 -1.2862679 -0.26904318 0 18
-1.7441623 -1.2969439 -0.25099638 0 19
-1.7281733 -1.2850547 -0.22864413 0 20
-1.7261283 -1.283534 -0.20838507 0 21
-1.7260518 -1.2834771 -0.18842378 0 22
-1.7419031 -1.295264 -0.17005135 0 23
-1.7286071 -1.2853771 -0.14883266 0 24
-1.7362007 -1.2910237 -0.12950371 0 25
-1.7287587 -1.2854899 -0.10907339 0 26
-1.732211 -1.2880571 -0.089394845 0 27
-1.7245598 -1.2823677 -0.069206588 0 28
-1.7307258 -1.2869526 -0.049601626 0 29
-1.7332582 -1.2888358 -0.02980116 0 30
-1.7412266 -1.2947609 -0.0099788252 0 31
-1.73967 -1.2936035 0.009969906 0 32
-1.7277718 -1.2847561 0.029706828 0 33
-1.727978 -1.2849094 0.049522873 0 34
-1.7342141 -1.2895465 0.069594018 0 35
-1.7363667 -1.2911472 0.089609317 0 36
-1.7455238 -1.2979563 0.11013117 0 37
-1.7349242 -1.2900746 0.12940849 0 38
-1.733107 -1.2887233 0.14922011 0 39
-1.7226049 -1.2809141 0.16816738 0 40
-1.7424271 -1.2956537 0.1902114 0 41
-1.7342672 -1.2895861 0.20936763 0 42
-1.7319274 -1.2878462 0.22914082 0 43
-1.7334688 -1.2889924 0.24945751 0 44
-1.7400057 -1.2938532 0.27062973 0 45
-1.7338377 -1.2892667 0.28987658 0 46
-1.7350187 -1.2901448 0.31034389 0 47
-1.7330165 -1.288656 0.33028579 0 48
-1.748509 -1.3001761 0.35377762 0 49
-1.7328545 -1.2885355 0.37102643 0 50
-1.7341615 -1.2895074 0.39180255 0 51
-1.7436708 -1.2965784 0.41462854 0 52
-1.7312406 -1.2873355 0.43227506 0 53
-1.7320149 -1.2879113 0.45315602 0 54
-1.7353181 -1.2903675 0.47482756 0 55
-1.7412308 -1.2947642 0.49740812 0 56
-1.7348772 -1.2900397 0.51656759 0 57
-1.7364432 -1.2912041 0.53811973 0 58
-1.7359723 -1.2908539 0.55915064 0 59
-1.7250276 -1.2827156 0.57676899 0 60
-1.7454882 -1.2979299 0.60511029 0 61
-1.7436742 -1.296581 0.62606949 0 62
-1.7312038 -1.2873081 0.6431396 0 63
-1.6961277 -1.2939131 -0.63597155 0 0
-1.6881585 -1.2878338 -0.61177611 0 1
-1.6907812 -1.2898346 -0.59159863 0 2
-1.6901166 -1.2893276 -0.57035416 0 3
-1.6876341 -1.2874337 -0.54863864 0 4
-1.6958692 -1.293716 -0.53043574 0 5
-1.6815126 -1.2827638 -0.50533646 0 6
-1.6859311 -1.2861345 -0.48609194 0 7
-1.6916964 -1.2905327 -0.46719837 0 8
-1.6891041 -1.2885551 -0.44604084 0 9
-1.6922503 -1.2909552 -0.42647091 0 10
-1.688975 -1.2884567 -0.40535915 0 11
-1.6971667 -1.2947057 -0.38701189 0 12
-1.6854334 -1.2857549 -0.3642306 0 13
-1.6801295 -1.2817088 -0.34310523 0 14
-1.6891315 -1.288576 -0.32491723 0 15
-1.6822716 -1.2833428 -0.3037087 0 16
-1.6906707 -1.2897502 -0.2852895 0 17
-1.6950142 -1.2930638 -0.26608494 0 18
-1.7058821 -1.3013544 -0.24777167 0 19
-1.6850618 -1.2854714 -0.2250146 0 20
-1.6925037 -1.2911485 -0.20622687 0 21
-1.6867321 -1.2867457 -0.18584467 0 22
-1.6949005 -1.292977 -0.16700228 0 23
-1.6829784 -1.283882 -0.14625227 0 24
-1.6935275 -1.2919295 -0.12749602 0 25
-1.6826888 -1.2836611 -0.10715448 0 26
-1.6911609 -1.2901242 -0.088088401 0 27
-1.685727 -1.2859789 -0.068277642 0 28
-1.6852711 -1.2856311 -0.048748303 0 29
-1.6893641 -1.2887534 -0.02931671 0 30
-1.6891569 -1.2885953 -0.0097704874 0 31
-1.686381 -1.2864778 0.0097544314 0 32
-1.6856865 -1.2859479 0.02925289 0 33
-1.6922151 -1.2909285 0.048949167 0 34
-1.6986099 -1.2958068 0.068799444 0 35
-1.6905041 -1.2896231 0.08805418 0 36
-1.6761073 -1.2786404 0.10673537 0 37
-1.6886386 -1.2882 0.12712796 0 38
-1.6815917 -1.2828243 0.14613177 0 39
-1.7002341 -1.2970457 0.16752779 0 40
-1.6855125 -1.2858152 0.1857103 0 41
-1.6808145 -1.2822313 0.20480257 0 42
-1.6934582 -1.2918767 0.22613581 0 43
-1.6891478 -1.2885885 0.24534109 0 44
-1.6831481 -1.2840116 0.26422217 0 45
-1.6899894 -1.2892306 0.28517455 0 46
-1.6878541 -1.2876015 0.30471653 0 47
-1.6995962 -1.2965592 0.3269302 0 48
-1.6792761 -1.2810577 0.34293094 0 49
-1.6847597 -1.285241 0.36408502 0 50
-1.6938504 -1.2921759 0.38625565 0 51
-1.6887292 -1.288269 0.40530017 0 52
-1.6868238 -1.2868155 0.42510337 0 53
-1.696527 -1.2942177 0.448001 0 54
-1.6821656 -1.283262 0.46456623 0 55
-1.6916637 -1.2905078 0.48774481 0 56
-1.679846 -1.2814925 0.50483561 0 57
-1.6885245 -1.288113 0.52813846 0 58
-1.6807144 -1.2821549 0.5463891 0 59
-1.6924522 -1.2911093 0.57114232 0 60
-1.6864339 -1.2865181 0.59007746 0 61
-1.6949623 -1.2930241 0.61424178 0 62
-1.6997705 -1.2966921 0.63733745 0 63
-1.6477422 -1.2893579 -0.62372673 0 0
-1.647706 -1.2893296 -0.60281628 0 1
-1.64987 -1.2910229 -0.58279443 0 2
-1.645106 -1.2872951 -0.56046408 0 3
-1.6454406 -1.2875569 -0.54002798 0 4
-1.6460297 -1.288018 -0.51976144 0 5
-1.6436137 -1.2861274 -0.49866194 0 6
-1.647664 -1.2892967 -0.47959343 0 7
-1.651471 -1.2922758 -0.46044296 0 8
-1.6378497 -1.281617 -0.43663469 0 9
-1.6462435 -1.2881851 -0.4188368 0 10
-1.6458564 -1.2878823 -0.39878121 0 11
-1.6498984 -1.2910452 -0.37982452 0 12
-1.6513612 -1.2921898 -0.36027399 0 13
-1.6512638 -1.2921135 -0.34042934 0 14
-1.648952 -1.2903045 -0.32021615 0 15
-1.6404655 -1.2836639 -0.29898831 0 16
-1.6467586 -1.2885882 -0.28053215 0 17
-1.643502 -1.2860401 -0.26046127 0 18
-1.6448624 -1.2871045 -0.24118939 0 19
-1.6505134 -1.2915264 -0.22250506 0 20
-1.6442124 -1.2865958 -0.2022551 0 21
-1.6471791 -1.2889173 -0.18321912 0 22
-1.641466 -1.2844468 -0.16328114 0 23
-1.6460656 -1.288046 -0.14440997 0 24
-1.658334 -1.297646 -0.12603825 0 25
-1.6506491 -1.2916327 -0.10611756 0 26
-1.6500876 -1.2911932 -0.086769432 0 27
-1.6500924 -1.2911969 -0.067472301 0 28
-1.6379137 -1.2816671 -0.047830701 0 29
-1.6548685 -1.2949343 -0.028992219 0 30
-1.6473817 -1.2890759 -0.0096198088 0 31
-1.6537859 -1.2940872 0.009657206 0 32
-1.6526797 -1.2932215 0.028953873 0 33
-1.6552027 -1.2951958 0.048335578 0 34
-1.6490533 -1.2903839 0.067429811 0 35
-1.646713 -1.2885526 0.086591981 0 36
-1.6438497 -1.2863121 0.10568044 0 37
-1.6587609 -1.2979801 0.12607069 0 38
-1.6547967 -1.2948781 0.14517596 0 39
-1.6523836 -1.2929897 0.16436714 0 40
-1.6363945 -1.2804784 0.18201953 0 41
-1.6415029 -1.2844757 0.20192181 0 42
-1.6526673 -1.2932118 0.22279543 0 43
-1.6511785 -1.2920469 0.24211553 0 44
-1.6516733 -1.2924341 0.26175627 0 45
-1.649078 -1.2904032 0.2809273 0 46
-1.6414689 -1.2844491 0.29917118 0 47
-1.6435159 -1.2860509 0.31916052 0 48
-1.6527042 -1.2932408 0.34072632 0 49
-1.6408138 -1.2839365 0.35797286 0 50
-1.6393361 -1.2827802 0.37739295 0 51
-1.6497576 -1.290935 0.39972645 0 52
-1.6490784 -1.2904035 0.41955808 0 53
-1.6632928 -1.3015263 0.44341755 0 54
-1.6397891 -1.2831346 0.45718595 0 55
-1.6367002 -1.2807175 0.47640213 0 56
-1.648015 -1.2895714 0.49999729 0 57
-1.6441474 -1.286545 0.51916707 0 58
-1.6443254 -1.2866843 0.539662 0 59
-1.6396079 -1.2829928 0.55859101 0 60
-1.6465569 -1.2884303 0.58162409 0 61
-1.6443255 -1.2866844 0.60157955 0 62
-1.6516852 -1.2924434 0.62521935 0 63
-1.5954074 -1.2803433 -0.60982966 0 0
-1.6007795 -1.2846546 -0.59138274 0 1
-1.5939906 -1.2792062 -0.56856912 0 2
-1.6171794 -1.2978157 -0.55634469 0 3
-1.6132877 -1.2946925 -0.53466004 0 4
-1.5955402 -1.2804499 -0.50875181 0 5
-1.6036385 -1.2869489 -0.49129778 0 6
-1.6066468 -1.289363 -0.47223353 0 7
-1.6122189 -1.2938348 -0.45390055 0 8
-1.607916 -1.2903817 -0.43285194 0 9
-1.5960807 -1.2808836 -0.41005063 0 10
-1.5972948 -1.281858 -0.39080462 0 11
-1.6072911 -1.2898802 -0.37363896 0 12
-1.603093 -1.2865112 -0.35316804 0 13
-1.6044638 -1.2876111 -0.33401987 0 14
-1.6096888 -1.2918043 -0.31565234 0 15
-1.5956966 -1.2805754 -0.29367656 0 16
-1.6035503 -1.2868781 -0.2758463 0 17
-1.6072768 -1.2898687 -0.25721449 0 18
-1.6019018 -1.2855551 -0.23718998 0 19
-1.6028229 -1.2862943 -0.21819168 0 20
-1.6089138 -1.2911824 -0.19985093 0 21
-1.5977952 -1.2822596 -0.17946631 0 22
-1.6055281 -1.2884653 -0.16127011 0 23
-1.6018258 -1.2854942 -0.14190483 0 24
-1.6055967 -1.2885203 -0.12322494 0 25
-1.608932 -1.2911971 -0.10444846 0 26
-1.6065021 -1.2892469 -0.085304685 0 27
-1.5974898 -1.2820145 -0.065960996 0 28
-1.6089979 -1.29125 -0.047446374 0 29
-1.594878 -1.2799183 -0.028214818 0 30
-1.5974886 -1.2820135 -0.0094198035 0 31
-1.6101328 -1.2921607 0.0094943615 0 32
-1.6093218 -1.2915099 0.028470345 0 33
-1.6173667 -1.297966 0.047693156 0 34
-1.6122094 -1.2938272 0.06656877 0 35
-1.6102763 -1.2922758 0.085505091 0 36
-1.6043733 -1.2875386 0.10415252 0 37
-1.6093673 -1.2915463 0.12351433 0 38
-1.6048888 -1.2879523 0.14217618 0 39
-1.6050824 -1.2881076 0.16122535 0 40
-1.6181695 -1.2986103 0.18175477 0 41
-1.600901 -1.284752 0.19885564 0 42
-1.6074035 -1.2899704 0.21881524 0 43
-1.6073512 -1.2899283 0.23799685 0 44
-1.6141303 -1.2953687 0.25831124 0 45
-1.6011429 -1.2849462 0.27543217 0 46
-1.6069243 -1.2895858 0.29574293 0 47
-1.6074674 -1.2900217 0.31521672 0 48
-1.6078693 -1.2903442 0.33472884 0 49
-1.603739 -1.2870295 0.35331032 0 50
-1.5971363 -1.2817308 0.37127832 0 51
-1.613248 -1.2946607 0.3947078 0 52
-1.6107742 -1.2926754 0.41382554 0 53
-1.6190009 -1.2992774 0.43583602 0 54
-1.6017821 -1.285459 0.45096219 0 55
-1.6014328 -1.2851788 0.47070101 0 56
-1.6014566 -1.2851979 0.49062929 0 57
-1.605161 -1.2881707 0.51181948 0 58
-1.6082921 -1.2906835 0.53300446 0 59
-1.6129457 -1.2944181 0.55488819 0 60
-1.6059904 -1.2888364 0.57284939 0 61
-1.6020533 -1.2856767 0.59185332 0 62
-1.599784 -1.2838556 0.61150259 0 63
-1.558496 -1.2825415 -0.60170335 0 0
-1.5611361 -1.2847141 -0.58252919 0 1
-1.5620606 -1.285475 -0.56277549 0 2
-1.56969 -1.2917534 -0.54543048 0 3
-1.5608448 -1.2844744 -0.52247488 0 4
-1.5584183 -1.2824776 -0.50190562 0 5
-1.5641143 -1.287165 -0.48400137 0 6
-1.5634733 -1.2866375 -0.46415892 0 7
-1.5627797 -1.2860667 -0.44440022 0 8
-1.5719372 -1.2936028 -0.42741627 0 9
-1.5723134 -1.2939124 -0.4080013 0 10
-1.5659095 -1.2886423 -0.38697332 0 11
-1.5769694 -1.2977439 -0.37027183 0 12
-1.5702198 -1.2921895 -0.34939998 0 13
-1.5645934 -1.2875593 -0.32899073 0 14
-1.5696895 -1.2917531 -0.31089994 0 15
-1.5697174 -1.2917759 -0.29179659 0 16
-1.5595255 -1.2833887 -0.27096727 0 17
-1.5667437 -1.2893289 -0.25324595 0 18
-1.568053 -1.2904063 -0.2345098 0 19
-1.572896 -1.2943919 -0.21626811 0 20
-1.5688853 -1.2910913 -0.19683595 0 21
-1.5636029 -1.2867441 -0.17738956 0 22
-1.5702484 -1.292213 -0.1593104 0 23
-1.5670425 -1.2895747 -0.14021757 0 24
-1.551652 -1.2769094 -0.1202808 0 25
-1.5786883 -1.2991585 -0.10351434 0 26
-1.5707039 -1.2925878 -0.08424142 0 27
-1.5739484 -1.2952579 -0.065641634 0 28
-1.5519269 -1.2771356 -0.046223048 0 29
-1.5534903 -1.2784222 -0.027758637 0 30
-1.5744035 -1.2956324 -0.0093769133 0 31
-1.566231 -1.2889069 0.0093282396 0 32
-1.5713606 -1.2931283 0.028077953 0 33
-1.5634189 -1.2865927 0.046565332 0 34
-1.5750276 -1.2961459 0.065686643 0 35
-1.5740777 -1.2953643 0.084422372 0 36
-1.5736394 -1.2950035 0.10318329 0 37
-1.5654451 -1.2882602 0.12135001 0 38
-1.5584364 -1.2824924 0.13944751 0 39
-1.5678643 -1.290251 0.15906852 0 40
-1.5627623 -1.2860523 0.17729419 0 41
-1.5579833 -1.2821195 0.19546814 0 42
-1.5629665 -1.2862204 0.21490283 0 43
-1.575182 -1.296273 0.23557596 0 44
-1.5629795 -1.2862312 0.25263751 0 45
-1.5700679 -1.2920644 0.27279902 0 46
-1.5747787 -1.2959411 0.29273745 0 47
-1.567266 -1.2897587 0.31041995 0 48
-1.5534759 -1.2784102 0.326653 0 49
-1.5578054 -1.2819732 0.34663761 0 50
-1.5572052 -1.2814794 0.36563122 0 51
-1.5572723 -1.2815346 0.38483888 0 52
-1.570581 -1.2924867 0.40755174 0 53
-1.5683202 -1.2906262 0.42643276 0 54
-1.5695664 -1.2916517 0.4463301 0 55
-1.5668461 -1.2894131 0.46516022 0 56
-1.5653603 -1.2881904 0.48438692 0 57
-1.5557362 -1.2802703 0.50104183 0 58
-1.5599942 -1.2837745 0.52219015 0 59
-1.557649 -1.2818445 0.54124653 0 60
-1.5681486 -1.290485 0.56496888 0 61
-1.5664055 -1.2890506 0.58449543 0 62
-1.563677 -1.2868052 0.60370362 0 63
-1.5390272 -1.2985853 -0.60030639 0 0
-1.5287383 -1.2899036 -0.57631505 0 1
-1.5203496 -1.2828257 -0.55338925 0 2
-1.5285078 -1.2897093 -0.5365907 0 3
-1.5237966 -1.2857341 -0.51532668 0 4
-1.5300386 -1.2910008 -0.49784064 0 5
-1.5181477 -1.2809677 -0.47461563 0 6
-1.5275604 -1.2889098 -0.45816776 0 7
-1.5200698 -1.2825896 -0.43670681 0 8
-1.5251057 -1.2868387 -0.41895336 0 9
-1.5375854 -1.2973686 -0.40309888 0 10
-1.5167662 -1.2798021 -0.37868923 0 11
-1.5310895 -1.2918876 -0.36320174 0 12
-1.5246544 -1.2864579 -0.34275499 0 13
-1.5213059 -1.2836325 -0.32318312 0 14
-1.5242066 -1.2860801 -0.30500057 0 15
-1.5335236 -1.2939414 -0.2880044 0 16
-1.5303164 -1.2912352 -0.26863062 0 17
-1.5187523 -1.2814779 -0.24801698 0 18
-1.5291092 -1.2902168 -0.23104081 0 19
-1.5242611 -1.286126 -0.21173945 0 20
-1.5336506 -1.2940485 -0.194397 0 21
-1.5305905 -1.2914666 -0.17543271 0 22
-1.5182462 -1.2810508 -0.15562089 0 23
-1.5286099 -1.2897954 -0.13818735 0 24
-1.5318059 -1.2924922 -0.11996531 0 25
-1.5249504 -1.2867076 -0.10102057 0 26
-1.5186735 -1.2814114 -0.082289748 0 27
-1.5262104 -1.2877707 -0.064306252 0 28
-1.5300201 -1.2909852 -0.046039905 0 29
-1.5265919 -1.2880927 -0.02755894 0 30
-1.5185099 -1.2812732 -0.0091371629 0 31
-1.5327269 -1.2932692 0.0092227105 0 32
-1.5355763 -1.2956735 0.027721129 0 33
-1.5346293 -1.2948744 0.046178602 0 34
-1.5203242 -1.2828043 0.064058244 0 35
-1.5208887 -1.2832805 0.082409777 0 36
-1.5212677 -1.2836002 0.10077661 0 37
-1.5300642 -1.2910225 0.1198289 0 38
-1.5165464 -1.2796165 0.13709679 0 39
-1.5237455 -1.2856909 0.15618458 0 40
-1.5177387 -1.2806226 0.17395966 0 41
-1.5231975 -1.2852286 0.19307204 0 42
-1.5186841 -1.2814204 0.21096472 0 43
-1.5370226 -1.2968937 0.23223646 0 44
-1.5208418 -1.2832409 0.24835822 0 45
-1.5248176 -1.2865956 0.26766536 0 46
-1.5246073 -1.2864182 0.2863299 0 47
-1.5266309 -1.2881256 0.3054857 0 48
-1.5316993 -1.2924021 0.32539105 0 49
-1.5180842 -1.2809141 0.34127796 0 50
-1.5298038 -1.2908027 0.36289674 0 51
-1.5283924 -1.2896119 0.38159192 0 52
-1.5211806 -1.2835268 0.39879817 0 53
-1.5235682 -1.2855413 0.418531 0 54
-1.5110476 -1.2749768 0.43411478 0 55
-1.5269789 -1.2884192 0.45799336 0 56
-1.5208188 -1.2832216 0.47545072 0 57
-1.5285029 -1.2897052 0.49734098 0 58
-1.539734 -1.2991816 0.52071655 0 59
-1.5203919 -1.2828614 0.53374153 0 60
-1.5345169 -1.2947795 0.55854601 0 61
-1.5205349 -1.2829819 0.57322246 0 62
-1.5258497 -1.2874665 0.59516644 0 63
-1.4893873 -1.2883823 -0.58707917 0 0
-1.4913331 -1.2900654 -0.56815112 0 1
-1.4822038 -1.2821683 -0.54520208 0 2
-1.4891088 -1.2881413 -0.52828008 0 3
-1.4963043 -1.2943658 -0.51137316 0 4
-1.4902908 -1.2891637 -0.49002847 0 5
-1.494526 -1.2928275 -0.47216508 0 6
-1.4843481 -1.284023 -0.44990855 0 7
-1.4885215 -1.2876333 -0.43215933 0 8
-1.4997002 -1.2973033 -0.41632506 0 9
-1.4893425 -1.2883434 -0.39457473 0 10
-1.5009766 -1.2984074 -0.37870458 0 11
-1.4837667 -1.2835202 -0.35569298 0 12
-1.4819176 -1.2819207 -0.33666563 0 13
-1.4858801 -1.2853483 -0.31899086 0 14
-1.4843516 -1.2840261 -0.30016217 0 15
-1.4882082 -1.2873622 -0.28244555 0 16
-1.4797001 -1.2800024 -0.26248851 0 17
-1.4942169 -1.2925601 -0.24658717 0 18
-1.4939921 -1.2923656 -0.22811866 0 19
-1.4755162 -1.2763832 -0.20713273 0 20
-1.4837873 -1.283538 -0.19006281 0 21
-1.4965326 -1.2945632 -0.17334051 0 22
-1.4843521 -1.2840266 -0.1537535 0 23
-1.4864616 -1.2858514 -0.13579622 0 24
-1.4858614 -1.2853322 -0.11759601 0 25
-1.4864247 -1.2858194 -0.0995083 0 26
-1.490118 -1.2890143 -0.081595145 0 27
-1.4961555 -1.294237 -0.063705638 0 28
-1.4919831 -1.2906276 -0.04536945 0 29
-1.4886842 -1.287774 -0.027158417 0 30
-1.4802831 -1.2805067 -0.0090012103 0 31
-1.4828631 -1.2827384 0.0090168985 0 32
-1.4904139 -1.2892703 0.027189974 0 33
-1.4839514 -1.28368 0.045125216 0 34
-1.481057 -1.2811762 0.063062757 0 35
-1.4798231 -1.2801088 0.081031427 0 36
-1.4896942 -1.2886478 0.099727184 0 37
-1.4907907 -1.2895962 0.11798613 0 38
-1.489875 -1.2888041 0.13610804 0 39
-1.4954836 -1.2936558 0.15490653 0 40
-1.4906956 -1.2895139 0.17266442 0 41
-1.4867026 -1.2860597 0.19043623 0 42
-1.4935406 -1.2919751 0.209663 0 43
-1.4869488 -1.2862729 0.22704323 0 44
-1.489735 -1.2886829 0.24584752 0 45
-1.4959294 -1.2940414 0.26536751 0 46
-1.4979987 -1.2958314 0.28430367 0 47
-1.4955518 -1.2937148 0.30242705 0 48
-1.4965913 -1.294614 0.32129034 0 49
-1.4855841 -1.2850922 0.33749858 0 50
-1.4984034 -1.2961816 0.35920176 0 51
-1.4815718 -1.2816215 0.37380865 0 52
-1.4866292 -1.2859964 0.39385593 0 53
-1.4933003 -1.2917672 0.41454843 0 54
-1.4908429 -1.2896414 0.43283328 0 55
-1.4913533 -1.2900829 0.45203185 0 56
-1.4972054 -1.2951452 0.47301155 0 57
-1.4912224 -1.2899697 0.49033481 0 58
-1.4934497 -1.2918963 0.51039755 0 59
-1.4768043 -1.2774973 0.52391487 0 60
-1.4867368 -1.2860894 0.54686946 0 61
-1.4940215 -1.2923911 0.5691753 0 62
-1.4939071 -1.292292 0.58886075 0 63
-1.4544342 -1.2897497 -0.57950908 0 0
-1.4520237 -1.2876123 -0.55916512 0 1
-1.4560024 -1.2911403 -0.5413633 0 2
-1.4539561 -1.2893258 -0.52139431 0 3
-1.4481677 -1.2841928 -0.50028098 0 4
-1.4593238 -1.2940857 -0.48504174 0 5
-1.4496528 -1.2855097 -0.46294728 0 6
-1.4508424 -1.2865646 -0.44451442 0 7
-1.4433879 -1.2799542 -0.42359322 0 8
-1.4475806 -1.2836721 -0.40620756 0 9
-1.4469361 -1.2831007 -0.38749063 0 10
-1.4456614 -1.2819704 -0.36869767 0 11
-1.4553081 -1.2905247 -0.35264829 0 12
-1.4461927 -1.2824415 -0.33210701 0 13
-1.4539381 -1.2893099 -0.31551319 0 14
-1.4613777 -1.295907 -0.29871622 0 15
-1.4534376 -1.2888659 -0.27883324 0 16
-1.4495969 -1.2854602 -0.25993279 0 17
-1.4506365 -1.2863821 -0.2419873 0 18
-1.454995 -1.2902471 -0.22456971 0 19
-1.4565014 -1.2915828 -0.2066773 0 20
-1.4541868 -1.2895304 -0.18828808 0 21
-1.460375 -1.2950178 -0.17098399 0 22
-1.4519163 -1.287517 -0.15202212 0 23
-1.448325 -1.2843323 -0.13374487 0 24
-1.4554011 -1.2906071 -0.11643247 0 25
-1.4522133 -1.2877803 -0.098270684 0 26
-1.4541008 -1.2894541 -0.080485068 0 27
-1.4517215 -1.2873443 -0.062482968 0 28
-1.4435292 -1.2800796 -0.044371322 0 29
-1.4477929 -1.2838604 -0.026698414 0 30
-1.4462538 -1.2824956 -0.0088895094 0 31
-1.4591432 -1.2939255 0.0089687351 0 32
-1.4591875 -1.2939649 0.026908539 0 33
-1.4491616 -1.2850742 0.044544451 0 34
-1.4578197 -1.2927519 0.06274543 0 35
-1.4465979 -1.2828008 0.080069788 0 36
-1.4531702 -1.2886289 0.098335437 0 37
-1.4583524 -1.2932243 0.11666858 0 38
-1.4418306 -1.2785733 0.13314515 0 39
-1.4589185 -1.2937262 0.15275528 0 40
-1.4469596 -1.2831215 0.16941328 0 41
-1.4610231 -1.2955927 0.18917325 0 42
-1.4455763 -1.2818949 0.20512705 0 43
-1.4512731 -1.2869467 0.22399525 0 44
-1.4368085 -1.2741199 0.23968059 0 45
-1.4504662 -1.286231 0.26008865 0 46
-1.4464784 -1.2826947 0.27749816 0 47
-1.4483492 -1.2843537 0.29605308 0 48
-1.4431119 -1.2797095 0.31316385 0 49
-1.4614658 -1.2959852 0.33561435 0 50
-1.4466789 -1.2828726 0.35055727 0 51
-1.4459434 -1.2822204 0.36876959 0 52
-1.4616597 -1.296157 0.39143363 0 53
-1.4483238 -1.2843312 0.40641612 0 54
-1.4593579 -1.2941159 0.42827994 0 55
-1.4614022 -1.2959287 0.44774979 0 56
-1.4463831 -1.2826103 0.4619031 0 57
-1.4504277 -1.2861969 0.48208493 0 58
-1.461223 -1.2957698 0.50479102 0 59
-1.4598343 -1.2945384 0.52350223 0 60
-1.4556378 -1.2908171 0.54122776 0 61
-1.4474882 -1.2835902 0.55741847 0 62
-1.4588109 -1.293631 0.58125299 0 63
-1.4152874 -1.2864664 -0.57017118 0 0
-1.4182925 -1.2891979 -0.5522384 0 1
-1.4259742 -1.2961805 -0.53608406 0 2
-1.4091883 -1.2809223 -0.51095003 0 3
-1.413644 -1.2849725 -0.49377561 0 4
-1.4227217 -1.2932241 -0.47812548 0 5
-1.4304862 -1.3002818 -0.46189752 0 6
-1.4096234 -1.2813178 -0.43667987 0 7
-1.4159732 -1.2870897 -0.42016068 0 8
-1.4198077 -1.2905751 -0.40283686 0 9
-1.4246875 -1.2950109 -0.38576776 0 10
-1.4138347 -1.2851459 -0.3645834 0 11
-1.4210316 -1.2916877 -0.34816492 0 12
-1.4154978 -1.2866576 -0.32866654 0 13
-1.4128054 -1.2842103 -0.30999053 0 14
-1.4131048 -1.2844825 -0.29205534 0 15
-1.4218212 -1.2924055 -0.27579576 0 16
-1.4249433 -1.2952435 -0.25834844 0 17
-1.4137298 -1.2850506 -0.23844863 0 18
-1.413192 -1.2845618 -0.22053896 0 19
-1.427995 -1.2980173 -0.20488164 0 20
-1.4190696 -1.2899044 -0.18578079 0 21
-1.4149024 -1.2861165 -0.16749892 0 22
-1.420704 -1.2913899 -0.15040535 0 23
-1.4073598 -1.2792604 -0.13140464 0 24
-1.4145632 -1.2858081 -0.11442166 0 25
-1.4135077 -1.2848486 -0.096713297 0 26
-1.4131193 -1.2844957 -0.079085 0 27
-1.4155171 -1.2866752 -0.061601017 0 28
-1.4095488 -1.28125 -0.043807786 0 29
-1.4218992 -1.2924764 -0.026511988 0 30
-1.4138618 -1.2851706 -0.0087868795 0 31
-1.4193484 -1.2901577 0.008820978 0 32
-1.418997 -1.2898383 0.026457874 0 33
-1.4142747 -1.2855458 0.043954667 0 34
-1.4066966 -1.2786576 0.061217163 0 35
-1.411568 -1.2830855 0.078998178 0 36
-1.4134243 -1.2847728 0.09670759 0 37
-1.40738 -1.2792786 0.11384061 0 38
-1.4147118 -1.2859432 0.13209109 0 39
-1.4179705 -1.2889054 0.15011597 0 40
-1.4159225 -1.2870437 0.16761966 0 41
-1.4201198 -1.2908589 0.18591827 0 42
-1.41582 -1.2869505 0.20313482 0 43
-1.4089386 -1.2806956 0.21987519 0 44
-1.4266678 -1.2968109 0.24063084 0 45
-1.4245604 -1.2948954 0.25827903 0 46
-1.4125994 -1.2840232 0.27400702 0 47
-1.4174451 -1.2884277 0.29295236 0 48
-1.4070231 -1.2789543 0.30872178 0 49
-1.4168342 -1.2878724 0.32897687 0 50
-1.430297 -1.3001099 0.35043505 0 51
-1.4185417 -1.2894244 0.36579719 0 52
-1.4198012 -1.2905694 0.38444468 0 53
-1.4264143 -1.2965804 0.40471134 0 54
-1.4282783 -1.2982749 0.423812 0 55
-1.4251305 -1.2954135 0.44148374 0 56
-1.4208264 -1.2915013 0.45877847 0 57
-1.4063751 -1.2783653 0.47263193 0 58
-1.4146534 -1.2858901 0.4941282 0 59
-1.4198111 -1.2905784 0.51480168 0 60
-1.4153621 -1.2865343 0.53209448 0 61
-1.4285703 -1.2985402 0.5562402 0 62
-1.4208049 -1.2914817 0.57239401 0 63
-1.3833209 -1.288825 -0.56363499 0 0
-1.381531 -1.2871574 -0.54404622 0 1
-1.3699747 -1.2763906 -0.5208925 0 2
-1.3864284 -1.2917202 -0.50841832 0 3
-1.3898147 -1.2948753 -0.49097672 0 4
-1.3776691 -1.2835593 -0.4682537 0 5
-1.3873758 -1.2926029 -0.45307541 0 6
-1.3771161 -1.283044 -0.43146446 0 7
-1.3848705 -1.2902688 -0.41560805 0 8
-1.3880584 -1.2932389 -0.39831054 0 9
-1.3740093 -1.2801495 -0.37627932 0 10
-1.3835485 -1.289037 -0.36083364 0 11
-1.3867316 -1.2920028 -0.34362766 0 12
-1.3820049 -1.2875988 -0.32454151 0 13
-1.3832594 -1.2887677 -0.3069616 0 14
-1.3808794 -1.2865503 -0.28864291 0 15
-1.3814057 -1.2870406 -0.27100557 0 16
-1.3842307 -1.2896726 -0.25382307 0 17
-1.3816944 -1.2873096 -0.23569742 0 18
-1.3804203 -1.2861226 -0.21787623 0 19
-1.3748628 -1.2809446 -0.19950329 0 20
-1.3797143 -1.2854646 -0.18268403 0 21
-1.374209 -1.2803355 -0.16453287 0 22
-1.3815331 -1.2871593 -0.14792287 0 23
-1.3749073 -1.2809861 -0.12983547 0 24
-1.3856859 -1.2910285 -0.11336136 0 25
-1.374263 -1.2803859 -0.095098197 0 26
-1.3714556 -1.2777702 -0.077626742 0 27
-1.3763252 -1.2823071 -0.060577061 0 28
-1.3742621 -1.280385 -0.043197159 0 29
-1.382359 -1.2879288 -0.02606806 0 30
-1.3797174 -1.2854676 -0.0086722588 0 31
-1.3870851 -1.2923321 0.0087185688 0 32
-1.3796101 -1.2853676 0.026016219 0 33
-1.3777703 -1.2836535 0.043307431 0 34
-1.3821894 -1.2877707 0.060835164 0 35
-1.3906573 -1.2956603 0.078713596 0 36
-1.3751881 -1.2812477 0.095162213 0 37
-1.386429 -1.2917207 0.11342215 0 38
-1.3838151 -1.2892854 0.13067664 0 39
-1.3842775 -1.2897162 0.14821671 0 40
-1.3801572 -1.2858775 0.16524504 0 41
-1.3812451 -1.286891 0.18288673 0 42
-1.3743682 -1.2804838 0.19943152 0 43
-1.3783715 -1.2842137 0.21755284 0 44
-1.3850259 -1.2904134 0.23626569 0 45
-1.3843805 -1.2898121 0.25385052 0 46
-1.3782557 -1.2841058 0.27038762 0 47
-1.3694072 -1.2758617 0.2862449 0 48
-1.3727722 -1.2789969 0.30463436 0 49
-1.3829098 -1.2884419 0.32475403 0 50
-1.3755976 -1.2816292 0.34086865 0 51
-1.3718649 -1.2781515 0.35778651 0 52
-1.3812503 -1.2868958 0.37826228 0 53
-1.3869476 -1.2922039 0.39799181 0 54
-1.3815024 -1.2871307 0.41459721 0 55
-1.3933212 -1.2981421 0.43654168 0 56
-1.3839207 -1.2893838 0.45194703 0 57
-1.3818868 -1.2874888 0.46968725 0 58
-1.3901219 -1.2951615 0.49108523 0 59
-1.3823105 -1.2878835 0.5069083 0 60
-1.3937672 -1.2985576 0.52993888 0 61
-1.3806043 -1.286294 0.54368126 0 62
-1.3787438 -1.2845606 0.56177002 0 63
-1.3465989 -1.2859018 -0.55507326 0 0
-1.3460443 -1.2853723 -0.53625524 0 1
-1.3493011 -1.2884823 -0.51901686 0 2
-1.3516157 -1.2906924 -0.50143427 0 3
-1.3439696 -1.283391 -0.48031974 0 4
-1.3529563 -1.2919726 -0.4652186 0 5
-1.3531661 -1.292173 -0.44705865 0 6
-1.3421006 -1.2816063 -0.42539912 0 7
-1.3494684 -1.2886419 -0.40970805 0 8
-1.353609 -1.292596 -0.39295638 0 9
-1.354008 -1.2929769 -0.37512752 0 10
-1.347789 -1.2870383 -0.35560805 0 11
-1.3586254 -1.2973862 -0.34059042 0 12
-1.3403715 -1.2799551 -0.31843656 0 13
-1.3497698 -1.2889298 -0.30302411 0 14
-1.3518605 -1.2909263 -0.28587362 0 15
-1.3417532 -1.2812746 -0.26629725 0 16
-1.3386987 -1.2783577 -0.24833763 0 17
-1.3541423 -1.2931051 -0.23369215 0 18
-1.3530937 -1.2921039 -0.21605454 0 19
-1.3467566 -1.2860525 -0.19770464 0 20
-1.3492287 -1.2884132 -0.18073159 0 21
-1.3502129 -1.2893529 -0.16354571 0 22
-1.3442094 -1.28362 -0.14560558 0 23
-1.3428528 -1.2823246 -0.12828781 0 24
-1.3542089 -1.2931688 -0.11207866 0 25
-1.3391573 -1.2787957 -0.093749948 0 26
-1.3399955 -1.279596 -0.076730847 0 27
-1.3462623 -1.2855804 -0.059945125 0 28
-1.3479295 -1.2871724 -0.042863715 0 29
-1.3451896 -1.2845559 -0.025663055 0 30
-1.3576709 -1.2964748 -0.0086332364 0 31
-1.3384054 -1.2780776 0.0085107302 0 32
-1.3476161 -1.2868731 0.025709348 0 33
-1.3512948 -1.290386 0.042970728 0 34
-1.3532244 -1.2922286 0.060255121 0 35
-1.3423332 -1.2818283 0.076864712 0 36
-1.3534126 -1.2924083 0.094747916 0 37
-1.3516159 -1.2906927 0.11186406 0 38
-1.3484778 -1.287696 0.12882519 0 39
-1.3533194 -1.2923194 0.14659238 0 40
-1.3406854 -1.2802548 0.16239168 0 41
-1.3399876 -1.2795886 0.17949374 0 42
-1.3551633 -1.2940803 0.19893876 0 43
-1.3573104 -1.2961305 0.21672784 0 44
-1.3498781 -1.2890332 0.23295626 0 45
-1.3465554 -1.2858602 0.24979506 0 46
-1.3510284 -1.2901317 0.26813811 0 47
-1.3444251 -1.283826 0.28430125 0 48
-1.3510119 -1.2901158 0.30330294 0 49
-1.3448197 -1.2842028 0.31949332 0 50
-1.358842 -1.2975931 0.34064475 0 51
-1.3477145 -1.2869672 0.35558841 0 52
-1.3479133 -1.2871569 0.37343901 0 53
-1.3481154 -1.2873499 0.39136156 0 54
-1.3474867 -1.2867497 0.40910643 0 55
-1.3539726 -1.2929431 0.42916211 0 56
-1.3383522 -1.2780268 0.44216442 0 57
-1.346085 -1.285411 0.46285588 0 58
-1.3563164 -1.2951814 0.48473239 0 59
-1.3410302 -1.2805842 0.49750724 0 60
-1.3518206 -1.2908881 0.51998597 0 61
-1.3436111 -1.2830487 0.53528589 0 62
-1.327714 -1.267868 0.54728878 0 63
-1.3140838 -1.2861127 -0.5481478 0 0
-1.3097432 -1.2818644 -0.52803284 0 1
-1.3156943 -1.287689 -0.51214176 0 2
-1.3200792 -1.2919805 -0.49559098 0 3
-1.301267 -1.2735687 -0.47061959 0 4
-1.3136234 -1.2856622 -0.45709535 0 5
-1.3138745 -1.2859079 -0.43926829 0 6
-1.3164793 -1.2884573 -0.42226797 0 7
-1.3173465 -1.2893059 -0.40473837 0 8
-1.307297 -1.2794704 -0.38405019 0 9
-1.307911 -1.2800713 -0.36668953 0 10
-1.3132966 -1.2853422 -0.35065097 0 11
-1.314449 -1.2864701 -0.33345637 0 12
-1.3135211 -1.285562 -0.31578928 0 13
-1.3153529 -1.2873548 -0.29882872 0 14
-1.3200322 -1.2919345 -0.28248101 0 15
-1.3169041 -1.288873 -0.2644909 0 16
-1.306927 -1.2791082 -0.24534293 0 17
-1.3207704 -1.292657 -0.23065865 0 18
-1.309171 -1.2813045 -0.21154097 0 19
-1.3180133 -1.2899586 -0.19579886 0 20
-1.314431 -1.2864524 -0.17817585 0 21
-1.3148745 -1.2868867 -0.16116986 0 22
-1.3154947 -1.2874936 -0.14419916 0 23
-1.3117435 -1.2838223 -0.12681438 0 24
-1.3180577 -1.290002 -0.11039115 0 25
-1.3155652 -1.2875626 -0.093199685 0 26
-1.3171988 -1.2891614 -0.076327421 0 27
-1.3102342 -1.2823451 -0.05903855 0 28
-1.3192657 -1.2911843 -0.042453893 0 29
-1.3196218 -1.2915329 -0.025476335 0 30
-1.3170656 -1.2890311 -0.0084751844 0 31
-1.3133987 -1.2854422 0.0084515875 0 32
-1.3150486 -1.2870569 0.025388045 0 33
-1.3194128 -1.2913283 0.042458624 0 34
-1.3159724 -1.2879611 0.059297111 0 35
-1.3157556 -1.2877489 0.076243788 0 36
-1.3242797 -1.2960916 0.09381704 0 37
-1.3176297 -1.2895831 0.11035531 0 38
-1.3118023 -1.2838798 0.12682006 0 39
-1.3206986 -1.2925867 0.14476961 0 40
-1.3083929 -1.2805429 0.16037536 0 41
-1.3123106 -1.2843772 0.17788844 0 42
-1.3198713 -1.291777 0.19607486 0 43
-1.317294 -1.2892547 0.21285352 0 44
-1.3044339 -1.2766683 0.22780566 0 45
-1.3265982 -1.2983607 0.2490357 0 46
-1.3153578 -1.2873596 0.26418036 0 47
-1.3207835 -1.2926699 0.28264183 0 48
-1.3030584 -1.2753221 0.29603562 0 49
-1.3174337 -1.2893914 0.31672993 0 50
-1.3133956 -1.2854391 0.33318913 0 51
-1.3091711 -1.2813046 0.34954947 0 52
-1.3180451 -1.2899897 0.36953077 0 53
-1.3145815 -1.2865998 0.38619018 0 54
-1.3141009 -1.2861295 0.40374121 0 55
-1.324008 -1.2958257 0.42468286 0 56
-1.3167909 -1.2887622 0.44024333 0 57
-1.3111225 -1.2832146 0.45622513 0 58
-1.3056506 -1.2778591 0.47220498 0 59
-1.3098133 -1.2819331 0.49173689 0 60
-1.3066533 -1.2788403 0.50862247 0 61
-1.3080691 -1.2802261 0.52735794 0 62
-1.3154398 -1.2874399 0.54871345 0 63
-1.2757162 -1.2796488 -0.53866637 0 0
-1.2859421 -1.2899061 -0.52479213 0 1
-1.2870268 -1.2909943 -0.50712371 0 2
-1.2841473 -1.2881058 -0.48801076 0 3
-1.2742774 -1.2782058 -0.46650764 0 4
-1.2939216 -1.2979103 -0.45575878 0 5
-1.2776989 -1.2816375 -0.43240991 0 6
-1.2899318 -1.2939081 -0.4188244 0 7
-1.2855008 -1.2894636 -0.39979547 0 8
-1.2919641 -1.2959468 -0.38419819 0 9
-1.2767016 -1.2806373 -0.36232713 0 10
-1.2888467 -1.2928199 -0.34834108 0 11
-1.2784169 -1.2823578 -0.32829097 0 12
-1.2820911 -1.2860434 -0.31201133 0 13
-1.2927094 -1.2966943 -0.29728436 0 14
-1.2658246 -1.2697266 -0.27420124 0 15
-1.2763296 -1.2802641 -0.25948402 0 16
-1.2825993 -1.2865533 -0.24372743 0 17
-1.273365 -1.2772905 -0.2251057 0 18
-1.2788979 -1.2828403 -0.2091824 0 19
-1.2794785 -1.2834228 -0.19240418 0 20
-1.2830117 -1.2869668 -0.1760487 0 21
-1.2908219 -1.2948011 -0.16016108 0 22
-1.2826879 -1.286642 -0.1423265 0 23
-1.2909491 -1.2949287 -0.12633388 0 24
-1.2803301 -1.284277 -0.10854578 0 25
-1.2853317 -1.289294 -0.092173994 0 26
-1.2849953 -1.2889565 -0.075374067 0 27
-1.27846 -1.2824011 -0.058312956 0 28
-1.2848531 -1.2888139 -0.041853312 0 29
-1.2765502 -1.2804854 -0.024946896 0 30
-1.2900583 -1.2940351 -0.0084031513 0 31
-1.2856851 -1.2896484 0.0083746659 0 32
-1.2860255 -1.2899899 0.025132068 0 33
-1.2770709 -1.2810078 0.041599814 0 34
-1.2785825 -1.2825239 0.05831854 0 35
-1.2716163 -1.2755363 0.074589297 0 36
-1.2766557 -1.2805911 0.091551811 0 37
-1.2845765 -1.2885365 0.1089058 0 38
-1.2779371 -1.2818766 0.1250605 0 39
-1.290329 -1.2943068 0.14317437 0 40
-1.2746481 -1.2785774 0.15815428 0 41
-1.292662 -1.296647 0.17737289 0 42
-1.2831211 -1.2870766 0.19295195 0 43
-1.288533 -1.2925051 0.21075836 0 44
-1.2874182 -1.291387 0.22759004 0 45
-1.28917 -1.2931441 0.24497603 0 46
-1.2833481 -1.2873043 0.2609109 0 47
-1.2808838 -1.2848324 0.27746335 0 48
-1.2722385 -1.2761604 0.2925767 0 49
-1.2944732 -1.2984637 0.31502464 0 50
-1.2872242 -1.2911923 0.33055264 0 51
-1.2743781 -1.2783066 0.3444306 0 52
-1.2855581 -1.2895211 0.3648406 0 53
-1.2804185 -1.2843657 0.38076481 0 54
-1.285251 -1.2892131 0.39971781 0 55
-1.2868267 -1.2907937 0.41781625 0 56
-1.2763165 -1.280251 0.43194211 0 57
-1.2928514 -1.2968369 0.45538181 0 58
-1.2746987 -1.2786282 0.46666187 0 59
-1.2852139 -1.2891759 0.48841614 0 60
-1.2847384 -1.2886989 0.50622207 0 61
-1.2803905 -1.2843375 0.52252656 0 62
-1.2873468 -1.2913154 0.54357737 0 63
-1.2364402 -1.2711341 -0.52864212 0 0
-1.2569073 -1.2921758 -0.51938826 0 1
-1.243875 -1.2787777 -0.49627912 0 2
-1.2557719 -1.2910084 -0.48322368 0 3
-1.2536017 -1.2887772 -0.46470484 0 4
-1.2510411 -1.2861447 -0.44619173 0 5
-1.2507949 -1.2858918 -0.42862368 0 6
-1.2549585 -1.2901722 -0.41258889 0 7
-1.2591659 -1.2944976 -0.39652574 0 8
-1.2523539 -1.2874945 -0.3770985 0 9
-1.2526493 -1.2877982 -0.35996798 0 10
-1.2462173 -1.2811856 -0.34105158 0 11
-1.2576026 -1.2928904 -0.32700378 0 12
-1.2534819 -1.2886541 -0.30888188 0 13
-1.2544546 -1.2896541 -0.29211175 0 14
-1.2481648 -1.2831877 -0.27377307 0 15
-1.2479037 -1.2829195 -0.25689271 0 16
-1.2524271 -1.2875698 -0.24098431 0 17
-1.2518672 -1.2869941 -0.224086 0 18
-1.2612578 -1.2966481 -0.20888922 0 19
-1.2496258 -1.2846899 -0.19027616 0 20
-1.2534359 -1.2886068 -0.17415151 0 21
-1.249586 -1.2846489 -0.15699278 0 22
-1.2573708 -1.2926521 -0.14127037 0 23
-1.2581389 -1.2934418 -0.12467007 0 24
-1.2589232 -1.2942481 -0.10807199 0 25
-1.2642053 -1.2996786 -0.091798104 0 26
-1.2527823 -1.2879349 -0.074407876 0 27
-1.2400339 -1.2748288 -0.057270948 0 28
-1.2423172 -1.2771761 -0.040976208 0 29
-1.2525095 -1.2876544 -0.024784634 0 30
-1.2522396 -1.287377 -0.0082592992 0 31
-1.2492958 -1.2843506 0.0082398839 0 32
-1.2452962 -1.2802389 0.024641901 0 33
-1.2446715 -1.2795966 0.041053861 0 34
-1.2520633 -1.2871957 0.057826523 0 35
-1.2594174 -1.2947563 0.074801967 0 36
-1.2551646 -1.2903841 0.091141626 0 37
-1.2408067 -1.2756232 0.10651678 0 38
-1.2417234 -1.2765658 0.12304345 0 39
-1.2433407 -1.2782284 0.13969404 0 40
-1.2428058 -1.2776785 0.15614095 0 41
-1.2563858 -1.2916394 0.17456137 0 42
-1.2457337 -1.2806885 0.18968353 0 43
-1.2552791 -1.2905017 0.20789902 0 44
-1.2599365 -1.2952898 0.2255304 0 45
-1.2449368 -1.2798693 0.23954307 0 46
-1.2414722 -1.2763075 0.25556871 0 47
-1.2383429 -1.2730902 0.27161872 0 48
-1.2487165 -1.2837551 0.2907756 0 49
-1.2551154 -1.2903335 0.30928442 0 50
-1.2513068 -1.286418 0.32536674 0 51
