# .PCD v0.7 - Point Cloud Data file format
VERSION 0.7
FIELDS x y z intensity ring
SIZE 4 4 4 4 2
TYPE F F F F U
COUNT 1 1 1 1 1
WIDTH 1396
HEIGHT 1
VIEWPOINT 0 0 0 1 0 0 0
POINTS 1396
DATA ascii
7.4488311 -0.50451279 -0.58487415 0 23
7.4363589 -0.50366807 -0.51496834 0 24
7.4756484 -0.50632918 -0.44848648 0 25
7.4568295 -0.50505453 -0.378405 0 26
7.4406228 -0.50395685 -0.308844 0 27
7.4551744 -0.50494248 -0.24062747 0 28
7.4441347 -0.50419474 -0.1715932 0 29
7.4536519 -0.5048393 -0.10307591 0 30
7.4511418 -0.50466931 -0.034345131 0 31
7.4427958 -0.50410402 0.03430666 0 32
7.4487176 -0.5045051 0.10300768 0 33
7.4401202 -0.50392282 0.17150067 0 34
7.4623423 -0.50542796 0.24085882 0 35
7.4622421 -0.50542116 0.30974138 0 36
7.4606438 -0.50531292 0.37859857 0 37
7.4558673 -0.50498939 0.44729975 0 38
7.4644623 -0.50557154 0.51691449 0 39
7.4501705 -0.50460351 0.5849793 0 40
7.4519324 -0.50472289 0.65428811 0 41
7.4584641 -0.50516528 0.72420436 0 42
7.4559197 -0.5049929 0.79339999 0 43
7.4600039 -0.50526953 0.86345118 0 44
7.4575992 -0.50510669 0.93291503 0 45
7.4511671 -0.50467104 1.0019526 0 46
7.4661846 -0.50568819 1.0741279 0 47
7.4569521 -0.50506282 1.1430539 0 48
7.4575438 -0.50510293 1.2136027 0 49
7.4628024 -0.50545907 1.2851769 0 50
7.4654698 -0.50563973 1.3566039 0 51
7.462492 -0.50543809 1.4272392 0 52
7.4583011 -0.50515419 1.4978242 0 53
7.4634643 -0.50550395 1.5705609 0 54
7.4518118 -0.50471467 1.6399736 0 55
7.4545903 -0.5049029 1.7127678 0 56
0 0 0 0 57
0 0 0 0 58
0 0 0 0 59
0 0 0 0 60
0 0 0 0 61
0 0 0 0 62
0 0 0 0 63
2.4620492 -0.13636765 -0.73509467 0 0
2.5377672 -0.14056151 -0.7323159 0 1
2.6447558 -0.14648739 -0.73687303 0 2
2.7350421 -0.15148816 -0.73495263 0 3
2.841234 -0.1573699 -0.73549974 0 4
2.9379489 -0.16272672 -0.73173201 0 5
3.0941091 -0.17137611 -0.74042916 0 6
3.1849308 -0.17640653 -0.73121655 0 7
3.3410127 -0.18505156 -0.73472434 0 8
3.4999516 -0.19385485 -0.73594892 0 9
3.6664023 -0.2030742 -0.73575354 0 10
3.8456964 -0.21300492 -0.73495233 0 11
4.0620227 -0.22498678 -0.73758072 0 12
4.2713408 -0.23658046 -0.73501545 0 13
4.522809 -0.25050876 -0.73546195 0 14
4.7693315 -0.26416311 -0.73052347 0 15
5.1122007 -0.28315389 -0.73491383 0 16
5.5085516 -0.30510694 -0.74017018 0 17
5.8825765 -0.32582334 -0.73532933 0 18
6.3747768 -0.35308528 -0.7372843 0 19
6.8914809 -0.38170442 -0.73278207 0 20
7.4378648 -0.41196746 -0.72165775 0 21
7.4456129 -0.41239661 -0.65323859 0 22
7.4560361 -0.41297394 -0.58499694 0 23
7.4422274 -0.41220909 -0.51498479 0 24
7.4474425 -0.41249794 -0.44645628 0 25
7.4428544 -0.41224384 -0.37741005 0 26
7.4423175 -0.4122141 -0.30868062 0 27
7.4526267 -0.41278511 -0.24036324 0 28
7.458137 -0.41309029 -0.17178589 0 29
7.4430079 -0.41225234 -0.10285085 0 30
7.4466233 -0.41245258 -0.034298334 0 31
7.4512482 -0.41270873 0.034319635 0 32
7.4599195 -0.41318902 0.10308453 0 33
7.4386554 -0.41201127 0.17133717 0 34
7.4443841 -0.41232857 0.24009739 0 35
7.4499073 -0.41263446 0.30899543 0 36
7.4547129 -0.41290063 0.37801138 0 37
7.4286766 -0.41145855 0.44533131 0 38
7.4359598 -0.41186196 0.5145511 0 39
7.4428601 -0.41224414 0.5839631 0 40
7.4394708 -0.41205642 0.65269977 0 41
7.4569192 -0.41302285 0.72350645 0 42
7.471036 -0.41380474 0.79440701 0 43
7.442852 -0.41224369 0.86081415 0 44
7.4608879 -0.41324267 0.93262029 0 45
7.4601202 -0.41320014 1.0023975 0 46
7.4585381 -0.41311249 1.0722159 0 47
7.4668989 -0.41357562 1.1437128 0 48
7.4431953 -0.41226271 1.2103511 0 49
7.4467754 -0.41246101 1.2814466 0 50
7.4443417 -0.41232619 1.3517411 0 51
7.4398489 -0.41207734 1.421832 0 52
7.4439392 -0.41230392 1.4938089 0 53
7.4488125 -0.41257381 1.5662917 0 54
7.474318 -0.41398653 1.6436822 0 55
7.4474702 -0.41249949 1.7098373 0 56
0 0 0 0 57
0 0 0 0 58
0 0 0 0 59
0 0 0 0 60
0 0 0 0 61
0 0 0 0 62
0 0 0 0 63
2.4670415 -0.1062359 -0.73613948 0 0
2.5447712 -0.1095831 -0.73389268 0 1
2.6305933 -0.11327878 -0.73248363 0 2
2.727814 -0.11746531 -0.73256677 0 3
2.8520198 -0.12281387 -0.73784506 0 4
2.9610474 -0.12750882 -0.73703873 0 5
3.0795732 -0.13261278 -0.73650473 0 6
3.1969774 -0.13766846 -0.73353821 0 7
3.3275509 -0.14329122 -0.73132122 0 8
3.5081012 -0.15106609 -0.73721617 0 9
3.6607962 -0.15764146 -0.73418403 0 10
3.8425162 -0.16546668 -0.73390019 0 11
4.06705 -0.17513558 -0.73804671 0 12
4.2654552 -0.18367931 -0.73355854 0 13
4.5356584 -0.19531482 -0.73710513 0 14
4.7763577 -0.20567985 -0.73115706 0 15
5.1012383 -0.21966986 -0.73289418 0 16
5.5022635 -0.23693885 -0.73887789 0 17
5.8732219 -0.25291306 -0.73371577 0 18
6.3978162 -0.27550319 -0.7395013 0 19
6.8968701 -0.29699346 -0.73291135 0 20
7.4327273 -0.3200686 -0.72072291 0 21
7.4529185 -0.32093808 -0.65348393 0 22
7.4644289 -0.32143372 -0.58530104 0 23
7.4431062 -0.32051554 -0.51473397 0 24
7.4639258 -0.32141209 -0.44717368 0 25
7.4590487 -0.32120204 -0.37800238 0 26
7.4579177 -0.32115334 -0.3091405 0 27
7.4509683 -0.3208541 -0.24016434 0 28
7.4466105 -0.32066643 -0.17141661 0 29
7.437892 -0.32029101 -0.10271797 0 30
7.4528646 -0.32093576 -0.03430631 0 31
7.4544106 -0.3210023 0.034313425 0 32
7.4422946 -0.32048059 0.10277876 0 33
7.4516129 -0.32088184 0.17153177 0 34
7.4538827 -0.3209796 0.24025828 0 35
7.4362922 -0.32022211 0.30824411 0 36
7.4629869 -0.32137164 0.37820196 0 37
7.4447112 -0.32058465 0.44602251 0 38
7.4472027 -0.32069194 0.51501727 0 39
7.4533591 -0.32095706 0.58443302 0 40
7.4491272 -0.32077482 0.65315151 0 41
7.4411883 -0.32043296 0.72154337 0 42
7.4609404 -0.32128352 0.79285353 0 43
7.4554996 -0.32104924 0.86175525 0 44
7.4477863 -0.32071707 0.93041927 0 45
7.4412241 -0.32043451 0.99925351 0 46
7.4528527 -0.32093525 1.0707504 0 47
7.4480848 -0.32072991 1.1401407 0 48
7.4423714 -0.32048389 1.2094849 0 49
7.4548573 -0.32102159 1.2820611 0 50
7.4565744 -0.32109553 1.3531431 0 51
7.44556 -0.32062119 1.4220624 0 52
7.4351139 -0.32017139 1.4911351 0 53
7.4534116 -0.3209593 1.5663105 0 54
7.4500008 -0.32081243 1.6373433 0 55
7.4474397 -0.32070214 1.7087957 0 56
0 0 0 0 57
0 0 0 0 58
0 0 0 0 59
0 0 0 0 60
0 0 0 0 61
0 0 0 0 62
0 0 0 0 63
2.4734159 -0.07605584 -0.73770672 0 0
2.5528398 -0.078498065 -0.73588562 0 1
2.6259224 -0.08074531 -0.73085135 0 2
2.7361681 -0.084135294 -0.73447698 0 3
2.8538594 -0.08775422 -0.73798609 0 4
2.9642446 -0.091148488 -0.73749983 0 5
3.0792732 -0.09468554 -0.73609895 0 6
3.199966 -0.098396756 -0.73389077 0 7
3.3435168 -0.10281085 -0.73449677 0 8
3.4956887 -0.10749003 -0.73427451 0 9
3.6485434 -0.11219021 -0.73139471 0 10
3.856694 -0.1185907 -0.73627394 0 11
4.0542068 -0.12466408 -0.73538226 0 12
4.2685642 -0.13125543 -0.73376018 0 13
4.523397 -0.13909136 -0.734779 0 14
4.8224511 -0.14828707 -0.73787802 0 15
5.1082129 -0.15707405 -0.7335633 0 16
5.4870787 -0.16872391 -0.7365045 0 17
5.871942 -0.18055819 -0.7332232 0 18
6.3938503 -0.1966065 -0.7387076 0 19
6.9128633 -0.21256579 -0.73427761 0 20
7.4615679 -0.2294381 -0.72319126 0 21
7.4594588 -0.22937325 -0.65376067 0 22
7.4593983 -0.22937138 -0.58464122 0 23
7.4450426 -0.22892995 -0.51463431 0 24
7.4466152 -0.22897831 -0.44593418 0 25
7.4511156 -0.22911669 -0.37742904 0 26
7.4440079 -0.22889812 -0.30842394 0 27
7.4549856 -0.22923569 -0.24018481 0 28
7.4456534 -0.22894873 -0.17131682 0 29
7.4533701 -0.22918601 -0.10288502 0 30
7.4564881 -0.22928189 -0.034307417 0 31
7.4389811 -0.22874355 0.034226868 0 32
7.4435434 -0.22888386 0.10274938 0 33
7.4494319 -0.22906493 0.17140377 0 34
7.4478302 -0.22901566 0.23995428 0 35
7.4486184 -0.22903991 0.30861497 0 36
7.4463248 -0.22896938 0.37718636 0 37
7.4548655 -0.22923201 0.44642824 0 38
7.4439588 -0.22889662 0.51455939 0 39
7.4382644 -0.22872153 0.58298481 0 40
7.4478641 -0.22901672 0.65274447 0 41
7.4524522 -0.22915779 0.72230774 0 42
7.4425144 -0.22885221 0.79053664 0 43
7.452198 -0.22914997 0.86098278 0 44
7.4337831 -0.22858372 0.92824858 0 45
7.4345522 -0.22860739 0.99790466 0 46
7.4423695 -0.22884776 1.0687591 0 47
7.4447713 -0.22892161 1.1391164 0 48
7.4460144 -0.22895984 1.209528 0 49
7.4427853 -0.22886054 1.2794043 0 50
7.4594779 -0.22937383 1.3530557 0 51
7.4620652 -0.22945338 1.4245683 0 52
7.4583611 -0.2293395 1.4951187 0 53
7.4476533 -0.22901024 1.5643904 0 54
7.4470243 -0.22899088 1.6359466 0 55
7.4477735 -0.22901392 1.708097 0 56
0 0 0 0 57
0 0 0 0 58
0 0 0 0 59
0 0 0 0 60
0 0 0 0 61
0 0 0 0 62
0 0 0 0 63
2.4649816 -0.045468725 -0.73496884 0 0
2.5530422 -0.047093082 -0.73572147 0 1
2.6532586 -0.048941657 -0.73823631 0 2
2.7277746 -0.050316174 -0.7320025 0 3
2.852102 -0.052609503 -0.73730862 0 4
2.9568281 -0.054541264 -0.73543221 0 5
3.0776048 -0.056769095 -0.73547763 0 6
3.1902921 -0.05884771 -0.73145092 0 7
3.3532457 -0.061853532 -0.73641127 0 8
3.5020278 -0.064597942 -0.73538357 0 9
3.6937213 -0.068133898 -0.74022728 0 10
3.8429999 -0.070887476 -0.73343778 0 11
4.060039 -0.074890949 -0.7362175 0 12
4.2603116 -0.078585148 -0.7321201 0 13
4.5310683 -0.083579496 -0.73580259 0 14
4.8348646 -0.089183278 -0.73955369 0 15
5.1129999 -0.094313718 -0.7340287 0 16
5.5024338 -0.10149717 -0.73834223 0 17
5.875073 -0.10837083 -0.73339224 0 18
6.3785276 -0.11765748 -0.73671442 0 19
6.8818326 -0.12694138 -0.73076057 0 20
7.444149 -0.1373138 -0.72128481 0 21
7.4374752 -0.13719068 -0.65163684 0 22
7.4447856 -0.13732554 -0.58331949 0 23
7.4557004 -0.13752687 -0.51521516 0 24
7.4430208 -0.13729298 -0.44558415 0 25
7.4511957 -0.13744378 -0.37731898 0 26
7.4639978 -0.13767993 -0.30915865 0 27
7.443737 -0.1373062 -0.23974988 0 28
7.4519634 -0.13745794 -0.17141016 0 29
7.4533167 -0.1374829 -0.10285317 0 30
7.4341531 -0.13712941 -0.034194313 0 31
7.459938 -0.13760503 0.034312911 0 32
7.4413123 -0.13726147 0.10268751 0 33
7.4326591 -0.13710186 0.17096613 0 34
7.4416542 -0.13726777 0.23968279 0 35
7.4595032 -0.13759702 0.30897248 0 36
7.448513 -0.13739429 0.37718311 0 37
7.4538298 -0.13749237 0.44623125 0 38
7.4550452 -0.13751478 0.51516992 0 39
7.4497347 -0.13741682 0.58370727 0 40
7.4439478 -0.13731009 0.65220398 0 41
7.4473405 -0.13737267 0.72159404 0 42
7.4479642 -0.13738416 0.79087627 0 43
7.4370341 -0.13718255 0.85897106 0 44
7.4527202 -0.1374719 0.93033183 0 45
7.4542632 -0.13750036 1.0002478 0 46
7.455307 -0.13751961 1.0702933 0 47
7.4484062 -0.13739231 1.1393279 0 48
7.4546142 -0.13750683 1.2105587 0 49
7.4543962 -0.13750282 1.2810127 0 50
7.4377923 -0.13719654 1.3487144 0 51
7.4316087 -0.13708247 1.4183249 0 52
7.4412317 -0.13725998 1.4912339 0 53
7.4352083 -0.13714887 1.5613041 0 54
7.4573278 -0.13755688 1.6377147 0 55
7.4534707 -0.13748574 1.7088867 0 56
0 0 0 0 57
0 0 0 0 58
0 0 0 0 59
0 0 0 0 60
0 0 0 0 61
0 0 0 0 62
0 0 0 0 63
2.4713771 -0.015194034 -0.73676437 0 0
2.5522177 -0.015691042 -0.73537266 0 1
2.6477249 -0.01627822 -0.73658526 0 2
2.7358358 -0.016819928 -0.73405468 0 3
2.8365011 -0.017438818 -0.73316461 0 4
2.9625926 -0.018214028 -0.73675454 0 5
3.0962968 -0.019036043 -0.73983276 0 6
3.1923108 -0.019626336 -0.73180306 0 7
3.3291101 -0.02046738 -0.73100024 0 8
3.5079103 -0.021566642 -0.73650742 0 9
3.6784 -0.022614816 -0.73704541 0 10
3.8530812 -0.023688756 -0.73525059 0 11
4.0572128 -0.024943758 -0.7355938 0 12
4.2670417 -0.026233787 -0.7331658 0 13
4.5322523 -0.0278643 -0.73588353 0 14
4.8193116 -0.029629143 -0.73706323 0 15
5.096168 -0.031331256 -0.7315017 0 16
5.5017195 -0.033824589 -0.73813474 0 17
5.8703251 -0.036090776 -0.73268878 0 18
6.3713312 -0.039170962 -0.73577201 0 19
6.8879924 -0.042347398 -0.73130405 0 20
7.436235 -0.045717996 -0.72040904 0 21
7.4452043 -0.045773137 -0.65221542 0 22
7.4491115 -0.045797162 -0.58357018 0 23
7.443059 -0.04575995 -0.51426381 0 24
7.4519353 -0.045814522 -0.44605038 0 25
7.4430552 -0.045759924 -0.37684974 0 26
7.4537563 -0.045825716 -0.30868778 0 27
7.450603 -0.04580633 -0.23993474 0 28
7.4480038 -0.045790348 -0.17129317 0 29
7.4357562 -0.045715049 -0.10259532 0 30
7.4346552 -0.045708284 -0.034191448 0 31
7.4620299 -0.045876581 0.034317344 0 32
7.4545441 -0.045830559 0.10285456 0 33
7.44524 -0.045773357 0.17122962 0 34
7.4478951 -0.045789681 0.23984754 0 35
7.4505486 -0.045805994 0.30855492 0 36
7.4525261 -0.045818154 0.37732929 0 37
7.4410119 -0.045747366 0.44539654 0 38
7.4519973 -0.045814902 0.51488143 0 39
7.4562492 -0.045841046 0.58412939 0 40
7.4535913 -0.045824703 0.65295017 0 41
7.4356189 -0.045714207 0.72034937 0 42
7.4464645 -0.04578089 0.7905975 0 43
7.4528728 -0.045820285 0.86067027 0 44
7.4589052 -0.045857374 0.9309631 0 45
7.4369946 -0.045722663 0.99777973 0 46
7.4375992 -0.045726385 1.0675896 0 47
7.4540234 -0.045827359 1.1400148 0 48
7.4399533 -0.045740854 1.2079953 0 49
7.4546814 -0.045831405 1.2808679 0 50
7.4534516 -0.045823846 1.3513496 0 51
7.4420938 -0.045754015 1.4201113 0 52
7.4475045 -0.045787279 1.4922653 0 53
7.44139 -0.045749687 1.5623658 0 54
7.4478874 -0.045789637 1.6353942 0 55
7.4398704 -0.045740344 1.7055106 0 56
0 0 0 0 57
0 0 0 0 58
0 0 0 0 59
0 0 0 0 60
0 0 0 0 61
0 0 0 0 62
0 0 0 0 63
2.4663672 0.015163233 -0.7352708 0 0
2.5548372 0.015707148 -0.73612744 0 1
2.6431925 0.016250357 -0.73532438 0 2
2.7263663 0.016761707 -0.73151386 0 3
2.8463888 0.017499607 -0.7357204 0 4
2.9640269 0.018222848 -0.73711127 0 5
3.0837364 0.018958822 -0.73683155 0 6
3.1848915 0.019580722 -0.7301023 0 7
3.3344975 0.020500502 -0.73218322 0 8
3.4978628 0.021504872 -0.73439795 0 9
3.6769497 0.022605898 -0.73675478 0 10
3.8485582 0.023660947 -0.73438752 0 11
4.0500646 0.024899811 -0.73429781 0 12
4.26442 0.026217666 -0.73271525 0 13
4.5289364 0.027843917 -0.73534518 0 14
4.8319311 0.029706726 -0.73899323 0 15
5.1108065 0.031421255 -0.73360288 0 16
5.50705 0.03385736 -0.73884988 0 17
5.8642607 0.036053494 -0.73193187 0 18
6.3792505 0.039219651 -0.73668659 0 19
6.8920631 0.042372424 -0.73173624 0 20
7.4450254 0.045772038 -0.72126067 0 21
7.4554791 0.045836307 -0.65311551 0 22
7.458797 0.045856707 -0.58432895 0 23
7.438714 0.04573324 -0.51396364 0 24
7.4329791 0.045697976 -0.44491571 0 25
7.4638362 0.04588769 -0.37790191 0 26
7.4531364 0.045821905 -0.30866209 0 27
7.456007 0.045839552 -0.24010877 0 28
7.4379306 0.045728419 -0.1710615 0 29
7.4511333 0.045809593 -0.10280749 0 30
7.4425855 0.045757037 -0.034227923 0 31
7.4513383 0.045810852 0.034268174 0 32
7.4522891 0.045816697 0.10282344 0 33
7.4532399 0.045822542 0.1714136 0 34
7.4390092 0.04573505 0.23956138 0 35
7.4516921 0.045813028 0.30860227 0 36
7.4618354 0.045875385 0.37780061 0 37
7.4391928 0.045736179 0.44528764 0 38
7.4455719 0.045775399 0.51443744 0 39
7.4489226 0.045795999 0.5835554 0 40
7.4493818 0.045798823 0.65258139 0 41
7.4352684 0.045712054 0.7203154 0 42
7.446188 0.045779187 0.79056811 0 43
7.4491825 0.045797598 0.8602441 0 44
7.435842 0.045715578 0.92808455 0 45
7.4593492 0.045860104 1.0007789 0 46
7.4520054 0.045814954 1.0696576 0 47
7.4462547 0.045779597 1.1388266 0 48
7.4310131 0.045685891 1.2065437 0 49
7.4410381 0.045747526 1.2785238 0 50
7.4427552 0.04575808 1.3494102 0 51
7.4514179 0.04581134 1.4218905 0 52
7.452044 0.045815188 1.4931749 0 53
7.4355497 0.045713782 1.5611397 0 54
7.4530926 0.045821633 1.6365371 0 55
7.449645 0.04580044 1.7077514 0 56
0 0 0 0 57
0 0 0 0 58
0 0 0 0 59
0 0 0 0 60
0 0 0 0 61
0 0 0 0 62
0 0 0 0 63
2.4690845 0.045544408 -0.73619223 0 0
2.5462916 0.046968561 -0.73377609 0 1
2.6483994 0.048852026 -0.7368843 0 2
2.7326941 0.050406914 -0.73332256 0 3
2.8485217 0.052543454 -0.73638296 0 4
2.9489486 0.054395922 -0.73347241 0 5
3.0748341 0.056717984 -0.73481548 0 6
3.1969998 0.058971439 -0.73298877 0 7
3.3266962 0.061363801 -0.73058063 0 8
3.4902861 0.064381361 -0.73291796 0 9
3.6933584 0.068127207 -0.74015456 0 10
3.8462584 0.07094758 -0.73405963 0 11
4.075202 0.075170644 -0.73896706 0 12
4.2647285 0.07866662 -0.7328791 0 13
4.5133715 0.083253056 -0.73292875 0 14
4.8317642 0.089126088 -0.73907942 0 15
5.1041522 0.094150521 -0.73275852 0 16
5.4906688 0.10128016 -0.73676354 0 17
5.8664336 0.10821147 -0.73231381 0 18
6.3990874 0.11803672 -0.73908913 0 19
6.9040012 0.1273503 -0.73311454 0 20
7.4533997 0.13748443 -0.72218114 0 21
7.4495931 0.13741422 -0.65269858 0 22
7.431354 0.13707778 -0.58226711 0 23
7.4405456 0.13724732 -0.5141679 0 24
7.4604301 0.13761412 -0.44662637 0 25
7.4429207 0.13729113 -0.37689993 0 26
7.4309368 0.13707009 -0.30778927 0 27
7.4398007 0.13723359 -0.2396231 0 28
7.4515734 0.13745074 -0.17140119 0 29
7.4421411 0.13727675 -0.10269894 0 30
7.4444275 0.13731894 -0.034241568 0 31
7.4396877 0.1372315 0.034219768 0 32
7.4571218 0.13755308 0.10290568 0 33
7.4446583 0.13732319 0.17124212 0 34
7.4432764 0.1372977 0.23973505 0 35
7.4393482 0.13722524 0.30813766 0 36
7.4490747 0.13740465 0.37721154 0 37
7.4388237 0.13721557 0.44533288 0 38
7.4410896 0.13725737 0.51420552 0 39
7.4472938 0.13737181 0.583516 0 40
7.4427624 0.13728821 0.65210015 0 41
7.4371858 0.13718535 0.72061008 0 42
7.4405079 0.13724664 0.79008454 0 43
7.4334335 0.13711613 0.8585552 0 44
7.4544911 0.13750456 0.93055284 0 45
7.4289427 0.1370333 0.99685013 0 46
7.4432721 0.13729762 1.0685655 0 47
7.449882 0.13741955 1.1395537 0 48
7.4406691 0.1372496 1.2082942 0 49
7.4459548 0.1373471 1.279562 0 50
7.430203 0.13705654 1.3473381 0 51
7.4402947 0.13724269 1.4199826 0 52
7.4383011 0.13720593 1.4906466 0 53
7.4287844 0.13703038 1.559955 0 54
7.4498773 0.13741946 1.6360785 0 55
7.4500704 0.13742302 1.7081071 0 56
0 0 0 0 57
0 0 0 0 58
0 0 0 0 59
0 0 0 0 60
0 0 0 0 61
0 0 0 0 62
0 0 0 0 63
2.4738686 0.076069765 -0.73784178 0 0
2.5506859 0.078431837 -0.73526472 0 1
2.6436245 0.081289642 -0.73577821 0 2
2.7341118 0.084072068 -0.73392498 0 3
2.8368716 0.08723186 -0.73359317 0 4
2.9489214 0.090677314 -0.73368746 0 5
3.0677755 0.094331995 -0.7333504 0 6
3.1902783 0.098098867 -0.73166901 0 7
3.3491325 0.10298353 -0.73573035 0 8
3.4991591 0.10759674 -0.73500347 0 9
3.6639848 0.11266502 -0.7344901 0 10
3.8274469 0.11769137 -0.73069042 0 11
4.0732541 0.12524976 -0.73883718 0 12
4.235528 0.13023959 -0.72808129 0 13
4.5293136 0.13927329 -0.73574007 0 14
4.8346186 0.1486612 -0.73973972 0 15
5.1090479 0.15709972 -0.73368323 0 16
5.4968128 0.16902323 -0.73781109 0 17
5.8603544 0.18020187 -0.73177618 0 18
6.3901134 0.1964916 -0.73827583 0 19
6.9124799 0.21255402 -0.7342369 0 20
7.4387412 0.22873618 -0.7209788 0 21
7.454349 0.22921611 -0.6533128 0 22
7.4457326 0.22895117 -0.58357018 0 23
7.4338951 0.22858718 -0.51386374 0 24
7.4508276 0.22910784 -0.44618642 0 25
7.4389863 0.22874373 -0.37681463 0 26
7.4483361 0.22903122 -0.30860326 0 27
7.4381924 0.22871932 -0.23964378 0 28
7.4515576 0.22913028 -0.17145267 0 29
7.4490075 0.22905187 -0.1028248 0 30
7.4416513 0.22882567 -0.034239154 0 31
7.436976 0.22868191 0.034217641 0 32
7.437469 0.22869708 0.10266552 0 33
7.4503722 0.22909383 0.1714254 0 34
7.4524732 0.22915845 0.24010387 0 35
7.4311476 0.22850269 0.3078911 0 36
7.4298978 0.22846426 0.37635428 0 37
7.4481277 0.22902483 0.44602478 0 38
7.4438028 0.22889182 0.5145486 0 39
7.4491711 0.22905691 0.58383965 0 40
7.4411697 0.22881086 0.65215778 0 41
7.4358711 0.22864793 0.72070068 0 42
7.4551873 0.22924189 0.79188275 0 43
7.4397836 0.22876823 0.85954851 0 44
7.4414735 0.2288202 0.92920887 0 45
7.4422455 0.22884394 0.99893725 0 46
7.437335 0.22869295 1.0680361 0 47
7.4344797 0.22860515 1.1375417 0 48
7.4485483 0.22903775 1.2099395 0 49
7.4403396 0.22878534 1.2789838 0 50
7.4462228 0.22896624 1.3506515 0 51
7.4546428 0.22922516 1.4231514 0 52
7.4421377 0.22884063 1.4918667 0 53
7.4453034 0.22893797 1.5638968 0 54
7.4477172 0.22901221 1.6360989 0 55
7.4448719 0.22892471 1.7074316 0 56
0 0 0 0 57
0 0 0 0 58
0 0 0 0 59
0 0 0 0 60
0 0 0 0 61
0 0 0 0 62
0 0 0 0 63
2.4775176 0.10668703 -0.7392655 0 0
2.5439346 0.10954708 -0.73365146 0 1
2.6223993 0.11292594 -0.73020208 0 2
2.730216 0.11756875 -0.73321187 0 3
2.8463502 0.12256972 -0.73637831 0 4
2.9398015 0.12659392 -0.73175037 0 5
3.0618534 0.13184974 -0.7322669 0 6
3.2091343 0.13819195 -0.73632753 0 7
3.3363645 0.14367075 -0.73325819 0 8
3.4956429 0.15052961 -0.73459816 0 9
3.6612031 0.15765898 -0.73426563 0 10
3.8503308 0.16580321 -0.73539281 0 11
4.0637064 0.17499159 -0.73743993 0 12
4.2560258 0.18327327 -0.73193687 0 13
4.5221438 0.19473286 -0.73490882 0 14
4.7805057 0.20585844 -0.73179197 0 15
5.1029544 0.21974376 -0.73314071 0 16
5.5085096 0.23720782 -0.73971671 0 17
5.8855314 0.25344315 -0.73525363 0 18
6.3736272 0.27446157 -0.73670536 0 19
6.9002824 0.29714042 -0.73327398 0 20
7.4455862 0.32062232 -0.72196978 0 21
7.4498734 0.32080695 -0.6532169 0 22
7.4284492 0.31988436 -0.58247977 0 23
7.4401436 0.32038796 -0.51452911 0 24
7.4648337 0.32145119 -0.44722807 0 25
7.4385424 0.32031903 -0.37696317 0 26
7.4458876 0.32063532 -0.30864182 0 27
7.4452639 0.32060847 -0.23998047 0 28
7.437602 0.32027853 -0.17120925 0 29
7.4399228 0.32037845 -0.10274601 0 30
7.4505506 0.32083613 -0.03429566 0 31
7.4450049 0.32059732 0.03427013 0 32
7.4477644 0.32071614 0.1028543 0 33
7.4494381 0.3207882 0.1714817 0 34
7.4478054 0.3207179 0.24006239 0 35
7.4313016 0.32000721 0.30803722 0 36
7.445756 0.32062966 0.37732872 0 37
7.4507847 0.3208462 0.44638637 0 38
7.4483643 0.32074195 0.51509756 0 39
7.4386406 0.32032323 0.58327889 0 40
7.4292283 0.31991792 0.65140671 0 41
7.4441552 0.32056072 0.72183108 0 42
7.4448714 0.32059157 0.79114592 0 43
7.4410219 0.32042578 0.86008179 0 44
7.4385314 0.32031855 0.92926306 0 45
7.4501042 0.32081687 1.000446 0 46
7.4321437 0.32004347 1.067775 0 47
7.4456348 0.32062444 1.1397656 0 48
7.4361987 0.32021809 1.2084818 0 49
7.4559565 0.32106891 1.28225 0 50
7.4328256 0.32007283 1.3488333 0 51
7.4370184 0.32025337 1.4204311 0 52
7.453774 0.32097492 1.4948775 0 53
7.4469514 0.32068112 1.564953 0 54
7.444901 0.32059282 1.6362225 0 55
7.4320006 0.32003731 1.7052532 0 56
0 0 0 0 57
0 0 0 0 58
0 0 0 0 59
0 0 0 0 60
0 0 0 0 61
0 0 0 0 62
0 0 0 0 63
2.4437585 0.13535456 -0.72963357 0 0
2.5361276 0.14047068 -0.73184276 0 1
2.6325116 0.1458092 -0.73346162 0 2
2.7519107 0.15242246 -0.7394855 0 3
2.8319314 0.15685464 -0.73309159 0 4
2.9677513 0.16437742 -0.7391547 0 5
3.0755558 0.17034848 -0.73598933 0 6
3.1833229 0.17631747 -0.73084736 0 7
3.3465075 0.18535592 -0.73593271 0 8
3.5027497 0.19400983 -0.73653722 0 9
3.6477275 0.20203984 -0.73200595 0 10
3.8456514 0.21300243 -0.73494369 0 11
4.0493455 0.2242846 -0.73527879 0 12
4.2522812 0.23552477 -0.73173559 0 13
4.5138297 0.25001138 -0.73400176 0 14
4.7690058 0.26414505 -0.73047358 0 15
5.1070619 0.28286928 -0.73417515 0 16
5.4862638 0.30387244 -0.73717541 0 17
5.8730016 0.32529303 -0.73413253 0 18
6.3801022 0.35338026 -0.73790026 0 19
6.8884706 0.38153771 -0.73246193 0 20
7.4514236 0.41271847 -0.72297329 0 21
7.4460406 0.4124203 -0.65327615 0 22
7.4329534 0.41169545 -0.58318585 0 23
7.4431109 0.41225803 -0.51504594 0 24
7.4371033 0.41192529 -0.44583645 0 25
7.4397006 0.41206914 -0.37725011 0 26
7.4497371 0.41262504 -0.30898836 0 27
7.4425416 0.4122265 -0.24003796 0 28
7.4510822 0.41269955 -0.17162339 0 29
7.448792 0.41257268 -0.10293077 0 30
7.4385014 0.41200271 -0.034260925 0 31
7.4500213 0.41264078 0.034313984 0 32
7.4484076 0.41255143 0.10292546 0 33
7.4264345 0.41133437 0.17105567 0 34
7.4421244 0.41220337 0.24002451 0 35
7.4461393 0.41242579 0.30883914 0 36
7.43964 0.4120658 0.37724707 0 37
7.4427233 0.41223657 0.44617337 0 38
7.452847 0.4127973 0.51571965 0 39
7.4523196 0.4127681 0.58470529 0 40
7.4350762 0.41181302 0.65231419 0 41
7.4526048 0.41278386 0.72308785 0 42
7.4501138 0.41264591 0.79218239 0 43
7.435082 0.41181332 0.85991549 0 44
7.4550138 0.41291732 0.93188602 0 45
7.4488807 0.4125776 1.0008873 0 46
7.4475484 0.41250384 1.070636 0 47
7.4405532 0.41211635 1.1396773 0 48
7.4534492 0.41283065 1.2120185 0 49
7.4620171 0.41330519 1.2840693 0 50
7.4475021 0.41250125 1.3523149 0 51
7.4216142 0.4110674 1.4183471 0 52
7.4509215 0.41269067 1.4952101 0 53
7.4442043 0.41231862 1.5653228 0 54
7.4464231 0.41244146 1.6375479 0 55
7.4466014 0.41245136 1.7096378 0 56
0 0 0 0 57
0 0 0 0 58
0 0 0 0 59
0 0 0 0 60
0 0 0 0 61
0 0 0 0 62
0 0 0 0 63
2.4471018 0.16574335 -0.73118502 0 0
2.5316377 0.171469 -0.73110026 0 1
2.6357713 0.17852201 -0.73492587 0 2
2.7226453 0.18440604 -0.73217535 0 3
2.8464801 0.19279343 -0.73741567 0 4
2.9525375 0.19997676 -0.73592234 0 5
3.0578535 0.20710984 -0.73230714 0 6
3.1872547 0.21587424 -0.73230416 0 7
3.3471246 0.2267023 -0.73662573 0 8
3.498678 0.2369671 -0.73623812 0 9
3.654403 0.24751443 -0.73390085 0 10
3.8480053 0.26062721 -0.73595041 0 11
4.0620723 0.27512607 -0.73814821 0 12
4.2461538 0.28759399 -0.73123449 0 13
4.5102873 0.30548388 -0.73398113 0 14
4.7713661 0.32316685 -0.73138851 0 15
5.1094346 0.34606439 -0.73507237 0 16
5.408483 0.36631909 -0.72727448 0 17
5.8633857 0.39712983 -0.73348546 0 18
6.3883319 0.43268472 -0.73941153 0 19
6.8865876 0.4664318 -0.73281616 0 20
7.4384713 0.50381112 -0.7222631 0 21
7.4460502 0.5043245 -0.65377164 0 22
7.4403853 0.50394076 -0.58421099 0 23
7.4428725 0.50410926 -0.51541942 0 24
7.4389935 0.50384653 -0.44628745 0 25
7.4427867 0.50410342 -0.3776924 0 26
7.4414983 0.50401616 -0.30888033 0 27
7.4401069 0.50392193 -0.24014114 0 28
7.4578657 0.50512475 -0.1719097 0 29
7.4446592 0.50423026 -0.10295156 0 30
7.4500084 0.50459254 -0.034339909 0 31
7.4327574 0.50342417 0.034260392 0 32
7.4504666 0.50462359 0.10303187 0 33
7.4405761 0.5039537 0.17151116 0 34
7.4310369 0.50330764 0.23984839 0 35
7.4595218 0.50523686 0.30962846 0 36
7.4465823 0.5043605 0.37788501 0 37
7.4401994 0.50392818 0.44635978 0 38
7.4305973 0.50327784 0.51456934 0 39
7.4492297 0.50453985 0.58490545 0 40
7.4407377 0.5039646 0.65330517 0 41
7.4387355 0.503829 0.72228867 0 42
7.4525976 0.50476789 0.79304647 0 43
7.4407191 0.50396335 0.86121911 0 44
7.4453683 0.5042783 0.93138498 0 45
7.4345126 0.50354302 0.99971306 0 46
7.4453793 0.50427902 1.0711347 0 47
7.4432817 0.50413692 1.1409584 0 48
7.4433742 0.50414318 1.2112967 0 49
7.4398222 0.50390261 1.2812194 0 50
7.4391761 0.50385886 1.3518258 0 51
7.4525537 0.50476497 1.4253385 0 52
7.4504156 0.50462013 1.4962406 0 53
7.4433088 0.50413877 1.5663196 0 54
7.4403162 0.50393611 1.6374438 0 55
7.4402051 0.5039286 1.7094628 0 56
0 0 0 0 57
0 0 0 0 58
0 0 0 0 59
0 0 0 0 60
0 0 0 0 61
0 0 0 0 62
0 0 0 0 63
2.4520652 0.19639483 -0.73333418 0 0
2.5357606 0.20309831 -0.73295677 0 1
2.6374502 0.21124299 -0.73606259 0 2
2.7407498 0.21951663 -0.73771411 0 3
2.8497636 0.22824796 -0.73893756 0 4
2.9578557 0.23690544 -0.7379182 0 5
3.0535522 0.24457012 -0.73194194 0 6
3.1883547 0.25536695 -0.73322296 0 7
3.3567505 0.26885438 -0.73941582 0 8
3.4822979 0.27890992 -0.73345745 0 9
3.65183 0.29248837 -0.73405087 0 10
3.861131 0.30925205 -0.73913217 0 11
4.0277958 0.32260087 -0.73258507 0 12
4.2588081 0.34110346 -0.73408049 0 13
4.5330243 0.36306641 -0.73835188 0 14
4.7670865 0.38181335 -0.73139691 0 15
5.1006899 0.40853283 -0.73448145 0 16
5.4536624 0.4368037 -0.73401648 0 17
5.8671794 0.46992376 -0.73462737 0 18
6.388783 0.51170093 -0.74013609 0 19
6.8984103 0.55251878 -0.73474169 0 20
7.4449019 0.59628934 -0.72354472 0 21
7.4465222 0.5964191 -0.6544075 0 22
7.4331908 0.59535134 -0.58417672 0 23
7.4517827 0.59684044 -0.5165056 0 24
7.4481931 0.59655297 -0.44724563 0 25
7.4337411 0.59539539 -0.37757632 0 26
7.4541311 0.59702849 -0.30968601 0 27
7.4394493 0.59585261 -0.24033822 0 28
7.4441953 0.59623271 -0.17175061 0 29
7.4342308 0.59543467 -0.10290082 0 30
7.4493594 0.59664631 -0.034368135 0 31
7.4375777 0.59570271 0.034313779 0 32
7.4197431 0.59427428 0.10270029 0 33
7.443799 0.596201 0.17174147 0 34
7.4513021 0.59680194 0.24072114 0 35
7.4481797 0.59655184 0.30943877 0 36
7.4592419 0.59743786 0.37887159 0 37
7.4354768 0.59553444 0.44648206 0 38
7.4316669 0.59522927 0.51511133 0 39
7.4459801 0.5963757 0.58518183 0 40
7.4481101 0.59654629 0.6545471 0 41
7.436955 0.59565282 0.72277236 0 42
7.4448581 0.59628582 0.79294318 0 43
7.4507437 0.59675717 0.86316347 0 44
7.4510016 0.59677786 0.9329372 0 45
7.4497633 0.59667873 1.0026747 0 46
7.4279766 0.59493369 1.0696026 0 47
7.4487929 0.59660095 1.1428415 0 48
7.4358873 0.59556729 1.2111785 0 49
7.4423862 0.59608787 1.2828263 0 50
7.4371562 0.59566891 1.3526876 0 51
7.4249744 0.59469324 1.4213549 0 52
7.4411259 0.5959869 1.4957336 0 53
7.4537854 0.59700084 1.5699502 0 54
7.4464169 0.59641069 1.6402764 0 55
7.4460726 0.59638309 1.7123662 0 56
0 0 0 0 57
0 0 0 0 58
0 0 0 0 59
0 0 0 0 60
0 0 0 0 61
0 0 0 0 62
0 0 0 0 63
2.4601943 0.22752172 -0.7365464 0 0
2.5238218 0.23340607 -0.73028028 0 1
2.6208532 0.24237964 -0.73220712 0 2
2.7388954 0.25329632 -0.73799759 0 3
2.8456855 0.26317242 -0.73866343 0 4
2.9253249 0.27053756 -0.73057717 0 5
3.0622566 0.28320116 -0.73480761 0 6
3.2014372 0.29607275 -0.73701298 0 7
3.3426247 0.30912992 -0.73708588 0 8
3.4783762 0.32168439 -0.73340917 0 9
3.6354606 0.33621174 -0.73153621 0 10
3.8355057 0.35471216 -0.73500615 0 11
4.0253119 0.37226567 -0.73291045 0 12
4.2661395 0.39453766 -0.73612475 0 13
4.5312319 0.41905376 -0.73884344 0 14
4.7781954 0.44189322 -0.73387945 0 15
5.1089768 0.47248429 -0.73645568 0 16
5.4398646 0.5030852 -0.73293656 0 17
5.8591366 0.54185998 -0.73439908 0 18
6.2829218 0.58105212 -0.72864479 0 19
6.8898082 0.63717771 -0.73460442 0 20
7.4401946 0.68807811 -0.72385484 0 21
7.4347625 0.6875757 -0.65406764 0 22
7.4520254 0.68917221 -0.58627862 0 23
7.4483218 0.68882972 -0.51681376 0 24
7.427145 0.68687123 -0.44645515 0 25
7.4381809 0.6878919 -0.37820289 0 26
7.4502306 0.68900627 -0.30985254 0 27
7.4332547 0.68743628 -0.24039301 0 28
7.4492521 0.68891573 -0.17204972 0 29
7.4324837 0.687365 -0.10298584 0 30
7.4335999 0.68746823 -0.034331832 0 31
7.4520469 0.68917418 0.034417029 0 32
7.4306121 0.6871919 0.1029599 0 33
7.4396586 0.68802851 0.17182814 0 34
7.4596715 0.68987936 0.24124734 0 35
7.4505448 0.6890353 0.30986559 0 36
7.4449863 0.68852121 0.37854892 0 37
7.4352036 0.68761653 0.44693956 0 38
7.4528246 0.68924612 0.5171262 0 39
7.4312916 0.68725473 0.58464742 0 40
7.4484477 0.68884134 0.65527159 0 41
7.4281898 0.68696785 0.72268683 0 42
7.443274 0.6883629 0.793616 0 43
7.4504514 0.68902665 0.8640458 0 44
7.4348178 0.68758082 0.93189895 0 45
7.4392767 0.68799317 1.002326 0 46
7.4579206 0.68971741 1.0750544 0 47
7.4293056 0.68707103 1.1410614 0 48
7.4474063 0.68874508 1.2143425 0 49
7.4291029 0.68705231 1.281896 0 50
7.4360571 0.68769544 1.3539233 0 51
7.4323182 0.68734968 1.424271 0 52
7.4408407 0.68813783 1.497264 0 53
7.4535298 0.68931139 1.571563 0 54
7.4263563 0.68679833 1.637594 0 55
7.4352078 0.68761688 1.7116828 0 56
0 0 0 0 57
0 0 0 0 58
0 0 0 0 59
0 0 0 0 60
0 0 0 0 61
0 0 0 0 62
0 0 0 0 63
2.4607568 0.25812587 -0.73760927 0 0
2.5448818 0.26695037 -0.73726815 0 1
2.6376009 0.2766763 -0.73778081 0 2
2.7332368 0.28670821 -0.73736703 0 3
2.8110013 0.29486549 -0.73054624 0 4
2.9302425 0.30737352 -0.73269385 0 5
3.0542595 0.32038254 -0.73377854 0 6
3.192349 0.33486769 -0.73581308 0 7
3.3049526 0.34667948 -0.72966361 0 8
3.4621935 0.36317354 -0.73088336 0 9
3.6633511 0.38427436 -0.73804343 0 10
3.8439791 0.4032217 -0.73752427 0 11
4.0384665 0.42362285 -0.73619837 0 12
4.2504139 0.44585544 -0.73430175 0 13
4.4727397 0.4691768 -0.73019147 0 14
4.774025 0.5007807 -0.73412925 0 15
5.107347 0.53574514 -0.73711461 0 16
5.4276109 0.56933987 -0.7321735 0 17
5.8577633 0.61446154 -0.73511845 0 18
6.2881637 0.6596092 -0.73013806 0 19
6.9173093 0.72560471 -0.73843217 0 20
7.4398041 0.78041279 -0.72469562 0 21
7.4395995 0.78039134 -0.65528786 0 22
7.4478836 0.78126031 -0.5866642 0 23
7.4353418 0.77994472 -0.51653951 0 24
7.4426222 0.78070843 -0.44792873 0 25
7.4455996 0.78102076 -0.37903976 0 26
7.439714 0.78040338 -0.30979085 0 27
7.4474516 0.78121501 -0.24114458 0 28
7.4408998 0.78052777 -0.17206548 0 29
7.4359341 0.78000689 -0.10315875 0 30
7.4373488 0.78015524 -0.034390852 0 31
7.4370246 0.78012127 0.034389354 0 32
7.4426718 0.78071362 0.10325222 0 33
7.4233694 0.77868885 0.1716601 0 34
7.4462333 0.78108716 0.24110512 0 35
7.4387832 0.78030568 0.30975208 0 36
7.4436278 0.78081393 0.37893939 0 37
7.4619346 0.78273422 0.44909102 0 38
7.4408278 0.78052014 0.51692063 0 39
7.4480262 0.78127527 0.58667547 0 40
7.4307275 0.77946073 0.65450639 0 41
7.4315186 0.7795437 0.72388858 0 42
7.4325914 0.77965617 0.79343921 0 43
7.4323454 0.77963042 0.86299258 0 44
7.4333363 0.77973431 0.93284452 0 45
7.4387956 0.78030699 1.0034782 0 46
7.4389305 0.78032112 1.073619 0 47
7.4505296 0.78153789 1.1457107 0 48
7.4350586 0.77991503 1.213801 0 49
7.4470358 0.78117138 1.2865505 0 50
7.4447746 0.78093415 1.3571564 0 51
7.4295135 0.77933335 1.4254621 0 52
7.4358096 0.77999383 1.4980685 0 53
7.4373589 0.78015631 1.5700573 0 54
7.4357944 0.77999216 1.6416661 0 55
7.443119 0.78076053 1.7155845 0 56
0 0 0 0 57
0 0 0 0 58
0 0 0 0 59
0 0 0 0 60
0 0 0 0 61
0 0 0 0 62
0 0 0 0 63
2.4485345 0.28732276 -0.73494911 0 0
2.5225728 0.29601076 -0.73180425 0 1
2.6206825 0.30752343 -0.73405069 0 2
2.7186296 0.31901702 -0.73442912 0 3
2.815207 0.33034986 -0.73263961 0 4
2.9422004 0.34525189 -0.73668975 0 5
3.062983 0.35942507 -0.73688036 0 6
3.20139 0.37566641 -0.73890585 0 7
3.3064356 0.38799295 -0.73098904 0 8
3.4672229 0.40686053 -0.73294586 0 9
3.6519763 0.42854038 -0.73675776 0 10
3.8054676 0.44655177 -0.73113352 0 11
4.0397935 0.4740487 -0.73744714 0 12
4.2626305 0.50019741 -0.73741913 0 13
4.4868655 0.5265103 -0.73349905 0 14
4.7655973 0.55921799 -0.73383522 0 15
5.1136699 0.60006249 -0.7390362 0 16
5.423068 0.63636875 -0.73256087 0 17
5.8713465 0.68897188 -0.7378304 0 18
6.2876053 0.7378177 -0.73107147 0 19
6.9038391 0.81012952 -0.73800182 0 20
7.4364939 0.87263376 -0.72536355 0 21
7.4494791 0.87415749 -0.65705514 0 22
7.4280133 0.8716386 -0.585899 0 23
7.4337311 0.87230963 -0.51713371 0 24
7.4500608 0.8742258 -0.44898942 0 25
7.4516387 0.87441093 -0.37986585 0 26
7.4409819 0.87316042 -0.31026724 0 27
7.4351563 0.87247682 -0.24107562 0 28
7.4364028 0.87262309 -0.1721966 0 29
7.4273682 0.87156296 -0.1031808 0 30
7.4402323 0.8730725 -0.034451224 0 31
7.4389968 0.87292743 0.034445502 0 32
7.4434056 0.8734448 0.10340358 0 33
7.4388795 0.87291372 0.17225394 0 34
7.4371939 0.87271589 0.24114168 0 35
7.4410071 0.8731634 0.31026831 0 36
7.4376559 0.87277013 0.37915304 0 37
7.4418859 0.87326646 0.44849676 0 38
7.4375806 0.87276131 0.51740152 0 39
7.4487629 0.87407351 0.58753568 0 40
7.438354 0.87285209 0.65607393 0 41
7.4458156 0.87372762 0.72627282 0 42
7.4475431 0.87393034 0.79612231 0 43
7.4345746 0.87240857 0.86443174 0 44
7.4492793 0.87413406 0.93612343 0 45
7.4493432 0.87414157 1.0062749 0 46
7.4350605 0.87246561 1.0745276 0 47
7.4487991 0.87407774 1.1470107 0 48
7.4302258 0.87189829 1.2146705 0 49
7.4394159 0.87297666 1.2869912 0 50
7.4339862 0.87233949 1.3570426 0 51
7.4360404 0.87258053 1.428665 0 52
7.433845 0.87232292 1.4997202 0 53
7.4382691 0.87284213 1.5723964 0 54
7.4430518 0.87340337 1.6455151 0 55
7.4390454 0.87293315 1.7169899 0 56
0 0 0 0 57
0 0 0 0 58
0 0 0 0 59
0 0 0 0 60
0 0 0 0 61
0 0 0 0 62
0 0 0 0 63
2.4284685 0.31528464 -0.73003465 0 0
2.5420918 0.33003619 -0.73858821 0 1
2.6202862 0.34018809 -0.7350558 0 2
2.7225537 0.35346532 -0.73660773 0 3
2.8051109 0.36418357 -0.73112226 0 4
2.9372134 0.38133428 -0.73655945 0 5
3.0522118 0.39626434 -0.73540574 0 6
3.1783655 0.41264272 -0.73470724 0 7
3.3219192 0.43128008 -0.73552907 0 8
3.4570491 0.44882381 -0.73190653 0 9
3.6551225 0.4745394 -0.73851383 0 10
3.8037636 0.49383727 -0.73191756 0 11
4.0193596 0.52182776 -0.73483276 0 12
4.2575803 0.55275565 -0.73766559 0 13
4.4976258 0.58392042 -0.73637623 0 14
4.772409 0.61959511 -0.73600167 0 15
5.0614243 0.65711755 -0.73259801 0 16
5.4394822 0.7062003 -0.73589557 0 17
5.8727417 0.7624498 -0.73912805 0 18
6.3114939 0.81941235 -0.73496497 0 19
6.8864465 0.89405763 -0.73726207 0 20
7.4266286 0.96418869 -0.72550291 0 21
7.4278827 0.96435153 -0.65614665 0 22
7.4388771 0.96577895 -0.58764821 0 23
7.4395299 0.9658637 -0.51832414 0 24
7.4367056 0.96549702 -0.44886613 0 25
7.4306931 0.96471643 -0.37937415 0 26
7.4394646 0.96585518 -0.31067571 0 27
7.4244184 0.96390182 -0.24109355 0 28
7.4344325 0.96520185 -0.17241275 0 29
7.4456706 0.96666092 -0.10359234 0 30
7.444386 0.96649414 -0.034522876 0 31
7.4483104 0.96700364 0.034541074 0 32
7.456964 0.96812713 0.10374947 0 33
7.4398847 0.96590972 0.1725392 0 34
7.4378757 0.96564895 0.24153054 0 35
7.4389868 0.96579319 0.31065577 0 36
7.4422274 0.96621388 0.37996301 0 37
7.4321394 0.96490413 0.44859049 0 38
7.435153 0.96529543 0.5180192 0 39
7.4412889 0.96609205 0.58783877 0 40
7.4449458 0.9665668 0.65765387 0 41
7.4410167 0.9660567 0.7269085 0 42
7.4411368 0.96607226 0.79664713 0 43
7.442987 0.96631253 0.86672586 0 44
7.4389973 0.96579456 0.93625295 0 45
7.4374208 0.96558982 1.0061922 0 46
7.4514976 0.96741742 1.0785408 0 47
7.4395103 0.96586114 1.1473224 0 48
7.4198751 0.96331191 1.214823 0 49
7.4472284 0.96686316 1.290302 0 50
7.442359 0.96623099 1.3606371 0 51
7.4323597 0.96493274 1.4301294 0 52
7.4494114 0.96714658 1.505146 0 53
7.4412732 0.96608996 1.5754235 0 54
7.4469895 0.9668321 1.6488893 0 55
7.448473 0.96702474 1.7217802 0 56
0 0 0 0 57
0 0 0 0 58
0 0 0 0 59
0 0 0 0 60
0 0 0 0 61
0 0 0 0 62
0 0 0 0 63
2.4518406 0.34902519 -0.73829502 0 0
2.5158207 0.3581329 -0.73217946 0 1
2.6158624 0.37237406 -0.7350437 0 2
2.7165968 0.38671386 -0.73622692 0 3
2.8240077 0.40200403 -0.73728019 0 4
2.9126627 0.41462427 -0.73162609 0 5
3.0224783 0.43025678 -0.72946131 0 6
3.1687901 0.45108461 -0.73372054 0 7
3.3236723 0.47313246 -0.73714966 0 8
3.4635234 0.49304059 -0.7345053 0 9
3.6216614 0.51555192 -0.73297852 0 10
3.8076434 0.54202688 -0.73389107 0 11
4.0184069 0.57202953 -0.73588896 0 12
4.2151389 0.60003477 -0.73153532 0 13
4.4690151 0.63617468 -0.73291725 0 14
4.7738681 0.67957115 -0.7374596 0 15
5.0618196 0.72056174 -0.73388219 0 16
5.4214525 0.77175635 -0.73468471 0 17
5.7946405 0.82488048 -0.73051983 0 18
6.2887979 0.89522493 -0.73354852 0 19
6.9036231 0.98274672 -0.74033874 0 20
7.4338536 1.0582262 -0.72742492 0 21
7.4464722 1.0600226 -0.65889037 0 22
7.4439192 1.0596591 -0.58903134 0 23
7.4403367 1.0591491 -0.51924849 0 24
7.4337397 1.0582101 -0.44943851 0 25
7.4399467 1.0590936 -0.3804827 0 26
7.4263368 1.0571562 -0.31064686 0 27
7.4534035 1.0610093 -0.24244012 0 28
7.4318237 1.0579373 -0.1726409 0 29
7.4353008 1.0584322 -0.10362131 0 30
7.444571 1.0597519 -0.034581553 0 31
7.4353399 1.0584378 0.034538671 0 32
7.4374218 1.0587342 0.10365088 0 33
7.439229 1.0589914 0.17281292 0 34
7.4404812 1.0591698 0.24201979 0 35
7.4414725 1.0593108 0.31127998 0 36
7.441514 1.0593168 0.38056287 0 37
7.4415598 1.0593233 0.44991133 0 38
7.4308314 1.0577961 0.51858515 0 39
7.4349375 1.0583806 0.58832061 0 40
7.4459181 1.0599437 0.65884131 0 41
7.4398961 1.0590864 0.7280162 0 42
7.4290233 1.0575386 0.79668224 0 43
7.4325805 1.058045 0.86696351 0 44
7.4388843 1.0589424 0.93780667 0 45
7.4373751 1.0587275 1.0078712 0 46
7.4428225 1.059503 1.0790893 0 47
7.4357119 1.0584908 1.1486571 0 48
7.4529171 1.06094 1.2222763 0 49
7.4368176 1.0586482 1.2906561 0 50
7.4533033 1.060995 1.3649199 0 51
7.4294024 1.0575926 1.4319545 0 52
7.421463 1.0564625 1.5020103 0 53
7.4394183 1.0590184 1.5776685 0 54
7.4215488 1.0564747 1.6460083 0 55
7.4313436 1.057869 1.7206974 0 56
0 0 0 0 57
0 0 0 0 58
0 0 0 0 59
0 0 0 0 60
0 0 0 0 61
0 0 0 0 62
0 0 0 0 63
2.4319108 0.37675154 -0.73363328 0 0
2.5234294 0.39092961 -0.73573726 0 1
2.6047311 0.40352488 -0.73325473 0 2
2.7015858 0.41852957 -0.73349804 0 3
2.8012555 0.43397039 -0.73267788 0 4
2.9064701 0.45027024 -0.73140603 0 5
3.0349722 0.4701778 -0.7338165 0 6
3.1615734 0.48979083 -0.7333886 0 7
3.314924 0.5135479 -0.73655427 0 8
3.4462278 0.53388947 -0.73217428 0 9
3.6209121 0.56095159 -0.73416734 0 10
3.8020935 0.58902019 -0.73416191 0 11
4.0160389 0.62216461 -0.73680067 0 12
4.2034197 0.65119362 -0.7308358 0 13
4.4739461 0.69310355 -0.73506808 0 14
4.7560158 0.7368018 -0.73604584 0 15
5.0479875 0.78203404 -0.73321557 0 16
5.4432135 0.84326243 -0.73898292 0 17
5.791594 0.89723349 -0.7314713 0 18
6.2961063 0.97539252 -0.73574436 0 19
6.7916489 1.0521619 -0.72966301 0 20
7.431664 1.1513132 -0.7285409 0 21
7.4422684 1.1529559 -0.65972292 0 22
7.4185095 1.1492752 -0.58809447 0 23
7.4361396 1.1520065 -0.51990485 0 24
7.4314184 1.151275 -0.45012006 0 25
7.4351044 1.1518462 -0.38093063 0 26
7.4334669 1.1515924 -0.31151393 0 27
7.438941 1.1524405 -0.24241231 0 28
7.4284019 1.1508077 -0.17287707 0 29
7.446146 1.1535567 -0.10396228 0 30
7.4347396 1.1517895 -0.034599055 0 31
7.4385481 1.1523796 0.03461678 0 32
7.4352179 1.1518637 0.10380971 0 33
7.4349327 1.1518195 0.17302907 0 34
7.4336548 1.1516215 0.24224003 0 35
7.4390812 1.1524622 0.31174919 0 36
7.439877 1.1525855 0.38117516 0 37
7.4386086 1.1523889 0.45055556 0 38
7.4288406 1.1508758 0.51939458 0 39
7.4278641 1.1507244 0.58883607 0 40
7.4322834 1.1514091 0.65883785 0 41
7.4368911 1.152123 0.72905332 0 42
7.4274154 1.1506549 0.79796684 0 43
7.4325166 1.1514453 0.86854196 0 44
7.4468665 1.1536683 0.9405303 0 45
7.42555 1.1503659 1.0081093 0 46
7.4472547 1.1537285 1.081707 0 47
7.4302044 1.1510869 1.1499059 0 48
7.4286785 1.1508505 1.2205298 0 49
7.4346514 1.151776 1.2926403 0 50
7.4316735 1.1513146 1.3634484 0 51
7.4325767 1.1514546 1.4351869 0 52
7.4347267 1.1517876 1.5074472 0 53
7.4422159 1.1529478 1.5811489 0 54
7.4376621 1.1522423 1.6525995 0 55
7.4289184 1.1508877 1.7232823 0 56
0 0 0 0 57
0 0 0 0 58
0 0 0 0 59
0 0 0 0 60
0 0 0 0 61
0 0 0 0 62
0 0 0 0 63
2.4131238 0.40428412 -0.72941041 0 0
2.5147429 0.4213089 -0.73465943 0 1
2.6091287 0.4371219 -0.73595017 0 2
2.6915369 0.45092821 -0.73221982 0 3
2.8101916 0.47080708 -0.73647368 0 4
2.9189901 0.48903474 -0.73601431 0 5
3.0193799 0.50585359 -0.73149514 0 6
3.1665018 0.53050172 -0.73598939 0 7
3.3063958 0.55393893 -0.73611718 0 8
3.4332309 0.57518834 -0.73086041 0 9
3.623858 0.60712516 -0.73622268 0 10
3.8029866 0.63713557 -0.7357915 0 11
3.9864109 0.66786569 -0.73281622 0 12
4.2061572 0.70468104 -0.73276299 0 13
4.4917188 0.75252277 -0.7394526 0 14
4.7210002 0.79093558 -0.73207659 0 15
5.051033 0.84622782 -0.7351138 0 16
5.4190297 0.90788031 -0.73715955 0 17
5.7953477 0.970927 -0.7333979 0 18
6.3094645 1.0570598 -0.73876846 0 19
6.7954965 1.1384875 -0.73152512 0 20
7.434164 1.245487 -0.73023212 0 21
7.4278884 1.2444357 -0.65975481 0 22
7.4324789 1.2452047 -0.59037107 0 23
7.4265585 1.2442129 -0.52026534 0 24
7.4242382 1.2438241 -0.4505775 0 25
7.4383268 1.2461845 -0.38185194 0 26
7.4207006 1.2432314 -0.31159601 0 27
7.4322391 1.2451645 -0.2426745 0 28
7.4369884 1.2459601 -0.17342034 0 29
7.4283581 1.2445142 -0.10391973 0 30
7.4241509 1.2438095 -0.03461834 0 31
7.4249201 1.2439383 0.034621928 0 32
7.4510865 1.2483221 0.10423769 0 33
7.436676 1.2459079 0.17341305 0 34
7.4532452 1.2486838 0.24336039 0 35
7.4351025 1.2456442 0.31220075 0 36
7.4366932 1.2459108 0.38176808 0 37
7.4398623 1.2464416 0.45152569 0 38
7.4387126 1.2462491 0.52111679 0 39
7.4343562 1.2455192 0.59052014 0 40
7.4303493 1.2448479 0.65997338 0 41
7.4405117 1.2465504 0.73085564 0 42
7.437448 1.2460372 0.80063027 0 43
7.4340148 1.2454621 0.87044084 0 44
7.4341478 1.2454844 0.94078708 0 45
7.4436507 1.2470764 1.0125721 0 46
7.440681 1.2465788 1.0828967 0 47
7.4395347 1.2463868 1.1536345 0 48
7.4371634 1.2459894 1.2243485 0 49
7.4401035 1.246482 1.2961552 0 50
7.4327798 1.2452551 1.3663573 0 51
7.4171343 1.2426339 1.435047 0 52
7.4369979 1.2459618 1.5108999 0 53
7.4423776 1.2468631 1.5843208 0 54
7.4353485 1.2456855 1.6553637 0 55
7.4339905 1.2454579 1.727881 0 56
0 0 0 0 57
0 0 0 0 58
0 0 0 0 59
0 0 0 0 60
0 0 0 0 61
0 0 0 0 62
0 0 0 0 63
2.4180448 0.43573964 -0.73246205 0 0
2.5136399 0.45296621 -0.73590887 0 1
2.5920844 0.46710211 -0.7327072 0 2
2.6934724 0.4853726 -0.7343145 0 3
2.8169436 0.50762254 -0.73982316 0 4
2.9132726 0.52498132 -0.73614472 0 5
3.0209317 0.54438186 -0.73343736 0 6
3.1301756 0.56406796 -0.72910315 0 7
3.2947578 0.59372622 -0.73509598 0 8
3.4419305 0.62024719 -0.73428041 0 9
3.6250906 0.65325326 -0.73804921 0 10
3.78917 0.68282092 -0.73468727 0 11
3.977896 0.71682996 -0.73281586 0 12
4.2191486 0.76030451 -0.73659933 0 13
4.4285436 0.79803813 -0.73061252 0 14
4.7234554 0.85118222 -0.73402482 0 15
5.0576587 0.9114067 -0.73765332 0 16
5.3625336 0.9663462 -0.73103541 0 17
5.7823782 1.0420036 -0.73332262 0 18
6.2882576 1.1331648 -0.7378611 0 19
6.7886896 1.2233442 -0.73235637 0 20
7.4336247 1.3395636 -0.73174185 0 21
7.4314961 1.3391801 -0.66148788 0 22
7.4305372 1.3390073 -0.59147996 0 23
7.4206805 1.337231 -0.52096611 0 24
7.4441442 1.3414593 -0.45275244 0 25
7.430892 1.3390712 -0.38228667 0 26
7.4356613 1.3399307 -0.31289241 0 27
7.4392595 1.340579 -0.24342358 0 28
7.4205685 1.3372109 -0.17340778 0 29
7.4419799 1.3410693 -0.1043331 0 30
7.4263549 1.3382536 -0.034702726 0 31
7.4292364 1.3387729 0.034716189 0 32
7.4334931 1.3395399 0.10421412 0 33
7.429955 1.3389024 0.17362711 0 34
7.4331503 1.3394781 0.24322367 0 35
7.4440451 1.3414414 0.31324518 0 36
7.436718 1.340121 0.38258636 0 37
7.4333577 1.3395156 0.4520964 0 38
7.4311132 1.3391111 0.52169847 0 39
7.4394608 1.3406153 0.59219027 0 40
7.4299417 1.3389 0.66134953 0 41
7.4209256 1.3372753 0.73049176 0 42
7.4438553 1.3414072 0.8030349 0 43
7.4227743 1.3376085 0.87098473 0 44
7.4443116 1.3414896 0.94408941 0 45
7.4355192 1.339905 1.0136306 0 46
7.4324493 1.3393519 1.0840137 0 47
7.4195571 1.3370286 1.1529989 0 48
7.4429212 1.3412389 1.2279187 0 49
7.4271197 1.3383914 1.2966623 0 50
7.4236526 1.3377666 1.3676 0 51
7.4386163 1.3404632 1.4422833 0 52
7.433949 1.339622 1.5135126 0 53
7.4159155 1.3363724 1.5820662 0 54
7.4365606 1.3400927 1.6591768 0 55
7.4429016 1.3412354 1.7336544 0 56
0 0 0 0 57
0 0 0 0 58
0 0 0 0 59
0 0 0 0 60
0 0 0 0 61
0 0 0 0 62
0 0 0 0 63
2.4170423 0.46631336 -0.73383981 0 0
2.5108702 0.48441532 -0.73678613 0 1
2.5868728 0.4990783 -0.73291337 0 2
2.6910439 0.51917571 -0.73533726 0 3
2.7872145 0.53772968 -0.7336964 0 4
2.9018698 0.5598498 -0.73494732 0 5
3.0300043 0.58457047 -0.73732954 0 6
3.1461911 0.60698605 -0.73451656 0 7
3.2935135 0.63540858 -0.73650593 0 8
3.4432886 0.66430426 -0.73625714 0 9
3.5980823 0.69416815 -0.73423284 0 10
3.758425 0.72510266 -0.73039961 0 11
3.9841764 0.76865625 -0.73565847 0 12
4.2144074 0.81307405 -0.73746127 0 13
4.4305506 0.854774 -0.73262233 0 14
4.7135806 0.90937817 -0.73417246 0 15
5.0482135 0.97393799 -0.73796666 0 16
5.364428 1.0349444 -0.7329731 0 17
5.7847519 1.1160363 -0.73530841 0 18
6.1974463 1.1956564 -0.7288754 0 19
6.7868567 1.3093697 -0.73384005 0 20
7.4277072 1.4330072 -0.73283845 0 21
7.4320984 1.4338545 -0.66306078 0 22
7.4307628 1.4335967 -0.59285635 0 23
7.4284468 1.4331499 -0.52270901 0 24
7.4290109 1.4332588 -0.45286968 0 25
7.4438319 1.4361181 -0.38383183 0 26
7.4362454 1.4346545 -0.31363562 0 27
7.4322009 1.4338741 -0.24375111 0 28
7.430378 1.4335225 -0.17403577 0 29
7.4430799 1.435973 -0.10458817 0 30
7.4457397 1.4364861 -0.034873214 0 31
7.425621 1.4326048 0.034778986 0 32
7.4452157 1.436385 0.10461818 0 33
7.4201031 1.4315401 0.1737951 0 34
7.4286661 1.4331923 0.24363518 0 35
7.4180098 1.4311364 0.31286651 0 36
7.4366198 1.4347267 0.38345993 0 37
7.4483161 1.4369832 0.45404652 0 38
7.4403009 1.4354368 0.52354312 0 39
7.4277363 1.4330128 0.59261489 0 40
7.4356346 1.4345366 0.66337627 0 41
7.4395208 1.4352864 0.73400408 0 42
7.4309645 1.4336357 0.80348527 0 43
7.4300289 1.4334551 0.87383819 0 44
7.448421 1.4370035 0.94677991 0 45
7.4289165 1.4332405 1.0150563 0 46
7.43855 1.4350991 1.087395 0 47
7.418201 1.4311732 1.1554357 0 48
7.4437542 1.4361032 1.2308766 0 49
7.4380045 1.4349939 1.3015449 0 50
7.4404826 1.435472 1.3738484 0 51
7.4268432 1.4328406 1.4433076 0 52
7.4300518 1.4334596 1.5161933 0 53
7.423305 1.432158 1.5872796 0 54
7.4364362 1.4346913 1.6629593 0 55
7.4266195 1.4327974 1.7338346 0 56
0 0 0 0 57
0 0 0 0 58
0 0 0 0 59
0 0 0 0 60
0 0 0 0 61
0 0 0 0 62
0 0 0 0 63
2.410413 0.49585027 -0.73362279 0 0
2.4951959 0.51329112 -0.73398328 0 1
2.5740592 0.52951419 -0.73107249 0 2
2.6791427 0.55113113 -0.73388159 0 3
2.7845309 0.57281071 -0.73478854 0 4
2.8978 0.59611148 -0.73571742 0 5
3.0182989 0.62089956 -0.7362833 0 6
3.14569 0.6471054 -0.73620164 0 7
3.2596159 0.67054129 -0.7307142 0 8
3.4255307 0.70467192 -0.73425734 0 9
3.5961888 0.73977828 -0.73564714 0 10
