# .PCD v0.7 - Point Cloud Data file format
VERSION 0.7
FIELDS x y z intensity ring
SIZE 4 4 4 4 2
TYPE F F F F U
COUNT 1 1 1 1 1
WIDTH 1254
HEIGHT 1
VIEWPOINT 0 0 0 1 0 0 0
POINTS 1254
DATA ascii
-2.3601933 -0.68586308 -0.73271137 0 0
-2.4520729 -0.71256292 -0.73573077 0 1
-2.5346928 -0.73657197 -0.7342962 0 2
-2.6286066 -0.76386291 -0.73444581 0 3
-2.725703 -0.79207879 -0.7336567 0 4
-2.8240142 -0.82064766 -0.73133028 0 5
-2.950428 -0.85738301 -0.73412794 0 6
-3.0624635 -0.88994014 -0.73106468 0 7
-3.2081163 -0.93226618 -0.73355931 0 8
-3.3577757 -0.97575665 -0.73413533 0 9
-3.521559 -1.0233514 -0.73479474 0 10
-3.7191582 -1.080773 -0.73903954 0 11
-3.8819301 -1.1280739 -0.73291528 0 12
-4.0961976 -1.1903393 -0.73291224 0 13
-4.333488 -1.259295 -0.73270375 0 14
-4.4555578 -1.294768 -0.70960653 0 15
-4.4524555 -1.2938664 -0.66552901 0 16
-4.4631467 -1.2969732 -0.62355411 0 17
-4.4408951 -1.290507 -0.57719654 0 18
-4.4574718 -1.2953241 -0.53604031 0 19
-4.4602056 -1.2961186 -0.49312383 0 20
-4.4463835 -1.2921019 -0.44856846 0 21
-4.4547281 -1.2945269 -0.40637919 0 22
-4.4465652 -1.2921547 -0.36275136 0 23
-4.4647522 -1.2974398 -0.32123855 0 24
-4.446332 -1.292087 -0.27714849 0 25
-4.4589634 -1.2957577 -0.23509678 0 26
-4.447865 -1.2925324 -0.191819 0 27
-4.4480891 -1.2925975 -0.14916639 0 28
-4.4372392 -1.2894446 -0.10626954 0 29
-4.4604778 -1.2961977 -0.064088427 0 30
-4.4478912 -1.2925401 -0.021301325 0 31
-4.4609947 -1.2963479 0.02136408 0 32
-4.4507847 -1.2933809 0.063949153 0 33
-4.4496493 -1.293051 0.10656676 0 34
-4.4612203 -1.2964134 0.14960675 0 35
-4.4559398 -1.294879 0.19216724 0 36
-4.4549584 -1.2945937 0.23488562 0 37
-4.4540319 -1.2943245 0.27762845 0 38
-4.4526587 -1.2939254 0.32036841 0 39
-4.450263 -1.2932293 0.36305305 0 40
-4.4484496 -1.2927023 0.40580642 0 41
-4.4633484 -1.2970319 0.45027998 0 42
-4.4565902 -1.2950679 0.49272409 0 43
-4.4603739 -1.2961674 0.53638929 0 44
-4.4639192 -1.2971977 0.58018899 0 45
-4.4440851 -1.291434 0.62089097 0 46
-4.454289 -1.2943993 0.66580302 0 47
-4.4454355 -1.2918264 0.7079944 0 48
-4.4548845 -1.2945722 0.75322938 0 49
-4.4698043 -1.2989079 0.79975981 0 50
-4.4609427 -1.2963327 0.84223384 0 51
-4.4499035 -1.2931249 0.88424706 0 52
-4.4567671 -1.2951193 0.92993158 0 53
-4.4565492 -1.295056 0.97436827 0 54
-4.455893 -1.2948654 1.0188726 0 55
-4.4611378 -1.2963895 1.0649531 0 56
-4.4665556 -1.2979639 1.1113721 0 57
-4.4444585 -1.2915425 1.150974 0 58
-4.4518814 -1.2936995 1.1982789 0 59
-4.461206 -1.2964094 1.2464833 0 60
-4.4593806 -1.2958788 1.2918749 0 61
-4.4515119 -1.2935922 1.3356513 0 62
-4.4618611 -1.2965996 1.3851647 0 63
-2.3643048 -0.71869856 -0.73667562 0 0
-2.4474623 -0.74397671 -0.73703659 0 1
-2.5278888 -0.76842469 -0.73500687 0 2
-2.6244042 -0.79776329 -0.73595685 0 3
-2.7219911 -0.82742763 -0.73534054 0 4
-2.8415275 -0.86376423 -0.73856038 0 5
-2.9563127 -0.89865643 -0.7382859 0 6
-3.0655458 -0.93186098 -0.73448026 0 7
-3.2144163 -0.97711444 -0.7376914 0 8
-3.3496242 -1.0182148 -0.735035 0 9
-3.5241361 -1.0712627 -0.73802525 0 10
-3.7023666 -1.1254411 -0.73839694 0 11
-3.8674457 -1.1756216 -0.73285449 0 12
-4.1003971 -1.246434 -0.7363503 0 13
-4.261261 -1.2953331 -0.72313011 0 14
-4.2420402 -1.2894903 -0.67807502 0 15
-4.2733431 -1.2990059 -0.64109534 0 16
-4.2721028 -1.2986288 -0.59904873 0 17
-4.2549896 -1.2934268 -0.55505902 0 18
-4.250771 -1.2921444 -0.51305515 0 19
-4.2520838 -1.2925434 -0.47183526 0 20
-4.2573504 -1.2941444 -0.43107089 0 21
-4.2694631 -1.2978263 -0.39090475 0 22
-4.261867 -1.2955173 -0.34895691 0 23
-4.2811303 -1.3013729 -0.30915496 0 24
-4.2611208 -1.2952905 -0.26657653 0 25
-4.2550068 -1.2934319 -0.2251648 0 26
-4.2621517 -1.2956039 -0.18448302 0 27
-4.2640638 -1.2961851 -0.14351876 0 28
-4.2576165 -1.2942253 -0.10234108 0 29
-4.2673454 -1.2971827 -0.061538018 0 30
-4.2512693 -1.2922959 -0.020434245 0 31
-4.2634926 -1.2960114 0.020492995 0 32
-4.255939 -1.2937154 0.061373528 0 33
-4.2702475 -1.2980648 0.10264469 0 34
-4.2635903 -1.2960413 0.14350283 0 35
-4.2561703 -1.2937857 0.18422413 0 36
-4.2667847 -1.2970122 0.22578807 0 37
-4.2580061 -1.2943437 0.26638168 0 38
-4.259007 -1.2946479 0.30755734 0 39
-4.2636938 -1.2960726 0.34910646 0 40
-4.259429 -1.2947762 0.38998607 0 41
-4.2562857 -1.2938207 0.4309631 0 42
-4.2628746 -1.2958237 0.47303268 0 43
-4.2674561 -1.2972162 0.51506895 0 44
-4.2786293 -1.3006127 0.55814278 0 45
-4.258574 -1.2945162 0.59715164 0 46
-4.2560616 -1.2937526 0.63850272 0 47
-4.2769079 -1.3000894 0.68364853 0 48
-4.2627354 -1.2957814 0.72338027 0 49
-4.2658401 -1.296725 0.76606053 0 50
-4.255322 -1.2935278 0.8063544 0 51
-4.256927 -1.2940156 0.84899807 0 52
-4.2681046 -1.2974135 0.89382732 0 53
-4.262867 -1.2958213 0.93543518 0 54
-4.2576551 -1.294237 0.97710919 0 55
-4.2495284 -1.2917666 1.018153 0 56
-4.2525396 -1.2926821 1.0619953 0 57
-4.2595992 -1.2948279 1.1071408 0 58
-4.2621369 -1.2955993 1.151408 0 59
-4.2708097 -1.2982358 1.1976554 0 60
-4.2723265 -1.2986969 1.2422181 0 61
-4.2642741 -1.2962492 1.284157 0 62
-4.2516546 -1.292413 1.3247405 0 63
-2.345866 -0.74472308 -0.73372823 0 0
-2.4291852 -0.77117378 -0.73433262 0 1
-2.5172949 -0.79914528 -0.73472822 0 2
-2.595166 -0.82386643 -0.73054338 0 3
-2.709352 -0.86011606 -0.7347278 0 4
-2.8067076 -0.89102286 -0.73230255 0 5
-2.9392645 -0.93310457 -0.73683816 0 6
-3.0654297 -0.97315717 -0.73726374 0 7
-3.1730523 -1.0073233 -0.730986 0 8
-3.3420796 -1.0609831 -0.73618668 0 9
-3.5020437 -1.1117655 -0.73620594 0 10
-3.6530793 -1.1597136 -0.73135597 0 11
-3.8609726 -1.2257118 -0.73442835 0 12
-4.0692778 -1.2918408 -0.73355907 0 13
-4.0634961 -1.2900053 -0.69220918 0 14
-4.0700517 -1.2920865 -0.65307355 0 15
-4.0683889 -1.2915586 -0.61268395 0 16
-4.0862217 -1.2972198 -0.57517707 0 17
-4.0672083 -1.2911837 -0.53259397 0 18
-4.0764155 -1.2941067 -0.49389428 0 19
-4.0866671 -1.2973613 -0.45521551 0 20
-4.0724988 -1.2928632 -0.41393244 0 21
-4.0723209 -1.2928069 -0.374282 0 22
-4.080245 -1.2953224 -0.3353647 0 23
-4.0754256 -1.2937925 -0.29542685 0 24
-4.0631595 -1.2898984 -0.25516501 0 25
-4.0676036 -1.2913092 -0.21607178 0 26
-4.0659065 -1.2907705 -0.17666239 0 27
-4.0718613 -1.2926608 -0.13757424 0 28
-4.0675721 -1.2912992 -0.098147199 0 29
-4.0667109 -1.291026 -0.058869213 0 30
-4.06499 -1.2904795 -0.019613659 0 31
-4.0653987 -1.2906092 0.019615632 0 32
-4.0713406 -1.2924955 0.058936223 0 33
-4.0691438 -1.2917982 0.098185122 0 34
-4.081768 -1.2958061 0.13790898 0 35
-4.0814319 -1.2956992 0.17733696 0 36
-4.0830259 -1.2962053 0.21689104 0 37
-4.0664167 -1.2909324 0.25536957 0 38
-4.0830264 -1.2962054 0.2959778 0 39
-4.0749135 -1.2936299 0.33492649 0 40
-4.0650072 -1.290485 0.37360978 0 41
-4.0733008 -1.293118 0.41401401 0 42
-4.0616961 -1.2894338 0.45243397 0 43
-4.0810547 -1.2955794 0.49445632 0 44
-4.0758748 -1.2939351 0.5337289 0 45
-4.0692739 -1.2918396 0.57279158 0 46
-4.0757799 -1.2939049 0.61379701 0 47
-4.0664263 -1.2909355 0.65249187 0 48
-4.0750484 -1.2936727 0.69417709 0 49
-4.0654812 -1.2906355 0.73287469 0 50
-4.0744996 -1.2934985 0.77504516 0 51
-4.0783191 -1.294711 0.81648999 0 52
-4.065661 -1.2906926 0.85469055 0 53
-4.0756493 -1.2938635 0.89777595 0 54
-4.0605359 -1.2890655 0.93543833 0 55
-4.0785289 -1.2947776 0.9809233 0 56
-4.0565009 -1.2877846 1.0169158 0 57
-4.053648 -1.2868788 1.0576437 0 58
-4.0682797 -1.2915238 1.1032447 0 59
-4.0639782 -1.2901583 1.1440163 0 60
-4.0762491 -1.2940539 1.1897435 0 61
-4.0723491 -1.2928158 1.2310543 0 62
-4.0709662 -1.2923768 1.2732966 0 63
-2.341964 -0.77530891 -0.73543411 0 0
-2.4183459 -0.8005951 -0.73397642 0 1
-2.5056024 -0.82948148 -0.73423702 0 2
-2.5995164 -0.86057174 -0.73469132 0 3
-2.6878271 -0.88980705 -0.7318024 0 4
-2.8070014 -0.92925984 -0.73530495 0 5
-2.9308391 -0.97025639 -0.73766112 0 6
-3.0449495 -1.0080327 -0.73526371 0 7
-3.1753414 -1.051199 -0.73443562 0 8
-3.3398149 -1.105648 -0.73862672 0 9
-3.4841344 -1.1534252 -0.735367 0 10
-3.655169 -1.2100463 -0.73469764 0 11
-3.8358719 -1.2698681 -0.73256862 0 12
-3.8933756 -1.2889048 -0.70465338 0 13
-3.8976667 -1.2903253 -0.66661286 0 14
-3.8894629 -1.2876095 -0.62658983 0 15
-3.9061193 -1.2931236 -0.59059674 0 16
-3.8958399 -1.2897205 -0.55056965 0 17
-3.9037087 -1.2923255 -0.51322609 0 18
-3.9021239 -1.2918009 -0.47466597 0 19
-3.8925672 -1.288637 -0.43532678 0 20
-3.9003885 -1.2912264 -0.39802274 0 21
-3.8947463 -1.2893585 -0.3593913 0 22
-3.8957162 -1.2896796 -0.321477 0 23
-3.9012241 -1.291503 -0.28392875 0 24
-3.8981225 -1.2904762 -0.24577872 0 25
-3.8964913 -1.2899362 -0.20780915 0 26
-3.8911202 -1.2881581 -0.16974337 0 27
-3.9105682 -1.2945964 -0.13265254 0 28
-3.8954496 -1.2895913 -0.094369516 0 29
-3.8914497 -1.2882673 -0.05655719 0 30
-3.900454 -1.2912481 -0.018894954 0 31
-3.8971732 -1.290162 0.01887906 0 32
-3.9020967 -1.2917919 0.056711927 0 33
-3.8967574 -1.2900243 0.094401196 0 34
-3.89293 -1.2887572 0.13205422 0 35
-3.8833604 -1.2855892 0.16940486 0 36
-3.8911076 -1.2881539 0.20752202 0 37
-3.9091499 -1.2941269 0.246474 0 38
-3.9007912 -1.2913597 0.28389725 0 39
-3.9031432 -1.2921383 0.32208988 0 40
-3.8986142 -1.290639 0.35974824 0 41
-3.9062142 -1.293155 0.39861724 0 42
-3.9110155 -1.2947445 0.43738997 0 43
-3.8982801 -1.2905284 0.4741984 0 44
-3.8893864 -1.2875842 0.51134318 0 45
-3.900713 -1.2913338 0.55125833 0 46
-3.8958335 -1.2897185 0.58904159 0 47
-3.896549 -1.2899554 0.62773138 0 48
-3.9044628 -1.2925751 0.66777515 0 49
-3.9096792 -1.294302 0.70760411 0 50
-3.912102 -1.2951041 0.74712694 0 51
-3.9002712 -1.2911875 0.78396374 0 52
-3.9017563 -1.2916791 0.82351094 0 53
-3.8978822 -1.2903967 0.86204779 0 54
-3.8995349 -1.2909439 0.90193683 0 55
-3.9087021 -1.2939787 0.94383395 0 56
-3.9061222 -1.2931246 0.9831295 0 57
-3.9001663 -1.2911528 1.0216637 0 58
-3.9136343 -1.2956114 1.0655473 0 59
-3.8868399 -1.286741 1.0985225 0 60
-3.9058294 -1.2930276 1.1445569 0 61
-3.9009376 -1.2914082 1.1839482 0 62
-3.8951588 -1.2894951 1.2231753 0 63
-2.3327975 -0.80423325 -0.73560542 0 0
-2.4066532 -0.82969505 -0.73346865 0 1
-2.4937294 -0.85971469 -0.73380017 0 2
-2.5952861 -0.89472634 -0.73654944 0 3
-2.6899822 -0.92737287 -0.73543835 0 4
-2.787354 -0.96094191 -0.73319805 0 5
-2.9047182 -1.0014032 -0.73413044 0 6
-3.03842 -1.047497 -0.73674154 0 7
-3.1528666 -1.0869526 -0.7322734 0 8
-3.3060224 -1.1397531 -0.73419726 0 9
-3.4565458 -1.1916462 -0.73258144 0 10
-3.6400039 -1.2548934 -0.73469549 0 11
-3.7409143 -1.2896824 -0.71740818 0 12
-3.7365344 -1.2881724 -0.67908257 0 13
-3.7519338 -1.2934813 -0.64435989 0 14
-3.7401021 -1.2894022 -0.60503638 0 15
-3.7399809 -1.2893605 -0.56783122 0 16
-3.7328143 -1.2868899 -0.52972674 0 17
-3.737705 -1.288576 -0.49344724 0 18
-3.7490287 -1.2924798 -0.45794165 0 19
-3.7414348 -1.2898618 -0.42016685 0 20
-3.7426553 -1.2902826 -0.38351661 0 21
-3.7336836 -1.2871896 -0.34596348 0 22
-3.7509542 -1.2931436 -0.3108198 0 23
-3.7362456 -1.2880728 -0.2730538 0 24
-3.7428157 -1.2903378 -0.23696902 0 25
-3.7380438 -1.2886927 -0.20018876 0 26
-3.7392304 -1.2891018 -0.16379656 0 27
-3.7376962 -1.2885729 -0.1273163 0 28
-3.7316389 -1.2864847 -0.090777479 0 29
-3.7401226 -1.2894094 -0.054584153 0 30
-3.7402778 -1.2894629 -0.018194446 0 31
-3.7447941 -1.2910199 0.018216416 0 32
-3.746501 -1.2916083 0.054677241 0 33
-3.7540245 -1.2942021 0.091322035 0 34
-3.7358546 -1.2879381 0.12725358 0 35
-3.7337985 -1.2872292 0.1635586 0 36
-3.7399769 -1.2893592 0.20029227 0 37
-3.7417543 -1.2899719 0.23690182 0 38
-3.7345924 -1.2875029 0.27293301 0 39
-3.7457054 -1.291334 0.31038487 0 40
-3.7347448 -1.2875555 0.34606183 0 41
-3.7340393 -1.2873123 0.38263372 0 42
-3.7336044 -1.2871623 0.4192875 0 43
-3.7354121 -1.2877854 0.45627838 0 44
-3.7409835 -1.2897062 0.49388003 0 45
-3.736655 -1.288214 0.53027177 0 46
-3.7484958 -1.2922961 0.56912404 0 47
-3.7538431 -1.2941395 0.60725927 0 48
-3.7388058 -1.2889555 0.64210528 0 49
-3.7586215 -1.295787 0.68309671 0 50
-3.7371857 -1.288397 0.71669316 0 51
-3.7497761 -1.2927375 0.75685185 0 52
-3.7576172 -1.2954407 0.79639059 0 53
-3.7415531 -1.2899026 0.83091938 0 54
-3.7407155 -1.2896138 0.86880505 0 55
-3.7361035 -1.2880238 0.90591252 0 56
-3.7302415 -1.2860029 0.94277096 0 57
-3.736587 -1.2881906 0.98288858 0 58
-3.7376077 -1.2885424 1.0218581 0 59
-3.7505648 -1.2930094 1.0644208 0 60
-3.7351863 -1.2877076 1.0991089 0 61
-3.7413263 -1.2898244 1.1402332 0 62
-3.7348831 -1.2876031 1.1777278 0 63
-2.3099768 -0.8282817 -0.73156571 0 0
-2.4006336 -0.86078817 -0.73480439 0 1
-2.4746308 -0.88732111 -0.73133552 0 2
-2.5740108 -0.92295557 -0.73367691 0 3
-2.6728516 -0.95839661 -0.73392135 0 4
-2.7760801 -0.99541092 -0.73339677 0 5
-2.8905709 -1.0364636 -0.73372054 0 6
-3.011173 -1.0797076 -0.73329866 0 7
-3.1517467 -1.1301126 -0.73518521 0 8
-3.2852414 -1.1779795 -0.73274362 0 9
-3.4604781 -1.2408135 -0.73659283 0 10
-3.5863826 -1.2859588 -0.7270093 0 11
-3.5903211 -1.287371 -0.69151193 0 12
-3.5900223 -1.2872639 -0.65528244 0 13
-3.5937262 -1.288592 -0.61986357 0 14
-3.5790765 -1.283339 -0.58149612 0 15
-3.5877323 -1.2864426 -0.54707611 0 16
-3.5897861 -1.2871791 -0.51163691 0 17
-3.5774477 -1.2827549 -0.47433674 0 18
-3.5941687 -1.2887506 -0.44092798 0 19
-3.5768125 -1.2825272 -0.40342015 0 20
-3.5815771 -1.2842356 -0.36860096 0 21
-3.5867743 -1.2860992 -0.33379099 0 22
-3.5815244 -1.2842168 -0.29806614 0 23
-3.5692232 -1.279806 -0.2619777 0 24
-3.5903478 -1.2873806 -0.22830082 0 25
-3.5769808 -1.2825876 -0.1923932 0 26
-3.5960534 -1.2894263 -0.15820728 0 27
-3.5887668 -1.2868136 -0.12277306 0 28
-3.5912035 -1.2876874 -0.087739736 0 29
-3.5980396 -1.2901386 -0.0527381 0 30
-3.5926812 -1.2882172 -0.017552197 0 31
-3.5835679 -1.2849494 0.017507672 0 32
-3.5893848 -1.2870352 0.052611243 0 33
-3.5721548 -1.2808571 0.087274335 0 34
-3.5895538 -1.2870958 0.12279998 0 35
-3.5912845 -1.2877164 0.15799747 0 36
-3.581286 -1.2841313 0.19262476 0 37
-3.5746851 -1.2817644 0.22730488 0 38
-3.593667 -1.2885708 0.26377186 0 39
-3.6019523 -1.2915416 0.29976624 0 40
-3.5799773 -1.2836621 0.33315846 0 41
-3.5936186 -1.2885534 0.3698402 0 42
-3.5874815 -1.2863528 0.40462348 0 43
-3.5820756 -1.2844144 0.43944442 0 44
-3.5756562 -1.2821126 0.47409925 0 45
-3.5984304 -1.2902788 0.512869 0 46
-3.5956666 -1.2892877 0.54828596 0 47
-3.5889509 -1.2868797 0.58310044 0 48
-3.5848892 -1.2854233 0.61833936 0 49
-3.5812905 -1.284133 0.65368867 0 50
-3.5844381 -1.2852615 0.69037879 0 51
-3.5814717 -1.2841979 0.72601378 0 52
-3.571305 -1.2805525 0.76018333 0 53
-3.6021414 -1.2916094 0.80342537 0 54
-3.5917177 -1.2878717 0.83781409 0 55
-3.5923791 -1.2881089 0.8748374 0 56
-3.5914073 -1.2877605 0.91161555 0 57
-3.6011169 -1.291242 0.9513585 0 58
-3.5892668 -1.2869929 0.98555398 0 59
-3.5797367 -1.2835758 1.0203415 0 60
-3.582238 -1.2844726 1.0586703 0 61
-3.5954089 -1.2891953 1.1005104 0 62
-3.5934033 -1.2884762 1.1380247 0 63
-2.315001 -0.86235172 -0.73645937 0 0
-2.3962436 -0.89261508 -0.73676461 0 1
-2.4694576 -0.91988766 -0.73309416 0 2
-2.5623276 -0.95448238 -0.73363674 0 3
-2.6587746 -0.99040943 -0.73334461 0 4
-2.7609999 -1.028489 -0.7326985 0 5
-2.8911085 -1.0769552 -0.73716271 0 6
-3.009649 -1.1211122 -0.73622906 0 7
-3.152106 -1.1741784 -0.73858112 0 8
-3.2770882 -1.220735 -0.7342177 0 9
-3.4318912 -1.2784001 -0.7337985 0 10
-3.4605622 -1.2890801 -0.70466369 0 11
-3.4498773 -1.2850999 -0.6674549 0 12
-3.4451427 -1.2833363 -0.63167042 0 13
-3.4576008 -1.287977 -0.59907049 0 14
-3.4519885 -1.2858864 -0.5633744 0 15
-3.4683318 -1.2919743 -0.53125161 0 16
-3.4481232 -1.2844465 -0.49366009 0 17
-3.4494574 -1.2849435 -0.45942667 0 18
-3.4616551 -1.2894872 -0.42658433 0 19
-3.4513228 -1.2856385 -0.39101997 0 20
-3.4480109 -1.2844048 -0.35645336 0 21
-3.4445319 -1.2831087 -0.32199764 0 22
-3.4517131 -1.2857838 -0.28855681 0 23
-3.4454613 -1.2834549 -0.25403288 0 24
-3.4547777 -1.2869253 -0.22066982 0 25
-3.4440808 -1.2829407 -0.18607943 0 26
-3.4419389 -1.2821428 -0.15210918 0 27
-3.4539731 -1.2866256 -0.11869399 0 28
-3.4520285 -1.2859013 -0.084719345 0 29
-3.4519413 -1.2858688 -0.050824586 0 30
-3.4700892 -1.292629 -0.017029636 0 31
-3.4571416 -1.2878059 0.016966095 0 32
-3.4613245 -1.289364 0.050962739 0 33
-3.4452436 -1.2833738 0.084552832 0 34
-3.4552748 -1.2871106 0.11873872 0 35
-3.4678855 -1.2918081 0.15325584 0 36
-3.4490824 -1.2848037 0.18634965 0 37
-3.4459856 -1.2836502 0.22010824 0 38
-3.4637356 -1.2902622 0.25538024 0 39
-3.4502184 -1.2852271 0.28843188 0 40
-3.4630034 -1.2899895 0.32372436 0 41
-3.4519141 -1.2858586 0.35685685 0 42
-3.4599717 -1.2888601 0.39199984 0 43
-3.442853 -1.2824833 0.42426732 0 44
-3.4480908 -1.2844344 0.45924464 0 45
-3.4525776 -1.2861058 0.4942978 0 46
-3.4533138 -1.2863801 0.52895129 0 47
-3.4643116 -1.2904768 0.56538552 0 48
-3.4539089 -1.2866018 0.59843081 0 49
-3.4552562 -1.2871035 0.63352472 0 50
-3.4459851 -1.28365 0.66670185 0 51
-3.4561653 -1.2874423 0.70376843 0 52
-3.4634967 -1.2901732 0.7405563 0 53
-3.4463983 -1.2838039 0.77215087 0 54
-3.4504409 -1.2853099 0.80848503 0 55
-3.4532189 -1.2863446 0.8447364 0 56
-3.4580116 -1.28813 0.88170928 0 57
-3.4571717 -1.2878171 0.91744465 0 58
-3.4563074 -1.2874951 0.95332056 0 59
-3.4611166 -1.2892866 0.9909749 0 60
-3.4461608 -1.2837155 1.0230427 0 61
-3.4579003 -1.2880886 1.0631884 0 62
-3.4492853 -1.2848794 1.0973034 0 63
-2.3077829 -0.89212686 -0.73759717 0 0
-2.3776896 -0.91915095 -0.73447943 0 1
-2.4804378 -0.95887059 -0.73979807 0 2
-2.547919 -0.9849571 -0.73292363 0 3
-2.6671686 -1.0310558 -0.73910093 0 4
-2.7593353 -1.066685 -0.73568195 0 5
-2.8745954 -1.1112415 -0.7363807 0 6
-2.9803834 -1.1521362 -0.73248029 0 7
-3.1245677 -1.2078741 -0.73555309 0 8
-3.2696598 -1.2639627 -0.73597991 0 9
-3.3367369 -1.2898929 -0.71679002 0 10
-3.3180685 -1.2826762 -0.67880857 0 11
-3.3353276 -1.2893481 -0.64831114 0 12
-3.3239529 -1.284951 -0.61230087 0 13
-3.3199384 -1.2833991 -0.57790941 0 14
-3.3210428 -1.283826 -0.54453892 0 15
-3.3206153 -1.2836608 -0.51100469 0 16
-3.3211374 -1.2838626 -0.4777039 0 17
-3.3143921 -1.281255 -0.44350243 0 18
-3.3079588 -1.2787681 -0.40955091 0 19
-3.3198171 -1.2833521 -0.37788025 0 20
-3.3337367 -1.2887331 -0.34625182 0 21
-3.3217063 -1.2840825 -0.31196827 0 22
-3.3304539 -1.287464 -0.27972209 0 23
-3.331826 -1.2879945 -0.24680364 0 24
-3.3206682 -1.2836812 -0.21309586 0 25
-3.3343058 -1.2889531 -0.18099105 0 26
-3.3282738 -1.2866212 -0.14777398 0 27
-3.323777 -1.2848829 -0.11475413 0 28
-3.3191657 -1.2831004 -0.081839666 0 29
-3.3230281 -1.2845935 -0.049155392 0 30
-3.3203919 -1.2835743 -0.016371209 0 31
-3.3207428 -1.28371 0.01637294 0 32
-3.3419435 -1.2919056 0.049435198 0 33
-3.3280175 -1.2865222 0.082057916 0 34
-3.3198874 -1.2833793 0.11461984 0 35
-3.3277745 -1.2864283 0.14775182 0 36
-3.3317075 -1.2879486 0.18085003 0 37
-3.333663 -1.2887045 0.21392977 0 38
-3.3356977 -1.2894911 0.24709041 0 39
-3.3246415 -1.285217 0.2792339 0 40
-3.3302224 -1.2873745 0.31276807 0 41
-3.3334529 -1.2886233 0.34622234 0 42
-3.3280587 -1.2865381 0.37881833 0 43
-3.3331268 -1.2884973 0.41266692 0 44
-3.3260882 -1.2857764 0.4450675 0 45
-3.3161175 -1.281922 0.47698182 0 46
-3.3310268 -1.2876855 0.51260692 0 47
-3.3243179 -1.285092 0.54507589 0 48
-3.3221049 -1.2842366 0.57828653 0 49
-3.3216867 -1.2840749 0.6118834 0 50
-3.3232012 -1.2846603 0.64595401 0 51
-3.3156979 -1.2817597 0.67832357 0 52
-3.3206897 -1.2836895 0.71334279 0 53
-3.3241761 -1.2850372 0.74825114 0 54
-3.3204277 -1.2835882 0.78166038 0 55
-3.3152971 -1.2816049 0.81479102 0 56
-3.3317699 -1.2879728 0.85349435 0 57
-3.3266249 -1.2859838 0.88693017 0 58
-3.3376973 -1.2902641 0.92491156 0 59
-3.3243713 -1.2851127 0.95627463 0 60
-3.3352613 -1.2893225 0.99475187 0 61
-3.3299701 -1.2872771 1.0286434 0 62
-3.3274126 -1.2862884 1.063484 0 63
-2.2873123 -0.91669685 -0.73460168 0 0
-2.3558164 -0.94415158 -0.73125368 0 1
-2.4462531 -0.98039633 -0.73314255 0 2
-2.536968 -1.0167526 -0.73331445 0 3
-2.6422505 -1.0589472 -0.73574865 0 4
-2.7432704 -1.0994333 -0.73494762 0 5
-2.8464396 -1.1407809 -0.73270607 0 6
-2.9745393 -1.1921201 -0.73459113 0 7
-3.1187923 -1.249933 -0.73775589 0 8
-3.2081456 -1.2857436 -0.72563738 0 9
-3.1996946 -1.2823566 -0.69068605 0 10
-3.1971853 -1.281351 -0.65725195 0 11
-3.2133913 -1.2878458 -0.62764019 0 12
-3.2024057 -1.2834432 -0.59277314 0 13
-3.2058127 -1.2848086 -0.56075096 0 14
-3.2071996 -1.2853644 -0.52842408 0 15
-3.1999021 -1.2824398 -0.49481764 0 16
-3.2106652 -1.2867533 -0.46405461 0 17
-3.2002585 -1.2825826 -0.43030792 0 18
-3.1929188 -1.279641 -0.39722615 0 19
-3.2015007 -1.2830805 -0.36618099 0 20
-3.2000697 -1.2825069 -0.33398145 0 21
-3.2010045 -1.2828816 -0.30209088 0 22
-3.2011793 -1.2829517 -0.27016899 0 23
-3.1947246 -1.2803648 -0.23779614 0 24
-3.2096844 -1.2863603 -0.20697317 0 25
-3.2053638 -1.2846286 -0.17483613 0 26
-3.2096279 -1.2863376 -0.14319761 0 27
-3.2087073 -1.2859687 -0.11131885 0 28
-3.193635 -1.2799281 -0.079126567 0 29
-3.1955411 -1.2806921 -0.047498919 0 30
-3.2074828 -1.285478 -0.015891245 0 31
-3.2042077 -1.2841654 0.015875017 0 32
-3.2015152 -1.2830863 0.047587719 0 33
-3.1956787 -1.2807472 0.079177208 0 34
-3.2037416 -1.2839786 0.11114658 0 35
-3.2085559 -1.285908 0.14314979 0 36
-3.2041633 -1.2841476 0.17477067 0 37
-3.2153931 -1.2886482 0.20734128 0 38
-3.1889193 -1.2780383 0.23736405 0 39
-3.2090497 -1.2861059 0.27083322 0 40
-3.2048101 -1.2844068 0.30245003 0 41
-3.2020085 -1.2832839 0.33418381 0 42
-3.1987247 -1.281968 0.3658635 0 43
-3.1956809 -1.280748 0.39756978 0 44
-3.2084346 -1.2858595 0.4314073 0 45
-3.2014349 -1.2830541 0.46272051 0 46
-3.2023804 -1.2834331 0.49520087 0 47
-3.2058256 -1.2848138 0.52819771 0 48
-3.1934915 -1.2798705 0.55859578 0 49
-3.2009308 -1.2828522 0.59250015 0 50
-3.199116 -1.2821248 0.62485194 0 51
-3.1987481 -1.2819773 0.65757322 0 52
-3.2166886 -1.2891674 0.69435441 0 53
-3.2043817 -1.2842351 0.72478598 0 54
-3.211185 -1.2869617 0.75961155 0 55
-3.1985452 -1.281896 0.78991151 0 56
-3.1947894 -1.2803907 0.8223753 0 57
-3.1995227 -1.2822877 0.85718185 0 58
-3.1944671 -1.2802615 0.88951617 0 59
-3.2061625 -1.2849488 0.92674619 0 60
-3.1935275 -1.2798851 0.95710087 0 61
-3.2073307 -1.285417 0.99556673 0 62
-3.2017171 -1.2831672 1.0282754 0 63
-2.2742655 -0.94408613 -0.73408449 0 0
-2.3542581 -0.97729236 -0.73444468 0 1
-2.4493797 -1.0167789 -0.73777092 0 2
-2.5360966 -1.0527766 -0.73674881 0 3
-2.6147149 -1.0854124 -0.73174232 0 4
-2.7363372 -1.1358998 -0.73677647 0 5
-2.832659 -1.1758846 -0.73282534 0 6
-2.9672379 -1.2317506 -0.73647279 0 7
-3.0792618 -1.2782537 -0.7320677 0 8
-3.0850883 -1.2806723 -0.70131236 0 9
-3.0832834 -1.2799231 -0.6689043 0 10
-3.0730834 -1.2756889 -0.63491684 0 11
-3.090034 -1.2827253 -0.60658097 0 12
-3.0796373 -1.2784096 -0.5729149 0 13
-3.076097 -1.2769399 -0.54076719 0 14
-3.0708852 -1.2747763 -0.50850892 0 15
-3.0836289 -1.2800665 -0.47923547 0 16
-3.0843911 -1.280383 -0.44804528 0 17
-3.0752807 -1.276601 -0.41558263 0 18
-3.0890279 -1.2823077 -0.38623372 0 19
-3.0912726 -1.2832396 -0.35535127 0 20
-3.0757983 -1.2768159 -0.32262585 0 21
-3.0891352 -1.2823523 -0.29299933 0 22
-3.0757363 -1.2767901 -0.26088732 0 23
-3.0806248 -1.2788194 -0.23045631 0 24
-3.0784166 -1.2779028 -0.1995067 0 25
-3.087255 -1.2815717 -0.16924067 0 26
-3.0850124 -1.2806408 -0.13833001 0 27
-3.0901823 -1.2827868 -0.10774598 0 28
-3.0859284 -1.2810211 -0.076842465 0 29
-3.091939 -1.2835162 -0.046190068 0 30
-3.1001611 -1.2869292 -0.015436762 0 31
-3.0742257 -1.276163 0.01530762 0 32
-3.0814834 -1.2791759 0.046033874 0 33
-3.0846205 -1.2804781 0.076809898 0 34
-3.084744 -1.2805294 0.10755637 0 35
-3.0839899 -1.2802163 0.13828416 0 36
-3.1045778 -1.2887628 0.1701903 0 37
-3.0823858 -1.2795504 0.19976392 0 38
-3.0942109 -1.2844592 0.23147266 0 39
-3.0851939 -1.2807162 0.26168951 0 40
-3.0944371 -1.2845532 0.29350221 0 41
-3.083545 -1.2800317 0.32343841 0 42
-3.0837605 -1.2801212 0.35448775 0 43
-3.0882075 -1.2819672 0.38613114 0 44
-3.0718834 -1.2751908 0.41512358 0 45
-3.0909398 -1.2831013 0.44899654 0 46
-3.0807724 -1.2788807 0.47879153 0 47
-3.0910192 -1.2831343 0.51184291 0 48
-3.0838442 -1.2801559 0.5421291 0 49
-3.09168 -1.2834086 0.57515526 0 50
-3.0901034 -1.2827542 0.60659456 0 51
-3.0791378 -1.2782022 0.63616771 0 52
-3.0985234 -1.2862494 0.67221051 0 53
-3.0838292 -1.2801497 0.7010262 0 54
-3.0799985 -1.2785594 0.73224282 0 55
-3.0760894 -1.2769368 0.7634899 0 56
-3.090807 -1.2830462 0.79960978 0 57
-3.0896626 -1.2825712 0.83191162 0 58
-3.0792649 -1.2782549 0.86174917 0 59
-3.0745614 -1.2763025 0.89317548 0 60
-3.0853586 -1.2807846 0.92933238 0 61
-3.0847642 -1.2805377 0.96233654 0 62
-3.0828516 -1.2797438 0.9950788 0 63
-2.255801 -0.96910626 -0.73191553 0 0
-2.339134 -1.0049067 -0.73352587 0 1
-2.426121 -1.0422769 -0.73457009 0 2
-2.5251453 -1.0848182 -0.73738676 0 3
-2.6039119 -1.118657 -0.73251319 0 4
-2.7201667 -1.1686007 -0.73623592 0 5
-2.8418102 -1.2208595 -0.73902076 0 6
-2.9349003 -1.2608516 -0.73223925 0 7
-2.9844296 -1.2821298 -0.71321636 0 8
-2.9785979 -1.2796245 -0.68063015 0 9
-2.9859529 -1.2827841 -0.65116167 0 10
-2.985033 -1.282389 -0.61993617 0 11
-2.9894907 -1.284304 -0.5898996 0 12
-2.9763806 -1.2786719 -0.55658865 0 13
-2.996213 -1.287192 -0.52946627 0 14
-2.9825244 -1.2813113 -0.49644867 0 15
-2.9834661 -1.2817159 -0.46608305 0 16
-2.985961 -1.2827877 -0.43600547 0 17
-2.9792206 -1.279892 -0.40469766 0 18
-2.9897311 -1.2844074 -0.37576458 0 19
-2.9854047 -1.2825487 -0.34496826 0 20
-2.9898303 -1.2844498 -0.31524137 0 21
-2.9704978 -1.2761446 -0.28321373 0 22
-2.9817483 -1.2809778 -0.25423202 0 23
-2.9725416 -1.2770225 -0.22352858 0 24
-2.9986033 -1.2882189 -0.19534597 0 25
-2.9890239 -1.2841035 -0.16470888 0 26
-2.9828897 -1.2814682 -0.13444728 0 27
-2.9904256 -1.2847058 -0.10481063 0 28
-2.9831514 -1.2815807 -0.074669994 0 29
-2.972199 -1.2768754 -0.044632468 0 30
-2.9832389 -1.2816182 -0.01493191 0 31
-2.9940031 -1.2862425 0.014985786 0 32
-2.9842541 -1.2820544 0.044813499 0 33
-2.9975479 -1.2877655 0.075030342 0 34
-2.9997518 -1.2887123 0.1051375 0 35
-2.9746258 -1.277918 0.13407481 0 36
-2.9751673 -1.2781506 0.1639453 0 37
-2.987602 -1.2834927 0.19462928 0 38
-2.9977009 -1.2878312 0.22542052 0 39
-2.9877877 -1.2835724 0.25474694 0 40
-3.0002074 -1.288908 0.28604633 0 41
-2.9949465 -1.2866479 0.31578082 0 42
-2.9780574 -1.2793922 0.34411928 0 43
-2.9968295 -1.2874569 0.37665674 0 44
-2.9785652 -1.2796104 0.40460861 0 45
-2.975173 -1.2781531 0.43443024 0 46
-2.9677396 -1.2749596 0.46362621 0 47
-2.9910915 -1.2849917 0.49787471 0 48
-2.9805081 -1.2804451 0.52669108 0 49
-2.9858027 -1.2827196 0.55835062 0 50
-2.9889505 -1.2840719 0.58979297 0 51
-2.995054 -1.286694 0.62201732 0 52
-2.9917769 -1.2852862 0.65243179 0 53
-2.9800644 -1.2802544 0.68096519 0 54
-2.9850495 -1.2823961 0.71336454 0 55
-2.9830935 -1.2815558 0.74426317 0 56
-2.9954565 -1.286867 0.77897692 0 57
-2.972595 -1.2770455 0.8045578 0 58
-2.9741735 -1.2777237 0.83667248 0 59
-2.9915764 -1.2852001 0.87359291 0 60
-2.987359 -1.2833883 0.90449923 0 61
-2.9909327 -1.2849236 0.9379226 0 62
-2.9923208 -1.2855198 0.97088623 0 63
-2.2518966 -1.0004042 -0.73458457 0 0
-2.3263447 -1.0334777 -0.73344505 0 1
-2.41258 -1.0717877 -0.73440498 0 2
-2.502861 -1.111895 -0.73481649 0 3
-2.5951662 -1.1529015 -0.73398554 0 4
-2.7058802 -1.2020862 -0.73631424 0 5
-2.8030338 -1.2452466 -0.73286343 0 6
-2.8751819 -1.2772983 -0.72120404 0 7
-2.8820481 -1.2803488 -0.69245946 0 8
-2.8898723 -1.2838246 -0.66391283 0 9
-2.8984263 -1.2876247 -0.63547915 0 10
-2.8821433 -1.280391 -0.60179216 0 11
-2.8819888 -1.2803223 -0.57175016 0 12
-2.8785129 -1.2787781 -0.54118681 0 13
-2.8930407 -1.2852322 -0.51398838 0 14
-2.8888986 -1.283392 -0.48345467 0 15
-2.8940699 -1.2856894 -0.4545528 0 16
-2.8815405 -1.2801232 -0.42302465 0 17
-2.8829415 -1.2807456 -0.39372861 0 18
-2.8819947 -1.2803249 -0.3641749 0 19
-2.8808544 -1.2798183 -0.33468047 0 20
-2.8880255 -1.283004 -0.30614758 0 21
-2.8881042 -1.2830391 -0.2768414 0 22
-2.8857 -1.281971 -0.24736801 0 23
-2.8915908 -1.284588 -0.21861255 0 24
-2.8857281 -1.2819835 -0.1890053 0 25
-2.8815169 -1.2801127 -0.15964007 0 26
-2.8873198 -1.2826906 -0.1308407 0 27
-2.8857927 -1.2820122 -0.10168821 0 28
-2.8765154 -1.2778907 -0.072388671 0 29
-2.8790836 -1.2790318 -0.043467082 0 30
-2.8776841 -1.27841 -0.014481167 0 31
-2.8796146 -1.2792675 0.014490881 0 32
-2.8957763 -1.2864474 0.043719098 0 33
-2.8976309 -1.2872714 0.072920062 0 34
-2.8871775 -1.2826275 0.10173701 0 35
-2.872134 -1.2759444 0.13015255 0 36
-2.9008052 -1.2886815 0.16070868 0 37
-2.8785529 -1.278796 0.18853535 0 38
-2.8857203 -1.28198 0.21816872 0 39
-2.8867762 -1.2824491 0.24746028 0 40
-2.8836482 -1.2810595 0.27641428 0 41
-2.8739462 -1.2767494 0.30465508 0 42
-2.879714 -1.2793118 0.334548 0 43
-2.8828244 -1.2806935 0.36427975 0 44
-2.884418 -1.2814015 0.39393026 0 45
-2.8852451 -1.2817689 0.42356849 0 46
-2.8824091 -1.2805091 0.45272133 0 47
-2.8800235 -1.2794492 0.48196945 0 48
-2.8872359 -1.2826533 0.5129571 0 49
-2.8770926 -1.2781472 0.54091978 0 50
-2.8657532 -1.2731097 0.56852925 0 51
-2.8996763 -1.28818 0.60545307 0 52
-2.882741 -1.2806565 0.63204014 0 53
-2.8762922 -1.2777916 0.66079301 0 54
-2.8864708 -1.2823135 0.69352204 0 55
-2.8949361 -1.286074 0.7261591 0 56
-2.8723984 -1.2760618 0.75099903 0 57
-2.8919113 -1.2847304 0.78693634 0 58
-2.8878949 -1.2829461 0.81677735 0 59
-2.8763292 -1.2778081 0.84446317 0 60
-2.8800476 -1.2794598 0.87670511 0 61
-2.8900242 -1.283892 0.91116071 0 62
-2.8701487 -1.2750623 0.93626273 0 63
-2.2499847 -1.0328639 -0.73804808 0 0
-2.314038 -1.0622678 -0.73362774 0 1
-2.3937278 -1.0988497 -0.73272401 0 2
-2.4895658 -1.1428446 -0.73498338 0 3
-2.5969257 -1.1921284 -0.73857325 0 4
-2.6924789 -1.2359924 -0.73674756 0 5
-2.7885754 -1.2801059 -0.73314327 0 6
-2.7889898 -1.2802962 -0.70347959 0 7
-2.7850218 -1.2784747 -0.67287356 0 8
-2.7808907 -1.2765783 -0.6424334 0 9
-2.7900102 -1.2807646 -0.6151154 0 10
-2.7909381 -1.2811905 -0.58599365 0 11
-2.7903383 -1.2809151 -0.55665052 0 12
-2.7847681 -1.2783582 -0.52647752 0 13
-2.7864227 -1.2791177 -0.497803 0 14
-2.7779565 -1.2752314 -0.46747747 0 15
-2.7854755 -1.2786829 -0.43993288 0 16
-2.7931175 -1.282191 -0.41232714 0 17
-2.7845747 -1.2782694 -0.38241225 0 18
-2.7937608 -1.2824863 -0.35499138 0 19
-2.790751 -1.2811047 -0.32601824 0 20
-2.7938323 -1.2825192 -0.29781181 0 21
-2.7816885 -1.2769444 -0.26812568 0 22
-2.7880349 -1.2798578 -0.24032687 0 23
-2.8041763 -1.2872676 -0.21318437 0 24
-2.8010256 -1.2858212 -0.18447921 0 25
-2.7955077 -1.2832882 -0.1557375 0 26
-2.8022239 -1.2863714 -0.12769167 0 27
-2.7947659 -1.2829478 -0.099029064 0 28
-2.7887757 -1.2801979 -0.07057149 0 29
-2.7896645 -1.2806058 -0.042351607 0 30
-2.792156 -1.2817496 -0.014129014 0 31
-2.7912524 -1.2813349 0.014124443 0 32
-2.7927234 -1.2820101 0.042398047 0 33
-2.7910523 -1.281243 0.070629098 0 34
-2.7875903 -1.2796538 0.098774806 0 35
-2.7855711 -1.2787267 0.12693283 0 36
-2.8012841 -1.2859399 0.15605929 0 37
-2.8036513 -1.2870266 0.18465213 0 38
-2.7889197 -1.280264 0.2120245 0 39
-2.7923312 -1.2818301 0.24069721 0 40
-2.7941689 -1.2826737 0.26932871 0 41
-2.7852576 -1.2785829 0.29689777 0 42
-2.7950313 -1.2830696 0.3265183 0 43
-2.8016117 -1.2860903 0.35598895 0 44
-2.7860115 -1.278929 0.38260955 0 45
-2.7962539 -1.2836307 0.41279012 0 46
-2.7908704 -1.2811594 0.44078493 0 47
-2.7948282 -1.2829763 0.47031665 0 48
-2.7969844 -1.2839661 0.49968988 0 49
-2.782269 -1.277211 0.52600503 0 50
-2.7952032 -1.2831484 0.557621 0 51
-2.7833612 -1.2777123 0.58440286 0 52
-2.7911866 -1.2813046 0.61537474 0 53
-2.7831917 -1.2776345 0.64296496 0 54
-2.7821341 -1.277149 0.67217582 0 55
-2.7877071 -1.2797073 0.70315599 0 56
-2.7922959 -1.2818139 0.73412144 0 57
-2.8036823 -1.2870408 0.76717633 0 58
-2.7890375 -1.280318 0.79321045 0 59
-2.7913229 -1.2813672 0.82406974 0 60
-2.7791009 -1.2757567 0.85068738 0 61
-2.8031592 -1.2868007 0.8886956 0 62
-2.7854931 -1.2786911 0.91370749 0 63
-2.2442832 -1.0638485 -0.74041295 0 0
-2.2955265 -1.0881392 -0.73194569 0 1
-2.3892145 -1.1325496 -0.73554975 0 2
-2.4623275 -1.1672071 -0.73112381 0 3
-2.5703733 -1.2184236 -0.73522711 0 4
-2.6702497 -1.2657677 -0.73486835 0 5
-2.7031946 -1.2813845 -0.71478432 0 6
-2.7050657 -1.2822714 -0.6862362 0 7
-2.6953418 -1.2776619 -0.6549527 0 8
-2.7120194 -1.2855676 -0.63012719 0 9
-2.7029054 -1.2812473 -0.59933949 0 10
-2.6892619 -1.2747799 -0.56789374 0 11
-2.6885228 -1.2744296 -0.5394246 0 12
-2.6887519 -1.2745382 -0.51124936 0 13
-2.6884859 -1.274412 -0.48306939 0 14
-2.6932776 -1.2766834 -0.45583493 0 15
-2.7063928 -1.2829003 -0.42990172 0 16
-2.7006242 -1.2801659 -0.40096653 0 17
-2.69857 -1.2791922 -0.372733 0 18
-2.6909218 -1.2755667 -0.34389108 0 19
-2.7081869 -1.2837509 -0.31819308 0 20
-2.7072315 -1.283298 -0.29024065 0 21
-2.7025776 -1.2810919 -0.26199886 0 22
-2.716718 -1.2877948 -0.23552659 0 23
-2.7000961 -1.2799156 -0.20645267 0 24
-2.7094405 -1.2843451 -0.17947386 0 25
-2.691251 -1.2757229 -0.15079188 0 26
-2.6947658 -1.2773889 -0.12350143 0 27
-2.6964772 -1.2782001 -0.096095979 0 28
-2.7136316 -1.2863318 -0.069064967 0 29
-2.6935728 -1.2768234 -0.041128032 0 30
-2.6935697 -1.276822 -0.013708555 0 31
-2.6936324 -1.2768517 0.013708874 0 32
-2.6943395 -1.2771868 0.041139737 0 33
-2.70189 -1.280766 0.068766132 0 34
-2.7062614 -1.2828381 0.096444674 0 35
-2.6951914 -1.2775908 0.12352095 0 36
-2.7113676 -1.2852585 0.15191902 0 37
-2.698885 -1.2793416 0.17877467 0 38
-2.6833704 -1.2719872 0.20517381 0 39
-2.7061417 -1.2827814 0.23460968 0 40
-2.7037899 -1.2816666 0.26211637 0 41
-2.7026055 -1.281105 0.28974468 0 42
-2.6967444 -1.2783269 0.31684864 0 43
-2.6948123 -1.277411 0.34438828 0 44
-2.7083681 -1.2838367 0.37408632 0 45
-2.7112145 -1.2851861 0.40253887 0 46
-2.7056305 -1.2825391 0.42978063 0 47
-2.7047014 -1.2820987 0.45776841 0 48
-2.6991038 -1.2794453 0.48497728 0 49
-2.6980231 -1.2789329 0.51301217 0 50
-2.703506 -1.281532 0.54243082 0 51
-2.6912575 -1.275726 0.56831515 0 52
-2.7026846 -1.2811427 0.59929055 0 53
-2.7019994 -1.2808179 0.62779909 0 54
-2.6932411 -1.2766662 0.65444231 0 55
-2.7187383 -1.2887526 0.68970478 0 56
-2.6869886 -1.2737024 0.71049911 0 57
-2.6987665 -1.2792853 0.74271625 0 58
-2.7035825 -1.2815683 0.77333021 0 59
-2.7014353 -1.2805505 0.80212069 0 60
-2.682529 -1.2715883 0.82585031 0 61
-2.6943808 -1.2772063 0.85912323 0 62
-2.6957846 -1.2778717 0.88936806 0 63
-2.2209055 -1.0864087 -0.73705202 0 0
-2.2942767 -1.1222999 -0.73589182 0 1
-2.3714983 -1.1600747 -0.73443168 0 2
-2.4679475 -1.2072551 -0.73714465 0 3
-2.5354276 -1.2402647 -0.7295385 0 4
-2.6246519 -1.2839108 -0.72660941 0 5
-2.6020718 -1.2728652 -0.69213152 0 6
-2.6003735 -1.2720344 -0.6635952 0 7
-2.6032341 -1.2734337 -0.63632792 0 8
-2.6116867 -1.2775686 -0.61041921 0 9
-2.6103616 -1.2769203 -0.58225656 0 10
-2.6068363 -1.275196 -0.55375725 0 11
-2.6128116 -1.2781188 -0.52734739 0 12
-2.6113715 -1.2774144 -0.49948493 0 13
-2.6040881 -1.2738515 -0.47068366 0 14
-2.6083527 -1.2759376 -0.4440833 0 15
-2.6134913 -1.2784513 -0.41761017 0 16
-2.6013651 -1.2725195 -0.38852319 0 17
-2.6175494 -1.2804365 -0.36368948 0 18
-2.6144819 -1.2789359 -0.33610669 0 19
-2.6008995 -1.2722918 -0.30740243 0 20
-2.6120927 -1.2777672 -0.28170404 0 21
-2.5985503 -1.2711426 -0.25341016 0 22
-2.5997257 -1.2717175 -0.22672248 0 23
-2.6136527 -1.2785302 -0.20102999 0 24
-2.6203854 -1.2818236 -0.1746057 0 25
-2.6137669 -1.2785861 -0.1473202 0 26
-2.6150289 -1.2792035 -0.12055887 0 27
-2.592016 -1.2679461 -0.092921846 0 28
-2.610575 -1.2770247 -0.066836663 0 29
-2.6209886 -1.2821188 -0.040257424 0 30
-2.610131 -1.2768075 -0.013362799 0 31
-2.6154914 -1.2794298 0.013390242 0 32
-2.6193242 -1.2813046 0.040231861 0 33
-2.6095328 -1.2765149 0.066809982 0 34
-2.6049876 -1.2742916 0.093386874 0 35
-2.6271009 -1.2851088 0.12111542 0 36
-2.6278682 -1.2854841 0.14811498 0 37
-2.6108148 -1.277142 0.17396799 0 38
-2.6076629 -1.2756002 0.20056927 0 39
-2.6200061 -1.2816381 0.22849114 0 40
-2.6087282 -1.2761213 0.2544027 0 41
-2.6279457 -1.285522 0.28341371 0 42
-2.624912 -1.2840381 0.31024051 0 43
-2.6161489 -1.2797513 0.336321 0 44
-2.609669 -1.2765815 0.36259454 0 45
-2.6100223 -1.2767544 0.38981616 0 46
-2.6038272 -1.273724 0.41606599 0 47
-2.6064591 -1.2750114 0.44376096 0 48
-2.608598 -1.2760576 0.47149882 0 49
-2.6082132 -1.2758694 0.4988808 0 50
-2.6117105 -1.2775803 0.52712512 0 51
-2.618382 -1.2808437 0.5562098 0 52
-2.6130714 -1.2782459 0.58286101 0 53
-2.6023939 -1.2730228 0.60824722 0 54
-2.6095512 -1.2765239 0.6378721 0 55
-2.6143715 -1.2788819 0.66716743 0 56
-2.5933249 -1.2685865 0.68980497 0 57
-2.6136124 -1.2785106 0.7235533 0 58
-2.6045671 -1.2740859 0.74943256 0 59
-2.6103992 -1.2769388 0.77969325 0 60
-2.612273 -1.2778553 0.80899739 0 61
-2.6074305 -1.2754865 0.83633626 0 62
-2.6075075 -1.2755241 0.86535352 0 63
-2.1976223 -1.1087111 -0.73379397 0 0
-2.2823963 -1.1514801 -0.73656708 0 1
-2.3536925 -1.1874493 -0.73338389 0 2
-2.4388864 -1.23043 -0.73292816 0 3
-2.5370016 -1.2799296 -0.73446441 0 4
-2.5273533 -1.2750621 -0.70396054 0 5
-2.5346472 -1.278742 -0.67832834 0 6
-2.5411849 -1.2820401 -0.65246433 0 7
-2.5278044 -1.2752897 -0.62167627 0 8
-2.5250473 -1.2738986 -0.59378558 0 9
-2.5400145 -1.2814497 -0.57003689 0 10
-2.5341716 -1.278502 -0.54162008 0 11
-2.5402222 -1.2815545 -0.51583815 0 12
-2.5381436 -1.2805058 -0.48845318 0 13
-2.5380123 -1.2804395 -0.46155155 0 14
-2.5310628 -1.2769334 -0.4335649 0 15
-2.545455 -1.2841945 -0.40923098 0 16
-2.5403974 -1.2816428 -0.38174236 0 17
-2.5243366 -1.27354 -0.35288736 0 18
-2.526269 -1.274515 -0.32675645 0 19
-2.5266774 -1.274721 -0.30045995 0 20
-2.5237699 -1.2732542 -0.27384654 0 21
-2.5276797 -1.2752267 -0.24800931 0 22
-2.5416496 -1.2822746 -0.22301587 0 23
-2.5517557 -1.2873732 -0.19747181 0 24
-2.52492 -1.2738345 -0.16927543 0 25
-2.5205643 -1.271637 -0.14293753 0 26
-2.5243607 -1.2735522 -0.11709197 0 27
-2.5271866 -1.2749779 -0.091152906 0 28
-2.5351903 -1.2790159 -0.065304369 0 29
-2.5239217 -1.2733308 -0.039004061 0 30
-2.5299041 -1.2763489 -0.013031435 0 31
-2.524617 -1.2736815 0.013004201 0 32
-2.5345061 -1.2786707 0.039167628 0 33
-2.5316062 -1.2772076 0.065212041 0 34
-2.5419025 -1.2824022 0.091683693 0 35
-2.5293868 -1.276088 0.1173251 0 36
-2.534204 -1.2785182 0.14371102 0 37
-2.5389373 -1.2809062 0.17021517 0 38
-2.5301971 -1.2764968 0.19580346 0 39
-2.5335326 -1.2781795 0.22230364 0 40
-2.5346711 -1.2787539 0.24869528 0 41
-2.5321887 -1.2775015 0.27476004 0 42
-2.5378001 -1.2803324 0.30178261 0 43
-2.5348995 -1.2788692 0.32787275 0 44
-2.5424559 -1.2826813 0.35542035 0 45
-2.5341167 -1.2784742 0.38079855 0 46
-2.5419941 -1.2824484 0.40867457 0 47
-2.5345373 -1.2786864 0.43416011 0 48
-2.5295277 -1.276159 0.46000859 0 49
-2.5332003 -1.2780118 0.48750186 0 50
-2.5352964 -1.2790694 0.51483786 0 51
-2.5326483 -1.2777334 0.54129452 0 52
-2.5326183 -1.2777183 0.56837702 0 53
-2.5274625 -1.275117 0.59435356 0 54
-2.5272415 -1.2750056 0.6215378 0 55
-2.526711 -1.2747381 0.64874816 0 56
-2.5337954 -1.2783121 0.67810035 0 57
-2.5311294 -1.2769672 0.70501232 0 58
-2.5240502 -1.2733957 0.73071504 0 59
-2.53283 -1.277825 0.7611599 0 60
-2.5378158 -1.2803404 0.79075462 0 61
-2.534133 -1.2784824 0.8178066 0 62
-2.5273783 -1.2750747 0.84390068 0 63
-2.1925185 -1.1401697 -0.73671544 0 0
-2.2736509 -1.1823608 -0.73838091 0 1
-2.3490407 -1.2215655 -0.73655909 0 2
-2.4300237 -1.2636789 -0.73487896 0 3
-2.4407449 -1.2692542 -0.71106267 0 4
-2.4458153 -1.2718909 -0.68555361 0 5
-2.455081 -1.2767093 -0.66118604 0 6
-2.4433856 -1.2706275 -0.63131773 0 7
-2.4573531 -1.2778909 -0.60816836 0 8
-2.4455311 -1.2717432 -0.57872039 0 9
-2.4631293 -1.2808948 -0.55627483 0 10
-2.4614413 -1.2800169 -0.52939957 0 11
-2.447 -1.2725071 -0.50004739 0 12
-2.4444463 -1.2711791 -0.47339398 0 13
-2.4523168 -1.2752719 -0.44878519 0 14
-2.4559317 -1.2771518 -0.42335328 0 15
-2.4429691 -1.2704109 -0.39523599 0 16
-2.4500458 -1.2740909 -0.37049153 0 17
-2.4488966 -1.2734934 -0.34450439 0 18
-2.4496596 -1.2738901 -0.3188495 0 19
-2.4372435 -1.2674333 -0.29165614 0 20
-2.4611027 -1.2798408 -0.26873404 0 21
-2.4483707 -1.2732198 -0.24174558 0 22
-2.4451294 -1.2715343 -0.21590236 0 23
-2.4589851 -1.2787396 -0.19149496 0 24
-2.4490697 -1.2735833 -0.16522771 0 25
-2.4559581 -1.2771654 -0.14015378 0 26
-2.4434273 -1.2706491 -0.11405401 0 27
-2.4448187 -1.2713728 -0.088739157 0 28
-2.4430044 -1.2704291 -0.06332735 0 29
-2.4474549 -1.2727436 -0.038061336 0 30
-2.4614115 -1.2800014 -0.012758741 0 31
-2.4511485 -1.2746643 0.012705542 0 32
-2.4469993 -1.2725066 0.03805425 0 33
-2.4500651 -1.2741009 0.063510381 0 34
-2.4649446 -1.2818387 0.089469656 0 35
-2.4409566 -1.2693644 0.11393869 0 36
-2.4503672 -1.2742581 0.13983475 0 37
-2.4558399 -1.277104 0.16568446 0 38
-2.4529953 -1.2756248 0.19102849 0 39
-2.4703255 -1.2846369 0.21812713 0 40
-2.4571044 -1.2777616 0.24260792 0 41
-2.4553897 -1.2768699 0.26811025 0 42
-2.455723 -1.2770432 0.29386753 0 43
-2.4486909 -1.2733864 0.31872341 0 44
-2.4561918 -1.277287 0.34553063 0 45
-2.4554808 -1.2769173 0.37131345 0 46
-2.4484982 -1.2732862 0.39613053 0 47
-2.4434841 -1.2706788 0.42120758 0 48
-2.4403141 -1.2690302 0.44658864 0 49
-2.4451108 -1.2715245 0.4735226 0 50
-2.4606147 -1.279587 0.50282955 0 51
-2.4478369 -1.2729423 0.52647364 0 52
-2.4490457 -1.2735708 0.55309415 0 53
-2.448267 -1.2731658 0.57936776 0 54
-2.44139 -1.2695897 0.60421765 0 55
-2.4537015 -1.275992 0.63398314 0 56
-2.4458015 -1.2718838 0.65868694 0 57
-2.454304 -1.2763052 0.68793297 0 58
-2.4582243 -1.2783439 0.71615487 0 59
-2.4476089 -1.2728237 0.740197 0 60
-2.4546206 -1.2764699 0.76966447 0 61
-2.4478481 -1.2729481 0.79495239 0 62
-2.4619772 -1.2802956 0.82725716 0 63
-2.1624413 -1.1585274 -0.73134059 0 0
-2.2572589 -1.2093258 -0.73783094 0 1
-2.3260756 -1.2461944 -0.73410761 0 2
-2.3682952 -1.2688135 -0.72087497 0 3
-2.3876634 -1.2791899 -0.70012796 0 4
-2.3807371 -1.2754792 -0.6716578 0 5
-2.3867221 -1.2786857 -0.64696169 0 6
-2.3879993 -1.27937 -0.62102491 0 7
-2.3784454 -1.2742515 -0.59247261 0 8
-2.3713503 -1.2704502 -0.56482011 0 9
-2.3874629 -1.2790825 -0.54269725 0 10
-2.3894048 -1.280123 -0.51725262 0 11
-2.3833935 -1.2769024 -0.49022084 0 12
-2.3836551 -1.2770425 -0.464627 0 13
-2.3809252 -1.27558 -0.43855748 0 14
-2.3820045 -1.2761583 -0.4132835 0 15
-2.3760569 -1.2729719 -0.38691378 0 16
-2.3652403 -1.2671769 -0.35999647 0 17
-2.3753369 -1.2725861 -0.33633214 0 18
-2.3775437 -1.2737683 -0.31147796 0 19
-2.378612 -1.2743407 -0.28649345 0 20
-2.3777487 -1.2738782 -0.26132309 0 21
-2.3758206 -1.2728453 -0.23610972 0 22
-2.3768501 -1.2733968 -0.21124001 0 23
-2.3765821 -1.2732532 -0.18628295 0 24
-2.383019 -1.2767018 -0.16181847 0 25
-2.3692615 -1.2693311 -0.13608672 0 26
-2.3787055 -1.2743908 -0.11175594 0 27
-2.3759289 -1.2729032 -0.08680024 0 28
-2.3732421 -1.2714638 -0.061919577 0 29
-2.3762462 -1.2730732 -0.037194576 0 30
-2.3717883 -1.2706848 -0.012374235 0 31
-2.3779192 -1.2739695 0.012406222 0 32
-2.3863442 -1.2784832 0.037352636 0 33
-2.3825028 -1.2764252 0.062161196 0 34
-2.3843946 -1.2774388 0.087109521 0 35
-2.3851211 -1.277828 0.11205737 0 36
-2.3755991 -1.2727265 0.13645074 0 37
-2.3756135 -1.2727343 0.16131559 0 38
-2.3877826 -1.2792538 0.18716088 0 39
-2.3794689 -1.2747998 0.21147275 0 40
-2.3784771 -1.2742684 0.23637371 0 41
-2.3751869 -1.2725058 0.26104152 0 42
-2.3791127 -1.274609 0.28655374 0 43
-2.3692532 -1.2693267 0.31039184 0 44
-2.3995039 -1.2855335 0.33975402 0 45
-2.3674102 -1.2683394 0.36032674 0 46
-2.3844647 -1.2774763 0.38828287 0 47
-2.365283 -1.2671998 0.41038227 0 48
-2.389585 -1.2802196 0.44015259 0 49
-2.3875895 -1.2791504 0.4653939 0 50
-2.3769143 -1.2734311 0.48888814 0 51
-2.4008386 -1.2862486 0.51972783 0 52
-2.3757093 -1.2727855 0.54002559 0 53
-2.3862426 -1.2784288 0.56836724 0 54
-2.3724267 -1.271027 0.59097338 0 55
-2.3894899 -1.2801685 0.62141252 0 56
-2.3829813 -1.2766817 0.64594769 0 57
-2.3851459 -1.2778412 0.67290163 0 58
-2.3731821 -1.2714317 0.69588166 0 59
-2.3723552 -1.2709886 0.72211081 0 60
-2.378757 -1.2744184 0.75073379 0 61
-2.3962967 -1.2838154 0.78327835 0 62
-2.3813274 -1.2757955 0.80536819 0 63
-2.1574998 -1.1902506 -0.73456371 0 0
-2.2438257 -1.2378751 -0.73835969 0 1
-2.3032279 -1.2706461 -0.73177266 0 2
-2.3081961 -1.273387 -0.70729434 0 3
-2.3156176 -1.2774812 -0.68355662 0 4
-2.3138649 -1.2765144 -0.65717041 0 5
-2.3070555 -1.2727576 -0.62956142 0 6
-2.3035991 -1.2708509 -0.6030941 0 7
-2.3009441 -1.2693861 -0.57701153 0 8
-2.3150654 -1.2771765 -0.55511254 0 9
-2.3201683 -1.2799917 -0.53093809 0 10
-2.3131344 -1.2761112 -0.50410056 0 11
-2.316767 -1.2781153 -0.47971326 0 12
-2.3030636 -1.2705555 -0.45192915 0 13
-2.3071957 -1.272835 -0.42782739 0 14
-2.3053794 -1.2718329 -0.40267181 0 15
-2.3157063 -1.2775302 -0.37961572 0 16
-2.3169773 -1.2782314 -0.35501614 0 17
-2.3111463 -1.2750144 -0.32943818 0 18
-2.3000684 -1.2689031 -0.30334929 0 19
-2.3126097 -1.2758219 -0.28041211 0 20
-2.3166513 -1.2780516 -0.25631607 0 21
-2.3155928 -1.2774676 -0.23166785 0 22
-2.30481 -1.2715189 -0.20621149 0 23
-2.3159506 -1.2776649 -0.18274812 0 24
-2.3162854 -1.2778497 -0.15834196 0 25
-2.3126888 -1.2758654 -0.1337283 0 26
-2.3044231 -1.2713054 -0.10899223 0 27
-2.3100667 -1.2744188 -0.084960163 0 28
-2.3141901 -1.2766937 -0.060783863 0 29
-2.3096802 -1.2742057 -0.03639514 0 30
-2.3073342 -1.2729114 -0.012118707 0 31
-2.3059266 -1.2721349 0.012111315 0 32
-2.3223045 -1.2811702 0.03659407 0 33
-2.3044674 -1.2713299 0.060528491 0 34
-2.3062725 -1.2723258 0.084820621 0 35
-2.3151023 -1.2771969 0.10949733 0 36
-2.3050427 -1.2716473 0.13328616 0 37
-2.3147876 -1.2770233 0.15823956 0 38
-2.3188484 -1.2792636 0.18297678 0 39
-2.3124619 -1.2757401 0.2068961 0 40
-2.3070123 -1.2727338 0.23080939 0 41
-2.3049033 -1.2715703 0.25501627 0 42
-2.3008978 -1.2693607 0.278992 0 43
-2.3139553 -1.2765642 0.30518079 0 44
-2.302377 -1.2701766 0.32818818 0 45
-2.3073173 -1.272902 0.35353598 0 46
-2.3038118 -1.2709682 0.37766585 0 47
-2.317234 -1.2783729 0.40474242 0 48
-2.3065903 -1.272501 0.42771509 0 49
-2.3215134 -1.2807338 0.45554951 0 50
-2.2921562 -1.264538 0.4746173 0 51
-2.3005285 -1.2691568 0.50135338 0 52
-2.2983255 -1.2679415 0.52593964 0 53
-2.2990489 -1.2683406 0.55127209 0 54
-2.3185503 -1.2790992 0.58142674 0 55
-2.3090158 -1.2738391 0.60451221 0 56
-2.3127515 -1.2759 0.63111573 0 57
-2.308722 -1.2736771 0.65570974 0 58
-2.305423 -1.271857 0.68054724 0 59
-2.3091133 -1.273893 0.70757544 0 60
-2.3085716 -1.273594 0.73347038 0 61
-2.3076997 -1.2731131 0.75937825 0 62
-2.3155231 -1.2774291 0.78836584 0 63
-2.1441329 -1.2175009 -0.73505425 0 0
-2.2122335 -1.2561704 -0.73299134 0 1
-2.2512965 -1.2783515 -0.720213 0 2
-2.2575092 -1.2818793 -0.69653994 0 3
-2.2363055 -1.2698392 -0.66470325 0 4
-2.2387176 -1.2712089 -0.64021862 0 5
-2.2607491 -1.2837189 -0.62118566 0 6
-2.2386773 -1.2711859 -0.59014487 0 7
-2.2587061 -1.2825588 -0.57033128 0 8
-2.2532635 -1.2794684 -0.54402488 0 9
-2.2422006 -1.2731866 -0.51663977 0 10
-2.2406812 -1.2723237 -0.49168321 0 11
-2.242383 -1.2732902 -0.46751782 0 12
-2.2418981 -1.2730148 -0.44296482 0 13
-2.232249 -1.2675358 -0.41678852 0 14
-2.2436752 -1.274024 -0.39460069 0 15
-2.2433167 -1.2738203 -0.37028852 0 16
-2.2546918 -1.2802795 -0.3478584 0 17
-2.2405312 -1.2722386 -0.32157812 0 18
-2.2499704 -1.2775985 -0.29879132 0 19
-2.2428622 -1.2735623 -0.27383316 0 20
-2.2529204 -1.2792736 -0.25098631 0 21
-2.2515628 -1.2785027 -0.22681753 0 22
-2.2418427 -1.2729833 -0.20196302 0 23
-2.2457638 -1.2752099 -0.17843363 0 24
-2.2420826 -1.2731196 -0.15432793 0 25
-2.2507 -1.2780128 -0.13104266 0 26
-2.2374411 -1.270484 -0.10655502 0 27
-2.237071 -1.2702738 -0.082843721 0 28
-2.2373905 -1.2704554 -0.059172526 0 29
-2.2488606 -1.2769684 -0.035681497 0 30
-2.2483647 -1.2766868 -0.01189054 0 31
-2.2473381 -1.2761039 0.01188511 0 32
-2.245616 -1.275126 0.035630018 0 33
-2.2478518 -1.2763954 0.059449192 0 34
-2.2540932 -1.2799395 0.083474092 0 35
-2.2340028 -1.2685317 0.10639129 0 36
-2.2420349 -1.2730925 0.13053815 0 37
