# .PCD v0.7 - Point Cloud Data file format
VERSION 0.7
FIELDS x y z intensity ring
SIZE 4 4 4 4 2
TYPE F F F F U
COUNT 1 1 1 1 1
WIDTH 1282
HEIGHT 1
VIEWPOINT 0 0 0 1 0 0 0
POINTS 1282
DATA ascii
5.4446578 -0.3687692 1.4641805 0 60
5.4592786 -0.36975947 1.5221977 0 61
5.4536047 -0.36937517 1.574922 0 62
5.4429798 -0.36865556 1.6263423 0 63
2.4488683 -0.13563758 -0.73115921 0 0
2.5373361 -0.14053763 -0.7321915 0 1
2.6359804 -0.14600132 -0.73442805 0 2
2.7372212 -0.15160884 -0.73553818 0 3
2.8327286 -0.1568988 -0.73329794 0 4
2.9526453 -0.16354072 -0.73539233 0 5
3.0713789 -0.17011712 -0.73498976 0 6
3.2032521 -0.1774213 -0.73542285 0 7
3.345314 -0.18528982 -0.73567027 0 8
3.4911783 -0.19336893 -0.7341041 0 9
3.6520762 -0.2022807 -0.73287863 0 10
3.8518128 -0.21334369 -0.73612118 0 11
4.0658798 -0.22520041 -0.73828113 0 12
4.2612572 -0.23602195 -0.73328024 0 13
4.5118408 -0.24990124 -0.7336784 0 14
4.7595754 -0.26362273 -0.72902912 0 15
5.1120501 -0.28314555 -0.73489219 0 16
5.4627743 -0.30257142 -0.73401916 0 17
5.4603996 -0.3024399 -0.68255675 0 18
5.439374 -0.30127531 -0.62909889 0 19
5.4549174 -0.30213624 -0.58002996 0 20
5.4405432 -0.30134007 -0.52786791 0 21
5.435153 -0.30104154 -0.47685152 0 22
5.4458504 -0.30163401 -0.42727873 0 23
5.4419279 -0.30141678 -0.37656873 0 24
5.4488745 -0.30180153 -0.32664692 0 25
5.4452572 -0.30160117 -0.27611646 0 26
5.4455409 -0.30161688 -0.22586149 0 27
5.4587569 -0.30234888 -0.17605664 0 28
5.4458776 -0.30163553 -0.12543681 0 29
5.441308 -0.30138245 -0.075190455 0 30
5.4346089 -0.30101141 -0.025031215 0 31
5.4444981 -0.30155912 0.025076762 0 32
5.4439602 -0.30152935 0.075227104 0 33
5.4498906 -0.30185783 0.12552924 0 34
5.4487963 -0.30179721 0.1757354 0 35
5.4455538 -0.30161759 0.22586203 0 36
5.4488153 -0.30179825 0.27629691 0 37
5.4480429 -0.30175546 0.32659706 0 38
5.4495487 -0.30183887 0.37709606 0 39
5.4462013 -0.30165347 0.42730626 0 40
5.4497724 -0.30185127 0.47813416 0 41
5.4626842 -0.30256641 0.53001612 0 42
5.4382725 -0.30121431 0.57826012 0 43
5.4476275 -0.30173245 0.63005352 0 44
5.4360476 -0.30109107 0.67951268 0 45
5.4380651 -0.30120283 0.73069906 0 46
5.4471416 -0.30170554 0.78306389 0 47
5.4436102 -0.30150995 0.83380342 0 48
5.4518046 -0.30196384 0.8865276 0 49
5.4595232 -0.30239135 0.9394787 0 50
5.4557605 -0.30218294 0.99065512 0 51
5.4627752 -0.30257148 1.0439928 0 52
5.4569521 -0.30224892 1.0950712 0 53
5.4603763 -0.30243859 1.1481752 0 54
5.448051 -0.30175591 1.1980845 0 55
5.4447446 -0.30157277 1.2500389 0 56
5.4302697 -0.30077106 1.299479 0 57
5.4367599 -0.30113053 1.3540914 0 58
5.470952 -0.30302438 1.4162451 0 59
5.4523511 -0.30199412 1.4651401 0 60
5.446907 -0.30169255 1.517599 0 61
5.442925 -0.30147201 1.5706487 0 62
5.4487157 -0.30179274 1.6268244 0 63
2.4655421 -0.10617134 -0.73569214 0 0
2.5382717 -0.10930322 -0.73201829 0 1
2.6260316 -0.11308235 -0.73121345 0 2
2.740787 -0.11802395 -0.73605072 0 3
2.8359129 -0.12212027 -0.73367804 0 4
2.9563959 -0.12730852 -0.73588097 0 5
3.0790372 -0.1325897 -0.73637658 0 6
3.2039757 -0.13796981 -0.7351439 0 7
3.3454247 -0.14406089 -0.7352494 0 8
3.5062068 -0.15098451 -0.73681808 0 9
3.6464069 -0.15702182 -0.73129821 0 10
3.8431478 -0.16549388 -0.73402083 0 11
4.0559287 -0.17465669 -0.73602855 0 12
4.2345996 -0.18235061 -0.72825199 0 13
4.5268579 -0.19493586 -0.73567492 0 14
4.7788348 -0.2057865 -0.73153621 0 15
5.1189218 -0.22043136 -0.73543477 0 16
5.4523249 -0.23478837 -0.73217177 0 17
5.4443383 -0.23444445 -0.68013728 0 18
5.4676466 -0.23544817 -0.6319862 0 19
5.4711275 -0.23559806 -0.58140165 0 20
5.4470186 -0.23455988 -0.52817637 0 21
5.4593115 -0.23508923 -0.47868124 0 22
5.4522128 -0.23478356 -0.42751911 0 23
5.4301772 -0.23383465 -0.37552825 0 24
5.4447799 -0.23446348 -0.32620397 0 25
5.4368443 -0.23412175 -0.27552307 0 26
5.4606614 -0.23514736 -0.22635159 0 27
5.4370136 -0.23412906 -0.17524928 0 28
5.4577889 -0.23502368 -0.1256351 0 29
5.4408579 -0.23429459 -0.07513874 0 30
5.4498334 -0.23468108 -0.02508615 0 31
5.4584298 -0.23505127 0.02512572 0 32
5.4494457 -0.2346644 0.075257339 0 33
5.4592443 -0.23508634 0.1256686 0 34
5.4434896 -0.2344079 0.175458 0 35
5.4275451 -0.23372132 0.22497889 0 36
5.4462733 -0.2345278 0.27600092 0 37
5.4588418 -0.23506901 0.32704642 0 38
5.434083 -0.23400284 0.37579834 0 39
5.4556308 -0.23493074 0.4277871 0 40
5.4406881 -0.23428728 0.47704831 0 41
5.4391804 -0.23422235 0.52741635 0 42
5.4423957 -0.23436081 0.5783484 0 43
5.4495959 -0.23467086 0.6298998 0 44
5.4584231 -0.23505099 0.68189687 0 45
5.4429259 -0.23438364 0.73090971 0 46
5.4532967 -0.23483022 0.78347433 0 47
5.4537344 -0.23484908 0.83484876 0 48
5.4537473 -0.23484963 0.88630688 0 49
5.4450479 -0.23447502 0.93642086 0 50
5.4562516 -0.23495747 0.99014485 0 51
5.4304819 -0.23384777 1.0371932 0 52
5.4344015 -0.23401657 1.0898861 0 53
5.4449415 -0.23447044 1.144237 0 54
5.4707885 -0.23558347 1.2023568 0 55
5.4558177 -0.23493879 1.2518232 0 56
5.4452696 -0.23448457 1.3022802 0 57
5.4447899 -0.2344639 1.3552707 0 58
5.4354887 -0.23406339 1.4062135 0 59
5.4461727 -0.23452345 1.4625943 0 60
5.4556785 -0.2349328 1.5191233 0 61
5.4352174 -0.23405169 1.5674754 0 62
5.4287558 -0.23377344 1.6198841 0 63
2.4698739 -0.075946927 -0.73665029 0 0
2.5643914 -0.078853279 -0.73921549 0 1
2.6329131 -0.080960266 -0.73279703 0 2
2.7310631 -0.083978318 -0.73310661 0 3
2.8510897 -0.087669052 -0.73726982 0 4
2.9545686 -0.090850957 -0.73509246 0 5
3.0875781 -0.094940908 -0.7380842 0 6
3.1894104 -0.098072186 -0.73146993 0 7
3.3269861 -0.10230254 -0.73086536 0 8
3.5007024 -0.1076442 -0.73532766 0 9
3.644994 -0.11208107 -0.73068321 0 10
3.8408616 -0.11810386 -0.73325139 0 11
4.0652709 -0.12500429 -0.73738921 0 12
4.2622242 -0.13106048 -0.73267037 0 13
4.5114574 -0.13872422 -0.73283958 0 14
4.8205924 -0.14822991 -0.73759365 0 15
5.1206722 -0.15745716 -0.73535252 0 16
5.4385114 -0.1672305 -0.72998554 0 17
5.4449277 -0.16742779 -0.67990232 0 18
5.4518676 -0.16764118 -0.62987649 0 19
5.4449797 -0.16742939 -0.5783605 0 20
5.4517989 -0.16763908 -0.52840012 0 21
5.4405708 -0.16729382 -0.4768216 0 22
5.4400778 -0.16727866 -0.42637402 0 23
5.4483824 -0.16753402 -0.3766163 0 24
5.4431205 -0.16737223 -0.32595661 0 25
5.4353294 -0.16713265 -0.27532133 0 26
5.4470282 -0.16749237 -0.22568405 0 27
5.4394474 -0.16725928 -0.17524819 0 28
5.4410486 -0.16730851 -0.12519293 0 29
5.4471755 -0.1674969 -0.075191855 0 30
5.4492249 -0.16755994 -0.025071969 0 31
5.4379621 -0.1672136 0.025020147 0 32
5.4469323 -0.16748944 0.075188503 0 33
5.4449883 -0.16742966 0.12528358 0 34
5.4398537 -0.16727176 0.17526126 0 35
5.451942 -0.16764349 0.22588764 0 36
5.4434848 -0.16738343 0.27573445 0 37
5.4481187 -0.16752592 0.32625592 0 38
5.4465532 -0.16747777 0.37648985 0 39
5.4402504 -0.16728397 0.42638755 0 40
5.4454517 -0.1674439 0.47724938 0 41
5.4367528 -0.16717641 0.52694178 0 42
5.4306521 -0.16698883 0.57683861 0 43
5.4449453 -0.16742833 0.62907672 0 44
5.4372268 -0.167191 0.67894071 0 45
5.450222 -0.16759059 0.73155743 0 46
5.4444151 -0.16741203 0.78184354 0 47
5.4434161 -0.16738132 0.83289123 0 48
5.441277 -0.16731553 0.88387907 0 49
5.4544215 -0.16771972 0.93760735 0 50
5.4520378 -0.16764642 0.98893136 0 51
5.4581375 -0.16783398 1.0420023 0 52
5.4571023 -0.16780216 1.0939423 0 53
5.4512429 -0.16762199 1.1450415 0 54
5.4448881 -0.16742657 1.1961216 0 55
5.4549775 -0.16773681 1.2510626 0 56
5.4351668 -0.16712765 1.2992742 0 57
5.4540148 -0.1677072 1.3569511 0 58
5.4434633 -0.16738276 1.4076376 0 59
5.4496403 -0.16757269 1.4628615 0 60
5.4493642 -0.16756421 1.5166767 0 61
5.4420528 -0.1673394 1.5687349 0 62
5.4593616 -0.16787161 1.6282775 0 63
2.4681468 -0.045527112 -0.73591262 0 0
2.5581343 -0.047187008 -0.73718888 0 1
2.6503921 -0.048888784 -0.73743874 0 2
2.7387452 -0.050518535 -0.73494643 0 3
2.8340197 -0.052275956 -0.73263407 0 4
2.9637716 -0.054669343 -0.73715919 0 5
3.0825589 -0.056860477 -0.73666155 0 6
3.1916468 -0.058872696 -0.73176152 0 7
3.3391407 -0.06159335 -0.73331356 0 8
3.49191 -0.064411312 -0.73325896 0 9
3.6747279 -0.067783549 -0.73642093 0 10
3.8386283 -0.070806831 -0.73260343 0 11
4.0574365 -0.074842937 -0.73574555 0 12
4.2720604 -0.07880187 -0.73413908 0 13
4.5173988 -0.083327346 -0.73358279 0 14
4.8234797 -0.088973269 -0.73781216 0 15
5.1120248 -0.094295733 -0.73388869 0 16
5.4590774 -0.10069743 -0.73252445 0 17
5.4560614 -0.10064179 -0.68108654 0 18
5.4468765 -0.10047237 -0.62910956 0 19
5.4609566 -0.10073209 -0.57988209 0 20
5.44416 -0.10042226 -0.52750015 0 21
5.4416847 -0.1003766 -0.47677502 0 22
5.4374118 -0.10029779 -0.42603624 0 23
5.4287252 -0.10013755 -0.37514403 0 24
5.4504523 -0.10053833 -0.32629699 0 25
5.4494839 -0.10052046 -0.27595484 0 26
5.4386692 -0.10032098 -0.22526957 0 27
5.4395037 -0.10033637 -0.17519701 0 28
5.4541264 -0.1006061 -0.12545589 0 29
5.4447675 -0.10043346 -0.075135887 0 30
5.459218 -0.10070002 -0.025110353 0 31
5.4420886 -0.10038406 0.025031563 0 32
5.4481683 -0.1004962 0.075182825 0 33
5.4555893 -0.10063308 0.12548953 0 34
5.4452004 -0.10044146 0.17538048 0 35
5.4502683 -0.10053493 0.22575 0 36
5.4272404 -0.10011017 0.27482846 0 37
5.4543805 -0.10061079 0.32653213 0 38
5.4398475 -0.10034271 0.37591264 0 39
5.4454093 -0.1004453 0.42666283 0 40
5.4315429 -0.10018953 0.47588643 0 41
5.4333425 -0.10022272 0.52645206 0 42
5.441514 -0.10037345 0.57781756 0 43
5.4476624 -0.10048686 0.62920028 0 44
5.4548945 -0.10062027 0.68094087 0 45
5.45648 -0.10064951 0.73217589 0 46
5.448791 -0.10050768 0.78223526 0 47
5.4571781 -0.10066239 0.83474439 0 48
5.4475713 -0.10048518 0.88463396 0 49
5.4472132 -0.10047857 0.93608505 0 50
5.4397931 -0.10034171 0.98641187 0 51
5.4368901 -0.10028816 1.0376322 0 52
5.4339128 -0.10023324 1.0889642 0 53
5.4407101 -0.10035862 1.1424835 0 54
5.4517393 -0.10056207 1.1972646 0 55
5.4537492 -0.10059914 1.2504027 0 56
5.4495921 -0.10052246 1.3023287 0 57
5.4518704 -0.10056449 1.3560075 0 58
5.4453154 -0.10044357 1.4076908 0 59
5.4547706 -0.10061798 1.4637959 0 60
5.4593563 -0.10070258 1.5189983 0 61
5.4469438 -0.10047361 1.5696698 0 62
5.4353662 -0.10026005 1.6206307 0 63
2.4539418 -0.015086842 -0.73156655 0 0
2.5699329 -0.015799955 -0.74047691 0 1
2.642113 -0.016243719 -0.73502403 0 2
2.7370141 -0.016827172 -0.73437083 0 3
2.8401914 -0.017461505 -0.73411846 0 4
2.9469843 -0.018118069 -0.73287296 0 5
3.0951095 -0.019028744 -0.73954904 0 6
3.1991985 -0.019668683 -0.73338205 0 7
3.3435845 -0.020556368 -0.73417848 0 8
3.5038979 -0.021541975 -0.73566502 0 9
3.6823056 -0.022638826 -0.73782796 0 10
3.8365481 -0.02358711 -0.73209572 0 11
4.0595016 -0.024957828 -0.7360087 0 12
4.2610102 -0.026196703 -0.7321294 0 13
4.5231943 -0.027808612 -0.73441285 0 14
4.8332028 -0.029714547 -0.73918778 0 15
5.1062884 -0.031393476 -0.73295438 0 16
5.4492226 -0.033501837 -0.7310915 0 17
5.436451 -0.033423316 -0.67853594 0 18
5.4545279 -0.033534456 -0.62989807 0 19
5.4553747 -0.03353966 -0.57920182 0 20
5.4362049 -0.033421803 -0.52664971 0 21
5.4493299 -0.033502497 -0.47737268 0 22
5.4531388 -0.033525914 -0.42720389 0 23
5.4690804 -0.033623923 -0.37787557 0 24
5.4645948 -0.033596348 -0.32709417 0 25
5.4351888 -0.033415556 -0.27518934 0 26
5.4403672 -0.033447396 -0.22530584 0 27
5.4568419 -0.033548683 -0.17572887 0 28
5.4442987 -0.033471566 -0.1252109 0 29
5.4492264 -0.03350186 -0.075186051 0 30
5.4478445 -0.033493366 -0.02505425 0 31
5.4438758 -0.033468965 0.025035998 0 32
5.4547524 -0.033535834 0.075262301 0 33
5.4591465 -0.03356285 0.12555237 0 34
5.4309583 -0.03338955 0.17489532 0 35
5.4262199 -0.033360418 0.22471994 0 36
5.4480486 -0.033494618 0.27584046 0 37
5.4385238 -0.03343606 0.32553363 0 38
5.4437246 -0.033468034 0.37612367 0 39
5.4548535 -0.033536457 0.42733821 0 40
5.4361792 -0.033421647 0.47622067 0 41
5.4543543 -0.033533387 0.52840805 0 42
5.4489465 -0.033500139 0.57851928 0 43
5.4453173 -0.033477828 0.62883437 0 44
5.4416595 -0.033455338 0.67918605 0 45
5.4407263 -0.033449601 0.72995162 0 46
5.4410253 -0.033451442 0.78100234 0 47
5.4482212 -0.033495683 0.83324838 0 48
5.4532666 -0.0335267 0.88542497 0 49
5.4547672 -0.033535928 0.93724149 0 50
5.4517822 -0.033517573 0.9884364 0 51
5.435678 -0.033418566 1.037244 0 52
5.4354243 -0.033417005 1.0891024 0 53
5.4510818 -0.03351327 1.1444883 0 54
5.4475112 -0.033491317 1.1961551 0 55
5.4452691 -0.033477534 1.2482697 0 56
5.4447317 -0.033474226 1.3009704 0 57
5.4437947 -0.033468466 1.3537941 0 58
5.4502621 -0.03350823 1.4087566 0 59
5.4429893 -0.033463515 1.4604136 0 60
5.4492249 -0.033501852 1.5159501 0 61
5.4434452 -0.033466317 1.5684245 0 62
5.4501605 -0.033507604 1.6247962 0 63
2.4607067 0.015128432 -0.73358327 0 0
2.5506725 0.015681542 -0.73492748 0 1
2.6429067 0.016248597 -0.73524481 0 2
2.7253225 0.01675529 -0.73123384 0 3
2.839864 0.017459493 -0.73403388 0 4
2.9411118 0.018081965 -0.73141259 0 5
3.0858321 0.018971706 -0.73733228 0 6
3.1895647 0.019609453 -0.73117357 0 7
3.3330276 0.020491464 -0.7318604 0 8
3.5009272 0.021523712 -0.73504132 0 9
3.6923919 0.022700837 -0.73984897 0 10
3.8410919 0.023615044 -0.73296279 0 11
4.0646634 0.024989562 -0.73694456 0 12
4.2659869 0.026227299 -0.73298448 0 13
4.5324578 0.027865564 -0.73591691 0 14
4.8237696 0.029656552 -0.73774505 0 15
5.1139798 0.031440765 -0.73405838 0 16
5.4387231 0.033437286 -0.72968286 0 17
5.4363427 0.033422653 -0.67852247 0 18
5.4565439 0.03354685 -0.63013083 0 19
5.4426045 0.03346115 -0.57784599 0 20
5.4546137 0.033534981 -0.52843314 0 21
5.4455013 0.03347896 -0.47703728 0 22
5.4517946 0.033517651 -0.42709857 0 23
5.4434237 0.033466186 -0.37610286 0 24
5.4520712 0.03351935 -0.32634455 0 25
5.4345942 0.033411901 -0.27515924 0 26
5.439548 0.033442359 -0.22527191 0 27
5.449964 0.033506393 -0.17550737 0 28
5.4398193 0.033444025 -0.12510787 0 29
5.4384818 0.033435803 -0.075037807 0 30
5.448132 0.033495132 -0.025055572 0 31
5.4564548 0.033546302 0.025093848 0 32
5.4389091 0.033438429 0.075043701 0 33
5.4494028 0.033502944 0.12532829 0 34
5.4566731 0.033547644 0.17572342 0 35
5.4592872 0.033563714 0.22608939 0 36
5.4296317 0.033381391 0.27490798 0 37
5.4387627 0.033437528 0.3255479 0 38
5.4571438 0.033550538 0.37705085 0 39
5.4663601 0.0336072 0.42823964 0 40
5.4382925 0.033434641 0.47640577 0 41
5.4500227 0.033506759 0.52798837 0 42
5.4449983 0.033475865 0.57810009 0 43
5.4252248 0.033354297 0.62651402 0 44
5.434278 0.033409957 0.67826474 0 45
5.4582515 0.033557348 0.73230284 0 46
5.4380054 0.033432875 0.7805689 0 47
5.4615231 0.033577461 0.83528268 0 48
5.4383693 0.03343511 0.8830061 0 49
5.4422288 0.03345884 0.93508714 0 50
5.4495616 0.03350392 0.98803383 0 51
5.447319 0.033490133 1.0394653 0 52
5.4407163 0.033449542 1.0901629 0 53
5.4481091 0.03349499 1.1438642 0 54
5.4400892 0.033445686 1.1945254 0 55
5.4498811 0.033505887 1.2493269 0 56
5.4487982 0.03349923 1.3019421 0 57
5.4437628 0.033468269 1.3537861 0 58
5.4439149 0.033469204 1.4071159 0 59
5.4593511 0.033564106 1.4648036 0 60
5.4256339 0.033356816 1.5093871 0 61
5.4374557 0.033429492 1.5666987 0 62
5.4598403 0.033567116 1.627682 0 63
2.4658418 0.045484595 -0.73522532 0 0
2.560184 0.04722482 -0.73777956 0 1
2.6450591 0.048790414 -0.73595488 0 2
2.7277315 0.050315376 -0.73199087 0 3
2.8489075 0.052550573 -0.73648274 0 4
2.9415629 0.054259684 -0.73163533 0 5
3.0809019 0.056829911 -0.73626554 0 6
3.1847277 0.058745068 -0.73017514 0 7
3.3472035 0.061742079 -0.7350843 0 8
3.5040872 0.064635932 -0.735816 0 9
3.6755707 0.067799091 -0.73658985 0 10
3.8464382 0.070950896 -0.73409396 0 11
4.065836 0.074997872 -0.73726869 0 12
4.2513556 0.078419954 -0.73058105 0 13
4.5150948 0.08328484 -0.7332086 0 14
4.8204589 0.088917553 -0.73735017 0 15
5.1034513 0.094137594 -0.73265791 0 16
5.4344015 0.10024226 -0.72921336 0 17
5.4485302 0.10050287 -0.68014646 0 18
5.4476438 0.10048652 -0.62919813 0 19
5.4585767 0.10068818 -0.57962936 0 20
5.4484839 0.10050201 -0.52791911 0 21
5.4457607 0.10045179 -0.47713214 0 22
5.4417 0.10037689 -0.42637223 0 23
5.4409847 0.10036369 -0.3759912 0 24
5.4488716 0.10050917 -0.32620233 0 25
5.4332991 0.10022192 -0.27513525 0 26
5.4649415 0.1008056 -0.22635777 0 27
5.4427047 0.10039541 -0.17530009 0 28
5.4378152 0.10030523 -0.1250807 0 29
5.4452534 0.10044243 -0.0751426 0 30
5.435616 0.10026465 -0.02500179 0 31
5.4413428 0.1003703 0.025028134 0 32
5.4427824 0.10039685 0.075108498 0 33
5.4494147 0.10051919 0.12534751 0 34
5.4461064 0.10045817 0.17540967 0 35
5.4420743 0.10038379 0.22541063 0 36
5.444119 0.1004215 0.27568316 0 37
5.4478908 0.10049107 0.32614359 0 38
5.4456563 0.10044986 0.37631404 0 39
5.4398055 0.10034194 0.42622378 0 40
5.4450555 0.10043878 0.47707036 0 41
5.4600797 0.10071591 0.52904266 0 42
5.4378071 0.10030507 0.57742393 0 43
5.4551582 0.10062513 0.6300661 0 44
5.4600134 0.10071469 0.68157989 0 45
5.4545588 0.10061407 0.7319181 0 46
5.4558597 0.10063807 0.78325009 0 47
5.4538102 0.10060026 0.83422923 0 48
5.4513988 0.10055579 0.88525546 0 49
5.4425712 0.10039295 0.93528742 0 50
5.4449062 0.10043602 0.98733908 0 51
5.4436073 0.10041206 1.0389142 0 52
5.455472 0.10063092 1.0932847 0 53
5.4359684 0.10027116 1.1414877 0 54
5.4498096 0.10052647 1.1968408 0 55
5.4376564 0.10030229 1.246713 0 56
5.4458408 0.10045327 1.3014323 0 57
5.4497986 0.10052627 1.3554921 0 58
5.4486547 0.10050517 1.4085541 0 59
5.4513555 0.10055499 1.4628795 0 60
5.4413552 0.10037053 1.5139897 0 61
5.4478736 0.10049076 1.5699378 0 62
5.4414096 0.10037152 1.6224326 0 63
2.4436884 0.075141743 -0.72884041 0 0
2.5638344 0.07883615 -0.73905498 0 1
2.6552737 0.081647843 -0.73902047 0 2
2.7372231 0.084167734 -0.73476017 0 3
2.8456852 0.087502867 -0.73587227 0 4
2.9577134 0.090947658 -0.73587489 0 5
3.0719998 0.094461888 -0.73436022 0 6
3.1728008 0.097561449 -0.7276606 0 7
3.329814 0.1023895 -0.73148656 0 8
3.5055132 0.10779212 -0.73633814 0 9
3.6451521 0.11208593 -0.73071492 0 10
3.8517964 0.1184401 -0.73533893 0 11
4.0522704 0.12460455 -0.73503113 0 12
4.2588339 0.13095622 -0.73208755 0 13
4.5128932 0.13876837 -0.73307276 0 14
4.8240528 0.14833631 -0.73812306 0 15
5.1325612 0.15782273 -0.73705983 0 16
5.458889 0.1678571 -0.73272073 0 17
5.4552035 0.16774377 -0.68118548 0 18
5.4443851 0.1674111 -0.62901199 0 19
5.4447818 0.16742331 -0.57833946 0 20
5.443244 0.16737603 -0.52757096 0 21
5.4548469 0.16773281 -0.47807282 0 22
5.4411168 0.16731061 -0.42645547 0 23
5.4419079 0.16733493 -0.37616876 0 24
5.4485559 0.16753936 -0.32628211 0 25
5.458601 0.16784824 -0.27650017 0 26
5.433435 0.1670744 -0.22512084 0 27
5.4540586 0.16770856 -0.17571893 0 28
5.4430966 0.1673715 -0.12524006 0 29
5.4338565 0.16708736 -0.075008005 0 30
5.4435382 0.16738506 -0.025045803 0 31
5.450675 0.16760452 0.025078641 0 32
5.4347258 0.16711409 0.075020008 0 33
5.444613 0.16741811 0.12527494 0 34
5.451715 0.1676365 0.17564343 0 35
5.462132 0.16795681 0.22630984 0 36
5.4363112 0.16716284 0.27537107 0 37
5.4464035 0.16747317 0.32615322 0 38
5.4414587 0.16732112 0.3761377 0 39
5.44488 0.16742633 0.42675042 0 40
5.4525819 0.16766316 0.47787431 0 41
5.4530411 0.16767727 0.52852046 0 42
5.43999 0.16727597 0.57783043 0 43
5.4395361 0.167262 0.62845176 0 44
5.4537048 0.16769768 0.68099833 0 45
5.4440699 0.16740142 0.73073161 0 46
5.4390373 0.16724667 0.78107125 0 47
5.4538751 0.16770291 0.83449149 0 48
5.441062 0.16730893 0.8838442 0 49
5.4583707 0.16784117 0.93828624 0 50
5.4418497 0.16733314 0.98708332 0 51
5.4334683 0.16707543 1.0372928 0 52
5.4516001 0.16763297 1.0928392 0 53
5.4344831 0.16710663 1.1415211 0 54
5.4504204 0.16759668 1.1973369 0 55
5.4474878 0.16750652 1.2493449 0 56
5.4603992 0.16790353 1.3053061 0 57
5.4369717 0.16718315 1.3527108 0 58
5.4484081 0.16753481 1.4089164 0 59
5.4622202 0.16795953 1.4662384 0 60
5.4486418 0.167542 1.5164756 0 61
5.431767 0.16702311 1.5657698 0 62
5.4409857 0.16730657 1.622797 0 63
2.4691513 0.10632676 -0.73676902 0 0
2.5316145 0.10901655 -0.73009843 0 1
2.6254725 0.11305827 -0.73105782 0 2
2.7300241 0.11756048 -0.73316032 0 3
2.8338583 0.12203179 -0.73314649 0 4
2.959604 0.12744667 -0.73667949 0 5
3.0954399 0.13329604 -0.7402994 0 6
3.2011142 0.13784659 -0.73448735 0 7
3.3308687 0.14343409 -0.73205036 0 8
3.5004048 0.15073466 -0.73559886 0 9
3.634721 0.15651861 -0.72895455 0 10
3.848717 0.16573371 -0.73508453 0 11
4.0656462 0.17507513 -0.73779196 0 12
4.2623467 0.18354547 -0.73302394 0 13
4.5187163 0.19458526 -0.73435181 0 14
4.7838006 0.20600034 -0.73229635 0 15
5.1069031 0.21991381 -0.73370808 0 16
5.4495907 0.23467064 -0.73180467 0 17
5.4425998 0.23436959 -0.67992008 0 18
5.4413037 0.23431379 -0.6289413 0 19
5.4594188 0.23509386 -0.5801574 0 20
5.4445782 0.23445478 -0.52793974 0 21
5.4521718 0.23478179 -0.47805524 0 22
5.428205 0.23374972 -0.42563659 0 23
5.4521446 0.23478061 -0.37704742 0 24
5.4422555 0.23435478 -0.32605273 0 25
5.4537263 0.23484872 -0.2763786 0 26
5.4483314 0.2346164 -0.22584049 0 27
5.4574666 0.23500979 -0.17590852 0 28
5.442462 0.23436366 -0.12528229 0 29
5.4432077 0.23439579 -0.075171195 0 30
5.4380269 0.23417267 -0.025031801 0 31
5.4421182 0.23434886 0.025050635 0 32
5.4481497 0.23460859 0.075239442 0 33
5.4456625 0.2345015 0.12535596 0 34
5.4518776 0.23476912 0.17572838 0 35
5.4333782 0.2339725 0.22522068 0 36
5.437151 0.23413496 0.27553862 0 37
5.4373965 0.23414554 0.32576162 0 38
5.4473128 0.23457254 0.37671328 0 39
5.4332075 0.23396514 0.42602885 0 40
5.446631 0.23454319 0.4775694 0 41
5.4445972 0.23445562 0.52794164 0 42
5.4408441 0.234294 0.57818347 0 43
5.4412875 0.2343131 0.62893951 0 44
5.4343953 0.2340163 0.67889512 0 45
5.4473338 0.23457345 0.73150158 0 46
5.4484334 0.23462081 0.7827757 0 47
5.4502416 0.23469868 0.83431411 0 48
5.4434037 0.23440422 0.88462591 0 49
5.4572883 0.23500212 0.93852592 0 50
5.4452 0.23448156 0.98813933 0 51
5.4411793 0.23430842 1.0392364 0 52
5.4502511 0.23469907 1.0930647 0 53
5.4327168 0.23394403 1.1416681 0 54
5.4338064 0.23399094 1.194229 0 55
5.4466605 0.23454447 1.2497221 0 56
5.431982 0.23391238 1.2991023 0 57
5.4465237 0.23453857 1.3557024 0 58
5.451138 0.23473726 1.410262 0 59
5.4420123 0.2343443 1.461477 0 60
5.4386401 0.23419909 1.5143789 0 61
5.4346733 0.23402828 1.5673187 0 62
5.4374104 0.23414612 1.6224667 0 63
2.4647064 0.13651483 -0.735888 0 0
2.5383883 0.1405959 -0.73249513 0 1
2.6308911 0.14571944 -0.73301011 0 2
2.7343934 0.15145221 -0.73477829 0 3
2.8397923 0.15729004 -0.7351265 0 4
2.9574533 0.16380703 -0.73658985 0 5
3.0803568 0.17061439 -0.73713821 0 6
3.1849103 0.17640539 -0.73121184 0 7
3.3400304 0.18499717 -0.73450834 0 8
3.5008657 0.19390549 -0.73614109 0 9
3.6554492 0.20246753 -0.7335555 0 10
3.8297665 0.21212259 -0.7319079 0 11
4.0474482 0.22417954 -0.73493433 0 12
4.2470155 0.23523313 -0.73082948 0 13
4.5126987 0.24994877 -0.73381793 0 14
4.7607846 0.26368973 -0.72921437 0 15
5.1144667 0.28327939 -0.73523957 0 16
5.4465709 0.30167395 -0.73184198 0 17
5.4334874 0.30094928 -0.67919272 0 18
5.4381232 0.30120605 -0.62895429 0 19
5.4395056 0.30128261 -0.57839125 0 20
5.4428854 0.30146983 -0.52809519 0 21
5.4468803 0.30169109 -0.47788039 0 22
5.4410739 0.30136949 -0.42690396 0 23
5.4391751 0.30126432 -0.37637824 0 24
5.4364514 0.30111346 -0.32590219 0 25
5.4467301 0.30168274 -0.27619117 0 26
5.4633832 0.30260515 -0.22660154 0 27
5.4477062 0.30173683 -0.17570025 0 28
5.4339485 0.30097482 -0.12516204 0 29
5.4420824 0.30142534 -0.075201154 0 30
5.4414334 0.3013894 -0.025062647 0 31
5.4458928 0.3016364 0.025083188 0 32
5.4411383 0.30137303 0.075188108 0 33
5.453361 0.30205005 0.12560917 0 34
5.4506488 0.30189979 0.17579514 0 35
5.4485755 0.30178496 0.22598734 0 36
5.4351172 0.30103955 0.27560231 0 37
5.4671602 0.30281433 0.32774311 0 38
5.4420071 0.30142117 0.37657422 0 39
5.4375982 0.30117697 0.42663127 0 40
5.4431415 0.30148399 0.47755238 0 41
5.4520206 0.30197579 0.52898151 0 42
5.446939 0.30169433 0.57918161 0 43
5.4327374 0.30090773 0.62833136 0 44
5.4544358 0.30210957 0.68181121 0 45
5.4455905 0.30161965 0.73171026 0 46
5.4484391 0.30177742 0.78325039 0 47
5.463408 0.30260652 0.83683586 0 48
5.4362893 0.30110449 0.88400459 0 49
5.4571362 0.30225912 0.93906796 0 50
5.4484806 0.30177972 0.98933327 0 51
5.436461 0.30111396 1.0389638 0 52
5.44523 0.30159968 1.092719 0 53
5.4370952 0.3011491 1.1432799 0 54
5.4417019 0.30140427 1.1966883 0 55
5.4659724 0.30274856 1.2549125 0 56
5.4353113 0.30105031 1.3006855 0 57
5.4389558 0.30125216 1.3546383 0 58
5.4355121 0.30106142 1.4070709 0 59
5.4322672 0.30088168 1.4597431 0 60
5.4363885 0.30110997 1.5146685 0 61
5.4510627 0.30192274 1.572997 0 62
5.4445281 0.30156079 1.6255741 0 63
2.46296 0.16681744 -0.73592341 0 0
2.5527797 0.17290096 -0.7372058 0 1
2.6211307 0.17753041 -0.73084372 0 2
2.7297788 0.1848892 -0.73409373 0 3
2.8265362 0.19144262 -0.73224896 0 4
2.9578571 0.20033705 -0.73724824 0 5
3.0566273 0.20702679 -0.73201352 0 6
3.202924 0.21693555 -0.73590434 0 7
3.3416426 0.22633101 -0.73541927 0 8
3.496624 0.23682797 -0.73580587 0 9
3.6412785 0.2466255 -0.73126513 0 10
3.847033 0.26056135 -0.73576444 0 11
4.0575128 0.27481723 -0.73731965 0 12
4.2529979 0.28805754 -0.73241317 0 13
4.5319304 0.30694976 -0.73750323 0 14
4.7638006 0.32265446 -0.73022884 0 15
5.098629 0.34533253 -0.73351783 0 16
5.4249496 0.36743435 -0.72948867 0 17
5.424087 0.36737594 -0.67853099 0 18
5.4497976 0.36911735 -0.63078177 0 19
5.4610233 0.36987767 -0.58111894 0 20
5.4549727 0.36946782 -0.52966869 0 21
5.4472446 0.36894444 -0.47827426 0 22
5.4483471 0.36901909 -0.4277983 0 23
5.446281 0.36887914 -0.3771553 0 24
5.4385781 0.36835745 -0.32627654 0 25
5.4459224 0.36885488 -0.27635932 0 26
5.4300547 0.36778015 -0.22538972 0 27
5.4304128 0.36780438 -0.1752751 0 28
5.4445815 0.36876404 -0.12550192 0 29
5.4359789 0.36818138 -0.075173691 0 30
5.4552598 0.36948729 -0.025145356 0 31
5.4447393 0.36877474 0.025096864 0 32
5.4520559 0.36927029 0.075396016 0 33
5.4390812 0.36839151 0.12537512 0 34
5.4287972 0.36769497 0.17522296 0 35
5.4465933 0.3689003 0.22607619 0 36
5.4537797 0.36938703 0.27675804 0 37
5.4535322 0.36937028 0.32717368 0 38
5.4381714 0.36832988 0.37659371 0 39
5.4637823 0.37006453 0.42901024 0 40
5.4367666 0.36823475 0.47735426 0 41
5.4471102 0.36893532 0.52890521 0 42
5.4469786 0.36892641 0.57962435 0 43
5.4535823 0.36937368 0.6312198 0 44
5.44909 0.3690694 0.6816588 0 45
5.4535046 0.3693684 0.73332846 0 46
5.4423914 0.36861572 0.78297341 0 47
5.4422092 0.36860335 0.83422005 0 48
5.4328175 0.36796728 0.88410896 0 49
5.4328547 0.36796981 0.93559748 0 50
5.4439793 0.36872324 0.98926437 0 51
5.4387903 0.36837181 1.0401961 0 52
5.446033 0.36886236 1.0937076 0 53
5.4521742 0.36927831 1.1473187 0 54
5.4337058 0.36802742 1.1958346 0 55
5.4448109 0.36877957 1.2510006 0 56
5.4432654 0.3686749 1.3035753 0 57
5.4558344 0.36952621 1.359871 0 58
5.4363694 0.36820784 1.4083583 0 59
5.4395604 0.36842397 1.4628098 0 60
5.4403586 0.36847803 1.5169224 0 61
5.4345074 0.36808175 1.5694071 0 62
5.4387121 0.36836651 1.6250671 0 63
2.4636743 0.19732465 -0.73680615 0 0
2.5407588 0.20349865 -0.73440152 0 1
2.6381283 0.2112973 -0.73625189 0 2
2.7316995 0.21879177 -0.73527813 0 3
2.8433583 0.22773492 -0.73727667 0 4
2.9582596 0.23693779 -0.73801893 0 5
3.0597961 0.24507022 -0.73343861 0 6
3.1936579 0.25579169 -0.73444253 0 7
3.3371508 0.26728457 -0.73509848 0 8
3.465606 0.27757302 -0.72994173 0 9
3.6632526 0.29340324 -0.7363469 0 10
3.8471427 0.30813169 -0.73645443 0 11
4.0149183 0.32156944 -0.73024285 0 12
4.2700644 0.34200501 -0.73602074 0 13
4.5276875 0.36263898 -0.73748267 0 14
4.7836404 0.38313919 -0.73393673 0 15
5.1032491 0.40873781 -0.73484999 0 16
5.4445171 0.43607122 -0.73278558 0 17
5.4485602 0.43639505 -0.68221223 0 18
5.4407644 0.43577063 -0.63030875 0 19
5.4412737 0.43581143 -0.57954377 0 20
5.4441366 0.43604073 -0.52909714 0 21
5.4491978 0.4364461 -0.4788807 0 22
5.4499655 0.43650758 -0.42831442 0 23
5.4549556 0.43690726 -0.37809947 0 24
5.4347944 0.43529251 -0.32634601 0 25
5.4205823 0.43415418 -0.27532351 0 26
5.4332385 0.43516788 -0.22572692 0 27
5.4445505 0.43607387 -0.17589119 0 28
5.4456139 0.43615907 -0.12563984 0 29
5.4445305 0.43607229 -0.075360402 0 30
5.4435921 0.43599713 -0.025114387 0 31
5.4531174 0.43676007 0.025158335 0 32
5.4309964 0.43498829 0.075173073 0 33
5.4602284 0.43732959 0.12597702 0 34
5.4546785 0.43688509 0.17621839 0 35
5.4507332 0.43656909 0.22645374 0 36
5.4474096 0.43630287 0.2766861 0 37
5.4394922 0.43566877 0.32662809 0 38
5.4591393 0.43724236 0.37838945 0 39
5.4347458 0.43528861 0.42711833 0 40
5.4383779 0.43557948 0.47792986 0 41
5.4580655 0.43715635 0.53045082 0 42
5.4470954 0.43627772 0.58016384 0 43
5.4397602 0.43569019 0.6301924 0 44
5.4432411 0.43596902 0.68154621 0 45
5.4301071 0.43491706 0.73084611 0 46
5.4419074 0.43586218 0.78361559 0 47
5.4407544 0.43576983 0.8347553 0 48
5.419704 0.43408382 0.8827768 0 49
5.437891 0.4355405 0.93731624 0 50
5.4354835 0.43534768 0.98861855 0 51
5.4320188 0.43507016 1.0398455 0 52
5.4509969 0.43659022 1.0956998 0 53
5.4401422 0.4357208 1.1458275 0 54
5.4616461 0.43744311 1.2030765 0 55
5.430912 0.43498155 1.2489418 0 56
5.4328184 0.43513423 1.3022563 0 57
5.4441595 0.43604255 1.3581948 0 58
5.436492 0.43542844 1.4096706 0 59
5.4395404 0.43567264 1.4641345 0 60
5.4417677 0.43585101 1.5186949 0 61
5.4459109 0.43618286 1.5741301 0 62
5.4379158 0.43554249 1.6263065 0 63
2.4567621 0.22720431 -0.73551887 0 0
2.5368164 0.23460782 -0.73404032 0 1
2.626734 0.24292351 -0.73385012 0 2
2.7271092 0.25220633 -0.7348218 0 3
2.8394055 0.26259163 -0.73703325 0 4
2.9288337 0.27086207 -0.73145348 0 5
3.057164 0.28273019 -0.7335856 0 6
3.1933205 0.29532212 -0.73514444 0 7
3.3494363 0.30975989 -0.73858792 0 8
3.4769225 0.32154995 -0.73310268 0 9
3.6391902 0.33655664 -0.73228669 0 10
3.8299987 0.35420287 -0.73395079 0 11
4.0229173 0.37204421 -0.73247445 0 12
4.2626009 0.39421046 -0.73551422 0 13
4.5131907 0.41738528 -0.73590171 0 14
4.7740183 0.44150695 -0.73323792 0 15
5.1158442 0.47311941 -0.73744565 0 16
5.4301295 0.50218487 -0.7316249 0 17
5.4304385 0.50221348 -0.68066502 0 18
5.4445992 0.50352305 -0.63142252 0 19
5.4336085 0.50250661 -0.57934165 0 20
5.4434657 0.50341821 -0.52959353 0 21
5.4532003 0.50431854 -0.47974122 0 22
5.4343495 0.50257516 -0.42754054 0 23
5.440063 0.50310355 -0.37746748 0 24
5.4522152 0.5042274 -0.3277396 0 25
5.4300776 0.5021801 -0.27609858 0 26
5.4400721 0.50310439 -0.22625074 0 27
5.4456825 0.50362325 -0.17611451 0 28
5.4586449 0.50482202 -0.12607418 0 29
5.4452248 0.50358087 -0.075450018 0 30
5.4456506 0.50362027 -0.025150556 0 31
5.448771 0.50390887 0.025164966 0 32
5.4316654 0.50232691 0.075262137 0 33
5.4392495 0.50302827 0.12562621 0 34
5.4499393 0.50401688 0.17625217 0 35
5.4443598 0.50350094 0.22642906 0 36
5.4405389 0.50314754 0.27663049 0 37
5.4403086 0.50312626 0.32702386 0 38
5.443552 0.50342619 0.3777096 0 39
5.4428525 0.50336152 0.42820951 0 40
5.4367905 0.50280088 0.47829753 0 41
5.4407516 0.50316721 0.52932942 0 42
5.4357886 0.50270826 0.57957411 0 43
5.4440198 0.50346947 0.6313554 0 44
5.4316921 0.50232941 0.68082207 0 45
5.4419556 0.50327855 0.73321831 0 46
5.4476447 0.50380468 0.78527445 0 47
5.4520669 0.50421369 0.83737892 0 48
5.444612 0.50352424 0.8877753 0 49
5.453382 0.50433528 0.94098419 0 50
5.4414501 0.50323182 0.99075443 0 51
5.4429836 0.50337362 1.0430505 0 52
5.4483304 0.5038681 1.0963262 0 53
5.4341846 0.5025599 1.1457877 0 54
5.4357772 0.50270718 1.1986492 0 55
5.4346213 0.50260025 1.2511214 0 56
5.4199343 0.50124198 1.300547 0 57
5.4402056 0.50311673 1.3586491 0 58
5.4448452 0.50354582 1.4133353 0 59
5.4405489 0.50314844 1.4659603 0 60
5.4322767 0.50238347 1.5176554 0 61
5.4499388 0.50401688 1.5769666 0 62
5.4500017 0.50402266 1.6316512 0 63
2.4729218 0.25940198 -0.74125576 0 0
2.530767 0.26546973 -0.73317897 0 1
2.6111777 0.27390459 -0.73038971 0 2
2.7386699 0.28727815 -0.73883283 0 3
2.8255613 0.29639277 -0.73433018 0 4
2.9396946 0.30836502 -0.73505729 0 5
3.0519502 0.32014027 -0.73322368 0 6
3.1928744 0.33492279 -0.7359342 0 7
3.308769 0.34707981 -0.73050618 0 8
3.4778092 0.3648116 -0.73417991 0 9
3.6399064 0.38181511 -0.73332012 0 10
3.8471811 0.4035576 -0.73813868 0 11
4.0275884 0.42248178 -0.73421532 0 12
4.2600503 0.4468663 -0.73596656 0 13
4.4808946 0.47003219 -0.73152274 0 14
4.7782359 0.50122243 -0.73477679 0 15
5.1083059 0.53584576 -0.73725307 0 16
5.4337125 0.56997991 -0.73299658 0 17
5.4439731 0.57105619 -0.68318993 0 18
5.4399424 0.57063335 -0.63164848 0 19
5.4308014 0.56967449 -0.57974541 0 20
5.452188 0.57191789 -0.53108615 0 21
5.4563594 0.57235545 -0.48060194 0 22
5.4504137 0.57173181 -0.42932501 0 23
5.4461446 0.571284 -0.37834829 0 24
5.4436922 0.57102674 -0.32762459 0 25
5.4341655 0.57002741 -0.27664188 0 26
5.4437227 0.5710299 -0.22667745 0 27
5.4431229 0.57096702 -0.17624547 0 28
5.4519258 0.57189041 -0.12607187 0 29
5.4396296 0.57060057 -0.07546401 0 30
5.4438686 0.57104522 -0.025172852 0 31
5.4395556 0.57059282 0.025152909 0 32
5.4340935 0.5700199 0.07538721 0 33
5.4398131 0.57061982 0.12579177 0 34
5.4426141 0.57091367 0.176229 0 35
5.441278 0.57077348 0.22657564 0 36
5.4568539 0.57240736 0.27779692 0 37
5.433228 0.56992906 0.32699481 0 38
5.4545021 0.57216066 0.3789289 0 39
5.4532628 0.57203066 0.42954946 0 40
5.4325242 0.56985521 0.47850251 0 41
5.4445295 0.5711146 0.53034014 0 42
5.4351645 0.5701322 0.58021116 0 43
5.4523606 0.57193601 0.63309044 0 44
5.4341955 0.57003057 0.68196291 0 45
5.4332428 0.56993067 0.73293328 0 46
5.4290652 0.5694924 0.78354645 0 47
5.4383121 0.57046235 0.83628041 0 48
5.4442897 0.57108939 0.88880056 0 49
5.4524374 0.57194406 0.94196349 0 50
5.4529791 0.57200092 0.99405909 0 51
5.4273181 0.56930918 1.0413114 0 52
5.4380093 0.57043064 1.0955781 0 53
5.4471869 0.57139331 1.1499237 0 54
5.4504652 0.57173723 1.2033473 0 55
5.443058 0.57096022 1.254585 0 56
5.4443145 0.57109201 1.3079834 0 57
5.4398541 0.57062411 1.3602108 0 58
5.4354906 0.57016641 1.4126202 0 59
5.435606 0.57017851 1.4664068 0 60
5.4470038 0.57137412 1.5236174 0 61
5.4486718 0.57154912 1.5785143 0 62
5.434834 0.57009757 1.6290859 0 63
2.4485126 0.28732017 -0.73494256 0 0
2.5172501 0.29538617 -0.73026013 0 1
2.6087437 0.30612245 -0.73070657 0 2
2.7122376 0.31826693 -0.73270237 0 3
2.8054237 0.32920185 -0.73009354 0 4
2.9378188 0.34473774 -0.7355926 0 5
3.056179 0.35862669 -0.73524356 0 6
3.1899769 0.37432715 -0.73627162 0 7
3.3003423 0.38727796 -0.72964197 0 8
3.4862561 0.40909398 -0.73696935 0 9
3.649544 0.42825493 -0.73626703 0 10
3.8007684 0.44600037 -0.73023075 0 11
4.0330558 0.47325805 -0.73621714 0 12
4.2488022 0.49857476 -0.7350269 0 13
4.4808965 0.52580982 -0.7325232 0 14
4.7692437 0.55964589 -0.7343967 0 15
5.1115479 0.59981352 -0.7387296 0 16
5.414114 0.63531804 -0.73135138 0 17
5.4363699 0.63792968 -0.68316853 0 18
5.4464226 0.63910931 -0.63326555 0 19
5.4378519 0.63810354 -0.58129174 0 20
5.4362793 0.63791901 -0.5302605 0 21
5.4363332 0.63792539 -0.47949269 0 22
5.4423265 0.63862866 -0.42927411 0 23
5.4360504 0.63789219 -0.3781634 0 24
5.4425564 0.6386556 -0.32800409 0 25
5.4409723 0.63846976 -0.27736714 0 26
5.4393411 0.63827831 -0.22680467 0 27
5.4514589 0.63970029 -0.17675672 0 28
5.4423013 0.63862568 -0.12602139 0 29
5.4382377 0.63814884 -0.075547852 0 30
5.4450932 0.63895327 -0.025212938 0 31
5.4398241 0.63833499 0.025188541 0 32
5.4390678 0.6382463 0.075559385 0 33
5.4389529 0.63823277 0.12594384 0 34
5.4418926 0.63857776 0.17644656 0 35
5.4361706 0.63790625 0.22667247 0 36
5.4325829 0.63748527 0.27693945 0 37
5.416018 0.63554144 0.32640469 0 38
5.4438787 0.63881075 0.37870795 0 39
5.4423547 0.63863194 0.42927632 0 40
5.4434166 0.63875657 0.48011747 0 41
5.4512815 0.63967949 0.53172386 0 42
5.4355664 0.63783538 0.58104748 0 43
5.450202 0.63955277 0.63370502 0 44
5.4436131 0.63877958 0.68407875 0 45
5.432107 0.63742942 0.73378187 0 46
5.4353232 0.63780683 0.78552216 0 47
5.4381142 0.6381343 0.83739334 0 48
5.4220691 0.63625151 0.88638324 0 49
5.4395566 0.63830358 0.94102299 0 50
5.440094 0.63836664 0.99306607 0 51
5.4253879 0.63664097 1.0423642 0 52
5.4525075 0.63982332 1.1000009 0 53
5.4382901 0.63815498 1.1496153 0 54
5.4435124 0.63876778 1.2034554 0 55
5.436285 0.63791972 1.2547371 0 56
5.4426217 0.63866329 1.3093646 0 57
5.436202 0.63790995 1.3611561 0 58
5.4409571 0.63846791 1.4159741 0 59
5.4449997 0.6389423 1.4709493 0 60
5.446569 0.63912648 1.5255789 0 61
5.4514966 0.63970464 1.5814918 0 62
5.4357276 0.63785428 1.6315813 0 63
2.4399717 0.31677806 -0.73349267 0 0
2.5187528 0.32700613 -0.73180729 0 1
2.6195049 0.34008664 -0.73483664 0 2
2.7254457 0.35384077 -0.73739016 0 3
2.8140445 0.36534342 -0.73345071 0 4
2.9166558 0.3786653 -0.73140419 0 5
3.055506 0.39669204 -0.73619944 0 6
3.1848691 0.41348705 -0.73621058 0 7
3.3165169 0.43057871 -0.73433286 0 8
3.4628363 0.44957516 -0.73313177 0 9
3.6579795 0.47491032 -0.73909104 0 10
3.820334 0.49598855 -0.73510599 0 11
4.024323 0.52247214 -0.73574018 0 12
4.2563343 0.55259383 -0.73744971 0 13
4.4935975 0.58339739 -0.73571664 0 14
4.7701187 0.61929774 -0.73564839 0 15
5.0479455 0.65536761 -0.73064709 0 16
5.4269681 0.7045756 -0.7342025 0 17
5.4400144 0.70626938 -0.6846661 0 18
5.4478874 0.70729154 -0.63439918 0 19
5.435956 0.70574248 -0.58197272 0 20
5.4296398 0.70492244 -0.53041828 0 21
5.4311686 0.70512098 -0.47976565 0 22
5.4316897 0.70518863 -0.42908663 0 23
5.4425001 0.70659208 -0.37918779 0 24
5.4331427 0.70537722 -0.32793468 0 25
5.435864 0.70573056 -0.27752811 0 26
5.4424763 0.70658904 -0.2272805 0 27
5.4313273 0.70514154 -0.17637178 0 28
5.4279909 0.7047084 -0.12588115 0 29
5.4448614 0.70689869 -0.075754888 0 30
5.4490452 0.70744187 -0.025269607 0 31
5.4382796 0.70604414 0.025219683 0 32
5.4459362 0.70703816 0.075769842 0 33
5.4303737 0.70501775 0.1259364 0 34
5.444592 0.7068637 0.17680253 0 35
5.4453359 0.70696032 0.22739993 0 36
5.4338598 0.70547038 0.2774258 0 37
5.4483676 0.70735389 0.32885364 0 38
5.4386687 0.70609468 0.37892088 0 39
5.4438086 0.70676202 0.430044 0 40
5.439847 0.70624769 0.48053226 0 41
5.450386 0.70761591 0.53244495 0 42
5.447402 0.70722854 0.58319819 0 43
5.4360256 0.70575154 0.6330179 0 44
5.4472308 0.70720631 0.68557435 0 45
5.443872 0.70677018 0.73648942 0 46
5.4394264 0.70619303 0.7873106 0 47
5.4449029 0.70690405 0.83971375 0 48
5.4488573 0.70741743 0.89211708 0 49
5.4409142 0.70638621 0.94268924 0 50
5.4294209 0.70489407 0.99262494 0 51
5.4342394 0.70551968 1.0456526 0 52
5.4400654 0.706276 1.0991597 0 53
5.4317842 0.70520091 1.1499861 0 54
5.4370522 0.70588481 1.2038552 0 55
5.4348316 0.70559657 1.2563093 0 56
5.4497108 0.70752829 1.3130637 0 57
5.4422607 0.70656109 1.3647455 0 58
5.4409752 0.70639414 1.4181322 0 59
5.4308386 0.70507807 1.4693547 0 60
5.4377756 0.70597875 1.525432 0 61
5.4384866 0.70607102 1.5801169 0 62
5.4474778 0.70723832 1.6375948 0 63
2.4393711 0.34725013 -0.73454022 0 0
2.5148842 0.35799959 -0.73190695 0 1
2.6167707 0.3725034 -0.73529899 0 2
2.7147772 0.38645482 -0.73573381 0 3
2.815928 0.40085387 -0.73517078 0 4
2.9091282 0.41412112 -0.73073828 0 5
3.0366275 0.43227097 -0.73287618 0 6
3.1670821 0.45084149 -0.733325 0 7
3.3208377 0.47272897 -0.73652101 0 8
3.4825983 0.49575591 -0.73855042 0 9
3.6206782 0.51541191 -0.7327795 0 10
3.8089797 0.54221708 -0.73414862 0 11
4.022747 0.57264733 -0.73668373 0 12
4.2237735 0.601264 -0.7330339 0 13
4.4756365 0.63711721 -0.73400319 0 14
4.7673898 0.67864895 -0.73645884 0 15
5.0372934 0.7170704 -0.73032629 0 16
5.4239502 0.77211189 -0.73502314 0 17
5.4325929 0.77334219 -0.6848771 0 18
5.4350791 0.77369612 -0.63396758 0 19
5.4395046 0.77432609 -0.58332795 0 20
5.4425049 0.77475315 -0.53256547 0 21
5.4346576 0.7736361 -0.48087782 0 22
5.4291053 0.77284575 -0.42960075 0 23
5.4371214 0.77398688 -0.37944749 0 24
5.4337125 0.77350157 -0.32851833 0 25
5.436729 0.77393097 -0.27803713 0 26
5.4256568 0.77235478 -0.22695756 0 27
5.4365635 0.77390742 -0.17683749 0 28
5.4391136 0.77427042 -0.12635034 0 29
5.4565411 0.77675122 -0.07604453 0 30
5.4582939 0.77700078 -0.02535489 0 31
5.4413304 0.77458596 0.025276089 0 32
5.4449563 0.77510214 0.075883083 0 33
5.435461 0.77375048 0.1262655 0 34
5.4504995 0.77589124 0.17729078 0 35
5.44838 0.77558953 0.22790809 0 36
5.4406071 0.77448297 0.27823544 0 37
5.4402609 0.77443373 0.32891423 0 38
5.4329038 0.77338648 0.37915316 0 39
5.4414668 0.77460545 0.43057889 0 40
5.453546 0.77632487 0.48254913 0 41
5.4468312 0.77536899 0.53298879 0 42
5.4460888 0.77526331 0.58403403 0 43
5.4390574 0.77426243 0.63443166 0 44
5.4413648 0.77459091 0.685983 0 45
5.433126 0.77341807 0.73626661 0 46
5.4357677 0.77379411 0.78809863 0 47
5.433558 0.77347958 0.83936751 0 48
5.4338622 0.77352285 0.89115191 0 49
5.4327903 0.77337033 0.94285816 0 50
5.4415464 0.77461672 0.99650782 0 51
5.4368162 0.77394342 1.0479004 0 52
5.4440718 0.77497625 1.1018113 0 53
5.4415998 0.77462435 1.1539936 0 54
5.444438 0.77502835 1.2075094 0 55
5.4285688 0.77276933 1.2569631 0 56
5.4405684 0.77447754 1.3130563 0 57
5.4403496 0.77444637 1.3665509 0 58
5.4323521 0.77330792 1.4182559 0 59
5.4374027 0.77402687 1.4735945 0 60
5.4327989 0.77337152 1.5265882 0 61
5.4414768 0.77460682 1.5836334 0 62
5.424367 0.7721712 1.6333783 0 63
2.4350853 0.37724331 -0.73459095 0 0
2.5417178 0.39376283 -0.74106938 0 1
2.6194296 0.40580195 -0.73739249 0 2
2.690136 0.41675577 -0.73038936 0 3
2.7950776 0.43301332 -0.73106205 0 4
2.9072185 0.45038617 -0.73159438 0 5
3.0435195 0.47150195 -0.73588312 0 6
3.1633513 0.49006626 -0.73380095 0 7
3.320261 0.51437467 -0.7377401 0 8
3.438417 0.53267944 -0.73051482 0 9
3.6308596 0.56249267 -0.7361843 0 10
3.8131952 0.59074008 -0.73630559 0 11
4.0322766 0.62468016 -0.73977971 0 12
4.2156544 0.65308905 -0.73296309 0 13
4.4647512 0.69167906 -0.73355734 0 14
4.7669215 0.7384913 -0.73773354 0 15
5.0520625 0.78266537 -0.7338075 0 16
5.4305115 0.84129465 -0.73725843 0 17
5.4334598 0.8417514 -0.68623942 0 18
5.441206 0.84295142 -0.63584322 0 19
5.4309287 0.84135926 -0.58347362 0 20
5.4355578 0.84207648 -0.53285861 0 21
5.4426322 0.84317237 -0.48246437 0 22
5.4273973 0.84081221 -0.43025118 0 23
5.4343429 0.84188825 -0.3799473 0 24
5.4380388 0.84246075 -0.32938132 0 25
5.4419737 0.84307033 -0.27881444 0 26
5.4478049 0.84397376 -0.22830088 0 27
5.4410944 0.84293413 -0.17730859 0 28
5.4495311 0.84424114 -0.1268239 0 29
5.4460974 0.84370917 -0.076037817 0 30
5.4283376 0.84095782 -0.02526186 0 31
5.4414806 0.84299397 0.025323026 0 32
5.4253125 0.84048921 0.075747624 0 33
5.4322596 0.84156549 0.12642196 0 34
5.4352536 0.84202927 0.17711827 0 35
5.4176369 0.8393001 0.22703664 0 36
5.4435978 0.84332198 0.27889764 0 37
5.4336362 0.84177876 0.32911465 0 38
5.4362226 0.84217936 0.3800787 0 39
5.4297762 0.84118074 0.43043977 0 40
5.4475784 0.84393871 0.48290285 0 41
5.4300947 0.84123003 0.53232306 0 42
5.4449849 0.84353691 0.58498377 0 43
5.4308434 0.84134603 0.63463229 0 44
5.4490609 0.84416837 0.68820983 0 45
5.4329672 0.84167504 0.7375918 0 46
5.4307146 0.84132612 0.78880632 0 47
5.4431949 0.84325957 0.84239435 0 48
5.4576683 0.84550178 0.89669341 0 49
5.4421329 0.84309506 0.94620723 0 50
5.4377337 0.84241349 0.99763113 0 51
5.4506712 0.84441775 1.0524925 0 52
5.4446082 0.8434785 1.1039356 0 53
5.4324598 0.84159648 1.1541626 0 54
5.4459972 0.84369367 1.2100646 0 55
5.438705 0.84256399 1.2616136 0 56
5.4497366 0.84427297 1.3176749 0 57
5.431778 0.84149086 1.3668935 0 58
5.4512548 0.84450817 1.4257942 0 59
5.4369073 0.84228545 1.4761555 0 60
5.4239058 0.84027129 1.5268773 0 61
5.4344096 0.84189856 1.5844697 0 62
5.4251585 0.84046531 1.6366048 0 63
2.432281 0.40749362 -0.735201 0 0
2.5136697 0.42112914 -0.73434597 0 1
2.600796 0.43572587 -0.73359978 0 2
2.7050376 0.45319006 -0.73589259 0 3
2.8114147 0.47101203 -0.73679429 0 4
2.9427979 0.49302337 -0.74201733 0 5
3.0300589 0.50764269 -0.73408228 0 6
3.1541884 0.52843881 -0.73312736 0 7
3.2927327 0.55164993 -0.73307532 0 8
3.4465401 0.57741815 -0.73369366 0 9
3.6242268 0.60718697 -0.73629767 0 10
3.8045094 0.63739073 -0.73608613 0 11
3.9914751 0.66871411 -0.73374712 0 12
4.2055254 0.70457518 -0.73265296 0 13
4.4787354 0.75034755 -0.73731518 0 14
4.7396927 0.7940672 -0.73497522 0 15
5.0450501 0.84522539 -0.73424304 0 16
5.4285936 0.9094826 -0.73846054 0 17
5.440979 0.91155761 -0.68855274 0 18
5.4360375 0.91072971 -0.63649982 0 19
5.4209852 0.90820795 -0.58356106 0 20
5.4314761 0.90996557 -0.5335151 0 21
5.4253283 0.90893555 -0.48188481 0 22
5.4274683 0.90929407 -0.43111056 0 23
5.4332585 0.91026419 -0.38062531 0 24
5.4413996 0.91162807 -0.33023888 0 25
5.4404688 0.91147214 -0.27929044 0 26
5.4394832 0.91130698 -0.22840448 0 27
5.4452147 0.91226721 -0.17779498 0 28
5.4469585 0.91255939 -0.12701559 0 29
5.4435573 0.91198957 -0.076153174 0 30
5.4265385 0.90913826 -0.0253036 0 31
5.4404244 0.91146463 0.02536835 0 32
5.4392614 0.91126984 0.07609307 0 33
5.4247522 0.90883899 0.12649776 0 34
5.4432325 0.91193509 0.17773025 0 35
5.4365368 0.91081339 0.22828075 0 36
5.4426055 0.91183007 0.27940011 0 37
5.4440317 0.91206908 0.33039862 0 38
5.4301605 0.9097451 0.38040826 0 39
5.4309144 0.9098714 0.4313843 0 40
5.4460196 0.91240209 0.48372266 0 41
5.4286709 0.90949553 0.53323948 0 42
5.4411669 0.91158903 0.58573353 0 43
5.4502115 0.91310441 0.63815945 0 44
5.4375653 0.91098565 0.68812066 0 45
5.4371257 0.91091204 0.73962116 0 46
5.4583731 0.91447175 0.79439694 0 47
5.4474411 0.91264027 0.84472442 0 48
5.4338865 0.9103694 0.89455765 0 49
5.4484611 0.91281116 0.94918728 0 50
5.4379096 0.91104341 0.99964315 0 51
5.4301724 0.90974712 1.050615 0 52
5.4494605 0.91297853 1.1071119 0 53
5.4339886 0.91038644 1.1567783 0 54
5.442935 0.91188532 1.2117841 0 55
5.4537249 0.91369301 1.2676082 0 56
5.4322886 0.91010159 1.3160626 0 57
5.4463201 0.91245246 1.3732728 0 58
5.4356875 0.91067111 1.4245437 0 59
5.4475951 0.91266608 1.4819924 0 60
5.4307389 0.90984201 1.5318345 0 61
5.4417353 0.91168427 1.5897539 0 62
5.4451985 0.91226453 1.64591 0 63
2.4269245 0.43733978 -0.73515183 0 0
2.5014412 0.45076796 -0.73233747 0 1
2.6046731 0.46937069 -0.73626572 0 2
2.6920824 0.48512211 -0.73393553 0 3
2.806597 0.50575799 -0.73710579 0 4
2.9069898 0.52384913 -0.73455709 0 5
3.0240235 0.54493898 -0.73418802 0 6
3.1486461 0.5673964 -0.73340541 0 7
3.3070962 0.59594965 -0.73784882 0 8
3.4314435 0.61835742 -0.73204321 0 9
3.6196218 0.65226775 -0.73693585 0 10
3.7889142 0.68277478 -0.73463768 0 11
3.979584 0.71713412 -0.73312682 0 12
4.2208095 0.76060373 -0.73688924 0 13
4.439013 0.79992473 -0.73233974 0 14
4.718627 0.85031211 -0.73327446 0 15
5.0644369 0.91262823 -0.73864192 0 16
5.360044 0.96589756 -0.73069602 0 17
5.444941 0.98119634 -0.69052875 0 18
5.4400849 0.98032123 -0.6383369 0 19
5.4363184 0.97964245 -0.58646405 0 20
5.4292655 0.97837156 -0.53443927 0 21
5.4393296 0.98018509 -0.48416233 0 22
5.4342704 0.97927344 -0.43257466 0 23
5.4245467 0.97752118 -0.38082826 0 24
5.4422164 0.98070526 -0.33099529 0 25
5.4425983 0.98077416 -0.27999771 0 26
5.4506078 0.98221743 -0.2293614 0 27
5.4309783 0.97868019 -0.17770964 0 28
5.4380741 0.97995889 -0.1270798 0 29
5.4283862 0.97821307 -0.076103456 0 30
5.432044 0.97887224 -0.02538348 0 31
5.4302573 0.97855026 0.025375132 0 32
5.4390974 0.98014325 0.076253623 0 33
5.4341993 0.97926062 0.12698925 0 34
5.4278698 0.97811997 0.17760792 0 35
5.4365015 0.97967547 0.22876781 0 36
5.4366765 0.979707 0.27969304 0 37
5.4386888 0.98006964 0.33078074 0 38
5.4459887 0.98138511 0.38233361 0 39
5.4358435 0.97955686 0.43269986 0 40
5.4412241 0.98052651 0.48433098 0 41
5.4329324 0.97903228 0.53480017 0 42
5.4269624 0.97795647 0.5854547 0 43
5.4382782 0.97999567 0.63812494 0 44
5.4226851 0.97718567 0.68770623 0 45
5.4324946 0.97895336 0.74057269 0 46
5.4405055 0.98039699 0.79349101 0 47
5.4464693 0.98147172 0.84638119 0 48
5.4300804 0.97851831 0.89584416 0 49
5.4391594 0.98015445 0.94959468 0 50
5.4497356 0.98206031 1.0039611 0 51
5.4412889 0.98053819 1.0550189 0 52
5.4296603 0.97844267 1.10545 0 53
5.4241838 0.97745579 1.1571623 0 54
5.4329128 0.97902876 1.2121414 0 55
5.4376516 0.97988278 1.2665771 0 56
5.4419613 0.98065931 1.3212274 0 57
5.451189 0.98232222 1.377442 0 58
5.4459829 0.9813841 1.4302964 0 59
5.427793 0.97810614 1.4797653 0 60
5.4400492 0.98031479 1.5377445 0 61
