# .PCD v0.7 - Point Cloud Data file format
VERSION 0.7
FIELDS x y z intensity ring
SIZE 4 4 4 4 2
TYPE F F F F U
COUNT 1 1 1 1 1
WIDTH 1320
HEIGHT 1
VIEWPOINT 0 0 0 1 0 0 0
POINTS 1320
DATA ascii
1.7577039 1.5016863 0.39721355 0 50
1.7435834 1.4896227 0.4157728 0 51
1.7455273 1.4912833 0.43808353 0 52
1.74222 1.4884578 0.45913601 0 53
1.7539268 1.4984595 0.48433203 0 54
1.7438979 1.4898913 0.50363219 0 55
1.7415463 1.4878823 0.52508205 0 56
1.7482132 1.4935781 0.54939973 0 57
1.7363963 1.4834824 0.56794047 0 58
1.751423 1.4963204 0.59540528 0 59
1.7518532 1.4966879 0.61821449 0 60
1.7525364 1.4972715 0.64123952 0 61
1.7470828 1.4926124 0.66207367 0 62
1.7515299 1.4964117 0.68676829 0 63
1.7093284 1.4971035 -0.67738813 0 0
1.7068751 1.4949547 -0.65375346 0 1
1.7189029 1.5054892 -0.63565868 0 2
1.7099319 1.4976319 -0.60987335 0 3
1.7096486 1.497384 -0.58741891 0 4
1.6988723 1.4879457 -0.56160909 0 5
1.7139339 1.5011371 -0.54438668 0 6
1.6961225 1.4855373 -0.51685506 0 7
1.7129248 1.5002534 -0.49997717 0 8
1.7060128 1.4941995 -0.47613868 0 9
1.7032582 1.4917868 -0.45366812 0 10
1.6965845 1.4859418 -0.43035337 0 11
1.7062572 1.4944136 -0.41122288 0 12
1.7112682 1.4988023 -0.39085516 0 13
1.7089086 1.4967357 -0.36883858 0 14
1.7038772 1.4923291 -0.34640211 0 15
1.7057087 1.4939332 -0.325461 0 16
1.7131457 1.5004468 -0.3055301 0 17
1.6983373 1.4874771 -0.28177589 0 18
1.7075398 1.4955369 -0.26212376 0 19
1.7047232 1.49307 -0.24059227 0 20
1.7146938 1.5018027 -0.22081833 0 21
1.6985528 1.4876658 -0.19779532 0 22
1.7008551 1.4896822 -0.17712443 0 23
1.7077345 1.4957074 -0.15684742 0 24
1.7058049 1.4940175 -0.13572714 0 25
1.7107604 1.4983577 -0.11514065 0 26
1.7041711 1.4925864 -0.093816645 0 27
1.70883 1.496667 -0.073151477 0 28
1.7138344 1.50105 -0.052395206 0 29
1.7083567 1.4962524 -0.031333111 0 30
1.7119973 1.4994409 -0.010466036 0 31
1.7153065 1.5023394 0.010486268 0 32
1.706048 1.4942304 0.031290766 0 33
1.710992 1.4985605 0.052308306 0 34
1.7055326 1.4937789 0.073010318 0 35
1.7074362 1.4954462 0.093996398 0 36
1.7001902 1.4890999 0.11442924 0 37
1.7176752 1.504414 0.13667163 0 38
1.7071373 1.4951844 0.15679257 0 39
1.7009604 1.4897745 0.17713539 0 40
1.7221373 1.508322 0.20054172 0 41
1.7118737 1.4993327 0.22045514 0 42
1.7069882 1.4950538 0.24091193 0 43
1.7204151 1.5068136 0.26410025 0 44
1.7149304 1.50201 0.28452891 0 45
1.7144276 1.5015695 0.30575871 0 46
1.7058669 1.4940717 0.32549119 0 47
1.7082373 1.4961478 0.34728852 0 48
1.6939745 1.4836558 0.36561531 0 49
1.7018023 1.4905117 0.38869312 0 50
1.7094417 1.4972026 0.41199034 0 51
1.714362 1.5015122 0.43486282 0 52
1.6984382 1.4875653 0.45238429 0 53
1.7165183 1.5034007 0.47907066 0 54
1.7092779 1.4970592 0.49891266 0 55
1.7082039 1.4961185 0.5205366 0 56
1.6998241 1.4887792 0.53990507 0 57
1.7114419 1.4989545 0.56576431 0 58
1.709378 1.4971468 0.58732593 0 59
1.7114674 1.4989768 0.61042106 0 60
1.7099233 1.4976245 0.63233799 0 61
1.7084101 1.4962993 0.6543414 0 62
1.7024448 1.4910746 0.67466027 0 63
1.6653314 1.4951491 -0.66718799 0 0
1.657653 1.4882554 -0.6418615 0 1
1.6678804 1.4974376 -0.6235525 0 2
1.6719347 1.5010777 -0.60285884 0 3
1.6646495 1.4945369 -0.57822829 0 4
1.6730057 1.5020391 -0.55912155 0 5
1.6621758 1.492316 -0.53373522 0 6
1.6593671 1.4897944 -0.5111984 0 7
1.6607231 1.4910117 -0.49005467 0 8
1.6754611 1.5042436 -0.47273847 0 9
1.6610813 1.4913334 -0.44728479 0 10
1.6776456 1.506205 -0.43021485 0 11
1.6628158 1.4928906 -0.40514675 0 12
1.6620659 1.4922173 -0.38377923 0 13
1.6717588 1.5009197 -0.36477628 0 14
1.6541845 1.4851413 -0.33998644 0 15
1.6622757 1.4924057 -0.32065099 0 16
1.6761384 1.5048517 -0.30220735 0 17
1.6565174 1.4872359 -0.2778506 0 18
1.6668193 1.496485 -0.25867805 0 19
1.6613523 1.4915767 -0.23704183 0 20
1.6687982 1.4982617 -0.21726404 0 21
1.6626104 1.4927062 -0.19573247 0 22
1.6630448 1.4930962 -0.17508565 0 23
1.6672058 1.496832 -0.15480383 0 24
1.6680374 1.4975786 -0.13417715 0 25
1.6594973 1.4899112 -0.11291496 0 26
1.6652917 1.4951135 -0.092681378 0 27
1.6670581 1.4966993 -0.072145693 0 28
1.660996 1.4912567 -0.051336553 0 29
1.6750526 1.5038769 -0.031059099 0 30
1.6634179 1.4934312 -0.010280542 0 31
1.6745193 1.5033981 0.010349153 0 32
1.6596776 1.4900731 0.030774012 0 33
1.665163 1.494998 0.051465347 0 34
1.6721952 1.5013115 0.072368018 0 35
1.6606154 1.4909151 0.092421122 0 36
1.6554564 1.4862833 0.11264002 0 37
1.6788243 1.5072631 0.13504484 0 38
1.6764966 1.5051733 0.1556665 0 39
1.663772 1.493749 0.1751622 0 40
1.6526242 1.4837404 0.19455685 0 41
1.6585218 1.4890354 0.21592613 0 42
1.6683445 1.4978542 0.23803948 0 43
1.6578895 1.4884677 0.25729221 0 44
1.6599185 1.4902894 0.27842107 0 45
1.6577809 1.4883702 0.2988975 0 46
1.6643648 1.4942813 0.32105398 0 47
1.6627427 1.492825 0.34174544 0 48
1.66531 1.4951299 0.36336917 0 49
1.6591421 1.4895924 0.38310415 0 50
1.6721531 1.5012738 0.4074218 0 51
1.6522279 1.4833846 0.42369673 0 52
1.6696784 1.4990519 0.44959977 0 53
1.661721 1.4919076 0.46886167 0 54
1.6500992 1.4814736 0.4869197 0 55
1.6708496 1.5001034 0.51473576 0 56
1.650453 1.4817911 0.52997094 0 57
1.6677458 1.4973167 0.55736369 0 58
1.670752 1.5000159 0.58034801 0 59
1.671715 1.5008805 0.60277963 0 60
1.6646674 1.4945529 0.62235123 0 61
1.6595395 1.4899491 0.64259195 0 62
1.6721692 1.5012882 0.66992742 0 63
1.6213897 1.492108 -0.65688449 0 0
1.6143755 1.485653 -0.63212991 0 1
1.619343 1.4902245 -0.61221081 0 2
1.6273942 1.4976337 -0.59339398 0 3
1.6341356 1.5038376 -0.57400894 0 4
1.6222459 1.4928958 -0.54825115 0 5
1.6267049 1.4969994 -0.52821618 0 6
1.6343783 1.5040609 -0.50915927 0 7
1.6299392 1.4999757 -0.48637667 0 8
1.6198163 1.4906601 -0.46217498 0 9
1.6242199 1.4947125 -0.44227472 0 10
1.6223785 1.4930179 -0.42071831 0 11
1.6244398 1.4949149 -0.40024498 0 12
1.622852 1.4934536 -0.37893629 0 13
1.6200479 1.4908732 -0.35746613 0 14
1.6214138 1.4921302 -0.33699667 0 15
1.6248734 1.4953139 -0.31695902 0 16
1.6105754 1.4821559 -0.29365018 0 17
1.6203514 1.4911525 -0.27483916 0 18
1.6227379 1.4933486 -0.25466746 0 19
1.6198002 1.4906452 -0.23371078 0 20
1.6147949 1.4860389 -0.21259615 0 21
1.6158514 1.4870113 -0.19236581 0 22
1.6178365 1.4888381 -0.1722405 0 23
1.6261902 1.4965256 -0.15269256 0 24
1.6130581 1.4844407 -0.13121299 0 25
1.6301684 1.5001867 -0.11216606 0 26
1.6182518 1.4892203 -0.091075659 0 27
1.6221122 1.4927728 -0.070989579 0 28
1.6304954 1.5004876 -0.050960276 0 29
1.6278552 1.498058 -0.030523211 0 30
1.6250193 1.4954482 -0.010156106 0 31
1.6201499 1.4909669 0.010125672 0 32
1.6305653 1.5005519 0.030574027 0 33
1.6201138 1.4909338 0.050635803 0 34
1.6248029 1.495249 0.071107343 0 35
1.6301135 1.5001361 0.091743238 0 36
1.6180665 1.4890497 0.11133337 0 37
1.6192471 1.4901361 0.13171643 0 38
1.6324947 1.5023274 0.15328452 0 39
1.6197836 1.4906299 0.17244779 0 40
1.6242915 1.4947784 0.19337061 0 41
1.6164631 1.4875741 0.21281579 0 42
1.6180196 1.4890065 0.23345387 0 43
1.6136475 1.484983 0.25324082 0 44
1.6256139 1.4959953 0.27573177 0 45
1.6248997 1.4953382 0.29626188 0 46
1.6317605 1.5016518 0.31830245 0 47
1.6197808 1.4906273 0.33665726 0 48
1.6307881 1.500757 0.35983595 0 49
1.636765 1.5062572 0.38218495 0 50
1.6338032 1.5035317 0.40255201 0 51
1.6247195 1.4951723 0.42132539 0 52
1.6248069 1.4952526 0.44243455 0 53
1.6163157 1.4874386 0.46117619 0 54
1.6211571 1.4918939 0.4837561 0 55
1.6214613 1.4921738 0.50513518 0 56
1.6252736 1.4956821 0.52775145 0 57
1.6227376 1.4933485 0.54841739 0 58
1.6292892 1.4993775 0.57230657 0 59
1.6246709 1.4951276 0.59240103 0 60
1.6279205 1.498118 0.61545366 0 61
1.6238585 1.4943798 0.63584304 0 62
1.6271741 1.4974312 0.65922797 0 63
1.5780776 1.4884979 -0.64670354 0 0
1.5719018 1.4826728 -0.62259054 0 1
1.5871217 1.4970287 -0.60694277 0 2
1.5874256 1.4973153 -0.58548945 0 3
1.5837259 1.4938257 -0.56271166 0 4
1.5883805 1.4982159 -0.54299116 0 5
1.5817996 1.4920087 -0.51955283 0 6
1.5872561 1.4971554 -0.50017661 0 7
1.5914233 1.5010861 -0.48035508 0 8
1.5960054 1.5054082 -0.46062803 0 9
1.5814687 1.4916966 -0.43559533 0 10
1.5852231 1.4952378 -0.41581959 0 11
1.5836999 1.4938012 -0.39470306 0 12
1.5915577 1.501213 -0.375911 0 13
1.5830735 1.4932103 -0.35333237 0 14
1.5942166 1.5037208 -0.33516169 0 15
1.5832666 1.4933925 -0.31240138 0 16
1.5897903 1.4995458 -0.29320028 0 17
1.5851429 1.4951621 -0.27196506 0 18
1.5823494 1.4925272 -0.25119025 0 19
1.5766617 1.4871625 -0.23010771 0 20
1.5779887 1.4884142 -0.21014413 0 21
1.5944717 1.5039614 -0.19200769 0 22
1.5810914 1.4913408 -0.17026797 0 23
1.5782264 1.4886384 -0.14989638 0 24
1.5917958 1.5014374 -0.13097534 0 25
1.5821345 1.4923246 -0.11011531 0 26
1.578873 1.4892483 -0.089883253 0 27
1.5815945 1.4918152 -0.070013888 0 28
1.5901793 1.4999127 -0.05027286 0 29
1.576369 1.4868864 -0.029898381 0 30
1.5821086 1.4923002 -0.010001849 0 31
1.581692 1.4919071 0.0099992156 0 32
1.5852253 1.49524 0.030066354 0 33
1.5808494 1.4911125 0.049977902 0 34
1.5798594 1.4901786 0.06993708 0 35
1.5949142 1.5043788 0.090796448 0 36
1.5855855 1.4955797 0.1103555 0 37
1.585646 1.4956368 0.13046932 0 38
1.5884864 1.4983159 0.15087086 0 39
1.5881743 1.4980216 0.17103073 0 40
1.5826907 1.4928492 0.19058901 0 41
1.5742468 1.4848845 0.20964581 0 42
1.588169 1.4980165 0.23178715 0 43
1.5947984 1.5042696 0.25316647 0 44
1.5615207 1.472881 0.26791218 0 45
1.5890851 1.4988806 0.29307023 0 46
1.5804312 1.490718 0.31184193 0 47
1.5878727 1.4977371 0.33382797 0 48
1.5796359 1.4899678 0.35256511 0 49
1.5903946 1.5001159 0.37563628 0 50
1.5829585 1.4931017 0.39451826 0 51
1.583282 1.4934069 0.41531041 0 52
1.5870019 1.4969157 0.43711939 0 53
1.5848078 1.494846 0.45739621 0 54
1.6008886 1.5100141 0.48321208 0 55
1.5887264 1.4985423 0.50063998 0 56
1.5814539 1.4916826 0.51943934 0 57
1.587772 1.497642 0.54278314 0 58
1.5869288 1.4968468 0.56384969 0 59
1.5850817 1.4951046 0.58462501 0 60
1.578599 1.4889898 0.60368353 0 61
1.5789535 1.4893241 0.6253835 0 62
1.5883591 1.4981959 0.65091705 0 63
1.5465878 1.4951547 -0.64128476 0 0
1.547549 1.496084 -0.62018454 0 1
1.5408533 1.4896109 -0.59620851 0 2
1.5475806 1.4961145 -0.57753509 0 3
1.5378621 1.4867191 -0.55286956 0 4
1.5564444 1.5046835 -0.53835809 0 5
1.549437 1.4979092 -0.51493406 0 6
1.5423821 1.491089 -0.49177653 0 7
1.5366805 1.4855769 -0.46930987 0 8
1.558163 1.5063452 -0.45501775 0 9
1.5482575 1.4967688 -0.43148452 0 10
1.5474823 1.4960195 -0.41071412 0 11
1.5523937 1.5007675 -0.39147034 0 12
1.5407462 1.4895074 -0.36820793 0 13
1.5465488 1.4951172 -0.34925723 0 14
1.5419832 1.4907033 -0.32800928 0 15
1.5386887 1.4875183 -0.30719143 0 16
1.5392563 1.4880672 -0.28723338 0 17
1.5488884 1.4973788 -0.26888359 0 18
1.5405042 1.4892734 -0.2474359 0 19
1.545765 1.4943594 -0.22826301 0 20
1.5427625 1.4914566 -0.2078796 0 21
1.5434351 1.4921069 -0.18805702 0 22
1.5601562 1.5082719 -0.16999786 0 23
1.5567985 1.5050259 -0.1496076 0 24
1.5428115 1.4915041 -0.12844419 0 25
1.5367134 1.4856087 -0.10821728 0 26
1.5391533 1.4879675 -0.088656962 0 27
1.5493276 1.4978034 -0.069395564 0 28
1.5385764 1.4874098 -0.049215965 0 29
1.5527531 1.501115 -0.029798307 0 30
1.5418937 1.4906168 -0.0098627461 0 31
1.5474871 1.4960243 0.0098985247 0 32
1.5380429 1.4868941 0.02951601 0 33
1.552477 1.5008481 0.049660616 0 34
1.547932 1.4964544 0.069333062 0 35
1.541374 1.4901143 0.088784881 0 36
1.5384413 1.4872792 0.10833897 0 37
1.5368228 1.4857146 0.1279456 0 38
1.5460347 1.4946201 0.1485732 0 39
1.5379477 1.4868019 0.16757797 0 40
1.5399545 1.4887421 0.18763295 0 41
1.5492579 1.4977361 0.20875482 0 42
1.5508304 1.4992563 0.229011 0 43
1.5376351 1.4864998 0.24697506 0 44
1.5347549 1.4837153 0.26643002 0 45
1.5518616 1.5002532 0.28958559 0 46
1.5365009 1.4854033 0.30675465 0 47
1.5335406 1.4825414 0.32621339 0 48
1.5437251 1.4923873 0.34861955 0 49
1.5477659 1.4962937 0.3698855 0 50
1.5449282 1.4935503 0.38958776 0 51
1.5519462 1.500335 0.41189891 0 52
1.54312 1.4918023 0.43005276 0 53
1.5354968 1.4844326 0.44839868 0 54
1.540671 1.4894347 0.47052857 0 55
1.5509158 1.4993389 0.49449742 0 56
1.5409836 1.4897369 0.51212466 0 57
1.5382977 1.4871403 0.53208131 0 58
1.5362602 1.4851707 0.55229372 0 59
1.5423825 1.4910892 0.57559526 0 60
1.5547349 1.5030309 0.60157979 0 61
1.5411466 1.4898945 0.61761874 0 62
1.5414704 1.4902076 0.63916284 0 63
1.5049566 1.4911397 -0.63157767 0 0
1.5080935 1.4942478 -0.61168981 0 1
1.5018576 1.4880692 -0.58815545 0 2
1.5057147 1.4918908 -0.56871444 0 3
1.5041976 1.4903877 -0.54731411 0 4
1.4944444 1.480724 -0.52317119 0 5
1.5045252 1.4907122 -0.50606185 0 6
1.5168688 1.5029426 -0.4894973 0 7
1.5041194 1.4903101 -0.46492711 0 8
1.5141442 1.5002429 -0.44751656 0 9
1.5039544 1.4901468 -0.42421222 0 10
1.5028361 1.4890386 -0.40369377 0 11
1.5095584 1.4956993 -0.38527727 0 12
1.512486 1.4986 -0.36583045 0 13
1.5032437 1.4894425 -0.3435877 0 14
1.513757 1.4998593 -0.32590356 0 15
1.5069857 1.4931501 -0.30450463 0 16
1.4959347 1.4822006 -0.282529 0 17
1.5023619 1.4885688 -0.26396427 0 18
1.5169882 1.5030608 -0.24660875 0 19
1.507206 1.4933684 -0.22526366 0 20
1.5048043 1.4909887 -0.20521981 0 21
1.5053114 1.4914912 -0.1856325 0 22
1.5031871 1.4893864 -0.16577341 0 23
1.5173247 1.5033942 -0.14757957 0 24
1.5091194 1.4952642 -0.12716033 0 25
1.4983909 1.4846343 -0.10679608 0 26
1.5147374 1.5008307 -0.088306926 0 27
1.5158517 1.5019348 -0.06871818 0 28
1.4939455 1.4802297 -0.048366889 0 29
1.4988528 1.485092 -0.029112175 0 30
1.5055847 1.491762 -0.0097470926 0 31
1.5022576 1.4884654 0.009725553 0 32
1.5044296 1.4906175 0.02922049 0 33
1.5185987 1.5046566 0.04916504 0 34
1.5152094 1.5012984 0.068689063 0 35
1.5096419 1.4957819 0.088009864 0 36
1.5125248 1.4986385 0.10780346 0 37
1.5065693 1.4927375 0.12694545 0 38
1.5017451 1.4879577 0.14606427 0 39
1.4992627 1.4854981 0.16534063 0 40
1.4994987 1.485732 0.18491569 0 41
1.5059198 1.492094 0.20537195 0 42
1.5116774 1.4977988 0.22593194 0 43
1.5023016 1.4885091 0.24422123 0 44
1.5127912 1.4989023 0.26579669 0 45
1.5084689 1.4946197 0.28489625 0 46
1.5026683 1.4888723 0.30363226 0 47
1.5136278 1.4997313 0.32587573 0 48
1.4928373 1.4791316 0.34120917 0 49
1.5062277 1.4923991 0.36431673 0 50
1.5124331 1.4985476 0.38601094 0 51
1.5151675 1.5012568 0.40700623 0 52
1.4962388 1.4825019 0.4220359 0 53
1.5069571 1.4931219 0.44539237 0 54
1.4938197 1.480105 0.46174344 0 55
1.4996271 1.485859 0.48393333 0 56
1.50872 1.4948685 0.50747281 0 57
1.4954644 1.4817348 0.52352834 0 58
1.5069478 1.4931126 0.54831481 0 59
1.5062649 1.4924361 0.56892228 0 60
1.5110277 1.4971551 0.59174663 0 61
1.5119804 1.498099 0.61326629 0 62
1.5097874 1.4959263 0.633605 0 63
1.4597276 1.4823356 -0.6201992 0 0
1.4739431 1.4967712 -0.60525763 0 1
1.4696171 1.4923784 -0.582672 0 2
1.480728 1.5036612 -0.56621772 0 3
1.471835 1.4946305 -0.54218501 0 4
1.4699082 1.4926739 -0.52096784 0 5
1.4684868 1.4912304 -0.50006998 0 6
1.4774108 1.5002927 -0.48268092 0 7
1.4701818 1.4929516 -0.46007663 0 8
1.4838589 1.5068407 -0.44400832 0 9
1.4737729 1.4965984 -0.42085803 0 10
1.4671052 1.4898274 -0.39898655 0 11
1.466176 1.4888839 -0.378849 0 12
1.4637849 1.4864558 -0.35844487 0 13
1.4733908 1.4962103 -0.34094375 0 14
1.4666333 1.4893482 -0.31967676 0 15
1.4670669 1.4897885 -0.30011749 0 16
1.4676278 1.4903581 -0.28062278 0 17
1.4693013 1.4920577 -0.26135936 0 18
1.4736174 1.4964405 -0.2425312 0 19
1.4684515 1.4911945 -0.22219521 0 20
1.4734347 1.4962549 -0.2034355 0 21
1.4878143 1.5108572 -0.18575178 0 22
1.4710618 1.4938455 -0.16424394 0 23
1.4790673 1.5019748 -0.14564388 0 24
1.479074 1.5019816 -0.12617536 0 25
1.4812173 1.504158 -0.10688224 0 26
1.4734399 1.4962603 -0.08696539 0 27
1.4758211 1.4986783 -0.067733765 0 28
1.4762723 1.4991366 -0.048387863 0 29
1.4787545 1.5016571 -0.029078253 0 30
1.4733112 1.4961295 -0.0096565271 0 31
1.4618051 1.4844452 0.0095811132 0 32
1.4730996 1.4959147 0.028967055 0 33
1.4627353 1.4853899 0.047944162 0 34
1.4724696 1.4952749 0.067579947 0 35
1.46495 1.4876388 0.086464301 0 36
1.4654315 1.4881277 0.10574316 0 37
1.4760847 1.4989461 0.12592036 0 38
1.468907 1.4916571 0.1446434 0 39
1.4705875 1.4933637 0.16419098 0 40
1.475015 1.4978598 0.18415381 0 41
1.4723196 1.4951226 0.20328154 0 42
1.4690301 1.4917822 0.22228278 0 43
1.4741881 1.49702 0.24262512 0 44
1.4643565 1.4870362 0.26047978 0 45
1.4764514 1.4993184 0.28230992 0 46
1.4635953 1.4862632 0.29940727 0 47
1.4747719 1.4976128 0.32145071 0 48
1.4683434 1.4910848 0.3397758 0 49
1.4782401 1.5011349 0.36198458 0 50
1.4729689 1.495782 0.38060427 0 51
1.4729062 1.4957184 0.40056419 0 52
1.4741482 1.4969795 0.42096522 0 53
1.4663116 1.4890215 0.43875769 0 54
1.4698088 1.492573 0.45995995 0 55
1.4628797 1.4855365 0.4779335 0 56
1.4730829 1.4958977 0.50163507 0 57
1.4662336 1.4889423 0.51966542 0 58
1.4675944 1.4903243 0.54062289 0 59
1.4688507 1.4916 0.56167597 0 60
1.4803381 1.5032654 0.58692265 0 61
1.4676497 1.4903804 0.60267329 0 62
1.4617453 1.4843844 0.62105644 0 63
1.4251645 1.4832833 -0.61321723 0 0
1.4245317 1.4826247 -0.59240896 0 1
1.438983 1.4976653 -0.57778406 0 2
1.4378213 1.4964563 -0.5568049 0 3
1.4334408 1.4918972 -0.53475899 0 4
1.4273597 1.485568 -0.51232326 0 5
1.4375216 1.4961443 -0.49575269 0 6
1.4408004 1.4995568 -0.47670823 0 7
1.4363745 1.4949504 -0.45521525 0 8
1.4403203 1.4990571 -0.43646306 0 9
1.4313917 1.4897645 -0.41395539 0 10
1.43071 1.4890549 -0.39403844 0 11
1.4245574 1.4826516 -0.37277776 0 12
1.4388846 1.4975629 -0.35682973 0 13
1.4340925 1.4925754 -0.3360717 0 14
1.4317745 1.4901628 -0.31604877 0 15
1.4266644 1.4848443 -0.2955651 0 16
1.4363632 1.4949387 -0.27813861 0 17
1.4283059 1.4865528 -0.25729918 0 18
1.4243132 1.4823972 -0.2373987 0 19
1.433071 1.4915122 -0.21960023 0 20
1.4233187 1.4813623 -0.199016 0 21
1.4237435 1.4818043 -0.18001387 0 22
1.4257179 1.4838593 -0.16120631 0 23
1.4292619 1.4875479 -0.14252995 0 24
1.4252304 1.4833519 -0.12312881 0 25
1.4361813 1.4947493 -0.10495087 0 26
1.4397979 1.4985135 -0.086060829 0 27
1.4340987 1.4925818 -0.066656202 0 28
1.4298881 1.4881996 -0.047463749 0 29
1.4352329 1.4937623 -0.028581472 0 30
1.4369127 1.4955105 -0.0095377695 0 31
1.4306748 1.4890183 0.0094963647 0 32
1.4291244 1.4874046 0.028459825 0 33
1.4378806 1.4965179 0.047729049 0 34
1.4332809 1.4917307 0.066618182 0 35
1.433748 1.4922169 0.085699216 0 36
1.426918 1.4851084 0.10427395 0 37
1.4238065 1.4818699 0.1230058 0 38
1.4407709 1.499526 0.14367764 0 39
1.4310707 1.4894303 0.16181153 0 40
1.4299657 1.4882804 0.1808006 0 41
1.4255998 1.4837364 0.19933495 0 42
1.4364867 1.4950672 0.22012363 0 43
1.4292982 1.4875855 0.23822959 0 44
1.4417114 1.500505 0.2597141 0 45
1.4389026 1.4975816 0.27863032 0 46
1.4310163 1.4893738 0.29646674 0 47
1.4367641 1.495356 0.31715018 0 48
1.4341934 1.4926803 0.33609533 0 49
1.4314653 1.489841 0.3549898 0 50
1.4350713 1.4935942 0.37552905 0 51
1.4249878 1.4830993 0.39246246 0 52
1.4328631 1.4912958 0.41438091 0 53
1.424129 1.4822056 0.43155661 0 54
1.4438685 1.5027502 0.45759028 0 55
1.4207439 1.4786825 0.4700723 0 56
1.4299836 1.4882989 0.4931531 0 57
1.4337198 1.4921875 0.51460612 0 58
1.4299717 1.4882865 0.53346479 0 59
1.4280452 1.4862814 0.55301905 0 60
1.4400866 1.498814 0.57822722 0 61
1.4314787 1.4898551 0.59529799 0 62
1.4301656 1.4884884 0.61536914 0 63
1.4054006 1.4991813 -0.61259896 0 0
1.3998994 1.493313 -0.58975703 0 1
1.3913881 1.4842337 -0.56595898 0 2
1.396614 1.4898083 -0.54789996 0 3
1.4075111 1.5014327 -0.53193301 0 4
1.3947426 1.487812 -0.50714421 0 5
1.3973138 1.4905549 -0.48817042 0 6
1.3939691 1.4869869 -0.46722785 0 7
1.4050333 1.4987895 -0.45108929 0 8
1.4010993 1.494593 -0.43011454 0 9
1.3980494 1.4913396 -0.40958527 0 10
1.4045372 1.4982604 -0.39187452 0 11
1.4000168 1.4934382 -0.37113339 0 12
1.3883625 1.4810063 -0.34879053 0 13
1.3879483 1.4805644 -0.32949954 0 14
1.3946515 1.487715 -0.31186885 0 15
1.4014848 1.4950043 -0.29413489 0 16
1.395437 1.4885528 -0.27373728 0 17
1.4041034 1.4977975 -0.25623769 0 18
1.3983501 1.4916604 -0.23611063 0 19
1.396181 1.4893464 -0.21673726 0 20
1.3843311 1.4767059 -0.1960887 0 21
1.3905441 1.4833335 -0.17810895 0 22
1.3868972 1.4794432 -0.15886179 0 23
1.4027869 1.4963932 -0.14171401 0 24
1.4032403 1.4968768 -0.12280992 0 25
1.3997214 1.4931231 -0.10362037 0 26
1.3995841 1.4929767 -0.08474806 0 27
1.4128542 1.5071323 -0.066525109 0 28
1.401841 1.4953842 -0.047139559 0 29
1.3957294 1.4888647 -0.028157247 0 30
1.4016991 1.4952327 -0.0094253616 0 31
1.4091729 1.5032054 0.0094756177 0 32
1.3929663 1.4859172 0.028101504 0 33
1.3966908 1.4898905 0.046966374 0 34
1.4021859 1.4957521 0.066022791 0 35
1.4011174 1.4946123 0.084840909 0 36
1.3918641 1.4847416 0.1030387 0 37
1.3957435 1.4888798 0.1221538 0 38
1.3990136 1.4923681 0.14133281 0 39
1.3924143 1.4853284 0.15949374 0 40
1.4050131 1.498768 0.17996223 0 41
1.4015516 1.4950755 0.19852796 0 42
1.4041958 1.4978961 0.21798143 0 43
1.3911178 1.4839455 0.23488946 0 44
1.3974518 1.490702 0.25502381 0 45
1.3980482 1.4913383 0.27424952 0 46
1.4046854 1.4984183 0.29480657 0 47
1.4028394 1.4964492 0.31369978 0 48
1.3959457 1.4890954 0.33139813 0 49
1.4017004 1.4952341 0.35214135 0 50
1.3944713 1.4875227 0.36966333 0 51
1.3972752 1.4905137 0.38984838 0 52
1.3941541 1.4871843 0.40844408 0 53
1.4075243 1.5014467 0.43208691 0 54
1.396903 1.4901166 0.44847903 0 55
1.4033713 1.4970165 0.47037929 0 56
1.4001619 1.493593 0.4891654 0 57
1.3900629 1.4828203 0.50544268 0 58
1.3901364 1.4828985 0.52536666 0 59
1.4101602 1.5042585 0.55321425 0 60
1.4006631 1.4941276 0.56973171 0 61
1.3963933 1.4895729 0.58827996 0 62
1.3894471 1.4821632 0.605645 0 63
1.3650967 1.4925516 -0.60298526 0 0
1.3695345 1.4974037 -0.58467752 0 1
1.3593153 1.4862305 -0.56030446 0 2
1.3600811 1.4870677 -0.54070061 0 3
1.3557261 1.4823061 -0.51921141 0 4
1.3585063 1.485346 -0.50057161 0 5
1.3626138 1.4898368 -0.48241124 0 6
1.3649143 1.4923521 -0.46360502 0 7
1.3595473 1.4864841 -0.44232082 0 8
1.3563919 1.4830341 -0.42195639 0 9
1.3671496 1.4947962 -0.40588689 0 10
1.3781396 1.5068123 -0.38964951 0 11
1.3743708 1.5026916 -0.36920527 0 12
1.3644211 1.4918129 -0.34735808 0 13
1.3711292 1.4991473 -0.32985803 0 14
1.3552769 1.4818151 -0.30711532 0 15
1.3632721 1.4905566 -0.28993979 0 16
1.3569485 1.4836426 -0.26974553 0 17
1.3659344 1.4934675 -0.2526044 0 18
1.3700761 1.4979959 -0.23442906 0 19
1.356598 1.4832594 -0.21340775 0 20
1.3638966 1.4912394 -0.19577679 0 21
1.3599644 1.4869401 -0.17652072 0 22
1.3674821 1.4951597 -0.1587318 0 23
1.3615589 1.4886835 -0.13938776 0 24
1.3618802 1.4890349 -0.12078346 0 25
1.3657016 1.4932129 -0.10245343 0 26
1.3647627 1.4921864 -0.083744265 0 27
1.3597665 1.4867238 -0.064881332 0 28
1.3698971 1.4978002 -0.046681181 0 29
1.3641746 1.4915434 -0.027888559 0 30
1.3580593 1.4848572 -0.0092539927 0 31
1.3761767 1.5046662 0.009377447 0 32
1.3651502 1.4926102 0.027908506 0 33
1.3670442 1.494681 0.046583965 0 34
1.3701743 1.4981033 0.065377936 0 35
1.3594661 1.4863954 0.083419256 0 36
1.3633711 1.490665 0.10227861 0 37
1.3521191 1.4783623 0.11991775 0 38
1.3700469 1.4979639 0.1402567 0 39
1.364439 1.4918326 0.15837859 0 40
1.3649976 1.4924433 0.17717402 0 41
1.3730086 1.5012022 0.19708474 0 42
1.3651767 1.4926391 0.21475726 0 43
1.368107 1.4958429 0.23409215 0 44
1.363289 1.4905751 0.25211519 0 45
1.3631583 1.4904323 0.27097997 0 46
1.3671916 1.4948421 0.29077339 0 47
1.3638246 1.4911608 0.30905226 0 48
1.3672719 1.49493 0.32893011 0 49
1.3665464 1.4941366 0.34789914 0 50
1.3569165 1.4836076 0.36451641 0 51
1.3684615 1.4962306 0.38691318 0 52
1.3601065 1.4870955 0.40379587 0 53
1.3677499 1.4954526 0.42548972 0 54
1.361779 1.4889241 0.4430469 0 55
1.3709327 1.4989325 0.46564922 0 56
1.3581454 1.4849514 0.4808293 0 57
1.3735679 1.5018139 0.50612146 0 58
1.3690501 1.4968742 0.52431422 0 59
1.3747191 1.5030725 0.54651999 0 60
1.3744922 1.5028244 0.56656033 0 61
1.3705652 1.4985307 0.58511758 0 62
1.3611381 1.4882234 0.6012367 0 63
1.3285419 1.4889383 -0.5948807 0 0
1.3251395 1.4851252 -0.57347751 0 1
1.3310498 1.4917489 -0.55617249 0 2
1.3331124 1.4940606 -0.53724229 0 3
1.3283931 1.4887716 -0.51571554 0 4
1.3257169 1.4857723 -0.49518412 0 5
1.3337494 1.4947745 -0.47866338 0 6
1.3397872 1.5015414 -0.4613069 0 7
1.3253727 1.4853865 -0.43711165 0 8
1.3258551 1.4859271 -0.41810924 0 9
1.3287809 1.4892062 -0.39990211 0 10
1.3324329 1.493299 -0.38188937 0 11
1.3278563 1.48817 -0.36159831 0 12
1.3342639 1.4953511 -0.34433571 0 13
1.3235987 1.4833983 -0.32278726 0 14
1.3358138 1.4970882 -0.3068532 0 15
1.3388617 1.5005041 -0.28865054 0 16
1.3345819 1.4957074 -0.26893505 0 17
1.3310939 1.4917985 -0.2495348 0 18
1.328975 1.4894236 -0.23051272 0 19
1.3268974 1.4870952 -0.21159612 0 20
1.3200953 1.4794719 -0.19208629 0 21
1.3287947 1.4892216 -0.17483862 0 22
1.3339025 1.494946 -0.15695593 0 23
1.3319261 1.4927311 -0.1382228 0 24
1.3247346 1.4846714 -0.11909917 0 25
1.3261826 1.4862942 -0.10085219 0 26
1.3274208 1.487682 -0.082569167 0 27
1.332384 1.4932443 -0.064446032 0 28
1.3393099 1.5010064 -0.046264332 0 29
1.3289198 1.4893618 -0.027540145 0 30
1.3326701 1.4935648 -0.0092054363 0 31
1.3296043 1.490129 0.009184259 0 32
1.3285562 1.4889544 0.027532611 0 33
1.3320426 1.4928616 0.046013292 0 34
1.326516 1.4866679 0.064162202 0 35
1.3350475 1.4962293 0.08304356 0 36
1.3344395 1.495548 0.10148011 0 37
1.3297379 1.4902787 0.11954899 0 38
1.3272884 1.4875336 0.13774152 0 39
1.3393193 1.501017 0.15759332 0 40
1.3415859 1.5035571 0.17652164 0 41
1.3240063 1.4838551 0.19265538 0 42
1.3305589 1.4911989 0.21218 0 43
1.325991 1.4860795 0.22999516 0 44
1.3226416 1.4823257 0.24795029 0 45
1.3335547 1.4945564 0.26872811 0 46
1.3338809 1.4949219 0.28757671 0 47
1.3254659 1.4854909 0.30447617 0 48
1.3393848 1.5010903 0.32663703 0 49
1.3289763 1.4894251 0.34297112 0 50
1.3224376 1.482097 0.36012268 0 51
1.3368068 1.498201 0.38314301 0 52
1.3360354 1.4973365 0.40208536 0 53
1.3299139 1.4904759 0.41938919 0 54
1.3241032 1.4839638 0.43669301 0 55
1.3234402 1.4832207 0.45567837 0 56
1.3301919 1.4907875 0.47738665 0 57
1.3310462 1.491745 0.49717471 0 58
1.3302063 1.4908036 0.51641947 0 59
1.3293594 1.4898546 0.53572983 0 60
1.3182561 1.4774107 0.55082673 0 61
1.3247985 1.484743 0.57332993 0 62
1.3382168 1.4997813 0.59921283 0 63
1.2958647 1.4887673 -0.5884015 0 0
1.2981471 1.4913895 -0.56968945 0 1
1.2975665 1.4907224 -0.54979944 0 2
1.2968351 1.489882 -0.52996552 0 3
1.3034556 1.4974883 -0.51314408 0 4
1.2911456 1.4833456 -0.48904702 0 5
1.2902846 1.4823565 -0.4695707 0 6
1.29219 1.4845455 -0.4511697 0 7
1.2973946 1.490525 -0.43389633 0 8
1.3022962 1.4961562 -0.41645008 0 9
1.292909 1.4853717 -0.39457336 0 10
1.2996515 1.4931178 -0.37772754 0 11
1.2926663 1.4850928 -0.35696137 0 12
1.3031802 1.4971718 -0.34103918 0 13
1.2875248 1.4791859 -0.31840155 0 14
1.3086547 1.5034611 -0.30483812 0 15
1.3071991 1.501789 -0.28578398 0 16
1.3069593 1.5015134 -0.26706916 0 17
1.3015887 1.4953433 -0.24743189 0 18
1.2904971 1.4826006 -0.22698368 0 19
1.2959125 1.4888222 -0.20955861 0 20
1.293481 1.4860288 -0.19085813 0 21
1.2961159 1.4890559 -0.17293496 0 22
1.2984765 1.4917678 -0.15493417 0 23
1.2909539 1.4831253 -0.13585316 0 24
1.2965963 1.4896077 -0.11820725 0 25
1.2972698 1.4903816 -0.10003957 0 26
1.2923526 1.4847323 -0.081517294 0 27
1.2984848 1.4917774 -0.063688807 0 28
1.3011632 1.4948545 -0.045578126 0 29
1.2923154 1.4846896 -0.027157856 0 30
1.2950498 1.4878311 -0.0090712616 0 31
1.3015082 1.4952508 0.0091164988 0 32
1.3032496 1.4972514 0.027387636 0 33
1.2978165 1.4910097 0.045460898 0 34
1.3013028 1.4950148 0.063827023 0 35
1.2998785 1.4933785 0.081992 0 36
1.3012961 1.4950072 0.10035006 0 37
1.3017695 1.4955511 0.11867888 0 38
1.2868633 1.478426 0.13542271 0 39
1.3017737 1.4955559 0.1553276 0 40
1.2949491 1.4877152 0.17277928 0 41
1.2925166 1.4849207 0.1907158 0 42
1.3013591 1.4950795 0.21043935 0 43
1.2979085 1.4911153 0.22828726 0 44
1.2995954 1.4930532 0.24705295 0 45
1.2962258 1.4891821 0.26487586 0 46
1.290351 1.4824328 0.28210059 0 47
1.3006737 1.4942921 0.30297905 0 48
1.2948641 1.4876177 0.32021651 0 49
1.3017757 1.4955581 0.34067163 0 50
1.3019774 1.4957899 0.35953256 0 51
1.2973866 1.4905158 0.37706929 0 52
1.3068902 1.5014341 0.39884019 0 53
1.2982842 1.4915469 0.41516709 0 54
1.2920043 1.4843323 0.43209362 0 55
1.2924381 1.4848306 0.45125636 0 56
1.2984865 1.4917793 0.47255558 0 57
1.2906414 1.4827664 0.48885602 0 58
1.3021489 1.4959871 0.51262969 0 59
1.3012403 1.4949431 0.53176582 0 60
1.2932775 1.4857949 0.54798216 0 61
1.3020486 1.4958718 0.5714016 0 62
1.2908043 1.4829535 0.58610374 0 63
1.2641685 1.4889317 -0.58227867 0 0
1.2579613 1.4816208 -0.56000692 0 1
1.2610047 1.4852053 -0.54200488 0 2
1.2601854 1.4842403 -0.52240717 0 3
1.2608749 1.4850525 -0.50353181 0 4
1.2656767 1.490708 -0.48630643 0 5
1.268012 1.4934585 -0.46811295 0 6
1.268737 1.4943123 -0.44936267 0 7
1.2621022 1.486498 -0.42817396 0 8
1.27358 1.5000163 -0.41313428 0 9
1.2657759 1.4908248 -0.39185774 0 10
1.2635655 1.4882215 -0.3725301 0 11
1.2578092 1.4814416 -0.35233954 0 12
1.2626787 1.4871769 -0.33520037 0 13
1.2677548 1.4931556 -0.31802893 0 14
1.2584929 1.482247 -0.29737663 0 15
1.2689776 1.4945958 -0.28142449 0 16
1.2616626 1.4859802 -0.26152715 0 17
1.2686352 1.4941924 -0.24464169 0 18
1.2688762 1.4944763 -0.22639596 0 19
1.2625561 1.4870325 -0.20710583 0 20
1.2599462 1.4839586 -0.18858816 0 21
1.2714413 1.4974974 -0.17208663 0 22
1.2698377 1.4956088 -0.15369977 0 23
1.2608379 1.4850088 -0.13459536 0 24
1.2670406 1.4923145 -0.11717682 0 25
1.2664752 1.4916484 -0.099071793 0 26
1.2644409 1.4892524 -0.080905698 0 27
1.2672282 1.4925354 -0.063051134 0 28
1.2586076 1.4823819 -0.044722583 0 29
1.2497957 1.4720033 -0.026642673 0 30
1.2641057 1.4888576 -0.0089820698 0 31
1.2598273 1.4838185 0.0089516696 0 32
1.2676374 1.4930172 0.027023016 0 33
1.2695725 1.4952964 0.045112204 0 34
1.2718996 1.4980372 0.063283563 0 35
1.2564408 1.4798299 0.080393806 0 36
1.2576137 1.4812113 0.098378584 0 37
1.2580527 1.4817284 0.11634561 0 38
1.2643267 1.489118 0.1349678 0 39
1.2684942 1.4940264 0.15353715 0 40
1.2636393 1.4883083 0.17103064 0 41
1.2621416 1.4865444 0.18891676 0 42
1.2747838 1.5014344 0.20911165 0 43
1.2598448 1.4838392 0.22478455 0 44
1.2603748 1.4844635 0.24304877 0 45
1.2663244 1.4914708 0.26249349 0 46
1.2581801 1.4818786 0.27902991 0 47
1.2608049 1.48497 0.29792294 0 48
1.2625135 1.4869823 0.31671411 0 49
1.2747439 1.5013874 0.33840328 0 50
1.2614923 1.4857796 0.35337123 0 51
1.2634712 1.4881104 0.37250227 0 52
1.2659924 1.4910798 0.39192477 0 53
1.2617594 1.4860942 0.40929982 0 54
1.2712804 1.497308 0.43128768 0 55
1.2613597 1.4856235 0.44674978 0 56
1.2714446 1.4975013 0.46938014 0 57
1.2559339 1.4792329 0.48256299 0 58
1.2589 1.4827265 0.50274312 0 59
1.2572848 1.480824 0.52120477 0 60
1.2713131 1.4973465 0.54643565 0 61
1.2583057 1.4820263 0.56016016 0 62
1.2621288 1.4865294 0.58133924 0 63
1.2314485 1.4870735 -0.57558674 0 0
1.2428666 1.5008619 -0.56146055 0 1
1.2321724 1.4879477 -0.53743577 0 2
1.2410902 1.4987166 -0.52209151 0 3
1.2311817 1.4867513 -0.49893692 0 4
1.2313675 1.4869757 -0.48011303 0 5
1.2309941 1.4865248 -0.46116024 0 6
1.2334713 1.4895161 -0.44332582 0 7
1.2384108 1.495481 -0.42634287 0 8
1.2372638 1.4940959 -0.40728262 0 9
1.2327851 1.4886876 -0.38728225 0 10
1.2327104 1.4885974 -0.36880195 0 11
1.2345937 1.4908717 -0.35094517 0 12
1.2330239 1.488976 -0.33216336 0 13
1.2264284 1.4810113 -0.31220663 0 14
1.2406535 1.4981892 -0.29749191 0 15
1.2217327 1.475341 -0.27494937 0 16
1.2249311 1.4792032 -0.25766402 0 17
1.2253132 1.4796646 -0.23977806 0 18
1.2292857 1.4844618 -0.22257216 0 19
1.2334636 1.489507 -0.20532253 0 20
1.241415 1.4991089 -0.18855931 0 21
1.2342674 1.4904776 -0.169523 0 22
1.2324313 1.4882603 -0.15137573 0 23
1.2337826 1.4898921 -0.13365281 0 24
1.2275566 1.4823737 -0.11520234 0 25
1.2340097 1.4901663 -0.097958133 0 26
1.2320291 1.4877746 -0.07999634 0 27
1.2396735 1.4970058 -0.062591299 0 28
1.2340537 1.4902196 -0.044497866 0 29
1.234071 1.4902405 -0.026696082 0 30
1.231167 1.4867334 -0.0088772522 0 31
1.2379836 1.4949652 0.0089264037 0 32
1.2464153 1.5051471 0.026963118 0 33
1.2288406 1.4839242 0.044309888 0 34
1.2312163 1.4867932 0.062164295 0 35
1.2332085 1.4891988 0.080072917 0 36
1.225788 1.480238 0.097305477 0 37
1.2371485 1.4939567 0.11610251 0 38
1.2353165 1.4917445 0.13381897 0 39
1.2446938 1.5030682 0.15288191 0 40
1.2391402 1.4963617 0.17019226 0 41
1.2318223 1.4875249 0.18710226 0 42
1.2402954 1.4977568 0.20645975 0 43
1.2322547 1.4880471 0.22310974 0 44
1.2376677 1.4945836 0.24219567 0 45
1.2307547 1.4862357 0.25888902 0 46
1.2313684 1.4869769 0.27711788 0 47
1.2294067 1.4846079 0.2947951 0 48
1.2416178 1.4993538 0.31607336 0 49
1.2383498 1.4954073 0.33359808 0 50
1.2409801 1.4985838 0.35276055 0 51
1.2304581 1.4858776 0.36812815 0 52
1.2400533 1.4974645 0.38956559 0 53
1.235908 1.4924587 0.40683633 0 54
1.2249184 1.4791878 0.42169788 0 55
1.2319536 1.4876834 0.44278035 0 56
1.235685 1.4921895 0.46291757 0 57
1.241388 1.4990762 0.48402002 0 58
1.2366526 1.4933579 0.50115401 0 59
1.2325612 1.4884171 0.51850367 0 60
1.2354646 1.4919232 0.53887171 0 61
1.2277782 1.4826413 0.55464441 0 62
1.2425033 1.500423 0.5807538 0 63
1.2020402 1.4884434 -0.57035273 0 0
1.2153511 1.5049257 -0.55734801 0 1
1.1961262 1.4811202 -0.52961725 0 2
1.204643 1.4916663 -0.51443642 0 3
1.1914014 1.4752697 -0.49013036 0 4
1.1988006 1.4844319 -0.47449625 0 5
1.204752 1.4918013 -0.45816672 0 6
1.2115808 1.500257 -0.44205505 0 7
1.2008489 1.4869682 -0.41967458 0 8
1.2066501 1.4941517 -0.40322274 0 9
1.1990573 1.4847497 -0.38239321 0 10
1.2056911 1.4929641 -0.36618304 0 11
1.2048697 1.4919471 -0.3476845 0 12
1.2007576 1.4868553 -0.32837161 0 13
1.2114868 1.5001407 -0.31307518 0 14
1.2045655 1.4915702 -0.29321426 0 15
1.1974202 1.4827225 -0.27356035 0 16
1.2021852 1.4886228 -0.25671044 0 17
1.1924528 1.4765717 -0.23688281 0 18
1.2082679 1.4961549 -0.22208093 0 19
1.2035943 1.4903678 -0.2033857 0 20
1.1988838 1.4845349 -0.18485793 0 21
1.1951457 1.4799062 -0.16663656 0 22
1.1976308 1.4829832 -0.14932981 0 23
1.2062767 1.4936892 -0.13265279 0 24
1.2089707 1.4970251 -0.11517695 0 25
1.2012458 1.4874597 -0.096801884 0 26
1.2048625 1.491938 -0.079417579 0 27
1.2007475 1.4868426 -0.061544374 0 28
1.2006271 1.4866935 -0.043948419 0 29
1.2029768 1.4896032 -0.026417678 0 30
1.2063159 1.4937378 -0.0088298367 0 31
1.2044063 1.4913732 0.0088158594 0 32
1.2042202 1.4911426 0.026444981 0 33
1.19574 1.480642 0.043769527 0 34
1.2050126 1.4921238 0.061762981 0 35
1.1979413 1.4833678 0.078961372 0 36
1.2001538 1.4861076 0.096713893 0 37
1.2076989 1.4954503 0.11505578 0 38
1.1943592 1.4789323 0.13134225 0 39
1.2004687 1.4864973 0.14968367 0 40
1.2079395 1.4957483 0.16842036 0 41
1.1930621 1.477326 0.18396027 0 42
1.2094663 1.4976389 0.20437796 0 43
1.2080964 1.4959425 0.22204942 0 44
1.2042747 1.4912101 0.23923123 0 45
1.214172 1.5034657 0.25927007 0 46
1.2044501 1.4914275 0.27516639 0 47
1.2041442 1.4910488 0.29311174 0 48
1.2067653 1.4942943 0.31185505 0 49
1.1974472 1.482756 0.32746628 0 50
1.2072843 1.4949369 0.34838125 0 51
1.2049052 1.4919909 0.36594436 0 52
1.2028853 1.4894898 0.383614 0 53
1.2022847 1.488746 0.40176392 0 54
1.2018125 1.4881614 0.42001134 0 55
1.2064703 1.4939289 0.44019046 0 56
1.1980865 1.4835477 0.45563188 0 57
1.1977943 1.4831859 0.47409797 0 58
1.1990988 1.4848012 0.49329701 0 59
1.2095249 1.4977114 0.51652122 0 60
1.1968724 1.4820441 0.52994758 0 61
1.1917148 1.4756578 0.54650867 0 62
1.2067995 1.4943366 0.57261097 0 63
1.1805345 1.4991565 -0.56885237 0 0
1.1712787 1.4874027 -0.54548317 0 1
1.1769232 1.4945706 -0.52921188 0 2
1.1786648 1.4967823 -0.51116371 0 3
1.1711445 1.4872322 -0.48928326 0 4
1.1704687 1.486374 -0.47048092 0 5
1.1767468 1.4943466 -0.4544701 0 6
1.1666653 1.4815441 -0.43228152 0 7
1.1581054 1.4706739 -0.41102549 0 8
1.1624498 1.4761909 -0.39448839 0 9
1.1718446 1.4881214 -0.37952173 0 10
1.1685305 1.4839127 -0.36041147 0 11
1.1689016 1.4843838 -0.34254649 0 12
1.1701615 1.485984 -0.32497683 0 13
1.1741207 1.4910117 -0.30813363 0 14
1.1779511 1.495876 -0.29119125 0 15
1.1713067 1.4874383 -0.27175251 0 16
1.1789215 1.4971082 -0.25565448 0 17
1.1704992 1.4864128 -0.23613471 0 18
1.1759734 1.4933645 -0.21950373 0 19
1.1800861 1.4985873 -0.20251182 0 20
1.1713358 1.4874753 -0.18341668 0 21
1.1725898 1.4890677 -0.16603203 0 22
1.1752926 1.4924999 -0.14882161 0 23
1.1642734 1.4785067 -0.1300232 0 24
1.1795055 1.4978498 -0.11411589 0 25
1.1577723 1.470251 -0.094748318 0 26
1.1674948 1.4825975 -0.078150272 0 27
1.1760995 1.4935247 -0.061217722 0 28
1.1821029 1.5011483 -0.043942709 0 29
1.1667212 1.4816152 -0.026019614 0 30
1.1657351 1.4803629 -0.0086653857 0 31
1.1719707 1.4882815 0.0087117376 0 32
1.1770257 1.4947007 0.02624942 0 33
1.1668766 1.4818124 0.043376692 0 34
1.1715097 1.4876961 0.060978811 0 35
1.1769583 1.4946152 0.078783751 0 36
1.1755843 1.4928705 0.096205994 0 37
1.1731849 1.4898232 0.11350437 0 38
1.1729177 1.4894841 0.13098857 0 39
1.1687968 1.4842509 0.14799906 0 40
1.1747302 1.4917856 0.16633511 0 41
1.1743722 1.491331 0.18389213 0 42
1.1766291 1.494197 0.20191854 0 43
1.1789809 1.4971838 0.22006512 0 44
1.1726048 1.4890867 0.2365595 0 45
1.1752716 1.4924732 0.25486299 0 46
1.1692612 1.4848406 0.27127793 0 47
1.1755093 1.4927751 0.29058763 0 48
1.1734654 1.4901795 0.30796164 0 49
1.1671664 1.4821804 0.32414502 0 50
1.1731926 1.4898331 0.34380397 0 51
1.1691051 1.4846424 0.3605887 0 52
1.1746888 1.4917332 0.38044289 0 53
1.1826783 1.5018791 0.40135315 0 54
1.1723746 1.4887943 0.41608983 0 55
1.1657333 1.4803606 0.4319362 0 56
1.1777031 1.495561 0.45483944 0 57
1.174014 1.4908761 0.47190595 0 58
1.1842465 1.5038705 0.49475709 0 59
1.1813636 1.5002095 0.51233417 0 60
1.1708671 1.4868799 0.52648872 0 61
1.1789246 1.4971122 0.54904395 0 62
1.1740006 1.4908593 0.56570399 0 63
1.1324297 1.4750262 -0.55437052 0 0
1.1379446 1.4822097 -0.53840637 0 1
1.135046 1.4784341 -0.5185169 0 2
1.1345625 1.4778043 -0.49988037 0 3
1.1462742 1.4930593 -0.48652637 0 4
1.1455594 1.4921281 -0.46780816 0 5
1.1522756 1.5008761 -0.45211256 0 6
1.1397394 1.4845474 -0.42903617 0 7
1.1384196 1.4828283 -0.41047904 0 8
1.1452675 1.4917479 -0.39485246 0 9
1.1400074 1.4848964 -0.37509584 0 10
1.1506606 1.4987727 -0.36055687 0 11
1.1482899 1.4956847 -0.3418701 0 12
1.1458243 1.4924731 -0.32329023 0 13
1.1332008 1.4760306 -0.30213508 0 14
1.1437283 1.489743 -0.28723797 0 15
1.1422044 1.4877582 -0.26922458 0 16
1.1483262 1.4957318 -0.25298905 0 17
1.1420181 1.4875154 -0.23406133 0 18
1.1375848 1.4817408 -0.21572284 0 19
1.1449046 1.4912753 -0.19960615 0 20
1.1480219 1.4953357 -0.18263143 0 21
1.1424299 1.4880519 -0.16434 0 22
1.1338654 1.4768962 -0.14586443 0 23
1.1411535 1.4863892 -0.1294726 0 24
1.1416779 1.4870723 -0.11221676 0 25
1.153946 1.503052 -0.095940456 0 26
1.1396713 1.4844587 -0.077503823 0 27
1.1439412 1.4900203 -0.06049294 0 28
1.1491523 1.4968079 -0.04339873 0 29
1.1395409 1.4842888 -0.025818538 0 30
1.1387572 1.4832681 -0.0085997758 0 31
1.1427069 1.4884126 0.0086296033 0 32
1.1385506 1.4829991 0.025796102 0 33
1.1491727 1.4968345 0.043399505 0 34
1.1432654 1.48914 0.060457204 0 35
1.1446013 1.4908803 0.077839091 0 36
1.1493013 1.497002 0.095554285 0 37
1.1432232 1.4890852 0.11236864 0 38
1.1382338 1.4825863 0.12914133 0 39
1.1458315 1.4924825 0.14740379 0 40
1.1512771 1.4995756 0.16561268 0 41
1.1378787 1.4821237 0.1810178 0 42
1.1485693 1.4960487 0.20024507 0 43
1.1455839 1.49216 0.21723974 0 44
1.1422874 1.4878662 0.23411651 0 45
1.1467382 1.4936634 0.2526392 0 46
1.1471601 1.494213 0.27039266 0 47
1.1448646 1.491223 0.28752336 0 48
1.1413449 1.4866385 0.30430648 0 49
1.1416276 1.4870067 0.32210612 0 50
1.1455824 1.4921582 0.34106401 0 51
1.1409043 1.4860647 0.35749975 0 52
1.1447408 1.4910618 0.37665325 0 53
1.1452675 1.491748 0.39485252 0 54
1.1423241 1.487914 0.41188687 0 55
1.1368794 1.4808222 0.42795962 0 56
1.1462131 1.4929795 0.44973385 0 57
1.1488222 1.4963779 0.46914056 0 58
1.1468351 1.4937897 0.4867644 0 59
1.1536665 1.5026879 0.5082975 0 60
1.1401199 1.4850429 0.52083474 0 61
1.1512266 1.4995099 0.54469061 0 62
1.146634 1.4935279 0.56132412 0 63
1.1145831 1.4893399 -0.5545572 0 0
1.1179701 1.4938658 -0.53760618 0 1
1.117677 1.4934741 -0.5189324 0 2
1.1107424 1.4842081 -0.4973889 0 3
1.1120831 1.4859993 -0.47973356 0 4
1.1110954 1.4846797 -0.46115461 0 5
1.1126614 1.4867722 -0.44370905 0 6
1.1071867 1.4794567 -0.42359835 0 7
1.1159647 1.4911861 -0.40896308 0 8
1.1142821 1.4889379 -0.39045244 0 9
1.1146482 1.4894271 -0.37274984 0 10
1.1203927 1.497103 -0.35681394 0 11
1.1150723 1.4899936 -0.3374097 0 12
1.1205474 1.4973098 -0.32132894 0 13
1.1221392 1.4994367 -0.30407876 0 14
1.1195251 1.4959435 -0.28575763 0 15
1.1081603 1.4807576 -0.26547185 0 16
1.1250983 1.5033908 -0.25192544 0 17
1.1126057 1.4866978 -0.23176241 0 18
1.1152663 1.490253 -0.21494928 0 19
1.1051013 1.4766703 -0.19581762 0 20
1.1116478 1.4854178 -0.17973705 0 21
1.1183463 1.4943686 -0.16350654 0 22
1.1135174 1.487916 -0.14558947 0 23
1.1133296 1.4876652 -0.12838155 0 24
1.1166553 1.4921089 -0.11155224 0 25
1.1105509 1.4839519 -0.093842536 0 26
1.1154894 1.490551 -0.077099934 0 27
1.1103847 1.48373 -0.059678722 0 28
1.1188622 1.4950578 -0.042945839 0 29
1.112002 1.4858911 -0.025606625 0 30
1.1146338 1.4894078 -0.0085552596 0 31
1.1168286 1.4923406 0.0085721062 0 32
1.1121678 1.4861127 0.025610443 0 33
1.1105539 1.483956 0.042626936 0 34
1.1139073 1.4884371 0.059868053 0 35
1.112749 1.4868892 0.076910526 0 36
1.1077992 1.4802752 0.093610026 0 37
1.1189355 1.4951558 0.11178003 0 38
1.106665 1.4787596 0.12761304 0 39
1.1170883 1.4926875 0.14605635 0 40
1.1206766 1.4974824 0.16384722 0 41
1.1106164 1.4840395 0.17957027 0 42
1.122548 1.4999828 0.19890904 0 43
1.1124572 1.4864993 0.21440788 0 44
1.1147128 1.4895134 0.23220134 0 45
1.1177557 1.4935793 0.2502813 0 46
1.114277 1.4889309 0.2669372 0 47
1.1161865 1.4914825 0.28490546 0 48
1.1046553 1.4760741 0.29934093 0 49
1.1151665 1.4901197 0.31978592 0 50
1.1112398 1.4848726 0.33625007 0 51
1.1070727 1.4793044 0.3525719 0 52
1.1150988 1.4900292 0.37290052 0 53
1.1162906 1.4916216 0.39115623 0 54
1.1150206 1.4899246 0.40861711 0 55
1.1126491 1.4867557 0.42568821 0 56
1.118471 1.4945352 0.44602582 0 57
1.1043038 1.4756045 0.45833582 0 58
1.1160324 1.4912766 0.48143724 0 59
1.1156595 1.4907783 0.49959072 0 60
1.1051761 1.47677 0.51312828 0 61
1.1176708 1.4934659 0.53746223 0 62
1.1062926 1.4782619 0.55043226 0 63
1.0863986 1.489512 -0.54960555 0 0
1.079775 1.4804306 -0.52795309 0 1
1.0841734 1.4864612 -0.51182467 0 2
1.0876385 1.4912119 -0.49521667 0 3
1.0846373 1.4870971 -0.47574627 0 4
1.0848299 1.4873612 -0.45780951 0 5
1.0860145 1.4889853 -0.44035086 0 6
1.0874051 1.4908919 -0.42301202 0 7
1.0872779 1.4907174 -0.40513724 0 8
1.0984883 1.5060877 -0.39137799 0 9
1.0911168 1.4959807 -0.37100416 0 10
1.085333 1.4880508 -0.35144913 0 11
1.0895799 1.4938738 -0.33522907 0 12
1.0831035 1.4849942 -0.31580392 0 13
1.0942119 1.5002245 -0.30148712 0 14
1.09751 1.5047463 -0.28483969 0 15
1.0905795 1.4952441 -0.26564473 0 16
1.0917432 1.4968398 -0.2485593 0 17
1.0881221 1.4918751 -0.23046625 0 18
1.0776511 1.4775187 -0.21118523 0 19
1.0877923 1.4914228 -0.19598535 0 20
1.0773681 1.4771307 -0.1771179 0 21
1.0840597 1.4863051 -0.16115357 0 22
1.0844132 1.4867898 -0.14416362 0 23
1.0886149 1.4925507 -0.12763833 0 24
1.0901463 1.4946502 -0.11073168 0 25
1.0853829 1.4881194 -0.093255028 0 26
1.0798284 1.4805038 -0.075887673 0 27
1.0867739 1.4900265 -0.059389986 0 28
1.0846989 1.4871815 -0.042333253 0 29
1.0949495 1.5012357 -0.025637096 0 30
1.0867651 1.4900143 -0.0084813433 0 31
1.0947922 1.5010201 0.0085439887 0 32
1.0873457 1.4908105 0.02545906 0 33
1.0774462 1.4772378 0.042050201 0 34
1.0922728 1.4975656 0.059690483 0 35
1.0834754 1.4855039 0.076143973 0 36
1.0905544 1.4952097 0.093699351 0 37
1.074659 1.4734162 0.10915855 0 38
1.0844955 1.4869027 0.12715533 0 39
1.0826274 1.4843414 0.14392622 0 40
1.0880483 1.4917737 0.16174652 0 41
1.0855789 1.4883881 0.17846774 0 42
1.0863168 1.4893998 0.19571951 0 43
1.0810773 1.4822161 0.21185666 0 44
1.0834402 1.4854558 0.22947459 0 45
1.0895934 1.4938922 0.24806984 0 46
1.0849168 1.4874803 0.26426539 0 47
1.0935971 1.4993813 0.28382415 0 48
1.0878868 1.4915524 0.29974437 0 49
1.086997 1.4903324 0.31693918 0 50
1.0937049 1.4995294 0.3364982 0 51
1.0836746 1.4857771 0.35091215 0 52
1.0925392 1.4979311 0.37148786 0 53
1.0807267 1.4817356 0.38504976 0 54
1.0835153 1.4855587 0.40373525 0 55
1.0841502 1.4864293 0.42174584 0 56
1.0909462 1.495747 0.44235057 0 57
1.0928525 1.4983606 0.46119514 0 58
1.0778691 1.4778174 0.47277755 0 59
1.0879257 1.4916056 0.49534741 0 60
1.0842235 1.4865298 0.51184833 0 61
1.0867814 1.4900368 0.53137881 0 62
1.0870545 1.4904112 0.54993731 0 63
1.0507593 1.4784954 -0.5407322 0 0
1.0564797 1.4865443 -0.52546072 0 1
1.0524844 1.4809226 -0.50542319 0 2
1.0568037 1.4870002 -0.48946548 0 3
1.0645204 1.497858 -0.4749653 0 4
1.0585063 1.4893957 -0.45439512 0 5
1.0536739 1.4825963 -0.43459678 0 6
1.0584054 1.4892539 -0.41882294 0 7
1.0589571 1.4900303 -0.40138125 0 8
1.0649675 1.4984872 -0.38597074 0 9
1.0525179 1.4809698 -0.36404422 0 10
1.0608628 1.4927117 -0.34944257 0 11
1.0596433 1.4909958 -0.33163422 0 12
1.0579362 1.4885936 -0.31377918 0 13
1.0560744 1.485974 -0.29599127 0 14
1.0649397 1.4984483 -0.28114742 0 15
1.0551848 1.4847224 -0.2614505 0 16
1.0615255 1.493644 -0.2458425 0 17
1.0563675 1.4863865 -0.22759452 0 18
1.0647275 1.4981495 -0.21224669 0 19
1.0604943 1.4921932 -0.19435827 0 20
1.0529993 1.481647 -0.17609356 0 21
1.0663353 1.500412 -0.16124922 0 22
1.0582998 1.4891053 -0.14311551 0 23
1.065503 1.4992408 -0.1270804 0 24
1.0520155 1.4802629 -0.1086992 0 25
1.0627643 1.4953872 -0.092884518 0 26
1.0586864 1.4896493 -0.075683452 0 27
1.0600932 1.4916286 -0.05892982 0 28
1.0464429 1.4724218 -0.041543692 0 29
1.055415 1.4850463 -0.025137097 0 30
1.0549014 1.4843235 -0.0083744815 0 31
1.0569468 1.4872015 0.0083907191 0 32
1.0608754 1.4927293 0.025267145 0 33
1.0576919 1.4882499 0.041990276 0 34
1.0569804 1.4872488 0.058756784 0 35
1.0621272 1.4944907 0.075929426 0 36
1.0576321 1.4881659 0.092435963 0 37
1.0627409 1.4953544 0.1098074 0 38
1.0582569 1.4890448 0.12621616 0 39
1.0580038 1.4886888 0.14307548 0 40
1.0555913 1.4852943 0.15962453 0 41
1.0498388 1.4772 0.17556503 0 42
1.0639765 1.4970928 0.19499646 0 43
1.0589055 1.4899575 0.21108609 0 44
1.0574403 1.4878958 0.22782563 0 45
1.0630549 1.4957961 0.24619673 0 46
1.0538228 1.4828057 0.26111302 0 47
1.0647129 1.498129 0.28108755 0 48
1.058816 1.4898316 0.29675967 0 49
1.0607501 1.4925531 0.31461379 0 50
1.0570774 1.4873853 0.33083117 0 51
1.0500517 1.4774996 0.34588143 0 52
1.0579042 1.4885489 0.36590725 0 53
1.0641301 1.497309 0.38566723 0 54
1.0592583 1.4904541 0.40149546 0 55
1.055004 1.4844679 0.41747695 0 56
1.0555274 1.4852043 0.4353613 0 57
1.0588725 1.4899111 0.45455232 0 58
1.0511688 1.4790715 0.46900818 0 59
1.0504385 1.4780439 0.48651743 0 60
1.055653 1.485381 0.50694484 0 61
1.0540769 1.4831635 0.52426571 0 62
1.0718538 1.5081768 0.55158764 0 63
1.0298992 1.4875454 -0.53936964 0 0
1.0321804 1.4908402 -0.52245331 0 1
1.0319771 1.4905465 -0.50433874 0 2
1.026273 1.4823078 -0.48373047 0 3
1.0235002 1.4783028 -0.46473849 0 4
1.0284348 1.4854301 -0.44929311 0 5
1.0272995 1.4837904 -0.43121132 0 6
1.0280372 1.4848559 -0.41399971 0 7
1.0268332 1.4831167 -0.39608771 0 8
1.0288527 1.4860337 -0.37947571 0 9
1.0349364 1.4948208 -0.36429322 0 10
1.030905 1.4889981 -0.34557953 0 11
1.0331554 1.4922485 -0.32906225 0 12
1.0276287 1.4842658 -0.31017989 0 13
1.0330991 1.492167 -0.29467216 0 14
1.0343657 1.4939965 -0.27790475 0 15
1.0278448 1.4845779 -0.25917986 0 16
1.0206012 1.4741156 -0.2405445 0 17
1.0258436 1.4816875 -0.22492653 0 18
1.0322722 1.4909728 -0.20941581 0 19
1.0397838 1.5018222 -0.19393246 0 20
1.0243822 1.4795767 -0.17433725 0 21
1.0335872 1.4928721 -0.159061 0 22
1.0398639 1.501938 -0.14310911 0 23
1.0350119 1.4949298 -0.12562671 0 24
1.0337691 1.4931349 -0.10870275 0 25
