# .PCD v0.7 - Point Cloud Data file format
VERSION 0.7
FIELDS x y z intensity ring
SIZE 4 4 4 4 2
TYPE F F F F U
COUNT 1 1 1 1 1
WIDTH 1217
HEIGHT 1
VIEWPOINT 0 0 0 1 0 0 0
POINTS 1217
DATA ascii
-0.78976309 -1.2191395 0.37545192 0 59
-0.79071933 -1.2206156 0.39021116 0 60
-0.78950363 -1.2187389 0.40396452 0 61
-0.79426384 -1.2260871 0.42091411 0 62
-0.78404886 -1.2103186 0.42990419 0 63
-0.7714259 -1.2235436 -0.43119976 0 0
-0.76952845 -1.2205341 -0.41572788 0 1
-0.7619673 -1.2085415 -0.39744881 0 2
-0.76973629 -1.2208638 -0.3872354 0 3
-0.76811975 -1.2182997 -0.37225643 0 4
-0.76290447 -1.2100279 -0.35572612 0 5
-0.77006954 -1.2213923 -0.34499723 0 6
-0.76554358 -1.2142137 -0.32904378 0 7
-0.76822227 -1.2184625 -0.31627944 0 8
-0.77069634 -1.2223865 -0.30339378 0 9
-0.77326435 -1.2264595 -0.29050791 0 10
-0.77483708 -1.228954 -0.27722496 0 11
-0.76846439 -1.2188464 -0.26123339 0 12
-0.76378804 -1.2114294 -0.24606104 0 13
-0.76449746 -1.2125546 -0.23273718 0 14
-0.76966721 -1.2207543 -0.22070767 0 15
-0.77307177 -1.2261541 -0.2080588 0 16
-0.77198219 -1.2244259 -0.19419551 0 17
-0.76411569 -1.2119491 -0.178818 0 18
-0.76042324 -1.2060925 -0.16465054 0 19
-0.76530445 -1.2138345 -0.15234712 0 20
-0.76992416 -1.2211617 -0.139852 0 21
-0.76101983 -1.2070388 -0.1249986 0 22
-0.76423794 -1.2121429 -0.11225661 0 23
-0.77155364 -1.2237462 -0.099952891 0 24
-0.7660408 -1.2150024 -0.085972868 0 25
-0.77587712 -1.2306036 -0.073655412 0 26
-0.77473873 -1.228798 -0.060158111 0 27
-0.77128381 -1.2233182 -0.046570472 0 28
-0.7712763 -1.2233063 -0.033258669 0 29
-0.76703757 -1.2165834 -0.019843293 0 30
-0.7796126 -1.2365284 -0.0067224912 0 31
-0.76562577 -1.2143441 0.0066018845 0 32
-0.77193701 -1.2243543 0.019970044 0 33
-0.77974099 -1.236732 0.03362368 0 34
-0.76915783 -1.2199463 0.046442106 0 35
-0.76321405 -1.210519 0.059263226 0 36
-0.76106566 -1.2071115 0.072249331 0 37
-0.76917315 -1.2199706 0.086324416 0 38
-0.77045023 -1.2219961 0.099809945 0 39
-0.76524711 -1.2137436 0.11240484 0 40
-0.7722016 -1.224774 0.12683521 0 41
-0.76704496 -1.2165951 0.13932902 0 42
-0.77191281 -1.2243159 0.15366264 0 43
-0.76448178 -1.2125297 0.16552931 0 44
-0.77091557 -1.2227341 0.18040928 0 45
-0.77459127 -1.2285641 0.19485183 0 46
-0.76946688 -1.2204365 0.2070886 0 47
-0.76859027 -1.2190461 0.22039884 0 48
-0.76666433 -1.2159914 0.23339683 0 49
-0.76980621 -1.2209746 0.24799983 0 50
-0.77299899 -1.2260387 0.26277491 0 51
-0.77056718 -1.2221817 0.27569726 0 52
-0.76846635 -1.2188495 0.28870535 0 53
-0.7694512 -1.2204115 0.30290362 0 54
-0.77173007 -1.2240261 0.3177236 0 55
-0.76944214 -1.2203972 0.33071944 0 56
-0.76839471 -1.2187359 0.34424689 0 57
-0.76392609 -1.2116483 0.35620248 0 58
-0.77309459 -1.2261903 0.37466741 0 59
-0.77093041 -1.2227577 0.38783613 0 60
-0.77308547 -1.2261759 0.40324816 0 61
-0.76787424 -1.2179104 0.4148342 0 62
-0.76832801 -1.2186301 0.42946813 0 63
-0.74195492 -1.2095131 -0.42300788 0 0
-0.75040323 -1.2232853 -0.41349074 0 1
-0.74578142 -1.2157509 -0.39677387 0 2
-0.74632657 -1.2166395 -0.38295576 0 3
-0.74673218 -1.2173009 -0.36911765 0 4
-0.74149203 -1.2087585 -0.35264581 0 5
-0.74858671 -1.220324 -0.34206954 0 6
-0.74751484 -1.2185767 -0.32771042 0 7
-0.75289041 -1.2273397 -0.31615674 0 8
-0.75145733 -1.2250036 -0.30172712 0 9
-0.75119287 -1.2245725 -0.28785124 0 10
-0.74533749 -1.2150272 -0.2719954 0 11
-0.74686944 -1.2175245 -0.25896215 0 12
-0.75095922 -1.2241915 -0.24675898 0 13
-0.74734843 -1.2183055 -0.23205958 0 14
-0.75341499 -1.228195 -0.22036131 0 15
-0.75005239 -1.2227134 -0.20589441 0 16
-0.74569452 -1.2156093 -0.19132844 0 17
-0.75285923 -1.227289 -0.17970185 0 18
-0.74728793 -1.2182068 -0.16503741 0 19
-0.74083775 -1.2076919 -0.15042146 0 20
-0.74811429 -1.2195539 -0.13860387 0 21
-0.74282217 -1.2109269 -0.12444592 0 22
-0.75036782 -1.2232275 -0.11242015 0 23
-0.74439007 -1.2134829 -0.098359533 0 24
-0.75174356 -1.2254702 -0.086052977 0 25
-0.74385446 -1.2126096 -0.072025508 0 26
-0.7448594 -1.2142478 -0.058992919 0 27
-0.75097191 -1.2242123 -0.046249472 0 28
-0.74467373 -1.2139452 -0.032752734 0 29
-0.74339801 -1.2118655 -0.019615762 0 30
-0.74962604 -1.2220184 -0.0065929946 0 31
-0.75149149 -1.2250593 0.0066094012 0 32
-0.7483899 -1.2200031 0.019747481 0 33
-0.75026363 -1.2230577 0.032998595 0 34
-0.7529999 -1.2275182 0.046374366 0 35
-0.7482667 -1.2198024 0.059262779 0 36
-0.7510795 -1.2243876 0.072725087 0 37
-0.74785423 -1.21913 0.085607767 0 38
-0.75134939 -1.2248276 0.099279091 0 39
-0.74387056 -1.2126359 0.11144673 0 40
-0.74826884 -1.2198058 0.1253584 0 41
-0.74543607 -1.2151879 0.13810767 0 42
-0.73997831 -1.2062908 0.15024695 0 43
-0.74551338 -1.215314 0.16464551 0 44
-0.74368089 -1.2123266 0.17751104 0 45
-0.75158525 -1.2252121 0.19283986 0 46
-0.75087667 -1.2240571 0.20612067 0 47
-0.74707627 -1.2178618 0.21850733 0 48
-0.7460888 -1.216252 0.23166846 0 49
-0.74759901 -1.2187139 0.24565485 0 50
-0.74411637 -1.2130365 0.25800759 0 51
-0.74394447 -1.2127564 0.27148703 0 52
-0.74354059 -1.212098 0.28491893 0 53
-0.75698018 -1.2340068 0.30394465 0 54
-0.7434839 -1.2120056 0.31220675 0 55
-0.74669147 -1.2172344 0.32734942 0 56
-0.75038564 -1.2232566 0.34289157 0 57
-0.74755579 -1.2186434 0.35552967 0 58
-0.75075644 -1.223861 0.37110686 0 59
-0.75222838 -1.2262605 0.38598412 0 60
-0.74737233 -1.2183443 0.39762026 0 61
-0.74733937 -1.2182906 0.41180247 0 62
-0.75142801 -1.2249558 0.42840871 0 63
-0.7467438 -1.2515906 -0.43447962 0 0
-0.74613285 -1.2505666 -0.41957936 0 1
-0.746315 -1.2508719 -0.40521035 0 2
-0.73714238 -1.2354981 -0.38600945 0 3
-0.74462932 -1.2480466 -0.37563574 0 4
-0.73927021 -1.2390645 -0.35880813 0 5
-0.74222785 -1.2440215 -0.34612772 0 6
-0.74020797 -1.2406362 -0.33117002 0 7
-0.74643022 -1.2510651 -0.31987977 0 8
-0.74311566 -1.2455096 -0.30450419 0 9
-0.73950523 -1.2394583 -0.28919098 0 10
-0.74572289 -1.2498795 -0.27772367 0 11
-0.74799216 -1.253683 -0.26467657 0 12
-0.74175417 -1.2432277 -0.24873877 0 13
-0.73715442 -1.2355182 -0.23359402 0 14
-0.74313492 -1.2455419 -0.22181739 0 15
-0.73755866 -1.2361958 -0.20662192 0 16
-0.74402535 -1.2470343 -0.19481982 0 17
-0.74053049 -1.2411767 -0.18038838 0 18
-0.74681479 -1.2517096 -0.1683194 0 19
-0.74121726 -1.2423278 -0.15358862 0 20
-0.74649781 -1.2511784 -0.14114413 0 21
-0.74101269 -1.241985 -0.12669174 0 22
-0.74581772 -1.2500385 -0.11403273 0 23
-0.74780315 -1.2533662 -0.10083935 0 24
-0.73228639 -1.2273592 -0.085546844 0 25
-0.73696381 -1.2351987 -0.072823472 0 26
-0.73572904 -1.2331291 -0.059466217 0 27
-0.73594868 -1.2334973 -0.04625487 0 28
-0.74444389 -1.2477357 -0.033414915 0 29
-0.74714088 -1.2522562 -0.020119313 0 30
-0.73886061 -1.2383779 -0.0066317385 0 31
-0.73596293 -1.2335212 0.0066057299 0 32
-0.74571508 -1.2498665 0.020080918 0 33
-0.74403703 -1.2470539 0.033396654 0 34
-0.75624341 -1.2675126 0.047530409 0 35
-0.73523819 -1.2323065 0.059426546 0 36
-0.7354815 -1.2327143 0.072676994 0 37
-0.73873782 -1.2381721 0.086300507 0 38
-0.74557638 -1.2496339 0.10053907 0 39
-0.738029 -1.236984 0.11284187 0 40
-0.73686659 -1.2350358 0.12598288 0 41
-0.74768049 -1.2531606 0.14136773 0 42
-0.73380125 -1.2298981 0.15205194 0 43
-0.74331373 -1.2458416 0.16753033 0 44
-0.73671955 -1.2347894 0.17946005 0 45
-0.74498272 -1.2486389 0.19507051 0 46
-0.7554751 -1.2662249 0.21164107 0 47
-0.73787385 -1.236724 0.22024702 0 48
-0.73198503 -1.226854 0.23195589 0 49
-0.74564981 -1.2497571 0.25004515 0 50
-0.74457145 -1.2479496 0.26346615 0 51
-0.73786718 -1.2367128 0.27479804 0 52
-0.74367398 -1.2464454 0.29082119 0 53
-0.74375421 -1.2465799 0.30476585 0 54
-0.74807191 -1.2538166 0.32058331 0 55
-0.73895597 -1.2385378 0.33060989 0 56
-0.74189711 -1.2434672 0.34597349 0 57
-0.74097091 -1.2419149 0.35963356 0 58
-0.74368751 -1.2464681 0.37516063 0 59
-0.73719263 -1.2355822 0.3860358 0 60
-0.74457902 -1.2479624 0.40426782 0 61
-0.74271011 -1.2448299 0.41765463 0 62
-0.74470621 -1.2481755 0.43329409 0 63
-0.74086624 -1.2771716 -0.44016409 0 0
-0.73772436 -1.2717553 -0.42361283 0 1
-0.74668843 -1.2872084 -0.41397566 0 2
-0.73946565 -1.2747571 -0.39540449 0 3
-0.74032754 -1.276243 -0.38135347 0 4
-0.74189478 -1.2789447 -0.36768714 0 5
-0.7427699 -1.2804533 -0.35369626 0 6
-0.73523116 -1.2674572 -0.33589086 0 7
-0.74398977 -1.2825562 -0.32556787 0 8
-0.74605894 -1.2861233 -0.31216705 0 9
-0.73685426 -1.2702553 -0.29424027 0 10
-0.74176222 -1.2787161 -0.28208315 0 11
-0.75007987 -1.2930549 -0.27102104 0 12
-0.73665667 -1.2699147 -0.25224677 0 13
-0.73365587 -1.2647417 -0.23739558 0 14
-0.74308842 -1.2810024 -0.22648813 0 15
-0.73838931 -1.2729017 -0.21122348 0 16
-0.74621832 -1.2863981 -0.19952087 0 17
-0.73526788 -1.2675207 -0.18288927 0 18
-0.73989248 -1.2754929 -0.17028129 0 19
-0.7366901 -1.2699723 -0.15587461 0 20
-0.74202007 -1.2791606 -0.14326064 0 21
-0.74393636 -1.2824641 -0.12987795 0 22
-0.74106079 -1.2775069 -0.11569849 0 23
-0.74121654 -1.2777755 -0.10206218 0 24
-0.73539513 -1.26774 -0.087724485 0 25
-0.74426764 -1.2830353 -0.075098515 0 26
-0.73974895 -1.2752455 -0.061053958 0 27
-0.74897605 -1.291152 -0.048067868 0 28
-0.74288058 -1.2806441 -0.034049004 0 29
-0.74289 -1.2806604 -0.020427357 0 30
-0.73288202 -1.2634076 -0.0067170095 0 31
-0.73597747 -1.2687439 0.0067453803 0 32
-0.74402791 -1.282622 0.020458646 0 33
-0.73941678 -1.2746729 0.033890244 0 34
-0.73821795 -1.2726063 0.047377434 0 35
-0.73891026 -1.2737997 0.060984734 0 36
-0.73603833 -1.2688488 0.074268155 0 37
-0.74122518 -1.2777903 0.088419937 0 38
-0.73772919 -1.2717637 0.10158199 0 39
-0.74644786 -1.2867937 0.11653955 0 40
-0.74887234 -1.2909732 0.13073969 0 41
-0.75081629 -1.2943243 0.14495891 0 42
-0.74403006 -1.2826257 0.15742765 0 43
-0.74986756 -1.2926888 0.17257698 0 44
-0.74118555 -1.277722 0.1843612 0 45
-0.73576719 -1.2683814 0.19672649 0 46
-0.73727846 -1.2709867 0.21090573 0 47
-0.74056119 -1.2766457 0.22571784 0 48
-0.74405515 -1.2826689 0.24076058 0 49
-0.74679291 -1.2873884 0.25571764 0 50
-0.74657488 -1.2870127 0.26975459 0 51
-0.74025136 -1.2761116 0.28150859 0 52
-0.74399173 -1.2825596 0.29709038 0 53
-0.74041152 -1.2763878 0.30980405 0 54
-0.73948216 -1.2747856 0.32359535 0 55
-0.73967969 -1.2751261 0.33792317 0 56
-0.73956263 -1.2749243 0.35216898 0 57
-0.74419218 -1.2829051 0.3688257 0 58
-0.73864609 -1.2733443 0.38048732 0 59
-0.74008965 -1.2758328 0.39573815 0 60
-0.74357927 -1.2818485 0.41225189 0 61
-0.73978782 -1.2753125 0.42479768 0 62
-0.73949969 -1.2748158 0.43935221 0 63
-0.73879182 -1.3104589 -0.44847143 0 0
-0.73778331 -1.3086699 -0.43285424 0 1
-0.74387711 -1.3194791 -0.42138052 0 2
-0.74582642 -1.3229367 -0.40747339 0 3
-0.74520791 -1.3218396 -0.39221039 0 4
-0.73527902 -1.3042278 -0.37232837 0 5
-0.74514413 -1.3217266 -0.36253867 0 6
-0.73973423 -1.3121305 -0.34529307 0 7
-0.74498886 -1.3214511 -0.33309048 0 8
-0.7428779 -1.3177067 -0.31759173 0 9
-0.75026357 -1.3308073 -0.30610627 0 10
-0.74349928 -1.3188089 -0.2888889 0 11
-0.73896766 -1.3107708 -0.27280906 0 12
-0.73890376 -1.3106574 -0.2585153 0 13
-0.75110942 -1.3323076 -0.2483255 0 14
-0.72970921 -1.2943482 -0.22724412 0 15
-0.73725027 -1.3077245 -0.21548131 0 16
-0.74190736 -1.3159852 -0.20267957 0 17
-0.73742819 -1.30804 -0.18741322 0 18
-0.74251342 -1.3170601 -0.17459849 0 19
-0.7436012 -1.3189896 -0.16075648 0 20
-0.73738223 -1.3079586 -0.14545941 0 21
-0.73483038 -1.3034321 -0.13107646 0 22
-0.74056691 -1.3136075 -0.1181343 0 23
-0.73908544 -1.3109796 -0.10398059 0 24
-0.73917419 -1.3111371 -0.09009169 0 25
-0.73996603 -1.3125417 -0.07628724 0 26
-0.74423182 -1.3201082 -0.06275893 0 27
-0.74777412 -1.3263916 -0.049033768 0 28
-0.74621296 -1.3236223 -0.034945082 0 29
-0.73959017 -1.3118749 -0.020778617 0 30
-0.74265116 -1.3173045 -0.00695448 0 31
-0.73371094 -1.3014464 0.0068707597 0 32
-0.73316002 -1.3004693 0.020597965 0 33
-0.75549263 -1.3400825 0.035379648 0 34
-0.73962778 -1.3119416 0.048499584 0 35
-0.74796766 -1.3267349 0.06307397 0 36
-0.74101585 -1.3144038 0.076395467 0 37
-0.74234629 -1.3167636 0.090478301 0 38
-0.74318802 -1.3182567 0.10455777 0 39
-0.73909926 -1.3110042 0.11790019 0 40
-0.74626285 -1.3237108 0.13311572 0 41
-0.74689388 -1.3248302 0.14733572 0 42
-0.73779118 -1.3086839 0.15950043 0 43
-0.74090147 -1.3142009 0.17421944 0 44
-0.74235892 -1.3167862 0.18866634 0 45
-0.74960941 -1.3296469 0.20478368 0 46
-0.74207628 -1.3162848 0.21689186 0 47
-0.74527431 -1.3219573 0.23209135 0 48
-0.73890877 -1.3106663 0.24429183 0 49
-0.74537975 -1.3221444 0.26078099 0 50
-0.74036103 -1.3132423 0.27332348 0 51
-0.74159688 -1.3154343 0.28814971 0 52
-0.73917758 -1.3111432 0.3015832 0 53
-0.73816335 -1.3093442 0.31557623 0 54
-0.74604684 -1.3233277 0.33356354 0 55
-0.74753308 -1.325964 0.34893343 0 56
-0.73199761 -1.2984074 0.35614243 0 57
-0.74425673 -1.3201525 0.37687451 0 58
-0.74296612 -1.3178632 0.39103055 0 59
-0.74062628 -1.3137127 0.40463233 0 60
-0.74487346 -1.3212464 0.42194492 0 61
-0.73918033 -1.3111479 0.43367386 0 62
-0.74828756 -1.3273023 0.45423567 0 63
-0.74273288 -1.3561621 -0.46095181 0 0
-0.74374777 -1.3580153 -0.44611695 0 1
-0.73206025 -1.3366748 -0.42396525 0 2
-0.74070734 -1.3524636 -0.41373125 0 3
-0.74734676 -1.3645867 -0.40213698 0 4
-0.74054509 -1.3521674 -0.38338548 0 5
-0.73860383 -1.3486228 -0.36739716 0 6
-0.74342626 -1.3574282 -0.35478094 0 7
-0.7380653 -1.3476396 -0.33737853 0 8
-0.73982817 -1.3508583 -0.32336485 0 9
-0.73910338 -1.349535 -0.30830017 0 10
-0.74177593 -1.3544148 -0.2946682 0 11
-0.74285835 -1.3563912 -0.28038162 0 12
-0.74234134 -1.3554472 -0.26552916 0 13
-0.74480909 -1.3599532 -0.2517522 0 14
-0.7376706 -1.3469188 -0.23486347 0 15
-0.73989213 -1.3509752 -0.22109213 0 16
-0.74639052 -1.3628407 -0.20846666 0 17
-0.73340112 -1.3391231 -0.19056022 0 18
-0.73596114 -1.3437976 -0.17692991 0 19
-0.74518985 -1.3606484 -0.16470453 0 20
-0.74633741 -1.3627437 -0.15052013 0 21
-0.74113935 -1.3532525 -0.13515982 0 22
-0.73418522 -1.3405548 -0.11973678 0 23
-0.73587215 -1.343635 -0.10584496 0 24
-0.74016565 -1.3514745 -0.092231028 0 25
-0.7418772 -1.3545997 -0.078195602 0 26
-0.73823208 -1.347944 -0.063645899 0 27
-0.74785209 -1.3655093 -0.050136119 0 28
-0.73916042 -1.3496392 -0.035389315 0 29
-0.74296612 -1.3565879 -0.021340506 0 30
-0.74041623 -1.3519322 -0.0070886887 0 31
-0.74336743 -1.3573208 0.0071169436 0 32
-0.74213481 -1.3550701 0.021316629 0 33
-0.74138975 -1.3537096 0.035496052 0 34
-0.74535352 -1.3609471 0.049968615 0 35
-0.74054652 -1.35217 0.063845441 0 36
-0.74385893 -1.3582182 0.078404479 0 37
-0.73817939 -1.3478478 0.091983519 0 38
-0.73849058 -1.3484161 0.10622159 0 39
-0.74078113 -1.3525984 0.12081249 0 40
-0.73992753 -1.3510398 0.13493882 0 41
-0.74207628 -1.3549632 0.14966074 0 42
-0.74546653 -1.3611535 0.16476567 0 43
-0.74068844 -1.3524292 0.17806639 0 44
-0.73737538 -1.3463798 0.19159286 0 45
-0.73465341 -1.3414097 0.20518848 0 46
-0.74544519 -1.3611145 0.22275148 0 47
-0.74430299 -1.3590291 0.23697515 0 48
-0.74194646 -1.3547262 0.25078461 0 49
-0.74314278 -1.3569106 0.26581582 0 50
-0.73518568 -1.3423816 0.27748567 0 51
-0.73506874 -1.3421681 0.29200378 0 52
-0.74251157 -1.355758 0.3097218 0 53
-0.73907542 -1.349484 0.32303587 0 54
-0.73933798 -1.3499633 0.33796027 0 55
-0.73583782 -1.3435724 0.35115954 0 56
-0.7446422 -1.3596483 0.37040076 0 57
-0.7416712 -1.3542236 0.3839685 0 58
-0.75030869 -1.3699949 0.40373075 0 59
-0.73186713 -1.3363223 0.40879345 0 60
-0.74064523 -1.3523502 0.42893717 0 61
-0.75022954 -1.3698503 0.45000488 0 62
-0.7345987 -1.3413099 0.45590362 0 63
-0.74102587 -1.3934431 -0.47049075 0 0
-0.73717749 -1.3862066 -0.45236599 0 1
-0.74215162 -1.3955601 -0.43971467 0 2
-0.74636084 -1.4034753 -0.42649642 0 3
-0.73884004 -1.3893329 -0.4067215 0 4
-0.73282021 -1.378013 -0.38812932 0 5
-0.73566484 -1.3833622 -0.37436831 0 6
-0.73534542 -1.3827615 -0.35901168 0 7
-0.73594332 -1.3838857 -0.34416115 0 8
-0.73816252 -1.3880588 -0.33007208 0 9
-0.73555619 -1.3831578 -0.31389129 0 10
-0.73435295 -1.3808953 -0.29844218 0 11
-0.74681443 -1.4043281 -0.28837067 0 12
-0.74175543 -1.394815 -0.27143392 0 13
-0.74146348 -1.394266 -0.25639698 0 14
-0.73895454 -1.3895482 -0.24069418 0 15
-0.73711032 -1.3860803 -0.22533685 0 16
-0.73355758 -1.3793997 -0.209604 0 17
-0.73903614 -1.3897016 -0.19644962 0 18
-0.73739433 -1.3866143 -0.18135978 0 19
-0.73921931 -1.390046 -0.16715014 0 20
-0.74050623 -1.3924659 -0.15278576 0 21
-0.73998535 -1.3914865 -0.13805932 0 22
-0.74317944 -1.3974928 -0.12399679 0 23
-0.74115419 -1.3936845 -0.10906144 0 24
-0.73610699 -1.3841935 -0.093839116 0 25
-0.73937494 -1.3903388 -0.079727814 0 26
-0.73968679 -1.390925 -0.065240942 0 27
-0.73717386 -1.3861997 -0.050559152 0 28
-0.73795229 -1.3876635 -0.036145695 0 29
-0.7362324 -1.3844295 -0.021634432 0 30
-0.73878658 -1.3892323 -0.0072360877 0 31
-0.73158818 -1.3756963 0.0071655829 0 32
-0.7388925 -1.3894315 0.021712599 0 33
-0.74150014 -1.3943349 0.036319472 0 34
-0.74027425 -1.3920298 0.050771791 0 35
-0.74383759 -1.3987304 0.065607049 0 36
-0.73843098 -1.3885636 0.079626024 0 37
-0.73337501 -1.3790563 0.093490839 0 38
-0.7419349 -1.3951524 0.10917632 0 39
-0.74337405 -1.3978587 0.12402926 0 40
-0.74240816 -1.3960425 0.13851133 0 41
-0.73806757 -1.3878803 0.15228261 0 42
-0.73803622 -1.3878213 0.16688262 0 43
-0.73983991 -1.3912132 0.18196128 0 44
-0.72970027 -1.3721462 0.19396797 0 45
-0.73916453 -1.3899431 0.21120611 0 46
-0.73726231 -1.3863661 0.22538331 0 47
-0.73709494 -1.3860514 0.24008846 0 48
-0.73278666 -1.37795 0.25339654 0 49
-0.74146789 -1.3942744 0.27132872 0 50
-0.74052656 -1.3925042 0.2859427 0 51
-0.74193251 -1.395148 0.30152252 0 52
-0.73864895 -1.3889735 0.31521109 0 53
-0.73644078 -1.3848213 0.32930219 0 54
-0.74144125 -1.3942243 0.34673223 0 55
-0.74367106 -1.3984172 0.36307645 0 56
-0.73514986 -1.3823937 0.37410623 0 57
-0.74046344 -1.3923856 0.39217746 0 58
-0.73876476 -1.3891914 0.40668005 0 59
-0.7401852 -1.3918623 0.4229674 0 60
-0.73868012 -1.3890322 0.43765783 0 61
-0.73523253 -1.3825493 0.45117247 0 62
-0.7419073 -1.3951007 0.47105041 0 63
-0.74496287 -1.4433815 -0.48422265 0 0
-0.74165082 -1.4369644 -0.46591869 0 1
-0.74064505 -1.4350157 -0.44924286 0 2
-0.73814464 -1.430171 -0.43181801 0 3
-0.73904121 -1.4319082 -0.41649339 0 4
-0.73677063 -1.427509 -0.39948833 0 5
-0.74266815 -1.4389354 -0.38690704 0 6
-0.74085397 -1.4354204 -0.37029049 0 7
-0.74167013 -1.4370018 -0.35507578 0 8
-0.73405129 -1.4222401 -0.3360284 0 9
-0.73680776 -1.4275808 -0.32189214 0 10
-0.73684144 -1.427646 -0.30656472 0 11
-0.73632097 -1.4266376 -0.29107058 0 12
-0.73639214 -1.4267756 -0.27587053 0 13
-0.7340855 -1.4223063 -0.25987384 0 14
-0.73390102 -1.421949 -0.24472488 0 15
-0.74181545 -1.4372833 -0.23216051 0 16
-0.73663062 -1.4272376 -0.21548045 0 17
-0.73571444 -1.4254625 -0.20021082 0 18
-0.7381714 -1.430223 -0.18586226 0 19
-0.73388696 -1.4219217 -0.16988513 0 20
-0.7396915 -1.4331681 -0.15624192 0 21
-0.74004751 -1.4338579 -0.14134972 0 22
-0.73834914 -1.4305673 -0.12611632 0 23
-0.7401889 -1.4341319 -0.11150593 0 24
-0.74065417 -1.4350333 -0.096660987 0 25
-0.74287218 -1.4393308 -0.0820072 0 26
-0.739636 -1.4330605 -0.066785648 0 27
-0.7417894 -1.4372329 -0.052083872 0 28
-0.74513143 -1.4437082 -0.037364054 0 29
-0.73577446 -1.4255788 -0.022134416 0 30
-0.74160129 -1.4368684 -0.0074361488 0 31
-0.74181902 -1.4372903 0.0074383323 0 32
-0.73966658 -1.4331199 0.022251502 0 33
-0.73930776 -1.4324247 0.037072029 0 34
-0.738047 -1.4299818 0.051821101 0 35
-0.74048209 -1.4346999 0.066862047 0 36
-0.74310368 -1.4397793 0.082032755 0 37
-0.73839283 -1.4306519 0.096365862 0 38
-0.73907864 -1.4319807 0.11133868 0 39
-0.74207014 -1.4377768 0.1267519 0 40
-0.74265474 -1.4389095 0.1418477 0 41
-0.73896879 -1.4317678 0.15608926 0 42
-0.73664999 -1.4272751 0.17052473 0 43
-0.74132901 -1.4363408 0.18665729 0 44
-0.73687285 -1.427707 0.20052607 0 45
-0.74092913 -1.4355661 0.21673785 0 46
-0.74256426 -1.4387342 0.23239486 0 47
-0.73646724 -1.4269211 0.24558061 0 48
-0.73515552 -1.4243796 0.26025262 0 49
-0.74465948 -1.4427937 0.27896771 0 50
-0.73232388 -1.4188932 0.28949052 0 51
-0.73345214 -1.4210793 0.30515459 0 52
-0.73786235 -1.4296242 0.32235286 0 53
-0.74114066 -1.4359759 0.33927372 0 54
-0.73885781 -1.4315528 0.35372937 0 55
-0.74025106 -1.4342524 0.36998916 0 56
-0.74112624 -1.4359479 0.38610375 0 57
-0.74087226 -1.4354559 0.40171227 0 58
-0.7348401 -1.4237684 0.4141258 0 59
-0.73963976 -1.4330679 0.43269268 0 60
-0.73759371 -1.4291036 0.44739205 0 61
-0.73372722 -1.4216121 0.46094093 0 62
-0.73904872 -1.4319227 0.48037848 0 63
-0.74263835 -1.4833498 -0.49453023 0 0
-0.74004686 -1.4781736 -0.47629374 0 1
-0.73414159 -1.4663785 -0.45620063 0 2
-0.7350564 -1.4682056 -0.44053957 0 3
-0.73343062 -1.4649583 -0.4234513 0 4
-0.74682802 -1.4917184 -0.41485602 0 5
-0.73655403 -1.471197 -0.39311665 0 6
-0.73459065 -1.4672754 -0.37614939 0 7
-0.73712534 -1.4723381 -0.3615402 0 8
-0.73407763 -1.4662507 -0.3442679 0 9
-0.73741955 -1.4729258 -0.33004701 0 10
-0.73383451 -1.465765 -0.31278884 0 11
-0.74283445 -1.4837416 -0.30083489 0 12
-0.74119431 -1.4804655 -0.28446791 0 13
-0.73556995 -1.4692315 -0.26677486 0 14
-0.74625659 -1.490577 -0.25493753 0 15
-0.73925549 -1.4765929 -0.23702386 0 16
-0.73775578 -1.4735974 -0.22109337 0 17
-0.74489111 -1.4878496 -0.20767111 0 18
-0.73827851 -1.4746414 -0.19044045 0 19
-0.74475789 -1.4875834 -0.17662261 0 20
-0.74379319 -1.4856566 -0.16095488 0 21
-0.73723429 -1.4725558 -0.14425999 0 22
-0.7414726 -1.4810214 -0.12975068 0 23
-0.73105556 -1.4602144 -0.11282642 0 24
-0.73696798 -1.4720238 -0.098534733 0 25
-0.73876733 -1.4756179 -0.083550796 0 26
-0.74193341 -1.4819418 -0.068633325 0 27
-0.74003625 -1.4781524 -0.05323296 0 28
-0.7419095 -1.481894 -0.038113341 0 29
-0.74524939 -1.4885652 -0.022968359 0 30
-0.742109 -1.4822925 -0.007623428 0 31
-0.7431317 -1.4843353 0.0076339333 0 32
-0.74526519 -1.4885967 0.022968845 0 33
-0.74027675 -1.4786328 0.038029462 0 34
-0.73754978 -1.4731859 0.053054102 0 35
-0.74633789 -1.4907393 0.069040768 0 36
-0.74101597 -1.4801093 0.083805099 0 37
-0.73681301 -1.4717144 0.098514013 0 38
-0.73955423 -1.4771897 0.11413805 0 39
-0.73569423 -1.4694797 0.12873952 0 40
-0.73606414 -1.4702185 0.144031 0 41
-0.74385798 -1.485786 0.1609689 0 42
-0.74545264 -1.4889712 0.17678739 0 43
-0.74305582 -1.4841837 0.19167277 0 44
-0.74662578 -1.4913144 0.20815472 0 45
-0.73516154 -1.4684156 0.22031592 0 46
-0.73932064 -1.4767231 0.23704475 0 47
-0.74464506 -1.4873581 0.25438702 0 48
-0.73961496 -1.4773109 0.26824188 0 49
-0.73889726 -1.4758774 0.28358629 0 50
-0.73652768 -1.4711444 0.29828078 0 51
-0.74446607 -1.4870006 0.31732044 0 52
-0.74359661 -1.4852639 0.33281171 0 53
-0.73945898 -1.4769994 0.34679165 0 54
-0.73663902 -1.4713668 0.36130169 0 55
-0.73870564 -1.4754946 0.37825647 0 56
-0.73986667 -1.4778137 0.39488471 0 57
-0.74200243 -1.4820797 0.41217545 0 58
-0.74420565 -1.4864805 0.42967239 0 59
-0.73417389 -1.4664428 0.44001067 0 60
-0.73971897 -1.4775187 0.45966646 0 61
-0.7409243 -1.4799262 0.47685844 0 62
-0.74057114 -1.4792209 0.49315369 0 63
-0.73853868 -1.521615 -0.50422162 0 0
-0.74015784 -1.524951 -0.4883967 0 1
-0.73924249 -1.5230652 -0.47097269 0 2
-0.73874092 -1.5220317 -0.45393029 0 3
-0.73965758 -1.5239203 -0.43783239 0 4
-0.73214465 -1.5084413 -0.41697153 0 5
-0.73443192 -1.5131538 -0.40188438 0 6
-0.74263269 -1.53005 -0.38987175 0 7
-0.74527979 -1.5355037 -0.37477216 0 8
-0.73534632 -1.5150378 -0.35357308 0 9
-0.74166697 -1.5280603 -0.34033206 0 10
-0.73667163 -1.5177684 -0.32192877 0 11
-0.73859745 -1.5217361 -0.30667382 0 12
-0.74017322 -1.5249827 -0.29125088 0 13
-0.73580909 -1.5159912 -0.27360168 0 14
-0.73409849 -1.5124669 -0.25711814 0 15
-0.7407279 -1.5261256 -0.24349438 0 16
-0.73791945 -1.5203393 -0.22672781 0 17
-0.73761475 -1.5197115 -0.21083643 0 18
-0.74098015 -1.5266452 -0.1959649 0 19
-0.73646468 -1.517342 -0.17906712 0 20
-0.7350564 -1.5144405 -0.16308175 0 21
-0.73608053 -1.5165505 -0.14767209 0 22
-0.73676378 -1.5179582 -0.13218297 0 23
-0.73814613 -1.5208063 -0.11679803 0 24
-0.72996205 -1.5039445 -0.10006305 0 25
-0.73751783 -1.5195117 -0.085516147 0 26
-0.73697686 -1.5183972 -0.069896705 0 27
-0.73461497 -1.5135311 -0.054177649 0 28
-0.74226213 -1.5292865 -0.039094541 0 29
-0.74674743 -1.5385276 -0.023595806 0 30
-0.73583263 -1.5160397 -0.007749869 0 31
-0.74016017 -1.5249559 0.0077954475 0 32
-0.73721808 -1.5188942 0.023294695 0 33
-0.739173 -1.5229219 0.038931839 0 34
-0.74217516 -1.5291073 0.05473521 0 35
-0.73934966 -1.5232859 0.07012175 0 36
-0.74059951 -1.5258609 0.085873477 0 37
-0.73488158 -1.5140803 0.10073742 0 38
-0.73557949 -1.5155182 0.1163919 0 39
-0.73644799 -1.5173075 0.13212632 0 40
-0.73835909 -1.521245 0.14812921 0 41
-0.73791337 -1.5203267 0.1637156 0 42
-0.74190325 -1.528547 0.18038948 0 43
-0.73820162 -1.5209206 0.19523007 0 44
-0.73871189 -1.5219719 0.21115002 0 45
-0.7372694 -1.5189999 0.22652809 0 46
-0.73556644 -1.5154914 0.24179769 0 47
-0.73719716 -1.5188512 0.25820345 0 48
-0.74533176 -1.5356109 0.27714261 0 49
-0.73680389 -1.5180408 0.2899251 0 50
-0.73763114 -1.5197452 0.3062726 0 51
-0.73454714 -1.5133913 0.32100037 0 52
-0.73615479 -1.5167035 0.33780265 0 53
-0.73888141 -1.5223212 0.35527286 0 54
-0.73032355 -1.5046895 0.36725128 0 55
-0.74045336 -1.5255598 0.38872761 0 56
-0.74013042 -1.5248945 0.40500262 0 57
-0.7382561 -1.5210329 0.42045215 0 58
-0.74299806 -1.5308027 0.43980977 0 59
-0.74702573 -1.539101 0.45902103 0 60
-0.73721391 -1.5188856 0.46968028 0 61
-0.73827213 -1.5210658 0.4871524 0 62
-0.73882753 -1.5222101 0.50441885 0 63
-0.73327649 -1.559294 -0.5136807 0 0
-0.73582435 -1.5647119 -0.49819547 0 1
-0.73753113 -1.5683413 -0.48213246 0 2
-0.73019421 -1.5527395 -0.46037593 0 3
-0.73591256 -1.5648996 -0.44697234 0 4
-0.74550909 -1.5853062 -0.43565196 0 5
-0.73861933 -1.5706553 -0.41471282 0 6
-0.73909318 -1.571663 -0.39812928 0 7
-0.73731959 -1.5678915 -0.38043547 0 8
-0.7321282 -1.5568521 -0.36120325 0 9
-0.73889011 -1.5712311 -0.34789723 0 10
-0.74105984 -1.575845 -0.33228931 0 11
-0.7369265 -1.5670556 -0.3139571 0 12
-0.73831666 -1.5700116 -0.29809439 0 13
-0.73993611 -1.5734555 -0.28230923 0 14
-0.73705214 -1.5673227 -0.2648828 0 15
-0.73750073 -1.5682768 -0.24875391 0 16
-0.73812705 -1.5696086 -0.23270419 0 17
-0.7415629 -1.5769148 -0.21749099 0 18
-0.73669839 -1.5665705 -0.19991191 0 19
-0.73629683 -1.5657167 -0.18369365 0 20
-0.73637396 -1.5658807 -0.16763332 0 21
-0.73773527 -1.5687754 -0.15186262 0 22
-0.73739469 -1.5680512 -0.13574521 0 23
-0.73582244 -1.5647079 -0.11946575 0 24
-0.73853558 -1.5704772 -0.10387765 0 25
-0.73968601 -1.5729237 -0.088003568 0 26
-0.73501074 -1.5629817 -0.071527623 0 27
-0.73543388 -1.5638815 -0.055652056 0 28
-0.73712063 -1.5674684 -0.0398359 0 29
-0.73745692 -1.5681834 -0.023909744 0 30
-0.73398876 -1.5608085 -0.0079319868 0 31
-0.74154204 -1.5768704 0.0080136126 0 32
-0.74158537 -1.5769626 0.024043599 0 33
-0.74376523 -1.581598 0.040194988 0 34
-0.73817492 -1.5697103 0.055859476 0 35
-0.73541629 -1.5638442 0.071567088 0 36
-0.73343384 -1.5596285 0.087259717 0 37
-0.74046487 -1.5745798 0.10414901 0 38
-0.73241979 -1.5574722 0.11891331 0 39
-0.73542321 -1.5638589 0.13538228 0 40
-0.74200058 -1.5778456 0.15274063 0 41
-0.74129581 -1.5763468 0.16875376 0 42
-0.74049962 -1.5746537 0.18474215 0 43
-0.73313314 -1.5589892 0.19894443 0 44
-0.73450857 -1.561914 0.21542203 0 45
-0.73691773 -1.567037 0.23232293 0 46
-0.73673701 -1.5666527 0.24849631 0 47
-0.73636407 -1.5658596 0.26463553 0 48
-0.73856258 -1.5705347 0.28178519 0 49
-0.73502934 -1.5630214 0.29676715 0 50
-0.73795462 -1.5692419 0.3143951 0 51
-0.73969668 -1.5729463 0.33167809 0 52
-0.73524797 -1.5634863 0.34618241 0 53
-0.74843907 -1.5915368 0.36925042 0 54
-0.72797638 -1.5480235 0.37561464 0 55
-0.73600578 -1.5650977 0.39646617 0 56
-0.73783749 -1.5689929 0.41427386 0 57
-0.73883736 -1.571119 0.43175322 0 58
-0.73701149 -1.5672363 0.44763979 0 59
-0.73927259 -1.5720445 0.46609974 0 60
-0.74039495 -1.5744312 0.48400459 0 61
-0.74041659 -1.5744772 0.50130469 0 62
-0.73568809 -1.5644221 0.51537007 0 63
-0.740363 -1.6259835 -0.53261095 0 0
-0.74322641 -1.6322721 -0.51675737 0 1
-0.73839378 -1.6216588 -0.49569437 0 2
-0.73549211 -1.6152861 -0.47620305 0 3
-0.74062449 -1.6265577 -0.46194729 0 4
-0.73943073 -1.6239361 -0.44373551 0 5
-0.73927456 -1.623593 -0.42625794 0 6
-0.73583961 -1.6160492 -0.40705022 0 7
-0.74154311 -1.6285753 -0.39291769 0 8
-0.73741663 -1.6195127 -0.37360904 0 9
-0.74615705 -1.6387084 -0.36077905 0 10
-0.73668426 -1.6179042 -0.33922231 0 11
-0.73766202 -1.6200516 -0.32273307 0 12
-0.73509967 -1.6144242 -0.30478761 0 13
-0.74179065 -1.6291189 -0.29063785 0 14
-0.74065864 -1.6266328 -0.27334654 0 15
-0.74435884 -1.6347592 -0.25782779 0 16
-0.73907262 -1.6231496 -0.23927654 0 17
-0.74137968 -1.6282163 -0.22329235 0 18
-0.73188704 -1.6073686 -0.20395432 0 19
-0.73989451 -1.6249547 -0.18956184 0 20
-0.74208498 -1.6297653 -0.17348242 0 21
-0.73631048 -1.6170834 -0.15565075 0 22
-0.74143553 -1.6283391 -0.14016443 0 23
-0.73501033 -1.614228 -0.12254731 0 24
-0.73487306 -1.6139265 -0.10614584 0 25
-0.73711306 -1.6188459 -0.090058953 0 26
-0.73278475 -1.6093402 -0.07323125 0 27
-0.73493761 -1.6140684 -0.057112083 0 28
-0.73945451 -1.6239883 -0.041038118 0 29
-0.73925751 -1.6235557 -0.024613535 0 30
-0.74026221 -1.6257622 -0.0082151983 0 31
-0.73966098 -1.6244417 0.0082085263 0 32
-0.73596954 -1.6163347 0.024504062 0 33
-0.73935241 -1.623764 0.041032448 0 34
-0.73884439 -1.6226484 0.057415675 0 35
-0.7380805 -1.6209706 0.07376048 0 36
-0.73618931 -1.6168174 0.089946091 0 37
-0.74008065 -1.6253635 0.10689802 0 38
-0.7388345 -1.6226267 0.1231849 0 39
-0.73715329 -1.6189344 0.1393549 0 40
-0.7416864 -1.6288899 0.15678719 0 41
-0.73998946 -1.6251631 0.17299253 0 42
-0.73493892 -1.6140711 0.18829221 0 43
-0.73574281 -1.6158367 0.20502882 0 44
-0.74240172 -1.630461 0.22360018 0 45
-0.7380563 -1.6209176 0.2389475 0 46
-0.74684554 -1.6402205 0.25868914 0 47
-0.7368542 -1.6182774 0.2719425 0 48
-0.74258673 -1.6308674 0.29094976 0 49
-0.73572087 -1.6157885 0.30504516 0 50
-0.73991293 -1.624995 0.32371786 0 51
-0.73784226 -1.6204474 0.33975554 0 52
-0.73566169 -1.6156585 0.35570437 0 53
-0.7415849 -1.628667 0.37572089 0 54
-0.74085319 -1.6270601 0.39255208 0 55
-0.7351979 -1.6146399 0.40669525 0 56
-0.74625242 -1.6389179 0.43028134 0 57
-0.73381579 -1.6116046 0.44036597 0 58
-0.73735815 -1.6193843 0.45991001 0 59
-0.73966157 -1.6244431 0.47890264 0 60
-0.74094242 -1.627256 0.49740529 0 61
-0.74113208 -1.6276726 0.51530123 0 62
-0.73938251 -1.6238301 0.53190559 0 63
-0.73593444 -1.6704173 -0.54416043 0 0
-0.74390924 -1.6885184 -0.53162807 0 1
-0.73774838 -1.6745346 -0.50904554 0 2
-0.73299253 -1.6637398 -0.48779365 0 3
-0.73952192 -1.6785601 -0.4740977 0 4
-0.73645103 -1.6715899 -0.45424795 0 5
-0.7374109 -1.6737685 -0.43701738 0 6
-0.73862499 -1.6765244 -0.41996327 0 7
-0.73208761 -1.6616859 -0.39870405 0 8
-0.7302801 -1.6575831 -0.38029128 0 9
-0.73651683 -1.6717393 -0.36602959 0 10
-0.73925948 -1.6779644 -0.3498826 0 11
-0.74189603 -1.683949 -0.33361959 0 12
-0.73528093 -1.668934 -0.31334791 0 13
-0.73685473 -1.6725062 -0.29673934 0 14
-0.73671526 -1.6721897 -0.2794587 0 15
-0.73670769 -1.6721724 -0.2622799 0 16
-0.73675537 -1.6722807 -0.24516515 0 17
-0.73369747 -1.6653398 -0.22712903 0 18
-0.73230171 -1.6621718 -0.2097497 0 19
-0.74167156 -1.6834395 -0.19530582 0 20
-0.7438038 -1.6882792 -0.17872392 0 21
-0.73597157 -1.6705016 -0.15990929 0 22
-0.74315774 -1.6868128 -0.14440022 0 23
-0.73823798 -1.6756459 -0.12651125 0 24
-0.7403605 -1.6804636 -0.10991483 0 25
-0.73713863 -1.6731507 -0.092568748 0 26
-0.73861235 -1.6764957 -0.07586807 0 27
-0.73641139 -1.6714998 -0.05881938 0 28
-0.73399168 -1.6660076 -0.041868705 0 29
-0.73865342 -1.6765889 -0.025277922 0 30
-0.73532414 -1.6690321 -0.0083875237 0 31
-0.73842555 -1.6760716 0.0084229 0 32
-0.73121774 -1.6597114 0.02502346 0 33
-0.73684967 -1.6724946 0.042031731 0 34
-0.74235141 -1.6849825 0.059293829 0 35
-0.73911202 -1.6776298 0.075919397 0 36
-0.73806101 -1.6752442 0.092684574 0 37
-0.73949403 -1.6784968 0.10978619 0 38
-0.74221897 -1.6846819 0.12719347 0 39
-0.73972529 -1.6790218 0.14373328 0 40
-0.74583286 -1.6928847 0.16205193 0 41
-0.74049765 -1.6807749 0.17792951 0 42
-0.73733813 -1.6736034 0.19416468 0 43
-0.73518449 -1.6687151 0.2105754 0 44
-0.73992091 -1.6794659 0.22905561 0 45
-0.73547053 -1.6693643 0.24473761 0 46
-0.73786432 -1.6747978 0.26269168 0 47
-0.73421043 -1.6665043 0.27850854 0 48
-0.74171925 -1.6835476 0.29869834 0 49
-0.73678017 -1.6723371 0.31398684 0 50
-0.73764205 -1.6742933 0.33170664 0 51
-0.73840588 -1.6760271 0.3494786 0 52
-0.73604751 -1.670674 0.36579633 0 53
-0.73619384 -1.6710061 0.38337082 0 54
-0.74284416 -1.686101 0.40456221 0 55
-0.7371276 -1.6731255 0.41911188 0 56
-0.73844934 -1.6761256 0.43763283 0 57
-0.7432546 -1.6870327 0.45844448 0 58
-0.73861617 -1.6765043 0.47351703 0 59
-0.74053472 -1.6808591 0.49281287 0 60
-0.73522657 -1.6688106 0.5073055 0 61
-0.7379688 -1.6750349 0.52738279 0 62
-0.74254656 -1.6854255 0.5490495 0 63
-0.73397994 -1.7230989 -0.55833977 0 0
-0.73196244 -1.7183625 -0.53814995 0 1
-0.73767918 -1.7317833 -0.52365166 0 2
-0.73589569 -1.7275963 -0.50382465 0 3
-0.73594791 -1.7277188 -0.48538953 0 4
-0.73438871 -1.7240584 -0.46601686 0 5
-0.7360149 -1.7278761 -0.44874778 0 6
-0.73406947 -1.7233089 -0.42938906 0 7
-0.72968817 -1.7130234 -0.40883818 0 8
-0.73674423 -1.7295883 -0.39470279 0 9
-0.73421407 -1.7236485 -0.37539005 0 10
-0.73712665 -1.7304862 -0.35891709 0 11
-0.73661542 -1.729286 -0.34078139 0 12
-0.73732716 -1.7309568 -0.32326618 0 13
-0.74350023 -1.7454487 -0.30803558 0 14
-0.73779398 -1.7320527 -0.28792515 0 15
-0.73410845 -1.7234005 -0.26887882 0 16
-0.73851782 -1.7337519 -0.25282669 0 17
-0.73499954 -1.7254924 -0.23408264 0 18
-0.73394465 -1.723016 -0.21627244 0 19
-0.73901898 -1.7349285 -0.20020996 0 20
-0.726933 -1.7065552 -0.17969881 0 21
-0.73452508 -1.7243786 -0.16418968 0 22
-0.73583204 -1.7274468 -0.14709303 0 23
-0.73812115 -1.7328207 -0.13013285 0 24
-0.736467 -1.7289374 -0.11248455 0 25
-0.73760003 -1.7315974 -0.095293373 0 26
-0.7292909 -1.7120908 -0.077067241 0 27
-0.73653656 -1.7291007 -0.060523048 0 28
-0.73628825 -1.7285179 -0.043208864 0 29
-0.73710287 -1.7304302 -0.025951073 0 30
-0.73860008 -1.7339451 -0.0086674392 0 31
-0.74192172 -1.741743 0.0087064188 0 32
-0.73076534 -1.7155521 0.025727946 0 33
-0.73191798 -1.7182581 0.042952396 0 34
-0.73647034 -1.7289454 0.060517609 0 35
-0.73852998 -1.7337806 0.078043573 0 36
-0.73613822 -1.7281656 0.095104516 0 37
-0.73922098 -1.7354027 0.11290518 0 38
-0.73602742 -1.7279055 0.12976372 0 39
-0.74130768 -1.7403015 0.14818761 0 40
-0.73835307 -1.7333652 0.16504535 0 41
-0.73641288 -1.7288104 0.18204226 0 42
-0.73420757 -1.7236332 0.19890648 0 43
-0.73690325 -1.7299616 0.21714425 0 44
-0.73376328 -1.7225901 0.23368892 0 45
-0.74399722 -1.7466155 0.25470254 0 46
-0.73765457 -1.7317255 0.27017763 0 47
-0.73113823 -1.7164276 0.28532773 0 48
-0.7343477 -1.7239622 0.30424365 0 49
-0.73193175 -1.7182904 0.32090068 0 50
-0.7366448 -1.729355 0.34079498 0 51
-0.73286325 -1.7204772 0.35684115 0 52
-0.74409604 -1.7468475 0.38044253 0 53
-0.73982853 -1.736829 0.39635518 0 54
-0.73475957 -1.724929 0.41167963 0 55
-0.73518443 -1.7259264 0.43004125 0 56
-0.73769188 -1.7318131 0.44977027 0 57
-0.73756176 -1.7315075 0.46803036 0 58
-0.73908389 -1.7350808 0.48745784 0 59
-0.74014741 -1.7375777 0.50673556 0 60
-0.73253083 -1.7196969 0.519997 0 61
-0.7383697 -1.7334042 0.54286069 0 62
-0.73874313 -1.7342809 0.56196314 0 63
-0.73579019 -1.7880113 -0.57639819 0 0
-0.73550254 -1.7873123 -0.55686891 0 1
-0.73612946 -1.7888358 -0.53812528 0 2
-0.73363465 -1.7827731 -0.51724613 0 3
-0.72923195 -1.7720745 -0.49529424 0 4
-0.73351133 -1.7824736 -0.47933236 0 5
-0.73439497 -1.7846209 -0.46110484 0 6
-0.73086184 -1.7760352 -0.44025409 0 7
-0.73683369 -1.7905471 -0.42514578 0 8
-0.73308814 -1.7814451 -0.40444914 0 9
-0.73787266 -1.7930717 -0.38850421 0 10
-0.73693126 -1.7907841 -0.36951599 0 11
-0.73770672 -1.7926686 -0.35145769 0 12
-0.73863834 -1.7949325 -0.33349258 0 13
-0.7375254 -1.7922279 -0.31466687 0 14
-0.73790789 -1.7931575 -0.29655203 0 15
-0.73451507 -1.7849126 -0.27704564 0 16
-0.73476017 -1.7855083 -0.25903702 0 17
-0.74041975 -1.7992613 -0.24283674 0 18
-0.73850799 -1.7946156 -0.22410281 0 19
-0.73506606 -1.7862517 -0.20507406 0 20
-0.73934376 -1.7966467 -0.18821381 0 21
-0.73478174 -1.7855607 -0.16914216 0 22
-0.73677063 -1.7903938 -0.1516701 0 23
-0.74011892 -1.7985303 -0.13437395 0 24
-0.74090981 -1.8004524 -0.11653576 0 25
-0.73474157 -1.7854631 -0.097753122 0 26
-0.73288924 -1.7809619 -0.079755679 0 27
-0.74091834 -1.800473 -0.062697627 0 28
-0.741135 -1.8009995 -0.044789534 0 29
-0.73458427 -1.7850808 -0.026633184 0 30
-0.73869038 -1.7950588 -0.0089268489 0 31
-0.73806304 -1.7935344 0.008919267 0 32
-0.73581332 -1.7880676 0.026677746 0 33
-0.74334389 -1.8063672 0.044923026 0 34
-0.73606813 -1.7886868 0.062287197 0 35
-0.7374841 -1.7921275 0.080255702 0 36
-0.73706126 -1.7911 0.098061748 0 37
-0.73533422 -1.7869033 0.11565879 0 38
-0.73755121 -1.7922907 0.13390775 0 39
-0.74064255 -1.7998028 0.15246716 0 40
-0.74232763 -1.8038976 0.17087917 0 41
-0.73465914 -1.7852627 0.18702126 0 42
-0.73975199 -1.7976387 0.20638137 0 43
-0.73895311 -1.7956973 0.22423789 0 44
-0.74095637 -1.8005654 0.24301274 0 45
-0.73821181 -1.7938961 0.26025391 0 46
-0.73931509 -1.796577 0.27885613 0 47
-0.74310547 -1.8057879 0.29864085 0 48
-0.739788 -1.7977263 0.31563222 0 49
-0.73110384 -1.7766231 0.33009076 0 50
-0.73462647 -1.7851834 0.34999019 0 51
-0.734218 -1.7841909 0.36815551 0 52
-0.73553115 -1.7873818 0.38727137 0 53
-0.73676097 -1.7903705 0.40647545 0 54
-0.73807001 -1.7935513 0.42585912 0 55
-0.73547566 -1.7872469 0.44303334 0 56
-0.73165327 -1.7779583 0.4593834 0 57
-0.73263091 -1.7803341 0.47875702 0 58
-0.73659933 -1.7899776 0.50029814 0 59
-0.73801601 -1.7934202 0.5203352 0 60
-0.73567134 -1.7877225 0.53779036 0 61
-0.73680711 -1.7904825 0.55785662 0 62
-0.73994648 -1.7981113 0.57965416 0 63
-0.73689526 -1.8551931 -0.59508944 0 0
-0.73832208 -1.8587853 -0.57626539 0 1
-0.73676646 -1.8548688 -0.55522227 0 2
-0.73658627 -1.8544152 -0.53536367 0 3
-0.73191923 -1.8426657 -0.51247025 0 4
-0.73306435 -1.8455485 -0.49383274 0 5
-0.74033922 -1.8638635 -0.47919095 0 6
-0.7381314 -1.8583052 -0.45836309 0 7
-0.7345674 -1.8493326 -0.43692604 0 8
-0.73256069 -1.8442806 -0.41663831 0 9
-0.73696166 -1.8553603 -0.40000653 0 10
-0.73731077 -1.8562392 -0.38112259 0 11
-0.73562926 -1.8520058 -0.36129019 0 12
-0.73859078 -1.8594617 -0.34376848 0 13
-0.73955178 -1.8618811 -0.32527488 0 14
-0.73087174 -1.8400284 -0.30279437 0 15
-0.73812437 -1.8582876 -0.28700408 0 16
-0.7371307 -1.8557858 -0.26789746 0 17
-0.73549438 -1.8516662 -0.24867015 0 18
-0.73511791 -1.8507185 -0.22996248 0 19
-0.73200083 -1.842871 -0.21052505 0 20
-0.73438567 -1.848875 -0.1927246 0 21
-0.7332204 -1.8459414 -0.17399466 0 22
-0.73755527 -1.8568547 -0.15652008 0 23
-0.73829126 -1.8587078 -0.13818127 0 24
-0.73242003 -1.8439263 -0.11875775 0 25
-0.73827809 -1.8586745 -0.10125672 0 26
-0.73256403 -1.8442889 -0.082182005 0 27
-0.73520952 -1.850949 -0.064135686 0 28
-0.73951477 -1.8617879 -0.046071667 0 29
-0.73399526 -1.847892 -0.027433587 0 30
-0.73786408 -1.8576322 -0.0091922106 0 31
-0.73759651 -1.8569585 0.0091888774 0 32
-0.73468429 -1.8496268 0.02745934 0 33
-0.74253684 -1.8693963 0.046259943 0 34
-0.73403323 -1.8479877 0.064033069 0 35
-0.73303992 -1.8454869 0.082235388 0 36
-0.73938501 -1.8614612 0.10140854 0 37
-0.73578453 -1.8523968 0.11930329 0 38
-0.73669177 -1.8546808 0.13788189 0 39
-0.73042029 -1.8388919 0.15500595 0 40
-0.73137623 -1.8412985 0.17355703 0 41
-0.73339337 -1.8463768 0.19246419 0 42
-0.73647672 -1.8541394 0.21181233 0 43
-0.73710227 -1.8557143 0.23058324 0 44
-0.73372275 -1.847206 0.24807115 0 45
-0.7318452 -1.8424792 0.26597655 0 46
-0.73887044 -1.8601658 0.28729415 0 47
-0.73156112 -1.841764 0.30307996 0 48
-0.73229849 -1.8436204 0.32208467 0 49
-0.7318036 -1.8423744 0.34060946 0 50
-0.74148887 -1.866758 0.36416802 0 51
-0.73166764 -1.8420322 0.37820563 0 52
-0.736826 -1.8550187 0.39993289 0 53
-0.73398858 -1.8478752 0.4174504 0 54
-0.72913146 -1.8356471 0.43369269 0 55
-0.72920114 -1.8358226 0.45281762 0 56
-0.73434281 -1.848767 0.4753097 0 57
-0.73562133 -1.8519859 0.49555528 0 58
-0.73309731 -1.8456315 0.51329505 0 59
-0.73431897 -1.8487071 0.53371572 0 60
-0.73414868 -1.8482784 0.55324954 0 61
-0.73119366 -1.8408388 0.57070154 0 62
-0.73178858 -1.8423365 0.59096545 0 63
-0.73790914 -1.9264573 -0.61499178 0 0
-0.73642409 -1.9225804 -0.59319103 0 1
-0.73974955 -1.9312621 -0.57532299 0 2
-0.730416 -1.906895 -0.54788005 0 3
-0.74036837 -1.9328777 -0.53498703 0 4
-0.733778 -1.9156723 -0.51014358 0 5
-0.73448962 -1.9175299 -0.49062926 0 6
-0.73723531 -1.9246981 -0.4724676 0 7
-0.74133307 -1.9353962 -0.45507142 0 8
-0.73288584 -1.9133431 -0.43017173 0 9
-0.73518091 -1.9193349 -0.41181898 0 10
-0.73103774 -1.9085183 -0.38998139 0 11
-0.74046171 -1.9331213 -0.37530965 0 12
-0.73050898 -1.9071378 -0.3508954 0 13
-0.73273659 -1.9129534 -0.33259809 0 14
-0.73689264 -1.9238037 -0.31506547 0 15
-0.73836839 -1.9276563 -0.29629311 0 16
-0.73994553 -1.9317738 -0.27753246 0 17
-0.73496014 -1.9187584 -0.25644726 0 18
-0.73775071 -1.9260437 -0.23817685 0 19
-0.73861855 -1.9283093 -0.2192312 0 20
-0.73833603 -1.9275718 -0.19996637 0 21
-0.7366237 -1.9231014 -0.18040019 0 22
-0.73804188 -1.9268038 -0.16163911 0 23
-0.73830259 -1.9274845 -0.14260861 0 24
-0.73190367 -1.9107789 -0.12247448 0 25
-0.73514563 -1.9192426 -0.10405602 0 26
-0.74188602 -1.9368398 -0.085893095 0 27
-0.73744422 -1.9252435 -0.066390775 0 28
-0.7330187 -1.9136899 -0.047129419 0 29
-0.73508602 -1.9190872 -0.028354205 0 30
-0.73405403 -1.9163928 -0.0094376002 0 31
-0.74097151 -1.9344522 0.0095265368 0 32
-0.73879415 -1.9287678 0.028497234 0 33
-0.73899388 -1.9292892 0.047513593 0 34
-0.73710358 -1.9243543 0.066360109 0 35
-0.74081171 -1.9340351 0.085768722 0 36
-0.73801267 -1.9267277 0.10446184 0 37
-0.73462927 -1.9178947 0.12293058 0 38
-0.73586023 -1.9211082 0.14213686 0 39
-0.73540837 -1.9199286 0.16106236 0 40
-0.73978627 -1.9313579 0.1811747 0 41
-0.73823601 -1.9273108 0.19993928 0 42
-0.74040306 -1.9329683 0.21976088 0 43
-0.73198694 -1.9109963 0.23631607 0 44
-0.73852539 -1.9280661 0.25769123 0 45
-0.73677576 -1.9234985 0.27634358 0 46
-0.73854363 -1.9281139 0.29636341 0 47
-0.74050188 -1.9332262 0.31660864 0 48
-0.73281652 -1.9131621 0.33263436 0 49
-0.7313019 -1.9092078 0.35127628 0 50
-0.73259658 -1.9125878 0.37132311 0 51
-0.73701119 -1.9241132 0.393168 0 52
-0.73508185 -1.9190761 0.41176346 0 53
-0.73442018 -1.9173487 0.43107232 0 54
-0.73530036 -1.9196466 0.45136821 0 55
-0.73743778 -1.9252267 0.47259736 0 56
-0.73334897 -1.9145521 0.48986733 0 57
-0.73029363 -1.9065756 0.50772113 0 58
-0.734038 -1.916351 0.53041273 0 59
-0.73703271 -1.9241693 0.55284327 0 60
-0.73972046 -1.9311861 0.57530034 0 61
-0.7368412 -1.9236692 0.59352702 0 62
-0.73906869 -1.9294846 0.61595821 0 63
-0.73159111 -1.9826052 -0.62999666 0 0
-0.73305595 -1.9865749 -0.61010855 0 1
-0.73460078 -1.9907613 -0.59031224 0 2
-0.73348039 -1.987725 -0.56846946 0 3
-0.73168832 -1.9828686 -0.54629213 0 4
-0.73471546 -1.9910722 -0.52777684 0 5
-0.73271602 -1.9856538 -0.50571626 0 6
-0.73353285 -1.9878674 -0.48572326 0 7
-0.7377212 -1.9992176 -0.46790949 0 8
-0.73040682 -1.9793957 -0.44296941 0 9
-0.73189265 -1.9834223 -0.42360678 0 10
-0.73517144 -1.9923078 -0.40522486 0 11
-0.7361263 -1.9948955 -0.38551638 0 12
-0.73488098 -1.9915206 -0.36473086 0 13
-0.7385487 -2.0014603 -0.34638128 0 14
-0.73128605 -1.9817785 -0.32306305 0 15
-0.73724574 -1.9979292 -0.30567795 0 16
-0.73577237 -1.9939363 -0.28514183 0 17
-0.73018688 -1.9787997 -0.26325199 0 18
-0.73370397 -1.9883311 -0.24474521 0 19
-0.73522115 -1.9924425 -0.22547767 0 20
-0.73442698 -1.9902903 -0.20552039 0 21
-0.73096794 -1.9809164 -0.18496647 0 22
-0.73638451 -1.9955952 -0.16663779 0 23
-0.73249292 -1.9850491 -0.14619018 0 24
-0.73425913 -1.9898355 -0.12695344 0 25
-0.73977733 -2.0047898 -0.10819278 0 26
-0.73185605 -1.9833232 -0.087548792 0 27
-0.73899871 -2.0026796 -0.068742551 0 28
-0.7317335 -1.9829911 -0.048610866 0 29
-0.73445719 -1.9903722 -0.029271781 0 30
-0.73495686 -1.9917264 -0.0097633488 0 31
-0.73292953 -1.9862324 0.0097364169 0 32
-0.73446494 -1.9903932 0.029272091 0 33
-0.73158413 -1.9825861 0.048600942 0 34
-0.73468304 -1.9909843 0.068341106 0 35
-0.73595774 -1.9944388 0.088039458 0 36
-0.73404366 -1.9892515 0.10735422 0 37
-0.73345053 -1.9876442 0.12681362 0 38
-0.7393477 -2.0036254 0.14755826 0 39
-0.73336118 -1.9874021 0.16595365 0 40
-0.73891926 -2.0024643 0.1869785 0 41
-0.7333225 -1.9872973 0.20521133 0 42
-0.73015398 -1.9787105 0.22392367 0 43
-0.73622119 -1.9951527 0.24558491 0 44
-0.7353425 -1.9927715 0.26511073 0 45
-0.7318269 -1.9832442 0.28361279 0 46
-0.72979021 -1.9777247 0.3025867 0 47
-0.7282567 -1.9735689 0.32172474 0 48
-0.7357111 -1.9937702 0.34505042 0 49
-0.73381472 -1.9886312 0.36420169 0 50
-0.74170023 -2.0100007 0.38843551 0 51
-0.73431098 -1.989976 0.40475062 0 52
-0.73826563 -2.0006931 0.42729536 0 53
-0.72923332 -1.9762156 0.4422577 0 54
-0.74222326 -2.0114181 0.47076499 0 55
-0.73472214 -1.9910902 0.48651072 0 56
-0.73944002 -2.0038757 0.51035708 0 57
-0.7316041 -1.9826404 0.52554178 0 58
-0.73314357 -1.9868124 0.54737866 0 59
-0.72959608 -1.9771987 0.56545901 0 60
-0.73498726 -1.9918087 0.59062278 0 61
-0.73995107 -2.0052607 0.61584729 0 62
-0.73697323 -1.9971906 0.6346314 0 63
-0.73649949 -2.0740783 -0.65613604 0 0
-0.73870116 -2.0802786 -0.63604867 0 1
-0.73514271 -2.0702577 -0.61115819 0 2
-0.73370659 -2.0662131 -0.58829159 0 3
-0.73506159 -2.070029 -0.56777221 0 4
-0.73769546 -2.0774465 -0.54822624 0 5
-0.73268741 -2.063343 -0.52316844 0 6
-0.73320186 -2.0647919 -0.50227839 0 7
-0.73653185 -2.0741694 -0.48329547 0 8
-0.73389167 -2.0667346 -0.4604606 0 9
-0.73817611 -2.0788 -0.44200492 0 10
-0.73484683 -2.0694242 -0.41904038 0 11
-0.73571688 -2.0718744 -0.39861423 0 12
-0.73174936 -2.0607014 -0.37572446 0 13
-0.73590916 -2.0724158 -0.35706809 0 14
-0.73233372 -2.0623469 -0.33470377 0 15
-0.735066 -2.0700414 -0.31530422 0 16
-0.73732328 -2.0763984 -0.29561538 0 17
-0.73251384 -2.0628543 -0.27321535 0 18
-0.73853195 -2.079802 -0.25486735 0 19
-0.73832011 -2.0792055 -0.23425122 0 20
-0.74132502 -2.0876677 -0.21461821 0 21
-0.73740041 -2.0766156 -0.19304104 0 22
-0.73162353 -2.0603471 -0.17128058 0 23
-0.73256445 -2.0629969 -0.15125586 0 24
-0.73306865 -2.0644166 -0.13112675 0 25
-0.73390692 -2.0667772 -0.11104265 0 26
-0.73838878 -2.0793989 -0.091382101 0 27
-0.73480999 -2.0693207 -0.070714526 0 28
-0.73373878 -2.0663037 -0.050428204 0 29
-0.73564726 -2.0716784 -0.0303322 0 30
-0.73352933 -2.0657141 -0.010081056 0 31
-0.73589903 -2.0723875 0.010113623 0 32
-0.73827761 -2.0790858 0.030440655 0 33
-0.73649776 -2.0740733 0.050617822 0 34
-0.74140882 -2.0879037 0.071349561 0 35
-0.73630178 -2.0735216 0.091123827 0 36
-0.73439294 -2.068146 0.11111619 0 37
-0.73527312 -2.0706248 0.13152108 0 38
-0.73403198 -2.0671296 0.15155886 0 39
-0.73382962 -2.0665596 0.17179704 0 40
-0.7341488 -2.0674584 0.19218981 0 41
-0.73680967 -2.0749519 0.21331099 0 42
-0.73333007 -2.0651529 0.232668 0 43
-0.73465896 -2.0688951 0.25353077 0 44
-0.73410416 -2.0673327 0.27380848 0 45
-0.73548955 -2.0712342 0.29488015 0 46
-0.72938079 -2.0540311 0.31286556 0 47
-0.72681659 -2.0468099 0.33218223 0 48
-0.7322638 -2.06215 0.35529935 0 49
-0.7320807 -2.0616345 0.37589461 0 50
-0.73579299 -2.0720887 0.39865547 0 51
-0.73287821 -2.0638804 0.41791782 0 52
-0.7370581 -2.0756514 0.44133547 0 53
-0.73330331 -2.0650775 0.46009144 0 54
-0.73237312 -2.0624578 0.48056659 0 55
-0.73558193 -2.0714943 0.50390881 0 56
-0.7394737 -2.082454 0.52801406 0 57
-0.73826319 -2.0790453 0.54864818 0 58
-0.73401064 -2.0670695 0.56696045 0 59
