# .PCD v0.7 - Point Cloud Data file format
VERSION 0.7
FIELDS x y z intensity ring
SIZE 4 4 4 4 2
TYPE F F F F U
COUNT 1 1 1 1 1
WIDTH 1248
HEIGHT 1
VIEWPOINT 0 0 0 1 0 0 0
POINTS 1248
DATA ascii
1.2629117 -0.88012737 -0.035401914 0 29
1.2533132 -0.87343812 -0.021077331 0 30
1.2484523 -0.87005061 -0.0069981338 0 31
1.2664371 -0.88258415 0.0070989463 0 32
1.2582191 -0.87685704 0.021159835 0 33
1.2566 -0.87572873 0.035224985 0 34
1.2568725 -0.87591869 0.049334027 0 35
1.2523862 -0.87279212 0.06321732 0 36
1.2540082 -0.87392253 0.077387527 0 37
1.2586764 -0.87717581 0.091829561 0 38
1.2728078 -0.88702404 0.10718919 0 39
1.2676228 -0.88341057 0.12104094 0 40
1.2581096 -0.87678081 0.13433418 0 41
1.2440228 -0.86696368 0.14689533 0 42
1.2564492 -0.87562364 0.16259375 0 43
1.2621616 -0.87960464 0.17765673 0 44
1.2551242 -0.87470025 0.19094035 0 45
1.2607464 -0.8786183 0.2061667 0 46
1.2655549 -0.88196945 0.22141457 0 47
1.2566173 -0.87574077 0.23424825 0 48
1.2420505 -0.86558914 0.24580339 0 49
1.2620975 -0.87955999 0.26431498 0 50
1.2614818 -0.87913084 0.27876922 0 51
1.2596184 -0.87783229 0.29296777 0 52
1.2522403 -0.87269044 0.3058275 0 53
1.2633218 -0.88041312 0.32329294 0 54
1.2504836 -0.87146616 0.3346732 0 55
1.2543418 -0.87415498 0.35047624 0 56
1.2666097 -0.8827045 0.36888188 0 57
1.2600049 -0.87810153 0.38192376 0 58
1.250412 -0.87141627 0.39393565 0 59
1.2543467 -0.87415838 0.41021314 0 60
1.2442187 -0.86710012 0.42189118 0 61
1.2550406 -0.87464201 0.44075894 0 62
1.249083 -0.87049007 0.45387313 0 63
1.244573 -0.84480369 -0.44842577 0 0
1.2542727 -0.8513878 -0.43677959 0 1
1.2517292 -0.84966129 -0.42086339 0 2
1.251529 -0.84952533 -0.40584472 0 3
1.2496871 -0.84827513 -0.39039162 0 4
1.255044 -0.85191131 -0.37721628 0 5
1.2484471 -0.84743333 -0.36053023 0 6
1.2484835 -0.84745812 -0.34590152 0 7
1.2542123 -0.85134673 -0.3328442 0 8
1.2501715 -0.84860396 -0.31723341 0 9
1.2477031 -0.84692836 -0.30215314 0 10
1.2548847 -0.85180318 -0.28940874 0 11
1.2653109 -0.8588804 -0.27726057 0 12
1.2561411 -0.85265601 -0.2608521 0 13
1.2468376 -0.84634089 -0.2446727 0 14
1.2460754 -0.84582353 -0.23032691 0 15
1.259835 -0.85516346 -0.21855758 0 16
1.251673 -0.84962314 -0.20295918 0 17
1.258491 -0.85425109 -0.18984017 0 18
1.2682023 -0.86084306 -0.17700367 0 19
1.2613178 -0.85617 -0.16184917 0 20
1.2599734 -0.85525733 -0.14752582 0 21
1.2577118 -0.85372216 -0.13316074 0 22
1.2455757 -0.84548432 -0.11793409 0 23
1.2458627 -0.84567916 -0.10403641 0 24
1.2445322 -0.84477603 -0.090032972 0 25
1.2571627 -0.85334945 -0.076928824 0 26
1.249961 -0.84846109 -0.062563546 0 27
1.2476157 -0.84686905 -0.048558265 0 28
1.2473389 -0.84668112 -0.034670912 0 29
1.2383667 -0.84059095 -0.020650584 0 30
1.2724459 -0.86372358 -0.00707256 0 31
1.2600183 -0.85528785 0.0070034843 0 32
1.253785 -0.85105675 0.020907694 0 33
1.2578846 -0.85383952 0.03496404 0 34
1.2499379 -0.84844536 0.048648648 0 35
1.2705566 -0.86244106 0.063594393 0 36
1.2533879 -0.85078716 0.076697834 0 37
1.2524037 -0.85011911 0.09060242 0 38
1.2653738 -0.85892308 0.10566568 0 39
1.2432615 -0.8439135 0.11771498 0 40
1.2478809 -0.84704912 0.13211989 0 41
1.2567704 -0.85308319 0.1471508 0 42
1.2577596 -0.85375464 0.16139258 0 43
1.2561517 -0.85266316 0.17532174 0 44
1.2589523 -0.85456425 0.18990976 0 45
1.2524511 -0.85015124 0.20308535 0 46
1.2527649 -0.85036433 0.21733107 0 47
1.2538967 -0.85113257 0.23177262 0 48
1.2515618 -0.84954762 0.24559975 0 49
1.2598969 -0.85520542 0.26163203 0 50
1.2541403 -0.85129786 0.27481282 0 51
1.2561647 -0.85267204 0.28970397 0 52
1.2624309 -0.85692543 0.30571976 0 53
1.2530786 -0.85057724 0.31797105 0 54
1.2683568 -0.86094791 0.33659792 0 55
1.2454739 -0.84541523 0.34506768 0 56
1.2632395 -0.85747433 0.36480203 0 57
1.2529839 -0.85051298 0.37659714 0 58
1.2540462 -0.85123402 0.39175335 0 59
1.249971 -0.84846783 0.40533951 0 60
1.252964 -0.85049945 0.42127857 0 61
1.2471794 -0.84657294 0.43430948 0 62
1.2596862 -0.85506243 0.45387116 0 63
1.2415122 -0.8206104 -0.4436537 0 0
1.2536603 -0.8286401 -0.43298534 0 1
1.2489129 -0.8255021 -0.41647205 0 2
1.260419 -0.83310741 -0.40537494 0 3
1.2548543 -0.82942927 -0.38879031 0 4
1.2529242 -0.82815349 -0.37349021 0 5
1.2614185 -0.83376807 -0.36128813 0 6
1.2495341 -0.82591277 -0.34335294 0 7
1.2602347 -0.83298564 -0.33169916 0 8
1.2477669 -0.82474464 -0.31402606 0 9
1.244733 -0.8227393 -0.29896134 0 10
1.263773 -0.83532429 -0.28906789 0 11
1.2421247 -0.82101524 -0.26994729 0 12
1.2435242 -0.8219403 -0.25611386 0 13
1.2565875 -0.83057493 -0.24456333 0 14
1.2628807 -0.8347345 -0.23151843 0 15
1.2625543 -0.83451879 -0.2172327 0 16
1.2572304 -0.83099979 -0.2021881 0 17
1.2581388 -0.83160025 -0.18823029 0 18
1.2455959 -0.82330966 -0.17242245 0 19
1.2569977 -0.83084601 -0.15997177 0 20
1.2525713 -0.82792032 -0.14545615 0 21
1.2399142 -0.81955421 -0.1301996 0 22
1.2545973 -0.8292594 -0.1178139 0 23
1.2465421 -0.82393509 -0.1032393 0 24
1.2531483 -0.82830161 -0.08991266 0 25
1.2490593 -0.8255989 -0.075806007 0 26
1.2542604 -0.82903671 -0.062263783 0 27
1.2544807 -0.82918233 -0.048424959 0 28
1.2563312 -0.83040547 -0.034634419 0 29
1.2596256 -0.83258295 -0.02083279 0 30
1.2565196 -0.83052999 -0.0069267498 0 31
1.2439051 -0.82219207 0.0068572103 0 32
1.2475957 -0.82463145 0.02063383 0 33
1.2522668 -0.82771897 0.03452237 0 34
1.2541078 -0.82893586 0.048410565 0 35
1.2610481 -0.83352321 0.062600732 0 36
1.2429366 -0.82155192 0.075434417 0 37
1.2633625 -0.83505303 0.090645529 0 38
1.2541857 -0.82898736 0.10387234 0 39
1.2499934 -0.82621634 0.11738157 0 40
1.2543715 -0.82911015 0.13171773 0 41
1.2597065 -0.83263648 0.14628473 0 42
1.2328873 -0.81490958 0.15690336 0 43
1.2526623 -0.8279804 0.17340061 0 44
1.2448584 -0.82282221 0.18624341 0 45
1.2559859 -0.83017719 0.20198797 0 46
1.2578011 -0.83137697 0.21641487 0 47
1.2584354 -0.83179629 0.23070352 0 48
1.2483486 -0.82512909 0.24295981 0 49
1.2453257 -0.82313108 0.2564849 0 50
1.2471232 -0.82431918 0.27103361 0 51
1.2457579 -0.82341677 0.28494722 0 52
1.2393404 -0.81917495 0.29766613 0 53
1.2588527 -0.83207208 0.31681603 0 54
1.2610381 -0.8335166 0.33191058 0 55
1.258149 -0.83160698 0.34572014 0 56
1.2547545 -0.82936329 0.35937947 0 57
1.2564878 -0.83050895 0.37455252 0 58
1.2537793 -0.82871872 0.38845724 0 59
1.2589102 -0.83211011 0.40488967 0 60
1.2501189 -0.82629925 0.4168742 0 61
1.2615241 -0.83383781 0.43570128 0 62
1.2606857 -0.83328366 0.45050535 0 63
1.2523303 -0.80581236 -0.44394517 0 0
1.2572649 -0.80898744 -0.43076196 0 1
1.2669628 -0.81522763 -0.41911662 0 2
1.2520697 -0.80564469 -0.39947328 0 3
1.2565221 -0.80850953 -0.38619757 0 4
1.2564284 -0.80844921 -0.37154332 0 5
1.2536386 -0.80665421 -0.35619202 0 6
1.2414842 -0.79883337 -0.33841616 0 7
1.2669468 -0.81521738 -0.33080235 0 8
1.2596024 -0.81049156 -0.31447273 0 9
1.2515223 -0.80529243 -0.29819113 0 10
1.2503955 -0.8045674 -0.28372362 0 11
1.2606542 -0.81116837 -0.271786 0 12
1.2595553 -0.81046128 -0.25734362 0 13
1.2570783 -0.80886745 -0.2427047 0 14
1.2563403 -0.80839258 -0.22847983 0 15
1.2612201 -0.8115325 -0.21526991 0 16
1.2525069 -0.80592591 -0.19981964 0 17
1.2503039 -0.80450839 -0.18556403 0 18
1.2525641 -0.80596274 -0.17200215 0 19
1.261534 -0.81173444 -0.15926675 0 20
1.2477787 -0.80288357 -0.14374225 0 21
1.2503322 -0.80452669 -0.1302449 0 22
1.252473 -0.80590415 -0.11667501 0 23
1.2512044 -0.8050878 -0.10279775 0 24
1.2477486 -0.80286425 -0.088810191 0 25
1.252288 -0.80578512 -0.075394914 0 26
1.2587622 -0.80995095 -0.061988164 0 27
1.2578647 -0.8093735 -0.048167769 0 28
1.255711 -0.80798763 -0.034340825 0 29
1.2594194 -0.81037384 -0.020663016 0 30
1.2545789 -0.8072592 -0.0068608117 0 31
1.258026 -0.80947727 0.0068796631 0 32
1.257264 -0.8089869 0.02062765 0 33
1.2569083 -0.80875802 0.034373567 0 34
1.2610325 -0.81141174 0.048289072 0 35
1.2599782 -0.81073338 0.062048044 0 36
1.2616758 -0.81182569 0.075960115 0 37
1.2485263 -0.80336463 0.088865533 0 38
1.2487006 -0.80347675 0.10259204 0 39
1.2625704 -0.81240129 0.11761564 0 40
1.2542148 -0.8070249 0.13064934 0 41
1.2680835 -0.81594867 0.14608133 0 42
1.2407429 -0.79835641 0.1566419 0 43
1.2572047 -0.80894876 0.1726394 0 44
1.248484 -0.8033374 0.18529394 0 45
1.2512547 -0.80512023 0.19961987 0 46
1.2507526 -0.80479711 0.21348326 0 47
1.2493405 -0.80388856 0.22720686 0 48
1.2584521 -0.80975139 0.24296993 0 49
1.2617058 -0.81184494 0.25778297 0 50
1.260788 -0.81125444 0.27181485 0 51
1.256741 -0.80865037 0.28516343 0 52
1.241194 -0.79864663 0.29573026 0 53
1.2453172 -0.80129975 0.31090629 0 54
1.2514007 -0.80521417 0.32674322 0 55
1.2599581 -0.8107205 0.34345198 0 56
1.2501055 -0.80438077 0.35518813 0 57
1.2570825 -0.80887014 0.37173676 0 58
1.2525507 -0.80595422 0.38497698 0 59
1.249539 -0.80401623 0.39866585 0 60
1.2419249 -0.79911697 0.41083395 0 61
1.2636173 -0.81307495 0.43293846 0 62
1.252739 -0.80607527 0.44409001 0 63
1.2472109 -0.78100252 -0.43869275 0 0
1.257262 -0.78729653 -0.42741182 0 1
1.2575991 -0.78750759 -0.41278449 0 2
1.2485228 -0.78182405 -0.39524451 0 3
1.2613997 -0.78988755 -0.38468239 0 4
1.2513527 -0.7835961 -0.36716527 0 5
1.2545291 -0.78558522 -0.35367364 0 6
1.2577959 -0.78763086 -0.34019679 0 7
1.2512451 -0.78352875 -0.32416245 0 8
1.2472547 -0.78103 -0.30896896 0 9
1.2497439 -0.78258878 -0.29545227 0 10
1.2578888 -0.78768903 -0.2832047 0 11
1.2560362 -0.78652894 -0.26868498 0 12
1.2595614 -0.7887364 -0.25534397 0 13
1.2537766 -0.78511393 -0.24018514 0 14
1.2506005 -0.7831251 -0.22566766 0 15
1.2525524 -0.78434741 -0.21212824 0 16
1.2534183 -0.78488958 -0.1984103 0 17
1.2517295 -0.78383207 -0.18433121 0 18
1.2712469 -0.79605389 -0.17321041 0 19
1.2589387 -0.78834647 -0.15770334 0 20
1.2481585 -0.78159589 -0.14266807 0 21
1.2544662 -0.78554577 -0.12965952 0 22
1.2563114 -0.7867012 -0.11612264 0 23
1.2558826 -0.78643274 -0.10237987 0 24
1.2486475 -0.78190213 -0.088183165 0 25
1.2492265 -0.78226465 -0.07462582 0 26
1.2595004 -0.7886982 -0.061542273 0 27
1.2523633 -0.78422898 -0.047584232 0 28
1.2632335 -0.79103595 -0.034277949 0 29
1.2695748 -0.79500675 -0.020667678 0 30
1.2484381 -0.78177106 -0.0067741484 0 31
1.2582484 -0.78791422 0.0068273796 0 32
1.2458203 -0.7801317 0.020280974 0 33
1.2606976 -0.7894479 0.034209136 0 34
1.2599881 -0.78900361 0.047873937 0 35
1.2726421 -0.79692757 0.062184412 0 36
1.2501258 -0.78282779 0.074679546 0 37
1.2607886 -0.78950489 0.0890406 0 38
1.2566741 -0.78692836 0.10244438 0 39
1.2486458 -0.78190106 0.1154141 0 40
1.258979 -0.78837168 0.13012595 0 41
1.2544518 -0.78553671 0.14338739 0 42
1.2564185 -0.78676826 0.15738763 0 43
1.2584052 -0.78801239 0.17146069 0 44
1.2533889 -0.78487116 0.18457557 0 45
1.249126 -0.78220177 0.19773085 0 46
1.2686453 -0.79442471 0.21485367 0 47
1.2620727 -0.79030895 0.22773778 0 48
1.2484982 -0.78180861 0.23917396 0 49
1.2598084 -0.78889108 0.25539404 0 50
1.2524774 -0.78430039 0.26792371 0 51
1.2612681 -0.78980511 0.28396553 0 52
1.2535813 -0.78499162 0.29635945 0 53
1.2674376 -0.79366845 0.3139686 0 54
1.2508065 -0.78325409 0.32404885 0 55
1.2623692 -0.79049462 0.34143373 0 56
1.2480808 -0.78154731 0.35185575 0 57
1.2448453 -0.77952117 0.36525592 0 58
1.26056 -0.78936177 0.3844263 0 59
1.2485207 -0.7818228 0.39524385 0 60
1.2575392 -0.78747004 0.41276479 0 61
1.2528903 -0.78455901 0.42592567 0 62
1.2594733 -0.78868127 0.44300595 0 63
1.2528708 -0.7632637 -0.43734929 0 0
1.2592421 -0.76714516 -0.42484596 0 1
1.2508876 -0.76205558 -0.40747505 0 2
1.2477825 -0.76016384 -0.39202142 0 3
1.2489032 -0.76084661 -0.37798962 0 4
1.2527505 -0.76319039 -0.36479428 0 5
1.2428936 -0.75718546 -0.34774223 0 6
1.244122 -0.7579338 -0.3339524 0 7
1.2519965 -0.76273108 -0.32190299 0 8
1.2651838 -0.77076489 -0.31103897 0 9
1.2569189 -0.7657299 -0.29490021 0 10
1.2563002 -0.76535296 -0.28070697 0 11
1.2443 -0.75804228 -0.26416051 0 12
1.2579702 -0.76637036 -0.25309187 0 13
1.2436041 -0.75761831 -0.23643388 0 14
1.2665727 -0.77161109 -0.22682056 0 15
1.2569481 -0.76574761 -0.21126203 0 16
1.2608578 -0.76812947 -0.19807783 0 17
1.2412695 -0.75619608 -0.18140782 0 18
1.2516361 -0.76251149 -0.16924806 0 19
1.2546628 -0.76435542 -0.15597855 0 20
1.2660326 -0.77128196 -0.14361621 0 21
1.2504445 -0.76178557 -0.12826596 0 22
1.2565258 -0.76549035 -0.11526371 0 23
1.2688138 -0.7729764 -0.10265142 0 24
1.2565299 -0.76549286 -0.088068418 0 25
1.2487212 -0.76073575 -0.074031241 0 26
1.2717791 -0.77478278 -0.061672054 0 27
1.2480234 -0.76031059 -0.047060549 0 28
1.2573643 -0.76600116 -0.033860534 0 29
1.2515259 -0.76244438 -0.020219704 0 30
1.2580487 -0.76641816 -0.0067746472 0 31
1.2522945 -0.76291263 0.0067436611 0 32
1.2543597 -0.76417083 0.02026549 0 33
1.2551203 -0.76463407 0.033800106 0 34
1.2522529 -0.7628873 0.04722004 0 35
1.2617611 -0.7686798 0.061186258 0 36
1.2552664 -0.76472318 0.074419282 0 37
1.2470056 -0.75969058 0.087400876 0 38
1.2500354 -0.76153636 0.10113218 0 39
1.2505772 -0.76186645 0.11471803 0 40
1.2594694 -0.76728362 0.1291917 0 41
1.2513541 -0.76233971 0.14195111 0 42
1.2586495 -0.76678419 0.15647417 0 43
1.2630286 -0.76945198 0.17078859 0 44
1.2475215 -0.76000488 0.18232155 0 45
1.2461632 -0.75917739 0.19576934 0 46
1.2521291 -0.76281184 0.21045209 0 47
1.2592875 -0.76717287 0.2255159 0 48
1.2483295 -0.76049709 0.23733227 0 49
1.2513462 -0.76233494 0.2517592 0 50
1.2379396 -0.75416744 0.26281023 0 51
1.2531563 -0.76343763 0.2800045 0 52
1.2615643 -0.76855981 0.29599011 0 53
1.2564563 -0.76544803 0.30889338 0 54
1.2476991 -0.76011306 0.3207981 0 55
1.2544768 -0.76424205 0.33673188 0 56
1.2656724 -0.77106267 0.35411543 0 57
1.2644184 -0.7702986 0.3681919 0 58
1.25184 -0.76263571 0.37887847 0 59
1.2572416 -0.76592648 0.39499325 0 60
1.2573121 -0.76596934 0.40956777 0 61
1.2623222 -0.76902163 0.42588517 0 62
1.2627076 -0.76925635 0.44078308 0 63
1.26346 -0.74857104 -0.43779945 0 0
1.2619145 -0.74765533 -0.42261392 0 1
1.2441016 -0.73710167 -0.40228158 0 2
1.2573214 -0.74493402 -0.39211079 0 3
1.2478942 -0.73934859 -0.3749043 0 4
1.2512962 -0.74136424 -0.36168885 0 5
1.2600164 -0.74653077 -0.34993815 0 6
1.2483785 -0.73963559 -0.33262852 0 7
1.2591277 -0.74600422 -0.32135367 0 8
1.2615883 -0.74746209 -0.30787221 0 9
1.2518859 -0.74171358 -0.29155746 0 10
1.2562977 -0.74432749 -0.27864027 0 11
1.2473097 -0.73900229 -0.26285043 0 12
1.2571524 -0.74483389 -0.25106567 0 13
1.2567163 -0.74457544 -0.23716815 0 14
1.2530274 -0.74238992 -0.22274318 0 15
1.2396711 -0.73447663 -0.2068246 0 16
1.2487252 -0.73984098 -0.19472791 0 17
1.2559217 -0.7441048 -0.18219821 0 18
1.2599987 -0.74652022 -0.1691248 0 19
1.2580132 -0.74534392 -0.15524395 0 20
1.256853 -0.7446565 -0.14152548 0 21
1.2565345 -0.74446774 -0.12794195 0 22
1.2499563 -0.74057031 -0.11381711 0 23
1.2610735 -0.74715704 -0.10127425 0 24
1.2640934 -0.74894631 -0.087946415 0 25
1.2571442 -0.74482906 -0.07398203 0 26
1.2592695 -0.74608821 -0.060615968 0 27
1.2448841 -0.73756522 -0.046596661 0 28
1.2528468 -0.74228299 -0.033490553 0 29
1.2578715 -0.74525994 -0.020172644 0 30
1.2630299 -0.74831623 -0.0067514097 0 31
1.2625357 -0.74802339 0.0067487676 0 32
1.2500126 -0.74060374 0.020046612 0 33
1.2356144 -0.73207313 0.033029899 0 34
1.2561314 -0.74422896 0.047017649 0 35
1.2630219 -0.74831146 0.060796596 0 36
1.254626 -0.74333709 0.073833838 0 37
1.2493854 -0.74023211 0.086923137 0 38
1.2562902 -0.74432307 0.10089011 0 39
1.2567873 -0.74461758 0.11443913 0 40
1.2418559 -0.73577106 0.12644736 0 41
1.2589533 -0.74590087 0.14176199 0 42
1.2615621 -0.7474466 0.15568189 0 43
1.2478226 -0.73930627 0.16749047 0 44
1.2510091 -0.74119413 0.18148553 0 45
1.2606395 -0.74689996 0.19658585 0 46
1.2485545 -0.73973978 0.20830669 0 47
1.2492819 -0.74017084 0.22207737 0 48
1.2545967 -0.74331969 0.23676816 0 49
1.2383666 -0.73370379 0.24731398 0 50
1.2472878 -0.73898935 0.26284581 0 51
1.246214 -0.73835319 0.27640381 0 52
1.2489387 -0.73996747 0.29087108 0 53
1.2554891 -0.74384844 0.30638376 0 54
1.2572559 -0.74489528 0.32087597 0 55
1.2673587 -0.75088084 0.33768573 0 56
1.2565823 -0.74449611 0.34898439 0 57
1.2579992 -0.74533558 0.36362636 0 58
1.2511222 -0.74126118 0.37587413 0 59
1.2505139 -0.74090075 0.3899878 0 60
1.2535501 -0.74269956 0.40533674 0 61
1.2640555 -0.74892384 0.42333096 0 62
1.262498 -0.74800104 0.43746611 0 63
1.2467752 -0.71812284 -0.42892578 0 0
1.248757 -0.71926439 -0.41521412 0 1
1.2521315 -0.72120804 -0.40198004 0 2
1.2531953 -0.72182077 -0.38802665 0 3
1.2513179 -0.72073942 -0.37324211 0 4
1.255793 -0.72331703 -0.36039054 0 5
1.2516652 -0.72093952 -0.34513068 0 6
1.2639275 -0.72800237 -0.33436102 0 7
1.2582738 -0.72474593 -0.31883717 0 8
1.2491237 -0.71947557 -0.30264851 0 9
1.2507018 -0.72038454 -0.28919679 0 10
1.251309 -0.7207343 -0.27554733 0 11
1.2495737 -0.71973479 -0.26144272 0 12
1.2693795 -0.73114264 -0.25169304 0 13
1.2441437 -0.71660721 -0.23311488 0 14
1.2542174 -0.72240949 -0.2213589 0 15
1.2520483 -0.72116011 -0.20739444 0 16
1.2518502 -0.72104603 -0.19381796 0 17
1.2537001 -0.72211158 -0.18057412 0 18
1.2692883 -0.73109013 -0.16915226 0 19
1.2564702 -0.72370708 -0.1539437 0 20
1.250515 -0.72027695 -0.13980393 0 21
1.2498351 -0.71988541 -0.12634894 0 22
1.257264 -0.72416431 -0.11366311 0 23
1.2416177 -0.71515226 -0.098998092 0 24
1.2594868 -0.72544461 -0.086998723 0 25
1.2524413 -0.72138649 -0.073177703 0 26
1.2555695 -0.72318828 -0.060005274 0 27
1.2496258 -0.71976477 -0.04643935 0 28
1.2550724 -0.72290194 -0.033309903 0 29
1.2533406 -0.72190446 -0.019956114 0 30
1.254092 -0.72233731 -0.0066556507 0 31
1.2526159 -0.72148705 0.0066478169 0 32
1.2482365 -0.71896464 0.019874845 0 33
1.2466828 -0.71806967 0.033087242 0 34
1.2461177 -0.71774423 0.046308979 0 35
1.2501323 -0.72005659 0.059745423 0 36
1.2688293 -0.73082578 0.074135236 0 37
1.2547644 -0.72272462 0.08667253 0 38
1.2616738 -0.7267043 0.10059723 0 39
1.2537515 -0.72214115 0.11334556 0 40
1.2543268 -0.72247255 0.12680303 0 41
1.2428906 -0.71588546 0.13895155 0 42
1.2546676 -0.72266883 0.15372285 0 43
1.2540019 -0.72228539 0.16711511 0 44
1.2626526 -0.72726804 0.18186358 0 45
1.2579336 -0.72455001 0.19475982 0 46
1.2571937 -0.72412378 0.20824674 0 47
1.2514313 -0.72080475 0.22086717 0 48
1.2645322 -0.7283507 0.23693508 0 49
1.2500738 -0.72002286 0.24786508 0 50
1.2479362 -0.71879166 0.26110014 0 51
1.2503062 -0.72015673 0.27532652 0 52
1.2441911 -0.71663451 0.28769135 0 53
1.241213 -0.71491915 0.30073184 0 54
1.2452573 -0.71724862 0.31553888 0 55
1.2504115 -0.72021741 0.33078551 0 56
1.2480919 -0.71888131 0.34414539 0 57
1.2492516 -0.71954924 0.35851327 0 58
1.2453347 -0.71729326 0.37145749 0 59
1.2447064 -0.71693128 0.38539824 0 60
1.2583594 -0.72479528 0.40397948 0 61
1.2564106 -0.72367275 0.41775897 0 62
1.2566156 -0.72379088 0.43231121 0 63
1.2608929 -0.70575142 -0.43076456 0 0
1.2456727 -0.69723231 -0.4113068 0 1
1.2458662 -0.69734061 -0.3971858 0 2
1.2519741 -0.70075935 -0.38495138 0 3
1.2573614 -0.70377481 -0.37243536 0 4
1.2577956 -0.70401782 -0.35845375 0 5
1.258592 -0.70446354 -0.34462604 0 6
1.2590351 -0.70471156 -0.33074942 0 7
1.2623132 -0.70654643 -0.31763524 0 8
1.2620925 -0.70642287 -0.3036631 0 9
1.2493453 -0.69928795 -0.28687316 0 10
1.2591003 -0.70474803 -0.27533394 0 11
1.261637 -0.70616788 -0.26213008 0 12
1.2567426 -0.70342839 -0.24745362 0 13
1.2426684 -0.69555068 -0.23121843 0 14
1.2547411 -0.70230812 -0.21991053 0 15
1.2568508 -0.70348901 -0.20674144 0 16
1.2662222 -0.70873433 -0.19467908 0 17
1.2546221 -0.70224148 -0.1794496 0 18
1.2435566 -0.6960479 -0.16457006 0 19
1.2574042 -0.70379871 -0.15298626 0 20
1.2451546 -0.69694233 -0.13823611 0 21
1.254887 -0.70238978 -0.12597699 0 22
1.2418158 -0.69507349 -0.11148539 0 23
1.2484419 -0.69878232 -0.098849624 0 24
1.2474067 -0.69820291 -0.085564792 0 25
1.2510992 -0.7002697 -0.072590694 0 26
1.2456465 -0.69721758 -0.059116837 0 27
1.2548424 -0.7023648 -0.046308756 0 28
1.2503515 -0.69985116 -0.032953724 0 29
1.2489327 -0.69905698 -0.01974757 0 30
1.254824 -0.70235455 -0.0066132005 0 31
1.2465333 -0.69771397 0.0065695061 0 32
1.2607634 -0.70567894 0.019934632 0 33
1.2474544 -0.69822961 0.032877367 0 34
1.2564002 -0.70323676 0.046366241 0 35
1.2623383 -0.70656043 0.059909012 0 36
1.2468874 -0.69791222 0.072346315 0 37
1.2567602 -0.70343828 0.086206384 0 38
1.250307 -0.69982618 0.098997295 0 39
1.2436351 -0.69609177 0.11164872 0 40
1.2499568 -0.69963026 0.12548207 0 41
1.2527076 -0.70116991 0.13907464 0 42
1.2536833 -0.70171601 0.15253353 0 43
1.2509786 -0.70020217 0.16555227 0 44
1.2534816 -0.70160311 0.17928648 0 45
1.2489148 -0.69904703 0.19201812 0 46
1.2525696 -0.70109266 0.20603719 0 47
1.2514094 -0.70044327 0.21932662 0 48
1.25019 -0.69976074 0.23261794 0 49
1.2553436 -0.70264536 0.24717815 0 50
1.2523743 -0.70098335 0.26020557 0 51
1.2561409 -0.70309162 0.27468678 0 52
1.2478994 -0.69847864 0.28654116 0 53
1.2507681 -0.70008433 0.30093843 0 54
1.247107 -0.69803518 0.31380892 0 55
1.265599 -0.70838553 0.33247375 0 56
1.2559036 -0.70295876 0.34388989 0 57
1.2611428 -0.70589131 0.35940766 0 58
1.2467552 -0.69783825 0.36929375 0 59
1.2662495 -0.70874965 0.38934076 0 60
1.254495 -0.70217037 0.39993674 0 61
1.2465746 -0.69773716 0.41160461 0 62
1.2465079 -0.69769979 0.42585015 0 63
1.2518783 -0.68062752 -0.42479351 0 0
1.2589204 -0.68445629 -0.41287085 0 1
1.2594829 -0.68476206 -0.39881235 0 2
1.244992 -0.67688358 -0.38021666 0 3
1.2612792 -0.68573868 -0.37107012 0 4
1.2551148 -0.68238717 -0.35527161 0 5
1.2620331 -0.68614858 -0.3432321 0 6
1.2449616 -0.67686701 -0.32484126 0 7
1.252598 -0.68101889 -0.31305978 0 8
1.2599285 -0.68500429 -0.30109304 0 9
1.2417413 -0.67511624 -0.28319958 0 10
1.2511592 -0.68023658 -0.27174774 0 11
1.2510689 -0.68018746 -0.25817707 0 12
1.2661686 -0.68839699 -0.24762414 0 13
1.2516397 -0.68049783 -0.23131326 0 14
1.2641207 -0.68728352 -0.22005661 0 15
1.2576233 -0.68375105 -0.20546997 0 16
1.2530421 -0.68126029 -0.19135025 0 17
1.2667361 -0.6887055 -0.1799574 0 18
1.2552497 -0.68246055 -0.16499448 0 19
1.2521435 -0.68077171 -0.15131626 0 20
1.2433889 -0.67601198 -0.13710687 0 21
1.2517058 -0.68053377 -0.12480813 0 22
1.2313341 -0.66945797 -0.10979705 0 23
1.232692 -0.67019629 -0.096942738 0 24
1.2565318 -0.68315762 -0.085608028 0 25
1.2413241 -0.67488933 -0.071536601 0 26
1.2477849 -0.67840201 -0.058817983 0 27
1.2449951 -0.67688525 -0.045634735 0 28
1.257813 -0.6838541 -0.032926261 0 29
1.255241 -0.68245584 -0.019713137 0 30
1.2505106 -0.6798839 -0.0065459129 0 31
1.2566942 -0.6832459 0.0065782815 0 32
1.2538489 -0.68169892 0.019691274 0 33
1.2450169 -0.67689711 0.032591294 0 34
1.2548113 -0.68222213 0.045994543 0 35
1.2479913 -0.67851424 0.058827713 0 36
1.2544706 -0.68203694 0.072294228 0 37
1.2459356 -0.6773966 0.084886104 0 38
1.2642326 -0.68734443 0.099423192 0 39
1.2619556 -0.68610644 0.11252756 0 40
1.255788 -0.68275315 0.12521516 0 41
1.2512317 -0.68027598 0.13797167 0 42
1.2518077 -0.68058914 0.15127568 0 43
1.2445115 -0.67662227 0.163583 0 44
1.2500654 -0.6796419 0.1775891 0 45
1.2464708 -0.67768759 0.19034676 0 46
1.2691623 -0.69002461 0.20735519 0 47
1.2584034 -0.68417519 0.21906136 0 48
1.2563987 -0.6830852 0.23219274 0 49
1.259292 -0.68465823 0.24627928 0 50
1.2591723 -0.6845932 0.25984931 0 51
1.2641864 -0.68731922 0.2745772 0 52
1.2524153 -0.68091947 0.28563395 0 53
1.2581575 -0.68404144 0.30066982 0 54
1.2560943 -0.68291974 0.31393358 0 55
1.2481856 -0.67861992 0.32568249 0 56
1.274251 -0.69279128 0.34655496 0 57
1.2602606 -0.68518484 0.35672817 0 58
1.2470702 -0.67801344 0.36688977 0 59
1.2532804 -0.68138981 0.38274786 0 60
1.2517809 -0.68057454 0.39637351 0 61
1.2627429 -0.68653446 0.41412443 0 62
1.2567583 -0.68328071 0.42644942 0 63
1.2529595 -0.66138679 -0.42236882 0 0
1.2450973 -0.65723658 -0.40565631 0 1
1.2460526 -0.65774089 -0.39196903 0 2
1.2537968 -0.66182876 -0.38039148 0 3
1.2617573 -0.6660307 -0.3687734 0 4
1.2711221 -0.67097402 -0.35744017 0 5
1.2524283 -0.66110635 -0.33838338 0 6
1.2521005 -0.66093332 -0.32455885 0 7
1.2549679 -0.66244692 -0.31159264 0 8
1.2564733 -0.66324151 -0.2982958 0 9
1.2594959 -0.664837 -0.28536272 0 10
1.2580693 -0.66408402 -0.27145448 0 11
1.2543081 -0.66209865 -0.25714597 0 12
1.2593787 -0.66477519 -0.24467908 0 13
1.2526482 -0.66122246 -0.22997963 0 14
1.25416 -0.66202044 -0.21688919 0 15
1.2502298 -0.65994591 -0.20292085 0 16
1.2457713 -0.65759236 -0.18899083 0 17
1.2554635 -0.66270852 -0.17718489 0 18
1.2502953 -0.65998048 -0.16326419 0 19
1.2544096 -0.66215217 -0.15059477 0 20
1.262156 -0.66624123 -0.13826248 0 21
1.2591414 -0.66464996 -0.12472519 0 22
1.2467425 -0.65810508 -0.11044107 0 23
1.2530094 -0.66141313 -0.097893558 0 24
1.2485344 -0.65905094 -0.084504649 0 25
1.2431487 -0.65620798 -0.071171358 0 26
1.2605151 -0.66537505 -0.059027921 0 27
1.258575 -0.66435099 -0.045829598 0 28
1.2692984 -0.6700114 -0.033008754 0 29
1.249447 -0.65953267 -0.019493306 0 30
1.2502172 -0.65993923 -0.0065014074 0 31
1.257475 -0.66377032 0.0065391497 0 32
1.2506378 -0.66016126 0.019511884 0 33
1.255065 -0.66249812 0.032638606 0 34
1.2554058 -0.66267806 0.045714196 0 35
1.2527381 -0.6612699 0.058663737 0 36
1.2506779 -0.66018248 0.071602426 0 37
1.2456218 -0.65751344 0.084307507 0 38
1.2465138 -0.65798438 0.097386077 0 39
1.2516378 -0.66068912 0.11087472 0 40
1.2556442 -0.66280389 0.12437877 0 41
1.2399681 -0.65452909 0.13583189 0 42
1.2520894 -0.66092747 0.15031622 0 43
1.2588608 -0.66450185 0.16438267 0 44
1.2566196 -0.66331875 0.17734806 0 45
1.2644817 -0.66746885 0.19182931 0 46
1.2605033 -0.6653688 0.20458831 0 47
1.2490376 -0.65931654 0.21600333 0 48
1.2585486 -0.66433698 0.2310629 0 49
1.2479839 -0.65876037 0.24246524 0 50
1.2529328 -0.66137266 0.25686401 0 51
1.2540878 -0.6619823 0.27059537 0 52
1.2526715 -0.66123474 0.28381655 0 53
1.2656929 -0.66810822 0.30048463 0 54
1.2576183 -0.66384596 0.3122507 0 55
1.2489686 -0.65928012 0.32374704 0 56
1.2569669 -0.66350216 0.33960965 0 57
1.2484634 -0.65901345 0.35106856 0 58
1.2625091 -0.66642761 0.36899316 0 59
1.2471515 -0.65832096 0.37837532 0 60
1.2682636 -0.66946518 0.39895591 0 61
1.2482041 -0.6588766 0.40666857 0 62
1.238525 -0.65376741 0.417503 0 63
1.2527307 -0.64169669 -0.41960007 0 0
1.2563702 -0.64356095 -0.40672007 0 1
1.247798 -0.63916999 -0.39001623 0 2
1.2467518 -0.63863409 -0.37584314 0 3
1.2455964 -0.63804221 -0.36172968 0 4
1.2478862 -0.63921517 -0.34866962 0 5
1.2490164 -0.63979411 -0.33531064 0 6
1.2553259 -0.64302605 -0.32332093 0 7
1.2526157 -0.64163774 -0.3090263 0 8
1.2675741 -0.64930004 -0.29901314 0 9
1.2522901 -0.64147103 -0.28192168 0 10
1.2506813 -0.64064687 -0.26814032 0 11
1.2577442 -0.64426476 -0.2562069 0 12
1.2530758 -0.64187348 -0.24190278 0 13
1.2473223 -0.63892633 -0.22754221 0 14
1.2490841 -0.6398288 -0.21463457 0 15
1.2424179 -0.63641411 -0.20036763 0 16
1.2538158 -0.6422525 -0.18899886 0 17
1.2596072 -0.64521909 -0.17663664 0 18
1.2417436 -0.63606864 -0.16111399 0 19
1.2563665 -0.6435591 -0.14986834 0 20
1.2650107 -0.64798695 -0.13769193 0 21
1.246659 -0.63858658 -0.12270165 0 22
1.2643628 -0.64765507 -0.11128806 0 23
1.2521623 -0.64140552 -0.097203836 0 24
1.2635233 -0.64722508 -0.084974051 0 25
1.2601503 -0.64549732 -0.071684882 0 26
1.2497077 -0.64014816 -0.05814882 0 27
1.2685642 -0.64980721 -0.045898914 0 28
1.2503484 -0.64047641 -0.032308701 0 29
1.2477318 -0.63913608 -0.019342469 0 30
1.2639511 -0.64744419 -0.0065309326 0 31
1.2559118 -0.64332622 0.0064893933 0 32
1.2570316 -0.64389974 0.019486636 0 33
1.2652791 -0.6481244 0.032694504 0 34
1.2515856 -0.64111012 0.045284599 0 35
1.2565936 -0.64367539 0.058469217 0 36
1.2575743 -0.64417779 0.071538351 0 37
1.2597083 -0.64527082 0.084717482 0 38
1.2511969 -0.64091104 0.09712889 0 39
1.2630358 -0.64697534 0.11117126 0 40
1.2539833 -0.64233828 0.12342253 0 41
1.2623037 -0.64660037 0.13739729 0 42
1.2586983 -0.64475352 0.1501465 0 43
1.2507796 -0.64069724 0.1622864 0 44
1.2497452 -0.64016747 0.17525367 0 45
1.2624056 -0.64665258 0.19029368 0 46
1.2586454 -0.6447264 0.20298466 0 47
1.2429259 -0.63667428 0.21357636 0 48
1.251976 -0.64131016 0.22839116 0 49
1.2466697 -0.63859195 0.24066609 0 50
1.2663039 -0.64864939 0.25795054 0 51
1.2547722 -0.6427424 0.26901737 0 52
1.2683499 -0.64969742 0.28553712 0 53
1.2579675 -0.64437914 0.29674697 0 54
1.2593153 -0.64506954 0.31067911 0 55
1.2679598 -0.64949769 0.32657492 0 56
1.2539119 -0.64230174 0.33662486 0 57
1.2538254 -0.64225745 0.3503291 0 58
1.2550582 -0.6428889 0.36447746 0 59
1.2498822 -0.64023763 0.37678686 0 60
1.2438076 -0.63712591 0.38876897 0 61
1.260649 -0.64575273 0.40810522 0 62
1.2466171 -0.63856506 0.41755232 0 63
1.247859 -0.61995202 -0.41538352 0 0
1.2518456 -0.62193263 -0.40274918 0 1
1.2539043 -0.62295544 -0.38950112 0 2
1.2475713 -0.61980915 -0.3737644 0 3
1.2536139 -0.62281114 -0.36180663 0 4
1.2464273 -0.61924076 -0.34610829 0 5
1.2527714 -0.62239259 -0.33423886 0 6
1.2575791 -0.62478113 -0.32189819 0 7
1.2531582 -0.62258476 -0.30724826 0 8
1.2655419 -0.62873709 -0.29668757 0 9
1.2351257 -0.61362594 -0.27633798 0 10
1.2492007 -0.62061864 -0.26616663 0 11
1.2522882 -0.62215251 -0.25351793 0 12
1.252337 -0.62217677 -0.24026509 0 13
1.2513168 -0.62166995 -0.22685923 0 14
1.2497044 -0.62086886 -0.21341313 0 15
1.2579212 -0.62495106 -0.20161331 0 16
1.2423702 -0.61722517 -0.18611544 0 17
1.2553289 -0.62366319 -0.17494804 0 18
1.2528076 -0.6224106 -0.16154429 0 19
1.2524005 -0.62220836 -0.14847137 0 20
1.2431387 -0.61760694 -0.13447446 0 21
1.2530391 -0.62252563 -0.12256692 0 22
1.2536947 -0.62285125 -0.10966664 0 23
1.2365787 -0.61434788 -0.095400453 0 24
1.2601938 -0.62608016 -0.084226035 0 25
1.2569826 -0.62448478 -0.07106249 0 26
1.2542057 -0.62310517 -0.057997216 0 27
1.2439266 -0.61799842 -0.044729151 0 28
1.2480195 -0.62003171 -0.03204909 0 29
1.2572708 -0.62462801 -0.019369813 0 30
1.2444729 -0.61826974 -0.0063905208 0 31
1.2482244 -0.62013358 0.0064097857 0 32
1.2524824 -0.62224901 0.019296041 0 33
1.2596135 -0.62579185 0.032346826 0 34
1.2470076 -0.61952907 0.044839934 0 35
1.2543876 -0.62319559 0.058005631 0 36
1.253317 -0.62266368 0.07085526 0 37
1.2476039 -0.6198253 0.083384573 0 38
1.2501304 -0.62108052 0.096445948 0 39
1.2505059 -0.62126708 0.10938771 0 40
1.2560055 -0.62399936 0.12285707 0 41
1.245514 -0.61878705 0.1347314 0 42
1.2580603 -0.62502021 0.14914232 0 43
1.2523952 -0.62220567 0.16149111 0 44
1.2523872 -0.62220168 0.17453806 0 45
1.2583922 -0.62518507 0.18851563 0 46
1.2381473 -0.61512715 0.19844402 0 47
1.2587917 -0.62538356 0.214965 0 48
1.2587391 -0.62535739 0.22820486 0 49
1.2523082 -0.62216252 0.24025956 0 50
1.260411 -0.62618804 0.25516236 0 51
1.2451878 -0.61862493 0.2653116 0 52
1.2535812 -0.62279487 0.28046706 0 53
1.2538624 -0.62293458 0.29394948 0 54
1.2527634 -0.6223886 0.30715144 0 55
1.256264 -0.62412775 0.32156155 0 56
1.2525644 -0.62228978 0.33418363 0 57
1.2444824 -0.61827451 0.34556821 0 58
1.2537037 -0.62285578 0.36183256 0 59
1.240257 -0.61617529 0.37157309 0 60
1.2532638 -0.62263721 0.38930213 0 61
1.2579039 -0.62494248 0.40469828 0 62
1.252377 -0.62219667 0.41688749 0 63
1.2402287 -0.59726208 -0.41036782 0 0
1.2486577 -0.60132128 -0.39931452 0 1
1.262641 -0.60805523 -0.38986295 0 2
1.2597224 -0.60664976 -0.37514153 0 3
1.2616409 -0.60757369 -0.36193973 0 4
1.2508591 -0.60238141 -0.34525597 0 5
1.2566451 -0.60516781 -0.33326179 0 6
1.2711228 -0.61213988 -0.32341376 0 7
1.2509801 -0.6024397 -0.3048749 0 8
1.257403 -0.60553277 -0.29301178 0 9
1.2370235 -0.5957185 -0.27510288 0 10
1.2569354 -0.60530758 -0.26620862 0 11
1.2527043 -0.60326999 -0.25208136 0 12
1.2529476 -0.60338718 -0.23894069 0 13
1.2507344 -0.60232139 -0.22539386 0 14
1.2351155 -0.5947997 -0.20965694 0 15
1.2480327 -0.60102028 -0.19882889 0 16
1.2555097 -0.60462099 -0.18695591 0 17
1.2603728 -0.60696292 -0.17459762 0 18
1.252799 -0.60331559 -0.16057444 0 19
1.2654408 -0.60940361 -0.14911766 0 20
1.2680422 -0.61065638 -0.13634579 0 21
1.2642056 -0.6088087 -0.1229176 0 22
1.2540261 -0.60390651 -0.10903781 0 23
1.2511077 -0.60250109 -0.09594252 0 24
1.2532841 -0.60354918 -0.083261892 0 25
1.2510076 -0.60245293 -0.070300572 0 26
1.2379646 -0.59617174 -0.0569029 0 27
1.2603973 -0.60697478 -0.045049619 0 28
1.2596979 -0.60663795 -0.032155 0 29
1.2511348 -0.60251415 -0.01915969 0 30
1.2586902 -0.60615271 -0.0064247684 0 31
1.2551647 -0.60445493 0.0064067733 0 32
1.2592326 -0.60641384 0.019283699 0 33
1.251043 -0.60246998 0.031934075 0 34
1.2509726 -0.60243607 0.04471276 0 35
1.2623503 -0.60791528 0.058023784 0 36
1.2428373 -0.59851831 0.069841444 0 37
1.2465591 -0.60031068 0.082815126 0 38
1.2625993 -0.60803527 0.096823782 0 39
1.242272 -0.5982461 0.1080158 0 40
1.2512535 -0.60257137 0.12165829 0 41
1.2588041 -0.60620749 0.13535245 0 42
1.256804 -0.60524428 0.1480999 0 43
1.2541397 -0.60396123 0.16074628 0 44
1.2520492 -0.60295457 0.17344458 0 45
1.246942 -0.60049504 0.18568012 0 46
1.2606263 -0.60708505 0.20083523 0 47
1.2498287 -0.6018852 0.21215445 0 48
1.2520884 -0.60297346 0.22563785 0 49
1.2541041 -0.60394412 0.23916125 0 50
1.2470148 -0.60053009 0.25093648 0 51
1.2370379 -0.59572548 0.26199448 0 52
1.2518133 -0.6028409 0.27839202 0 53
1.256135 -0.60492212 0.29271629 0 54
1.2587446 -0.60617888 0.3067672 0 55
1.2596809 -0.60662973 0.32050258 0 56
1.266055 -0.60969937 0.33575729 0 57
1.2627614 -0.60811323 0.34854117 0 58
1.2657424 -0.60954881 0.36311635 0 59
1.2558631 -0.60479116 0.37399223 0 60
1.2632732 -0.60835975 0.39005819 0 61
1.2491682 -0.60156709 0.39947775 0 62
1.2559617 -0.60483867 0.41557354 0 63
1.2607826 -0.58817416 -0.41474426 0 0
1.248095 -0.58225518 -0.39681491 0 1
1.2523558 -0.58424294 -0.38443995 0 2
1.2574341 -0.58661205 -0.37228388 0 3
1.2427145 -0.57974517 -0.35443822 0 4
1.2592951 -0.58748019 -0.3455644 0 5
1.2452947 -0.58094883 -0.32833236 0 6
1.254181 -0.58509445 -0.31724873 0 7
1.2571498 -0.58647943 -0.30459794 0 8
1.2449082 -0.58076853 -0.28841418 0 9
1.2534492 -0.58475304 -0.27713579 0 10
1.2496705 -0.58299023 -0.26313183 0 11
1.2622043 -0.58883739 -0.25251693 0 12
1.2523701 -0.58424962 -0.23744257 0 13
1.2452589 -0.58093214 -0.22310294 0 14
1.2582673 -0.58700073 -0.21234559 0 15
1.2458071 -0.58118784 -0.19732085 0 16
1.2431817 -0.57996309 -0.18404432 0 17
1.2639227 -0.58963907 -0.17407183 0 18
1.2438147 -0.58025843 -0.15849639 0 19
1.2577935 -0.58677971 -0.14735512 0 20
1.2589692 -0.5873282 -0.13458347 0 21
1.2445014 -0.58057874 -0.12029856 0 22
1.2529099 -0.58450145 -0.10830764 0 23
1.2583385 -0.58703393 -0.095936216 0 24
1.2489321 -0.58264571 -0.082490563 0 25
1.2384713 -0.57776558 -0.06919162 0 26
1.2412469 -0.57906049 -0.056722194 0 27
1.2609408 -0.58824795 -0.044807121 0 28
1.2633661 -0.58937937 -0.032061215 0 29
1.2602175 -0.58791053 -0.019186623 0 30
1.2649598 -0.59012294 -0.0064192461 0 31
1.2409196 -0.57890773 0.0062972498 0 32
1.241425 -0.57914358 0.01890051 0 33
1.257013 -0.58641559 0.031899989 0 34
1.2527406 -0.58442241 0.044515725 0 35
1.2479892 -0.58220583 0.057030298 0 36
1.2600315 -0.58782375 0.070396163 0 37
1.2640913 -0.58971769 0.083491802 0 38
1.2615036 -0.58851051 0.096177526 0 39
1.2645262 -0.58992064 0.10931181 0 40
1.2537887 -0.58491141 0.12119631 0 41
1.2561041 -0.58599162 0.13427721 0 42
1.2576776 -0.58672559 0.14734155 0 43
1.2563308 -0.58609736 0.16009128 0 44
1.2519151 -0.5840373 0.1724181 0 45
1.2527316 -0.58441824 0.18545811 0 46
1.2607356 -0.58815223 0.19968535 0 47
1.24631 -0.58142251 0.21032767 0 48
1.2516464 -0.58391201 0.22424734 0 49
1.2450808 -0.58084905 0.23606056 0 50
1.2621087 -0.5887928 0.25249782 0 51
1.2440009 -0.58034527 0.26193801 0 52
1.2403282 -0.57863188 0.27423474 0 53
1.2430956 -0.57992297 0.28799427 0 54
1.2424582 -0.57962555 0.3010383 0 55
1.2578415 -0.58680207 0.31817466 0 56
1.2503692 -0.58331615 0.32967028 0 57
1.2483989 -0.58239698 0.34257436 0 58
1.243175 -0.57995999 0.35456955 0 59
1.2412274 -0.57905132 0.36748558 0 60
1.2546349 -0.58530617 0.38513952 0 61
1.257479 -0.58663297 0.39979842 0 62
1.2414874 -0.57917267 0.40839696 0 63
1.2602174 -0.56914937 -0.41222498 0 0
1.2543441 -0.56649679 -0.39655703 0 1
1.2598631 -0.56898934 -0.38456765 0 2
1.2541121 -0.56639206 -0.36921045 0 3
1.2605159 -0.5692842 -0.35749185 0 4
1.2561685 -0.56732076 -0.34276623 0 5
1.2497061 -0.56440216 -0.32764086 0 6
1.2483673 -0.56379747 -0.31400073 0 7
1.259346 -0.56875581 -0.30341262 0 8
1.2478551 -0.56356615 -0.28746969 0 9
1.2631152 -0.57045805 -0.27770102 0 10
1.2507342 -0.56486648 -0.26187345 0 11
1.2523453 -0.56559414 -0.24913433 0 12
1.253402 -0.56607133 -0.23630063 0 13
1.2579747 -0.56813651 -0.22411254 0 14
1.2557855 -0.56714779 -0.21073391 0 15
1.2517965 -0.56534624 -0.19715352 0 16
1.2507198 -0.56485999 -0.18411809 0 17
1.2572328 -0.56780142 -0.17217588 0 18
1.2547556 -0.5666827 -0.15899061 0 19
1.2511659 -0.56506139 -0.14575364 0 20
1.2459463 -0.56270409 -0.13244165 0 21
1.2594296 -0.56879354 -0.12105635 0 22
1.2559257 -0.56721109 -0.10795724 0 23
1.2479726 -0.56361926 -0.094610378 0 24
1.2594885 -0.56882012 -0.082719564 0 25
1.2537869 -0.5662452 -0.069653019 0 26
1.2576123 -0.56797284 -0.057146579 0 27
1.2509426 -0.56496054 -0.044201631 0 28
1.2470117 -0.56318527 -0.031468056 0 29
1.2566632 -0.56754422 -0.019024821 0 30
1.2492019 -0.56417441 -0.0063035982 0 31
1.2573985 -0.56787628 0.0063449596 0 32
1.2425481 -0.56116939 0.018811129 0 33
1.245756 -0.5626182 0.031436373 0 34
1.2438269 -0.5617469 0.043950204 0 35
1.2661489 -0.57182819 0.057534486 0 36
1.238416 -0.55930322 0.068799101 0 37
1.2565675 -0.56750095 0.082527727 0 38
1.248372 -0.56379962 0.094640657 0 39
1.2529699 -0.56587619 0.10770316 0 40
1.2572161 -0.56779385 0.12084359 0 41
1.2515898 -0.56525284 0.13304155 0 42
1.2547717 -0.56668991 0.1461737 0 43
1.2625781 -0.57021552 0.1599818 0 44
1.2525203 -0.56567311 0.17153051 0 45
1.2508914 -0.56493747 0.18414335 0 46
1.2558165 -0.56716174 0.19778664 0 47
1.2413653 -0.56063521 0.20831405 0 48
1.2566586 -0.56754208 0.22387806 0 49
1.2546101 -0.56661689 0.23652838 0 50
1.2557557 -0.56713426 0.24981277 0 51
1.2460819 -0.56276536 0.26089939 0 52
1.2576338 -0.56798255 0.2764959 0 53
1.2556622 -0.56709206 0.28926823 0 54
1.2534128 -0.56607622 0.30198315 0 55
1.2501621 -0.5646081 0.31445217 0 56
1.2628583 -0.57034206 0.33108902 0 57
1.2586837 -0.56845671 0.34345254 0 58
1.2512975 -0.56512088 0.35487741 0 59
1.2416215 -0.5607509 0.3655332 0 60
1.2499237 -0.56450039 0.38153368 0 61
1.2519491 -0.56541514 0.39579985 0 62
1.2499704 -0.56452155 0.40887311 0 63
1.251044 -0.54658753 -0.406995 0 0
1.2625331 -0.55160713 -0.39697158 0 1
1.2519709 -0.54699248 -0.38007674 0 2
1.2532629 -0.54755694 -0.36695048 0 3
1.2559798 -0.54874396 -0.35426489 0 4
1.2551891 -0.54839849 -0.34063315 0 5
1.2509384 -0.54654139 -0.32617733 0 6
1.2608348 -0.55086517 -0.31540906 0 7
1.2397031 -0.54163259 -0.29705298 0 8
1.2488732 -0.5456391 -0.28613696 0 9
1.2491562 -0.54576278 -0.27313599 0 10
1.2584888 -0.54984021 -0.26206166 0 11
1.2508405 -0.54649866 -0.24747944 0 12
1.2579353 -0.5495984 -0.23586337 0 13
1.2529597 -0.5474245 -0.22200309 0 14
1.2609252 -0.55090463 -0.21044371 0 15
1.2467632 -0.54471725 -0.19529112 0 16
1.2505084 -0.54635352 -0.18308415 0 17
1.2606931 -0.55080324 -0.17170924 0 18
1.2590564 -0.55008817 -0.15866648 0 19
1.2532066 -0.54753238 -0.14519608 0 20
1.2535025 -0.54766166 -0.13251901 0 21
1.2511972 -0.54665446 -0.1196099 0 22
1.2577018 -0.54949629 -0.10752098 0 23
1.2480247 -0.54526836 -0.094098918 0 24
1.2421615 -0.54270667 -0.081137158 0 25
1.2643172 -0.55238664 -0.069855392 0 26
1.2456607 -0.54423553 -0.056295138 0 27
1.2548438 -0.54824769 -0.044097941 0 28
1.2589641 -0.55004787 -0.031596605 0 29
1.2595251 -0.55029291 -0.01896427 0 30
1.2509714 -0.54655582 -0.00627814 0 31
1.2573247 -0.54933155 0.0063100243 0 32
1.2575508 -0.54943037 0.018934546 0 33
1.2512326 -0.5466699 0.031402566 0 34
1.2648296 -0.55261052 0.044448864 0 35
1.2572821 -0.54931301 0.056820348 0 36
1.2474104 -0.54500002 0.068921268 0 37
1.2407569 -0.54209298 0.081045404 0 38
1.2577442 -0.54951489 0.09483175 0 39
1.270216 -0.55496389 0.10859083 0 40
1.2513225 -0.54670924 0.11962188 0 41
1.2584397 -0.54981869 0.13304095 0 42
1.253667 -0.54773349 0.14524941 0 43
1.2531724 -0.54751742 0.15792497 0 44
1.2482246 -0.54535568 0.170011 0 45
1.2466875 -0.54468417 0.18252474 0 46
1.2638178 -0.55216849 0.19796252 0 47
1.2449077 -0.54390651 0.20777045 0 48
1.2406044 -0.5420264 0.21981394 0 49
1.2550763 -0.54834926 0.2353273 0 50
1.2591435 -0.55012625 0.24912217 0 51
1.2575554 -0.5494324 0.26186728 0 52
1.2434582 -0.54327321 0.27189007 0 53
1.2575554 -0.54943234 0.28812614 0 54
1.2503413 -0.5462805 0.29960209 0 55
1.2487416 -0.54558158 0.31238383 0 56
1.2535136 -0.54766649 0.32684878 0 57
1.2469369 -0.54479313 0.33839372 0 58
1.2484034 -0.54543382 0.35212788 0 59
1.2490197 -0.54570311 0.36570811 0 60
1.2588344 -0.54999113 0.38216037 0 61
1.2410885 -0.54223794 0.3902289 0 62
1.2584701 -0.54983199 0.40941086 0 63
1.250357 -0.5280754 -0.40462846 0 0
1.2604358 -0.53233206 -0.3942242 0 1
1.2569292 -0.53085101 -0.37957162 0 2
1.2521667 -0.52883971 -0.36469796 0 3
1.235219 -0.52168196 -0.34657347 0 4
1.24874 -0.52739245 -0.33709762 0 5
1.2589619 -0.53170955 -0.32653993 0 6
1.2432536 -0.52507532 -0.3093724 0 7
1.2422819 -0.52466494 -0.29610264 0 8
1.2497766 -0.52783024 -0.28483534 0 9
1.2331221 -0.52079642 -0.26820949 0 10
1.2626935 -0.53328556 -0.26155195 0 11
1.2391491 -0.52334183 -0.24387461 0 12
1.2454937 -0.52602136 -0.23230019 0 13
1.2514062 -0.5285185 -0.22055967 0 14
1.2547942 -0.52994943 -0.20831716 0 15
1.2448043 -0.52573019 -0.19395699 0 16
1.2536566 -0.52946889 -0.18257806 0 17
1.2545788 -0.52985841 -0.1699762 0 18
1.2496628 -0.52778214 -0.15665299 0 19
1.2504394 -0.52811015 -0.1441122 0 20
1.2526476 -0.52904278 -0.13173093 0 21
1.2399939 -0.52369863 -0.11791438 0 22
1.2424461 -0.52473426 -0.10565716 0 23
1.2536681 -0.52947372 -0.094026409 0 24
1.2669435 -0.53508049 -0.0823199 0 25
1.246922 -0.52662462 -0.068531312 0 26
1.2491215 -0.52755356 -0.056154128 0 27
1.2575535 -0.5311147 -0.043960329 0 28
1.2483305 -0.52721947 -0.031164672 0 29
1.2632972 -0.53354055 -0.018920856 0 30
1.2594702 -0.53192425 -0.0062874909 0 31
1.2546086 -0.52987099 0.0062632207 0 32
1.2697433 -0.53626299 0.019017402 0 33
1.2529329 -0.52916324 0.031279568 0 34
1.2532378 -0.52929205 0.043809474 0 35
1.2446715 -0.5256741 0.055954076 0 36
1.2503324 -0.52806497 0.068718746 0 37
1.2457517 -0.52613038 0.080942966 0 38
1.2529849 -0.52918524 0.093975171 0 39
1.2627387 -0.53330463 0.10738284 0 40
1.2574575 -0.53107417 0.11957505 0 41
1.2599198 -0.53211409 0.13249569 0 42
1.2606246 -0.53241175 0.14528604 0 43
1.248203 -0.52716565 0.15647002 0 44
1.2459686 -0.52622199 0.16880965 0 45
1.262399 -0.53316116 0.18385126 0 46
1.2615951 -0.53282166 0.19657323 0 47
1.2452402 -0.52591431 0.20673101 0 48
1.253503 -0.52940404 0.22092924 0 49
1.2427783 -0.52487457 0.23179375 0 50
1.2436152 -0.52522802 0.24475358 0 51
1.2417561 -0.52444285 0.25721499 0 52
1.2490394 -0.52751887 0.27167156 0 53
1.258148 -0.53136581 0.28674322 0 54
1.260591 -0.53239757 0.30046669 0 55
1.2507131 -0.52822578 0.31122863 0 56
1.2495891 -0.52775103 0.3241089 0 57
1.2532318 -0.52928948 0.33831018 0 58
1.2591958 -0.53180832 0.35330078 0 59
1.2599906 -0.53214401 0.36697668 0 60
1.2564789 -0.53066087 0.37943563 0 61
1.2504152 -0.52809995 0.39109007 0 62
1.255357 -0.53018707 0.40624651 0 63
1.2497005 -0.50978374 -0.40235701 0 0
1.253951 -0.51151758 -0.39019915 0 1
1.2401197 -0.50587547 -0.37258878 0 2
1.2551141 -0.5119921 -0.36369523 0 3
1.253401 -0.51129329 -0.34988445 0 4
1.2457069 -0.50815463 -0.33456677 0 5
1.2541672 -0.5116058 -0.32364017 0 6
1.2563479 -0.51249534 -0.31103912 0 7
1.2439212 -0.5074262 -0.29498383 0 8
1.2504171 -0.51007605 -0.28353038 0 9
1.2459205 -0.50824177 -0.2696135 0 10
1.2605051 -0.51419121 -0.25976932 0 11
1.2450088 -0.5078699 -0.24378037 0 12
1.2501677 -0.5099743 -0.23198484 0 13
1.2428927 -0.5070067 -0.21794389 0 14
1.2567528 -0.51266056 -0.20758006 0 15
1.2625253 -0.5150153 -0.19571662 0 16
1.2396258 -0.505674 -0.17961551 0 17
1.259001 -0.51357764 -0.16970691 0 18
1.2441164 -0.50750583 -0.15516371 0 19
1.2550695 -0.51197386 -0.14390938 0 20
1.2521616 -0.51078767 -0.1310094 0 21
1.2548975 -0.5119037 -0.11872406 0 22
1.2519385 -0.51069665 -0.10592236 0 23
1.255771 -0.51226002 -0.093704619 0 24
1.259564 -0.5138073 -0.081423752 0 25
1.247007 -0.50868499 -0.068187051 0 26
1.2683762 -0.51740205 -0.056729425 0 27
1.2669615 -0.5168249 -0.044063721 0 28
1.258054 -0.51319134 -0.031247515 0 29
1.2522451 -0.51082176 -0.018659836 0 30
1.2733415 -0.51942748 -0.006324375 0 31
1.261597 -0.51463664 0.0062660431 0 32
1.255043 -0.51196307 0.018701527 0 33
1.2692075 -0.51774114 0.031524546 0 34
1.2611649 -0.51446038 0.043862123 0 35
1.2484105 -0.5092575 0.055836432 0 36
1.2468795 -0.50863296 0.068180084 0 37
1.2491597 -0.50956315 0.080751166 0 38
1.2505773 -0.51014143 0.093317069 0 39
1.2404702 -0.50601846 0.10495206 0 40
1.2448637 -0.50781071 0.11777478 0 41
1.2466421 -0.50853616 0.13043192 0 42
1.2568487 -0.51269966 0.14411339 0 43
1.2576424 -0.51302344 0.15685064 0 44
1.2404481 -0.50600946 0.16720606 0 45
1.2492917 -0.50961697 0.18101606 0 46
1.2444888 -0.50765777 0.19292061 0 47
1.2618791 -0.51475167 0.20842677 0 48
1.2400271 -0.50583768 0.21744138 0 49
1.2510362 -0.51032859 0.23214598 0 50
1.2580044 -0.51317114 0.24632499 0 51
1.2641027 -0.5156588 0.26051074 0 52
1.2450727 -0.50789595 0.26943004 0 53
1.2471565 -0.50874597 0.28279105 0 54
1.2411531 -0.50629705 0.29432744 0 55
1.257332 -0.51289678 0.31128272 0 56
1.2521219 -0.51077151 0.32311237 0 57
1.2470649 -0.5087086 0.33493146 0 58
1.2496589 -0.50976676 0.34883985 0 59
1.2553163 -0.51207453 0.36375383 0 60
1.2486553 -0.50935739 0.3751533 0 61
1.2452787 -0.50797999 0.38750055 0 62
1.2653795 -0.51617962 0.40740508 0 63
1.24982 -0.49199623 -0.40041739 0 0
1.2435368 -0.48952281 -0.38505632 0 1
1.2509645 -0.49244681 -0.37399951 0 2
1.2617897 -0.49670815 -0.36383229 0 3
1.2496517 -0.49192998 -0.34712303 0 4
1.2549793 -0.4940272 -0.33540019 0 5
1.2711982 -0.50041181 -0.32642248 0 6
1.2503941 -0.49222222 -0.30804336 0 7
1.2490247 -0.49168321 -0.29473811 0 8
1.2433826 -0.48946211 -0.28054938 0 9
1.2488304 -0.49160668 -0.26891476 0 10
1.2508028 -0.49238312 -0.25650269 0 11
1.2539647 -0.49362779 -0.24432698 0 12
1.2547767 -0.49394748 -0.2316955 0 13
1.2621021 -0.49683115 -0.22022437 0 14
1.2491323 -0.4917255 -0.20530713 0 15
1.2484715 -0.49146542 -0.19258662 0 16
1.2527297 -0.49314162 -0.18062191 0 17
1.2565479 -0.49464473 -0.16854362 0 18
1.2559131 -0.49439481 -0.15586498 0 19
1.2528191 -0.49317685 -0.14294519 0 20
1.2535465 -0.49346319 -0.13050957 0 21
1.2472053 -0.49096692 -0.11741626 0 22
1.252425 -0.4930217 -0.10544263 0 23
1.2616729 -0.49666214 -0.093682215 0 24
1.2619731 -0.49678037 -0.081178457 0 25
1.2480208 -0.49128795 -0.06790702 0 26
1.2598971 -0.4959631 -0.056073178 0 27
1.258754 -0.49551314 -0.043563068 0 28
1.2455046 -0.49029747 -0.030783741 0 29
1.2637624 -0.49748471 -0.018738884 0 30
1.2514145 -0.49262393 -0.0061849151 0 31
1.2590818 -0.49564219 0.0062228097 0 32
1.2414927 -0.48871818 0.018408675 0 33
1.2363961 -0.48671186 0.030558616 0 34
1.2642769 -0.49768725 0.043754205 0 35
1.2572678 -0.49492809 0.055956159 0 36
1.2531356 -0.49330139 0.068185322 0 37
1.2466404 -0.49074462 0.080192164 0 38
1.2527936 -0.49316677 0.093022905 0 39
1.2515463 -0.49267578 0.10536864 0 40
1.250549 -0.49228317 0.11773105 0 41
1.2570976 -0.4948611 0.13087928 0 42
1.2469686 -0.49087378 0.14227766 0 43
1.2409159 -0.48849109 0.15400375 0 44
1.230392 -0.48434833 0.16503526 0 45
1.2566334 -0.49467838 0.18118477 0 46
1.2572322 -0.49491405 0.19393802 0 47
1.2553892 -0.49418855 0.20633551 0 48
1.2583688 -0.49536151 0.21957295 0 49
1.2497756 -0.49197879 0.23077205 0 50
1.2492769 -0.49178243 0.24341358 0 51
1.2535701 -0.49347249 0.25707018 0 52
1.247061 -0.49091014 0.26853374 0 53
1.2454406 -0.49027225 0.28101373 0 54
1.2530974 -0.49328643 0.29569915 0 55
1.2511821 -0.4925324 0.30823746 0 56
1.2434727 -0.4894976 0.31930307 0 57
1.2593094 -0.49573177 0.33655745 0 58
1.2447801 -0.49001226 0.34576979 0 59
1.2574115 -0.49498469 0.36256984 0 60
