# .PCD v0.7 - Point Cloud Data file format
VERSION 0.7
FIELDS x y z intensity ring
SIZE 4 4 4 4 2
TYPE F F F F U
COUNT 1 1 1 1 1
WIDTH 1254
HEIGHT 1
VIEWPOINT 0 0 0 1 0 0 0
POINTS 1254
DATA ascii
-2.8577886 -1.3118784 0.072317898 0 34
-2.8751323 -1.3198402 0.10187674 0 35
-2.8793674 -1.3217844 0.13120694 0 36
-2.8657625 -1.3155389 0.15965138 0 37
-2.8687704 -1.3169198 0.18894097 0 38
-2.8870981 -1.3253331 0.2194884 0 39
-2.8790951 -1.3216593 0.2481762 0 40
-2.8706033 -1.3177612 0.27669618 0 41
-2.8886266 -1.3260348 0.30791649 0 42
-2.8792477 -1.3217294 0.33635652 0 43
-2.8764417 -1.3204414 0.36549732 0 44
-2.8746703 -1.3196281 0.39478526 0 45
-2.8872211 -1.3253896 0.42621896 0 46
-2.882947 -1.3234274 0.45532733 0 47
-2.872463 -1.3186148 0.48338112 0 48
-2.8742721 -1.3194453 0.51349759 0 49
-2.8684518 -1.3167735 0.54229844 0 50
-2.883347 -1.3236111 0.57520503 0 51
-2.8895109 -1.3264407 0.60669029 0 52
-2.8811805 -1.3226166 0.63521576 0 53
-2.8767834 -1.3205981 0.66458625 0 54
-2.8968825 -1.3298247 0.69989955 0 55
-2.8770177 -1.3207058 0.72568327 0 56
-2.8800645 -1.3221043 0.75719661 0 57
-2.8922601 -1.3277028 0.79141396 0 58
-2.8881121 -1.3257986 0.82138753 0 59
-2.8893249 -1.3263553 0.85300243 0 60
-2.8899291 -1.3266327 0.88461202 0 61
-2.8891487 -1.3262744 0.91595715 0 62
-2.8876584 -1.3255903 0.94722009 0 63
-1.9766535 -0.93698502 -0.65211904 0 0
-2.0374045 -0.96578264 -0.64964157 0 1
-2.0899203 -0.9906764 -0.64340824 0 2
-2.161195 -1.0244625 -0.6417104 0 3
-2.2354512 -1.0596619 -0.63942635 0 4
-2.3106489 -1.0953075 -0.63590407 0 5
-2.3782525 -1.1273533 -0.62886244 0 6
-2.4681606 -1.1699722 -0.62613678 0 7
-2.5517998 -1.2096194 -0.62007284 0 8
-2.6646719 -1.2631236 -0.6191262 0 9
-2.7629111 -1.3096915 -0.61264509 0 10
-2.7548594 -1.3058748 -0.58174604 0 11
-2.7642877 -1.3103441 -0.55462605 0 12
-2.7540112 -1.3054727 -0.52365798 0 13
-2.7669015 -1.3115832 -0.49715921 0 14
-2.7567935 -1.3067917 -0.46658495 0 15
-2.760761 -1.3086724 -0.43853793 0 16
-2.7559774 -1.3064048 -0.40918493 0 17
-2.762713 -1.3095976 -0.38159257 0 18
-2.7719188 -1.3139615 -0.35424224 0 19
-2.7745099 -1.3151897 -0.32598555 0 20
-2.7671018 -1.3116781 -0.29665929 0 21
-2.7722292 -1.3141085 -0.26875114 0 22
-2.7819104 -1.3186977 -0.24117845 0 23
-2.7598763 -1.3082529 -0.21102352 0 24
-2.7660739 -1.3111908 -0.18322526 0 25
-2.7634618 -1.3099526 -0.15483788 0 26
-2.7736745 -1.3147936 -0.12711783 0 27
-2.7734904 -1.3147064 -0.09884055 0 28
-2.7651465 -1.3107512 -0.070376083 0 29
-2.7741337 -1.3150114 -0.042358112 0 30
-2.7695432 -1.3128353 -0.01409521 0 31
-2.7755153 -1.3156662 0.014125605 0 32
-2.7864609 -1.3208547 0.042546332 0 33
-2.7679572 -1.3120836 0.070447616 0 34
-2.7845974 -1.3199714 0.099236377 0 35
-2.7796469 -1.3176247 0.12739155 0 36
-2.7721968 -1.3140932 0.15532731 0 37
-2.7761943 -1.3159882 0.18389565 0 38
-2.7636938 -1.3100625 0.21131542 0 39
-2.781734 -1.3186141 0.24116318 0 40
-2.7785454 -1.3171027 0.26936349 0 41
-2.7733886 -1.3146582 0.2973333 0 42
-2.7631898 -1.3098236 0.3246555 0 43
-2.7708752 -1.3134667 0.35410887 0 44
-2.774569 -1.3152177 0.38323015 0 45
-2.7714574 -1.3137428 0.41148326 0 46
-2.7820163 -1.318748 0.44191426 0 47
-2.7766294 -1.3161944 0.46994218 0 48
-2.7798073 -1.3177009 0.49947813 0 49
-2.7886515 -1.3218931 0.53024459 0 50
-2.7753778 -1.315601 0.55685115 0 51
-2.7856324 -1.3204621 0.58824438 0 52
-2.7867894 -1.3210106 0.61793983 0 53
-2.7826991 -1.3190715 0.64654934 0 54
-2.7737498 -1.3148293 0.67400545 0 55
-2.7845328 -1.3199408 0.70639592 0 56
-2.7901545 -1.3226056 0.73777843 0 57
-2.7833426 -1.3193766 0.76599216 0 58
-2.7799339 -1.3177608 0.79516965 0 59
-2.7739289 -1.3149142 0.82364571 0 60
-2.7722814 -1.3141333 0.85348171 0 61
-2.783751 -1.3195702 0.88761961 0 62
-2.7969809 -1.3258415 0.92275381 0 63
-1.9685211 -0.9629488 -0.65329313 0 0
-2.0176973 -0.98700458 -0.64717871 0 1
-2.0846162 -1.0197395 -0.64558691 0 2
-2.1552732 -1.0543031 -0.64375281 0 3
-2.21545 -1.08374 -0.63746887 0 4
-2.2902098 -1.1203105 -0.63402236 0 5
-2.3829789 -1.1656907 -0.63385451 0 6
-2.4658561 -1.2062321 -0.62926739 0 7
-2.5434029 -1.2441659 -0.62170297 0 8
-2.6523252 -1.2974478 -0.61991745 0 9
-2.6677933 -1.3050144 -0.59506702 0 10
-2.666204 -1.304237 -0.5663684 0 11
-2.6620641 -1.3022119 -0.53728807 0 12
-2.6606429 -1.3015165 -0.50890917 0 13
-2.6803591 -1.3111613 -0.4844695 0 14
-2.6615353 -1.3019531 -0.45313787 0 15
-2.672822 -1.3074743 -0.42709062 0 16
-2.6634128 -1.3028717 -0.39779025 0 17
-2.6609616 -1.3016726 -0.36972126 0 18
-2.6599741 -1.3011894 -0.34195498 0 19
-2.6650567 -1.3036758 -0.31498525 0 20
-2.6582537 -1.3003479 -0.28668231 0 21
-2.6752696 -1.3086716 -0.2608918 0 22
-2.6750269 -1.3085529 -0.23328951 0 23
-2.6678519 -1.3050431 -0.20519873 0 24
-2.6693766 -1.305789 -0.17787017 0 25
-2.6650975 -1.3036958 -0.15021335 0 26
-2.6769514 -1.3094944 -0.12341364 0 27
-2.663275 -1.3028042 -0.095476434 0 28
-2.668885 -1.3055484 -0.068329535 0 29
-2.6806805 -1.3113185 -0.041174274 0 30
-2.6753938 -1.3087324 -0.013696917 0 31
-2.6739161 -1.3080095 0.013689352 0 32
-2.6835387 -1.3127167 0.041218173 0 33
-2.6740308 -1.3080655 0.068461277 0 34
-2.6805069 -1.3112335 0.096094176 0 35
-2.688252 -1.3150223 0.12393463 0 36
-2.6753752 -1.3087232 0.15079263 0 37
-2.6789098 -1.3104523 0.17850539 0 38
-2.681921 -1.3119254 0.20628087 0 39
-2.6753626 -1.3087171 0.23331879 0 40
-2.672318 -1.3072278 0.26060396 0 41
-2.6828787 -1.3123939 0.28933805 0 42
-2.6685123 -1.3053662 0.31539366 0 43
-2.6797204 -1.310849 0.34449348 0 44
-2.6823924 -1.3121558 0.3726989 0 45
-2.6825776 -1.3122466 0.40065259 0 46
-2.6752048 -1.30864 0.4274714 0 47
-2.6784489 -1.3102268 0.45601749 0 48
-2.6873627 -1.3145872 0.48573539 0 49
-2.6773448 -1.3096868 0.51210386 0 50
-2.6820328 -1.3119801 0.54131842 0 51
-2.6756086 -1.3088374 0.56836617 0 52
-2.6834555 -1.312676 0.59856057 0 53
-2.6911139 -1.3164222 0.62898338 0 54
-2.6787851 -1.3103913 0.65479547 0 55
-2.69384 -1.3177558 0.68744713 0 56
-2.680898 -1.3114249 0.7130987 0 57
-2.6821959 -1.3120598 0.74253994 0 58
-2.6932461 -1.3174653 0.77494889 0 59
-2.7045631 -1.3230013 0.80781883 0 60
-2.700031 -1.3207843 0.83617532 0 61
-2.6926844 -1.3171905 0.86368155 0 62
-2.6946661 -1.3181599 0.89427894 0 63
-1.9448373 -0.98117989 -0.64938813 0 0
-2.0124309 -1.0152812 -0.64944476 0 1
-2.0709579 -1.0448083 -0.64528698 0 2
-2.1303885 -1.0747914 -0.64021921 0 3
-2.2167876 -1.1183801 -0.6417622 0 4
-2.2867968 -1.1537001 -0.63695675 0 5
-2.362026 -1.1916535 -0.63213098 0 6
-2.4403932 -1.2311903 -0.62658554 0 7
-2.5332823 -1.2780533 -0.62302351 0 8
-2.5730524 -1.2981174 -0.60507441 0 9
-2.5783832 -1.3008068 -0.57864767 0 10
-2.5918643 -1.3076081 -0.55395049 0 11
-2.5838063 -1.3035427 -0.52468866 0 12
-2.579993 -1.3016191 -0.49650693 0 13
-2.5702422 -1.2966996 -0.46741274 0 14
-2.5721052 -1.2976396 -0.44059536 0 15
-2.5860615 -1.3046806 -0.41575927 0 16
-2.5811434 -1.3021994 -0.38786519 0 17
-2.58113 -1.3021927 -0.36082676 0 18
-2.5955536 -1.3094695 -0.33571795 0 19
-2.5900786 -1.3067071 -0.30799928 0 20
-2.5809412 -1.3020974 -0.28005004 0 21
-2.5840631 -1.3036723 -0.25354147 0 22
-2.5884669 -1.3058941 -0.22712383 0 23
-2.5944133 -1.3088942 -0.20077294 0 24
-2.5774403 -1.3003311 -0.17279649 0 25
-2.5779347 -1.3005806 -0.14619091 0 26
-2.5902731 -1.3068054 -0.12014931 0 27
-2.5832529 -1.3032635 -0.09317515 0 28
-2.6037982 -1.3136289 -0.067071646 0 29
-2.5900869 -1.3067114 -0.04002656 0 30
-2.5827591 -1.3030146 -0.01330369 0 31
-2.5821977 -1.3027313 0.013300797 0 32
-2.5972037 -1.3103019 0.040136538 0 33
-2.5825582 -1.3029132 0.066524521 0 34
-2.5921156 -1.307735 0.093494825 0 35
-2.6009588 -1.3121964 0.12064496 0 36
-2.5866241 -1.3049644 0.14668368 0 37
-2.596343 -1.3098676 0.17406376 0 38
-2.5953276 -1.3093554 0.20084368 0 39
-2.5934618 -1.3084141 0.22756211 0 40
-2.5887804 -1.3060523 0.25400436 0 41
-2.6009007 -1.312167 0.2822158 0 42
-2.597342 -1.3103716 0.30886304 0 43
-2.5953548 -1.3093691 0.33569223 0 44
-2.593868 -1.308619 0.36260748 0 45
-2.6036568 -1.3135575 0.39124826 0 46
-2.5911577 -1.3072517 0.41657856 0 47
-2.6030447 -1.3132488 0.44589525 0 48
-2.6023266 -1.3128864 0.47324747 0 49
-2.5924077 -1.3078822 0.49889603 0 50
-2.6021991 -1.3128221 0.52842367 0 51
-2.606945 -1.3152165 0.55717367 0 52
-2.6053076 -1.3143903 0.58469009 0 53
-2.596679 -1.3100371 0.61063039 0 54
-2.6052051 -1.3143387 0.64071184 0 55
-2.6077192 -1.315607 0.66954744 0 56
-2.6119568 -1.3177449 0.69901806 0 57
-2.589164 -1.3062459 0.7211771 0 58
-2.5879443 -1.3056306 0.74921244 0 59
-2.5969281 -1.3101628 0.78042251 0 60
-2.6077502 -1.3156227 0.81254536 0 61
-2.5943639 -1.3088692 0.83724421 0 62
-2.5962856 -1.3098388 0.86690903 0 63
-1.946701 -1.0123378 -0.65411747 0 0
-1.9946432 -1.0372691 -0.64777154 0 1
-2.0681124 -1.075475 -0.64847189 0 2
-2.1246414 -1.1048716 -0.64252633 0 3
-2.1852667 -1.1363986 -0.63663411 0 4
-2.2789736 -1.1851287 -0.63878852 0 5
-2.3494089 -1.2217571 -0.63272715 0 6
-2.4289794 -1.2631358 -0.62759548 0 7
-2.5356984 -1.3186327 -0.62755799 0 8
-2.5815208 -1.3424615 -0.61090153 0 9
-2.5786583 -1.340973 -0.58236599 0 10
-2.5825181 -1.3429801 -0.55544049 0 11
-2.5622699 -1.3324505 -0.5236029 0 12
-2.554198 -1.3282529 -0.49464858 0 13
-2.5553281 -1.3288406 -0.4676367 0 14
-2.574348 -1.3387314 -0.44376585 0 15
-2.5623469 -1.3324907 -0.41454956 0 16
-2.5722599 -1.3376456 -0.38897255 0 17
-2.560364 -1.3314594 -0.36018533 0 18
-2.562186 -1.3324069 -0.333496 0 19
-2.5631106 -1.3328878 -0.30671823 0 20
-2.5655875 -1.3341757 -0.28014299 0 21
-2.5532029 -1.3277354 -0.25209641 0 22
-2.5578916 -1.3301737 -0.22585914 0 23
-2.5512409 -1.3267152 -0.19867943 0 24
-2.5615599 -1.3320813 -0.17281692 0 25
-2.5449007 -1.323418 -0.14522946 0 26
-2.5378685 -1.3197612 -0.11846232 0 27
-2.5552826 -1.328817 -0.092748642 0 28
-2.5554631 -1.3289107 -0.066242494 0 29
-2.5568275 -1.3296204 -0.039762236 0 30
-2.5533681 -1.3278214 -0.013235399 0 31
-2.5575016 -1.3299708 0.013256824 0 32
-2.5496178 -1.325871 0.039650112 0 33
-2.5379002 -1.3197776 0.065787233 0 34
-2.5405562 -1.3211589 0.09221413 0 35
-2.5412474 -1.3215182 0.11862004 0 36
-2.5432048 -1.3225362 0.14513269 0 37
-2.537365 -1.3194994 0.1711846 0 38
-2.535661 -1.3186132 0.19746614 0 39
-2.5368388 -1.3192257 0.2240002 0 40
-2.5422194 -1.3220237 0.25101197 0 41
-2.523344 -1.3122079 0.27553034 0 42
-2.5358326 -1.3187023 0.30345395 0 43
-2.5247309 -1.3129293 0.32862082 0 44
-2.5401175 -1.3209307 0.35733712 0 45
-2.5398293 -1.3207809 0.38406846 0 46
-2.5246227 -1.312873 0.40844631 0 47
-2.5291865 -1.3152462 0.43598092 0 48
-2.5249784 -1.3130579 0.46208256 0 49
-2.5258203 -1.3134958 0.48915291 0 50
-2.5243504 -1.3127313 0.515854 0 51
-2.5279632 -1.3146101 0.54370695 0 52
-2.5149167 -1.3078256 0.56797051 0 53
-2.515841 -1.3083062 0.59535879 0 54
-2.5149207 -1.3078276 0.62241572 0 55
-2.5197864 -1.3103579 0.65105802 0 56
-2.5147412 -1.3077343 0.67725331 0 57
-2.5191395 -1.3100216 0.70610619 0 58
-2.5143199 -1.3075151 0.73249722 0 59
-2.5087318 -1.3046093 0.75868154 0 60
-2.5200846 -1.310513 0.79019117 0 61
-2.5075741 -1.3040072 0.81434876 0 62
-2.5075419 -1.3039905 0.8425675 0 63
-1.9362423 -1.0373412 -0.65483975 0 0
-1.9941554 -1.0683682 -0.65183026 0 1
-2.0386379 -1.0921997 -0.6433925 0 2
-2.1216588 -1.1366781 -0.64580244 0 3
-2.1892123 -1.1728699 -0.64193672 0 4
-2.2690728 -1.2156551 -0.64015484 0 5
-2.3514795 -1.2598045 -0.63740855 0 6
-2.4286802 -1.3011647 -0.63160437 0 7
-2.5173712 -1.3486809 -0.62707913 0 8
-2.5855272 -1.3851954 -0.61583382 0 9
-2.5761216 -1.3801564 -0.58558154 0 10
-2.5624716 -1.3728435 -0.55471772 0 11
-2.5666931 -1.3751051 -0.52792227 0 12
-2.5686064 -1.3761301 -0.50067812 0 13
-2.584893 -1.3848557 -0.47612759 0 14
-2.569783 -1.3767605 -0.44586352 0 15
-2.5685611 -1.3761058 -0.41826084 0 16
-2.5486507 -1.3654389 -0.38791206 0 17
-2.5536227 -1.3681026 -0.36157623 0 18
-2.5666256 -1.3750689 -0.33624926 0 19
-2.5660374 -1.3747538 -0.30906799 0 20
-2.5573556 -1.3701025 -0.28106251 0 21
-2.5578053 -1.3703434 -0.25419539 0 22
-2.5607615 -1.3719271 -0.22758493 0 23
-2.5582147 -1.3705628 -0.2005198 0 24
-2.5545945 -1.3686233 -0.17346928 0 25
-2.5450261 -1.363497 -0.14618236 0 26
-2.5552533 -1.3689762 -0.12005049 0 27
-2.5527067 -1.3676119 -0.093258493 0 28
-2.5640197 -1.3736728 -0.066897102 0 29
-2.5622818 -1.3727418 -0.040106531 0 30
-2.545635 -1.3638232 -0.013281238 0 31
-2.5490136 -1.3656334 0.013298866 0 32
-2.5479188 -1.3650469 0.03988171 0 33
-2.5337489 -1.3574553 0.066107318 0 34
-2.5394251 -1.3604963 0.092773274 0 35
-2.5402193 -1.3609219 0.11934417 0 36
-2.5499394 -1.3661294 0.14646459 0 37
-2.5505733 -1.3664689 0.17319621 0 38
-2.531292 -1.3561389 0.19840951 0 39
-2.5215337 -1.3509109 0.22409861 0 40
-2.5320163 -1.3565271 0.25163248 0 41
-2.5300775 -1.3554883 0.27806455 0 42
-2.5326447 -1.3568636 0.30504599 0 43
-2.5294015 -1.3551261 0.33137262 0 44
-2.527946 -1.3543464 0.35794058 0 45
-2.5199006 -1.350036 0.38353619 0 46
-2.5410342 -1.3613583 0.41377842 0 47
-2.5330746 -1.3570939 0.43949449 0 48
-2.5250275 -1.3527828 0.46510059 0 49
-2.5325105 -1.3567917 0.49364221 0 50
-2.5135379 -1.3466271 0.51698917 0 51
-2.5144889 -1.3471367 0.54433054 0 52
-2.5197792 -1.3499709 0.57277429 0 53
-2.5262787 -1.3534532 0.60172176 0 54
-2.5023665 -1.3406421 0.62334144 0 55
-2.5131984 -1.3464452 0.65358424 0 56
-2.5111949 -1.345372 0.68070215 0 57
-2.5260189 -1.3533139 0.71264499 0 58
-2.5027428 -1.3408437 0.73387235 0 59
-2.5172329 -1.3486068 0.76620954 0 60
-2.4990158 -1.338847 0.78868747 0 61
-2.4994142 -1.3390604 0.81698436 0 62
-2.5106046 -1.3450557 0.84908986 0 63
-1.9218956 -1.0602725 -0.6543476 0 0
-1.9767237 -1.09052 -0.65046632 0 1
-2.0445831 -1.1279566 -0.64959699 0 2
-2.0970626 -1.1569086 -0.64259726 0 3
-2.1848762 -1.2053539 -0.64496261 0 4
-2.2544739 -1.2437495 -0.64030254 0 5
-2.310889 -1.2748725 -0.63060749 0 6
-2.4049027 -1.326738 -0.62961584 0 7
-2.4803331 -1.3683516 -0.62199724 0 8
-2.5759029 -1.4210756 -0.61765683 0 9
-2.5828187 -1.4248909 -0.59104192 0 10
-2.5712576 -1.4185128 -0.56035328 0 11
-2.5705423 -1.4181182 -0.53226036 0 12
-2.5664327 -1.415851 -0.5036099 0 13
-2.572176 -1.4190195 -0.4769631 0 14
-2.5789933 -1.4227805 -0.45046291 0 15
-2.5724404 -1.4191654 -0.42170236 0 16
-2.5602751 -1.412454 -0.39229515 0 17
-2.5782127 -1.4223498 -0.36750668 0 18
-2.5614305 -1.4130914 -0.33781955 0 19
-2.5670159 -1.4161727 -0.31125975 0 20
-2.5629468 -1.4139279 -0.28356639 0 21
-2.5533919 -1.4086567 -0.25545889 0 22
-2.5556531 -1.4099041 -0.22865444 0 23
-2.5503311 -1.4069681 -0.20124273 0 24
-2.5544782 -1.409256 -0.17462488 0 25
-2.5591969 -1.4118592 -0.14798231 0 26
-2.5508549 -1.4072571 -0.12064771 0 27
-2.5629747 -1.4139433 -0.094261669 0 28
-2.5530131 -1.4084477 -0.067056723 0 29
-2.5492349 -1.4063632 -0.040169958 0 30
-2.5422685 -1.4025201 -0.013352642 0 31
-2.5409839 -1.4018115 0.013345895 0 32
-2.5456562 -1.404389 0.040113568 0 33
-2.5435946 -1.4032516 0.066809341 0 34
-2.5395341 -1.4010116 0.093399569 0 35
-2.5381777 -1.4002633 0.12004812 0 36
-2.5342591 -1.3981014 0.1465403 0 37
-2.530916 -1.3962572 0.17301416 0 38
-2.5244119 -1.3926691 0.19919749 0 39
-2.5314293 -1.3965403 0.22648713 0 40
-2.5263383 -1.3937317 0.25275227 0 41
-2.5183702 -1.3893359 0.2786344 0 42
-2.5274808 -1.3943621 0.30646601 0 43
-2.5258617 -1.3934689 0.33312848 0 44
-2.523948 -1.392413 0.35977161 0 45
-2.5393777 -1.4009254 0.38909319 0 46
-2.5292485 -1.3953372 0.41462186 0 47
-2.5202761 -1.3903873 0.44020697 0 48
-2.5202868 -1.3903933 0.46734121 0 49
-2.5134265 -1.3866086 0.49320853 0 50
-2.5035658 -1.3811686 0.51839209 0 51
-2.5218787 -1.3912715 0.54959214 0 52
-2.5157857 -1.3879101 0.57570243 0 53
-2.5131824 -1.3864739 0.60261756 0 54
-2.513309 -1.3865436 0.63026667 0 55
-2.5079083 -1.3835644 0.65658331 0 56
-2.5105486 -1.3850209 0.68509167 0 57
-2.4989629 -1.3786292 0.70974082 0 58
-2.4921095 -1.3748484 0.73565602 0 59
-2.507602 -1.3833953 0.76839775 0 60
-2.5094995 -1.3844421 0.7973085 0 61
-2.4965618 -1.3773046 0.82152575 0 62
-2.5045266 -1.3816986 0.85271585 0 63
-1.9154702 -1.0876596 -0.65666384 0 0
-1.9631586 -1.1147385 -0.650464 0 1
-2.0235112 -1.1490084 -0.64734215 0 2
-2.1057444 -1.1957028 -0.64971387 0 3
-2.1707959 -1.232641 -0.64523166 0 4
-2.2329674 -1.2679436 -0.63857418 0 5
-2.3022327 -1.3072747 -0.63258415 0 6
-2.399087 -1.3622713 -0.63243103 0 7
-2.4866264 -1.4119787 -0.627882 0 8
-2.5738978 -1.4615339 -0.62143844 0 9
-2.5716422 -1.460253 -0.59254855 0 10
-2.5666537 -1.4574205 -0.56321293 0 11
-2.5672851 -1.457779 -0.53525716 0 12
-2.567225 -1.4577448 -0.50724447 0 13
-2.5563595 -1.4515752 -0.47730398 0 14
-2.5520365 -1.4491204 -0.44883293 0 15
-2.551095 -1.4485859 -0.42109138 0 16
-2.552702 -1.4494983 -0.39383602 0 17
-2.5555432 -1.4511117 -0.36679107 0 18
-2.56669 -1.4574411 -0.34085104 0 19
-2.5625134 -1.4550695 -0.31285965 0 20
-2.5640993 -1.45597 -0.28565314 0 21
-2.5450981 -1.4451805 -0.25638762 0 22
-2.5370471 -1.440609 -0.22855739 0 23
-2.5532138 -1.4497889 -0.20286158 0 24
-2.5513189 -1.4487129 -0.1756134 0 25
-2.5420854 -1.4434699 -0.14800802 0 26
-2.5341837 -1.4389831 -0.12068698 0 27
-2.5319028 -1.437688 -0.093762003 0 28
-2.5434327 -1.444235 -0.067266457 0 29
-2.54602 -1.4457041 -0.04039637 0 30
-2.545326 -1.44531 -0.013461027 0 31
-2.5491161 -1.4474622 0.013481072 0 32
-2.5461223 -1.4457622 0.040397994 0 33
-2.5455959 -1.4454633 0.06732367 0 34
-2.5515344 -1.4488353 0.094489001 0 35
-2.5313957 -1.4373999 0.1205542 0 36
-2.5435867 -1.4443225 0.14809543 0 37
-2.5340254 -1.4388932 0.17442305 0 38
-2.5322325 -1.4378752 0.20119455 0 39
-2.5306828 -1.4369953 0.22798406 0 40
-2.5090303 -1.4247003 0.25275424 0 41
-2.531348 -1.4373729 0.28200451 0 42
-2.5322523 -1.4378864 0.30916506 0 43
-2.526726 -1.4347484 0.3355439 0 44
-2.5167589 -1.4290887 0.36122441 0 45
-2.5280392 -1.4354941 0.39003098 0 46
-2.5247378 -1.4336195 0.41674078 0 47
-2.5113776 -1.4260331 0.44168216 0 48
-2.5087471 -1.4245394 0.46841416 0 49
-2.5178246 -1.4296939 0.49748373 0 50
-2.5213482 -1.4316947 0.52567971 0 51
-2.51875 -1.4302193 0.55270118 0 52
-2.5081673 -1.4242102 0.57792288 0 53
-2.5147033 -1.4279215 0.60714656 0 54
-2.5132959 -1.4271224 0.63461608 0 55
-2.5249708 -1.4337517 0.66561562 0 56
-2.5089669 -1.4246643 0.68938845 0 57
-2.4949489 -1.4167043 0.71349448 0 58
-2.507565 -1.4238683 0.74533051 0 59
-2.4998071 -1.419463 0.77129936 0 60
-2.5084519 -1.4243718 0.80247968 0 61
-2.5005765 -1.4198998 0.82852954 0 62
-2.4948783 -1.4166644 0.85529727 0 63
-1.891161 -1.1048249 -0.65293813 0 0
-1.9642161 -1.1475041 -0.65544003 0 1
-2.0250912 -1.1830676 -0.65245217 0 2
-2.0751531 -1.212314 -0.64482594 0 3
-2.1515658 -1.2569546 -0.64406115 0 4
-2.2376301 -1.3072338 -0.64445579 0 5
-2.2982006 -1.3426193 -0.63596439 0 6
-2.3984344 -1.4011765 -0.63675278 0 7
-2.4621119 -1.4383771 -0.62611067 0 8
-2.5677407 -1.5000858 -0.62435812 0 9
-2.5685608 -1.5005651 -0.59604508 0 10
-2.5668969 -1.4995929 -0.56726968 0 11
-2.5653002 -1.4986602 -0.53864473 0 12
-2.5613725 -1.4963655 -0.50968516 0 13
-2.5712166 -1.5021164 -0.48349014 0 14
-2.5616717 -1.4965404 -0.45372966 0 15
-2.5537601 -1.4919183 -0.42452729 0 16
-2.5651753 -1.4985873 -0.39857331 0 17
-2.5662973 -1.4992427 -0.37095252 0 18
-2.5532231 -1.4916047 -0.34147257 0 19
-2.5597465 -1.4954156 -0.3147431 0 20
-2.5643246 -1.4980901 -0.2877087 0 21
-2.5512476 -1.4904505 -0.2588338 0 22
-2.5525885 -1.4912339 -0.23159191 0 23
-2.550566 -1.4900523 -0.20409155 0 24
-2.5543149 -1.4922425 -0.17706928 0 25
-2.5495846 -1.4894791 -0.14949971 0 26
-2.5502341 -1.4898584 -0.12231457 0 27
-2.5363808 -1.4817653 -0.094595425 0 28
-2.552424 -1.4911379 -0.067984037 0 29
-2.5422015 -1.4851658 -0.040622476 0 30
-2.55264 -1.491264 -0.013595657 0 31
-2.5318244 -1.4791034 0.013484791 0 32
-2.5414109 -1.4847039 0.040609837 0 33
-2.5439706 -1.4861994 0.067758881 0 34
-2.5268414 -1.4761924 0.094239645 0 35
-2.5287497 -1.4773072 0.12128414 0 36
-2.5277703 -1.476735 0.1482206 0 37
-2.530663 -1.4784249 0.17542969 0 38
-2.536998 -1.4821259 0.20300587 0 39
-2.5204117 -1.4724361 0.22867256 0 40
-2.5197136 -1.4720283 0.25563458 0 41
-2.5355666 -1.4812896 0.28448212 0 42
-2.5204437 -1.4724548 0.30991048 0 43
-2.5236068 -1.4743026 0.3375116 0 44
-2.5281909 -1.4769807 0.3654443 0 45
-2.5277057 -1.4766972 0.39275131 0 46
-2.5198328 -1.4720979 0.41888738 0 47
-2.5112798 -1.4671012 0.4448041 0 48
-2.5161991 -1.4699751 0.47314468 0 49
-2.512502 -1.4678153 0.49996045 0 50
-2.5235763 -1.4742848 0.5298838 0 51
-2.5251856 -1.4752251 0.55805176 0 52
-2.5186276 -1.4713938 0.58445787 0 53
-2.5156429 -1.4696501 0.61169034 0 54
-2.5104952 -1.4666429 0.63841444 0 55
-2.5167434 -1.470293 0.66816229 0 56
-2.5060158 -1.4640259 0.69347161 0 57
-2.5045483 -1.4631686 0.7213304 0 58
-2.4949183 -1.4575428 0.74684221 0 59
-2.5106368 -1.4667256 0.7801466 0 60
-2.5063808 -1.4642391 0.80751604 0 61
-2.4991026 -1.4599872 0.8339265 0 62
-2.4992433 -1.4600694 0.86288333 0 63
-1.8885555 -1.1346765 -0.65680611 0 0
-1.940424 -1.1658399 -0.65223521 0 1
-2.0036607 -1.2038337 -0.65026772 0 2
-2.0804956 -1.2499974 -0.65121299 0 3
-2.1341045 -1.2822065 -0.64350528 0 4
-2.2215183 -1.3347262 -0.64449364 0 5
-2.2833416 -1.3718708 -0.63647258 0 6
-2.3798184 -1.4298357 -0.63643014 0 7
-2.4497871 -1.471874 -0.62753153 0 8
-2.5500884 -1.5321368 -0.6245997 0 9
-2.5719614 -1.5452785 -0.60119814 0 10
-2.565378 -1.5413229 -0.57107931 0 11
-2.5649097 -1.5410416 -0.54250056 0 12
-2.5662599 -1.5418528 -0.51439148 0 13
-2.5665309 -1.5420158 -0.48613781 0 14
-2.5692542 -1.5436519 -0.45840004 0 15
-2.5539834 -1.534477 -0.42766875 0 16
-2.5572188 -1.5364209 -0.40024227 0 17
-2.556458 -1.5359638 -0.3722322 0 18
-2.5661113 -1.5417637 -0.34570563 0 19
-2.5479283 -1.530839 -0.31558067 0 20
-2.5633798 -1.5401225 -0.28970557 0 21
-2.5556726 -1.5354918 -0.26117855 0 22
-2.56181 -1.5391793 -0.23412801 0 23
-2.5556817 -1.5354973 -0.20599616 0 24
-2.5621347 -1.5393744 -0.17891002 0 25
-2.5510709 -1.5327271 -0.15068062 0 26
-2.5392878 -1.5256475 -0.12268007 0 27
-2.5480235 -1.5308962 -0.095724478 0 28
-2.5481305 -1.5309604 -0.068365924 0 29
-2.5466521 -1.5300722 -0.040991131 0 30
-2.5485744 -1.5312272 -0.013673254 0 31
-2.5333495 -1.5220797 0.013591571 0 32
-2.5400095 -1.5260812 0.040884215 0 33
-2.5264385 -1.5179275 0.067783937 0 34
-2.5384815 -1.5251632 0.095366001 0 35
-2.5331519 -1.521961 0.12238362 0 36
-2.5333269 -1.5220662 0.14963256 0 37
-2.5353479 -1.5232804 0.17703952 0 38
-2.5334473 -1.5221385 0.20420401 0 39
-2.5364971 -1.523971 0.23181465 0 40
-2.5148437 -1.5109611 0.25700602 0 41
-2.5240998 -1.5165223 0.28526628 0 42
-2.5243287 -1.51666 0.31265765 0 43
-2.5206542 -1.5144522 0.33958167 0 44
-2.5187163 -1.513288 0.36673683 0 45
-2.5255888 -1.517417 0.39529172 0 46
-2.5164137 -1.5119044 0.42137763 0 47
-2.5123942 -1.5094894 0.44825524 0 48
-2.5238283 -1.5163592 0.47804928 0 49
-2.5144963 -1.5107524 0.5040158 0 50
-2.5185997 -1.5132179 0.53270566 0 51
-2.5118346 -1.5091532 0.55916005 0 52
-2.5077736 -1.5067133 0.5861941 0 53
-2.5069916 -1.5062435 0.61404389 0 54
-2.5150023 -1.5110564 0.64423686 0 55
-2.5001044 -1.5021056 0.668598 0 56
-2.5105007 -1.5083518 0.69979227 0 57
-2.4989178 -1.5013926 0.72497112 0 58
-2.5029962 -1.5038429 0.75473869 0 59
-2.5005903 -1.5023975 0.78270626 0 60
-2.4960871 -1.4996918 0.81007969 0 61
-2.5010636 -1.5026819 0.84068316 0 62
-2.4956732 -1.4994432 0.86795092 0 63
-1.8651934 -1.152087 -0.65355867 0 0
-1.9405484 -1.198632 -0.65718156 0 1
-2.0008152 -1.2358574 -0.65422672 0 2
-2.0627773 -1.2741299 -0.65052176 0 3
-2.1229284 -1.3112839 -0.64494848 0 4
-2.1911807 -1.3534417 -0.64047205 0 5
-2.2815139 -1.4092386 -0.64074498 0 6
-2.3545139 -1.4543289 -0.63439751 0 7
-2.4497862 -1.5131764 -0.63224971 0 8
-2.5442011 -1.5714945 -0.62784332 0 9
-2.5676875 -1.5860014 -0.60471201 0 10
-2.5555727 -1.5785184 -0.57317418 0 11
-2.5649557 -1.584314 -0.54658943 0 12
-2.5602698 -1.5814197 -0.51704955 0 13
-2.5672305 -1.5857191 -0.48992658 0 14
-2.5711992 -1.5881705 -0.46219644 0 15
-2.5504916 -1.5753797 -0.43029529 0 16
-2.5471253 -1.5733006 -0.40166008 0 17
-2.5551996 -1.578288 -0.37484643 0 18
-2.5533516 -1.5771465 -0.34657311 0 19
-2.5453401 -1.5721979 -0.31763056 0 20
-2.5534234 -1.5771908 -0.29075021 0 21
-2.5459738 -1.5725893 -0.26214373 0 22
-2.5556202 -1.5785477 -0.23531851 0 23
-2.5436027 -1.5711248 -0.20656414 0 24
-2.5398588 -1.5688123 -0.17868806 0 25
-2.5418303 -1.57003 -0.15126368 0 26
-2.5452795 -1.5721605 -0.12389416 0 27
-2.5462036 -1.5727313 -0.096375354 0 28
-2.5452845 -1.5721636 -0.06880305 0 29
-2.5364482 -1.5667056 -0.041133869 0 30
-2.5366397 -1.566824 -0.013711552 0 31
-2.5419822 -1.5701238 0.01374043 0 32
-2.5329931 -1.5645715 0.041077837 0 33
-2.5337293 -1.5650263 0.068490691 0 34
-2.5294511 -1.5623838 0.095741265 0 35
-2.5380642 -1.5677037 0.12354295 0 36
-2.5228515 -1.5583073 0.15013427 0 37
-2.5263267 -1.5604537 0.17773603 0 38
-2.5244124 -1.5592713 0.20500571 0 39
-2.533793 -1.5650655 0.23330867 0 40
-2.5286117 -1.5618651 0.26035607 0 41
-2.5142539 -1.5529966 0.28629008 0 42
-2.5192516 -1.5560837 0.31437501 0 43
-2.5082581 -1.5492933 0.34045246 0 44
-2.5291419 -1.5621927 0.37102377 0 45
-2.529983 -1.5627122 0.39895687 0 46
-2.5191095 -1.5559958 0.42500082 0 47
-2.5152175 -1.5535918 0.45213321 0 48
-2.5177798 -1.5551746 0.48048952 0 49
-2.5114133 -1.5512421 0.5071829 0 50
-2.5179114 -1.5552558 0.53656435 0 51
-2.5128849 -1.5521511 0.56359994 0 52
-2.5136347 -1.5526142 0.59198207 0 53
-2.4993546 -1.5437938 0.61677635 0 54
-2.5098155 -1.5502552 0.64774233 0 55
-2.5134292 -1.5524873 0.67721546 0 56
-2.5007389 -1.5446488 0.70231259 0 57
-2.5083883 -1.5493735 0.73319042 0 58
-2.4868946 -1.5360974 0.75552189 0 59
-2.4916115 -1.539011 0.78575987 0 60
-2.4904461 -1.5382911 0.81432623 0 61
-2.5021122 -1.5454971 0.84735942 0 62
-2.4913864 -1.538872 0.87297505 0 63
-1.8482183 -1.1732395 -0.65261644 0 0
-1.9271998 -1.2233765 -0.65770572 0 1
-1.9668126 -1.2485225 -0.64807945 0 2
-2.0375791 -1.2934446 -0.64754206 0 3
-2.1212981 -1.3465892 -0.64943457 0 4
-2.1851082 -1.3870955 -0.64363396 0 5
-2.2695217 -1.4406806 -0.64230371 0 6
-2.3381312 -1.4842336 -0.63485283 0 7
-2.4360459 -1.5463893 -0.63356322 0 8
-2.5109763 -1.5939548 -0.62443382 0 9
-2.561579 -1.6260772 -0.60793644 0 10
-2.579967 -1.6377498 -0.58311808 0 11
-2.5613914 -1.6259581 -0.55004895 0 12
-2.5614827 -1.626016 -0.52129292 0 13
-2.5589881 -1.6244324 -0.4921284 0 14
-2.557662 -1.6235907 -0.46331677 0 15
-2.5615191 -1.6260391 -0.43549615 0 16
-2.5601101 -1.6251446 -0.40682814 0 17
-2.561614 -1.6260993 -0.37869209 0 18
-2.5599451 -1.6250399 -0.35015383 0 19
-2.5430298 -1.6143022 -0.31979516 0 20
-2.5496016 -1.6184739 -0.29255903 0 21
-2.5523393 -1.6202118 -0.2648305 0 22
-2.5377355 -1.6109414 -0.23547788 0 23
-2.5433099 -1.61448 -0.20813683 0 24
-2.5446825 -1.6153512 -0.18041122 0 25
-2.5570073 -1.6231751 -0.15334305 0 26
-2.5519443 -1.619961 -0.12517874 0 27
-2.5478518 -1.6173631 -0.09718316 0 28
-2.5471222 -1.6169 -0.069384918 0 29
-2.5440698 -1.6149623 -0.041576371 0 30
-2.5410533 -1.6130476 -0.013841578 0 31
-2.5338302 -1.6084622 0.013802231 0 32
-2.5348387 -1.6091025 0.041425511 0 33
-2.5300186 -1.6060427 0.06891901 0 34
-2.5382574 -1.6112727 0.096817195 0 35
-2.5311267 -1.6067461 0.12415758 0 36
-2.5216043 -1.6007013 0.15121993 0 37
-2.5260994 -1.6035548 0.17909373 0 38
-2.5225472 -1.6013 0.20643768 0 39
-2.5236878 -1.6020241 0.2341744 0 40
-2.5208464 -1.6002202 0.26156279 0 41
-2.5235889 -1.6019613 0.28957418 0 42
-2.5209095 -1.6002605 0.31701347 0 43
-2.5076463 -1.591841 0.34300032 0 44
-2.5106368 -1.5937393 0.37115595 0 45
-2.5170701 -1.5978231 0.39998865 0 46
-2.5229514 -1.6015565 0.42893907 0 47
-2.512032 -1.594625 0.45505098 0 48
-2.5103478 -1.5935558 0.4827742 0 49
-2.4948664 -1.5837283 0.50773573 0 50
-2.5171971 -1.5979037 0.5405584 0 51
-2.5128403 -1.5951381 0.56794626 0 52
-2.500371 -1.5872226 0.59341002 0 53
-2.5062902 -1.5909801 0.62326843 0 54
-2.5022132 -1.588392 0.65077192 0 55
-2.5046947 -1.5899673 0.68007839 0 56
-2.4924645 -1.5822036 0.70539939 0 57
-2.4901128 -1.5807108 0.73347449 0 58
-2.4961481 -1.5845419 0.76419473 0 59
-2.4972422 -1.5852365 0.79362291 0 60
-2.4933467 -1.5827637 0.82157642 0 61
-2.4957938 -1.5843171 0.85175282 0 62
-2.4854729 -1.5777655 0.87763464 0 63
-1.8471669 -1.2046891 -0.65742618 0 0
-1.9003452 -1.2393711 -0.65369248 0 1
-1.967472 -1.28315 -0.65344638 0 2
-2.0316567 -1.3250101 -0.65078861 0 3
-2.1039352 -1.3721489 -0.64923537 0 4
-2.1720126 -1.4165477 -0.64485854 0 5
-2.2419362 -1.4621507 -0.63953668 0 6
-2.3209755 -1.5136986 -0.63520056 0 7
-2.4087701 -1.5709567 -0.63144559 0 8
-2.506952 -1.6349893 -0.62838525 0 9
-2.5706358 -1.6765226 -0.614932 0 10
-2.5588365 -1.6688273 -0.58293617 0 11
-2.5730934 -1.6781254 -0.55695111 0 12
-2.5573676 -1.6678692 -0.5245896 0 13
-2.565618 -1.6732501 -0.49732271 0 14
-2.5693109 -1.6756585 -0.46912399 0 15
-2.554841 -1.6662215 -0.43781105 0 16
-2.5581951 -1.668409 -0.40975296 0 17
-2.5472269 -1.6612557 -0.37955639 0 18
-2.5412595 -1.6573639 -0.35035905 0 19
-2.5418096 -1.6577227 -0.32218075 0 20
-2.5492115 -1.66255 -0.2948378 0 21
-2.5358551 -1.6538391 -0.26521015 0 22
-2.5575635 -1.6679971 -0.23920284 0 23
-2.5536156 -1.6654223 -0.21064022 0 24
-2.5423713 -1.658089 -0.18167914 0 25
-2.5449533 -1.659773 -0.1538325 0 26
-2.5583639 -1.668519 -0.12649047 0 27
-2.5352612 -1.6534518 -0.097471051 0 28
-2.5323136 -1.6515296 -0.069529466 0 29
-2.5381014 -1.6553042 -0.041808315 0 30
-2.5349524 -1.6532506 -0.01391803 0 31
-2.5472054 -1.6612417 0.013985304 0 32
-2.5339115 -1.6525716 0.041739296 0 33
-2.5411952 -1.6573218 0.069773331 0 34
-2.5283313 -1.6489323 0.097204633 0 35
-2.5206048 -1.6438934 0.1246236 0 36
-2.5265427 -1.6477659 0.15271963 0 37
-2.5243611 -1.6463431 0.18039213 0 38
-2.5196211 -1.6432517 0.20783611 0 39
-2.5168293 -1.641431 0.23539305 0 40
-2.5065832 -1.6347487 0.2621488 0 41
-2.5261345 -1.6474996 0.29216874 0 42
-2.513454 -1.6392297 0.31858659 0 43
-2.5180292 -1.6422136 0.34715635 0 44
-2.5077302 -1.6354966 0.37367105 0 45
-2.4986923 -1.6296023 0.40022227 0 46
-2.5170946 -1.6416041 0.43134263 0 47
-2.5083294 -1.6358875 0.45798954 0 48
-2.5096395 -1.6367419 0.48647171 0 49
-2.5164695 -1.6411963 0.51620024 0 50
-2.5101943 -1.6371037 0.54333645 0 51
-2.5114591 -1.6379286 0.57214302 0 52
-2.4991527 -1.6299026 0.59783226 0 53
-2.5067315 -1.6348454 0.62832993 0 54
-2.5036049 -1.6328063 0.65630603 0 55
-2.506752 -1.6348587 0.68604356 0 56
-2.505048 -1.6337475 0.71459216 0 57
-2.5083892 -1.6359265 0.74472696 0 58
-2.5014446 -1.6313972 0.7718994 0 59
-2.497915 -1.6290954 0.80014241 0 60
-2.48947 -1.6235877 0.82681489 0 61
-2.5022442 -1.6319189 0.8607375 0 62
-2.4887161 -1.6230961 0.88576031 0 63
-1.8459215 -1.2364913 -0.66234428 0 0
-1.886278 -1.2635242 -0.65414858 0 1
-1.9550552 -1.3095946 -0.65462136 0 2
-2.0064418 -1.344016 -0.64795661 0 3
-2.0887256 -1.3991338 -0.64980179 0 4
-2.1504011 -1.4404471 -0.64365226 0 5
-2.2368877 -1.4983802 -0.64330375 0 6
-2.3097606 -1.5471941 -0.63728982 0 7
-2.397361 -1.6058733 -0.63358337 0 8
-2.488225 -1.6667385 -0.62878078 0 9
-2.5610166 -1.7154981 -0.61763036 0 10
-2.5605855 -1.7152092 -0.58809495 0 11
-2.5680594 -1.7202158 -0.56039762 0 12
-2.5536218 -1.7105447 -0.52809596 0 13
-2.5645311 -1.7178522 -0.50116873 0 14
-2.5459077 -1.7053775 -0.46864432 0 15
-2.5550151 -1.711478 -0.44141391 0 16
-2.565943 -1.718798 -0.41434792 0 17
-2.5450969 -1.7048343 -0.38233379 0 18
-2.5441213 -1.7041807 -0.35361594 0 19
-2.5523078 -1.7096645 -0.32615146 0 20
-2.5458632 -1.7053475 -0.29685345 0 21
-2.5630002 -1.7168268 -0.27023655 0 22
-2.5425768 -1.7031462 -0.23974176 0 23
-2.5408905 -1.7020166 -0.21130094 0 24
-2.5433302 -1.7036508 -0.18323082 0 25
-2.5417247 -1.7025754 -0.1548911 0 26
-2.5352142 -1.6982143 -0.12636879 0 27
-2.533926 -1.6973513 -0.098214723 0 28
-2.5349793 -1.6980571 -0.070170663 0 29
-2.5348072 -1.6979418 -0.042094789 0 30
-2.5367727 -1.6992583 -0.014041685 0 31
-2.5324349 -1.6963527 0.014017674 0 32
-2.528069 -1.6934282 0.041982893 0 33
-2.5204923 -1.6883528 0.069769643 0 34
-2.5444875 -1.7044261 0.098624088 0 35
-2.5236361 -1.6904587 0.12579168 0 36
-2.5199823 -1.6880112 0.15356614 0 37
-2.5254734 -1.6916894 0.18194434 0 38
-2.5166125 -1.6857541 0.209282 0 39
-2.5144243 -1.6842881 0.23708722 0 40
-2.5103412 -1.6815531 0.26468429 0 41
-2.5107422 -1.6818217 0.29275823 0 42
-2.515244 -1.6848373 0.32141519 0 43
-2.5071182 -1.6793941 0.34847277 0 44
-2.5370035 -1.6994129 0.38111797 0 45
-2.5124857 -1.6829897 0.40571567 0 46
-2.5127199 -1.6831466 0.43410686 0 47
-2.5125451 -1.6830294 0.46250302 0 48
-2.515408 -1.6849473 0.49156895 0 49
-2.4973862 -1.6728753 0.51646626 0 50
-2.5044451 -1.6776036 0.54651582 0 51
-2.5042417 -1.6774673 0.57515436 0 52
-2.5131297 -1.683421 0.60608166 0 53
-2.5023122 -1.6761749 0.63234067 0 54
-2.4919705 -1.6692475 0.6585871 0 55
-2.5033243 -1.6768529 0.69069636 0 56
-2.4972398 -1.6727772 0.71817809 0 57
-2.4899621 -1.6679022 0.74528879 0 58
-2.4868162 -1.6657948 0.77364761 0 59
-2.4828606 -1.6631453 0.80181044 0 60
-2.4948509 -1.6711769 0.83536386 0 61
-2.4819853 -1.6625589 0.86073589 0 62
-2.5020981 -1.6760315 0.89779019 0 63
-1.8144602 -1.248008 -0.65651226 0 0
-1.8757181 -1.2901419 -0.65593851 0 1
-1.9613609 -1.3490481 -0.66223705 0 2
-2.0001202 -1.3757071 -0.65132874 0 3
-2.0652215 -1.4204848 -0.64787471 0 4
-2.1332405 -1.4672689 -0.64386749 0 5
-2.209563 -1.5197645 -0.64077145 0 6
-2.2836771 -1.5707411 -0.63537419 0 7
-2.3820844 -1.6384268 -0.63482243 0 8
-2.4596503 -1.6917776 -0.62676948 0 9
-2.5638189 -1.7634262 -0.62348849 0 10
-2.5714884 -1.7687013 -0.59554911 0 11
-2.5508187 -1.7544844 -0.56130081 0 12
-2.5490541 -1.7532707 -0.5315696 0 13
-2.5548458 -1.7572542 -0.50346065 0 14
-2.5558875 -1.7579708 -0.47442466 0 15
-2.5474696 -1.7521808 -0.44379908 0 16
-2.5513115 -1.7548234 -0.41543826 0 17
-2.5556328 -1.7577956 -0.38713428 0 18
-2.5479023 -1.7524785 -0.3571097 0 19
-2.5523326 -1.7555257 -0.32888827 0 20
-2.5610631 -1.7615306 -0.30112869 0 21
-2.5452948 -1.750685 -0.27061903 0 22
-2.5486774 -1.7530116 -0.24233118 0 23
-2.5460289 -1.7511899 -0.21350284 0 24
-2.5433421 -1.749342 -0.18476743 0 25
-2.5429289 -1.7490578 -0.15626331 0 26
-2.5486991 -1.7530266 -0.12810574 0 27
-2.5294042 -1.7397553 -0.098861173 0 28
-2.5280268 -1.7388078 -0.070564725 0 29
-2.534636 -1.7433538 -0.042444739 0 30
-2.5264139 -1.7376984 -0.014101554 0 31
-2.52402 -1.7360519 0.014088193 0 32
-2.5320768 -1.7415936 0.04240188 0 33
-2.5308275 -1.7407342 0.070642903 0 34
-2.5295303 -1.7398419 0.098866098 0 35
-2.51335 -1.728713 0.12632899 0 36
-2.5372882 -1.745178 0.15591669 0 37
-2.5160773 -1.7305889 0.18278672 0 38
-2.5363512 -1.7445335 0.21269129 0 39
-2.5231817 -1.7354753 0.23990703 0 40
-2.529784 -1.7400165 0.26896989 0 41
-2.5157523 -1.7303653 0.29580107 0 42
-2.5129106 -1.7284108 0.32380846 0 43
-2.5151606 -1.7299583 0.35252067 0 44
-2.5103903 -1.7266773 0.38028082 0 45
-2.5097175 -1.7262145 0.40866539 0 46
-2.5066218 -1.7240852 0.43668291 0 47
-2.5087857 -1.7255737 0.46568161 0 48
-2.5029094 -1.7215317 0.49322599 0 49
-2.4932296 -1.714874 0.51992822 0 50
-2.5019331 -1.7208604 0.55054367 0 51
-2.5026436 -1.721349 0.57960492 0 52
-2.4909003 -1.7132719 0.60575557 0 53
-2.4971814 -1.717592 0.63633317 0 54
-2.4959755 -1.7167627 0.66517437 0 55
-2.4917889 -1.7138829 0.69327587 0 56
-2.497659 -1.7179204 0.72431898 0 57
-2.4952662 -1.7162747 0.75313628 0 58
-2.4811852 -1.7065896 0.77836543 0 59
-2.4952726 -1.7162791 0.81257266 0 60
-2.4881279 -1.711365 0.84009552 0 61
-2.4808781 -1.7063785 0.86756295 0 62
-2.4804866 -1.706109 0.89749545 0 63
-1.8103575 -1.2782582 -0.66066504 0 0
-1.8599402 -1.3132676 -0.65601856 0 1
-1.9214621 -1.356707 -0.65434885 0 2
-1.979659 -1.3977987 -0.65021372 0 3
-2.0628777 -1.4565579 -0.65270877 0 4
-2.1205657 -1.4972901 -0.64555013 0 5
-2.1890149 -1.5456208 -0.64027572 0 6
-2.2716866 -1.6039937 -0.63747746 0 7
-2.3625846 -1.668175 -0.6350444 0 8
-2.4437861 -1.7255098 -0.62808615 0 9
-2.5462868 -1.7978836 -0.62455398 0 10
-2.5593147 -1.8070823 -0.59783083 0 11
-2.5605259 -1.8079376 -0.56828582 0 12
-2.5570946 -1.8055148 -0.53783548 0 13
-2.5618939 -1.8089035 -0.50919431 0 14
-2.5631359 -1.8097805 -0.47986463 0 15
-2.5610845 -1.808332 -0.45001075 0 16
-2.5541055 -1.8034042 -0.41947243 0 17
-2.5477691 -1.79893 -0.38926452 0 18
-2.5535083 -1.8029824 -0.3609755 0 19
-2.535177 -1.7900391 -0.32948902 0 20
-2.5415468 -1.7945368 -0.30140576 0 21
-2.5388696 -1.7926464 -0.272259 0 22
-2.5286479 -1.7854291 -0.24249588 0 23
-2.532068 -1.7878439 -0.21415946 0 24
-2.5363405 -1.7908607 -0.18584453 0 25
-2.5377295 -1.7918414 -0.15728585 0 26
-2.5309384 -1.7870464 -0.12830783 0 27
-2.539228 -1.7928995 -0.10009924 0 28
-2.5434775 -1.7959 -0.071607001 0 29
-2.5307956 -1.7869455 -0.042745151 0 30
-2.5296626 -1.7861456 -0.014241203 0 31
-2.5195677 -1.7790178 0.014184372 0 32
-2.5419405 -1.7948147 0.042933393 0 33
-2.5200491 -1.7793576 0.070947409 0 34
-2.5367315 -1.7911366 0.10000083 0 35
-2.5254512 -1.7831719 0.12802964 0 36
-2.5265794 -1.7839686 0.1565948 0 37
-2.5209882 -1.7800208 0.18471962 0 38
-2.5203128 -1.7795439 0.21316522 0 39
-2.5063503 -1.7696851 0.24035755 0 40
-2.5189309 -1.7785681 0.27012083 0 41
-2.522733 -1.7812527 0.29917461 0 42
-2.5196173 -1.7790527 0.32746679 0 43
-2.5008335 -1.7657899 0.35352916 0 44
-2.522531 -1.78111 0.38540849 0 45
-2.5099151 -1.7722021 0.41221482 0 46
-2.5049355 -1.7686862 0.44014475 0 47
-2.5046852 -1.7685095 0.46892163 0 48
-2.5050678 -1.7687796 0.49789971 0 49
-2.4977851 -1.7636374 0.52536088 0 50
-2.4928024 -1.7601193 0.5532552 0 51
-2.5054603 -1.7690567 0.58525091 0 52
-2.4976766 -1.7635608 0.61263084 0 53
-2.4947636 -1.7615041 0.64118809 0 54
-2.5008266 -1.765785 0.67220277 0 55
-2.4975684 -1.7634845 0.70086414 0 56
-2.4919894 -1.7595453 0.72889423 0 57
-2.4897525 -1.7579658 0.75793928 0 58
-2.4991868 -1.7646272 0.79075992 0 59
-2.4782672 -1.7498562 0.81398028 0 60
-2.4876726 -1.7564973 0.84717035 0 61
-2.4879158 -1.7566689 0.8775115 0 62
-2.4878306 -1.7566088 0.90789956 0 63
-1.7979945 -1.3029505 -0.66195017 0 0
-1.8521473 -1.3421934 -0.65904129 0 1
-1.9045236 -1.3801489 -0.65431046 0 2
-1.9674717 -1.4257654 -0.65191984 0 3
-2.0339637 -1.47395 -0.64924568 0 4
-2.1128561 -1.531121 -0.64888567 0 5
-2.1818845 -1.5811437 -0.64382833 0 6
-2.2566118 -1.6352962 -0.63884175 0 7
-2.3501911 -1.7031102 -0.63729411 0 8
-2.4372175 -1.7661755 -0.6319319 0 9
-2.5303779 -1.8336859 -0.62613499 0 10
-2.5577526 -1.8535236 -0.60274428 0 11
-2.5545702 -1.8512174 -0.57197291 0 12
-2.5442612 -1.8437467 -0.53986394 0 13
-2.5305808 -1.833833 -0.50741416 0 14
-2.541043 -1.8414147 -0.47993132 0 15
-2.5561743 -1.8523797 -0.453116 0 16
-2.5401936 -1.8407991 -0.42087331 0 17
-2.5374904 -1.83884 -0.39111918 0 18
-2.5552924 -1.8517406 -0.36441901 0 19
-2.5392334 -1.8401031 -0.33293179 0 20
-2.5387933 -1.8397843 -0.30373913 0 21
-2.5407865 -1.8412287 -0.27487168 0 22
-2.5317781 -1.8347006 -0.24494107 0 23
-2.5310225 -1.8341531 -0.21596226 0 24
-2.5442712 -1.8437541 -0.18807264 0 25
-2.5394015 -1.8402251 -0.15877998 0 26
-2.530364 -1.8336759 -0.12941201 0 27
-2.5319872 -1.8348521 -0.10069562 0 28
-2.5328174 -1.8354536 -0.071936846 0 29
-2.5345659 -1.8367209 -0.043187033 0 30
-2.517668 -1.8244755 -0.014298895 0 31
-2.5423522 -1.8423634 0.014439087 0 32
-2.5084553 -1.8177993 0.042742129 0 33
-2.5246413 -1.8295287 0.071704626 0 34
-2.5143428 -1.8220657 0.099993907 0 35
-2.5206275 -1.8266201 0.12891404 0 36
-2.5246692 -1.829549 0.1578588 0 37
-2.4985979 -1.810656 0.18469645 0 38
-2.5124366 -1.8206844 0.2143764 0 39
-2.5125337 -1.8207549 0.24307925 0 40
-2.5007904 -1.8122447 0.27054474 0 41
-2.5149567 -1.8225107 0.30088735 0 42
-2.5054061 -1.8155897 0.32849655 0 43
-2.5052075 -1.8154457 0.35727623 0 44
-2.5089288 -1.8181424 0.38671684 0 45
-2.5090187 -1.8182075 0.41570804 0 46
-2.4986596 -1.8107005 0.44292074 0 47
-2.5033703 -1.8141143 0.47281599 0 48
-2.4905393 -1.8048162 0.49938533 0 49
-2.4893565 -1.803959 0.5282138 0 50
-2.496377 -1.8090465 0.55894333 0 51
-2.5036314 -1.8143036 0.58999044 0 52
-2.4913607 -1.8054115 0.61648035 0 53
-2.4883151 -1.8032043 0.6451807 0 54
-2.4883881 -1.8032572 0.67476851 0 55
-2.503994 -1.8145663 0.708875 0 56
-2.4913981 -1.8054384 0.73515922 0 57
-2.4724572 -1.7917126 0.75932378 0 58
-2.4910712 -1.8052016 0.79515547 0 59
-2.4866748 -1.8020157 0.82395732 0 60
-2.4700503 -1.7899684 0.84860051 0 61
-2.484041 -1.8001071 0.8838852 0 62
-2.4790132 -1.7964636 0.91267425 0 63
-1.7884997 -1.3299129 -0.66442496 0 0
-1.8272269 -1.3587101 -0.65606928 0 1
-1.8998733 -1.4127293 -0.65863115 0 2
-1.9616929 -1.4586979 -0.65589887 0 3
-2.0265076 -1.5068935 -0.65273106 0 4
-2.0916574 -1.5553384 -0.6481998 0 5
-2.1587641 -1.6052382 -0.64278179 0 6
-2.2375631 -1.6638325 -0.6391927 0 7
-2.3248446 -1.7287344 -0.63613713 0 8
-2.4158208 -1.7963834 -0.63206369 0 9
-2.5293505 -1.8808031 -0.63155586 0 10
-2.5630274 -1.905845 -0.60946387 0 11
-2.5419581 -1.8901781 -0.57430965 0 12
-2.5546632 -1.8996254 -0.54698622 0 13
-2.5405507 -1.8891314 -0.51403224 0 14
-2.5514238 -1.8972166 -0.4862614 0 15
-2.5371466 -1.8866001 -0.453821 0 16
-2.5515001 -1.8972733 -0.42657977 0 17
-2.55036 -1.8964256 -0.39666724 0 18
-2.5487807 -1.8952512 -0.36678621 0 19
-2.5357571 -1.8855669 -0.33549064 0 20
-2.540117 -1.888809 -0.30665302 0 21
-2.5481915 -1.8948131 -0.27817237 0 22
-2.5280478 -1.8798344 -0.24679784 0 23
-2.5401382 -1.8888247 -0.21870531 0 24
-2.5327046 -1.8832972 -0.18891516 0 25
-2.5382247 -1.8874018 -0.16014542 0 26
-2.5336628 -1.8840096 -0.13075566 0 27
-2.5284836 -1.8801584 -0.10146805 0 28
-2.5267766 -1.8788892 -0.072415993 0 29
-2.5200481 -1.8738859 -0.043329004 0 30
-2.5314345 -1.8823527 -0.014507442 0 31
-2.5386071 -1.8876861 0.014548548 0 32
-2.5204637 -1.874195 0.043336153 0 33
-2.5209692 -1.8745708 0.072249554 0 34
-2.5226054 -1.8757876 0.10123216 0 35
-2.5220516 -1.8753756 0.13015643 0 36
-2.5172751 -1.8718239 0.15882364 0 37
-2.5028858 -1.8611243 0.18669099 0 38
-2.5124741 -1.8682539 0.21632344 0 39
-2.5135431 -1.869049 0.24538186 0 40
-2.5031106 -1.8612914 0.27325112 0 41
-2.5092795 -1.8658785 0.30293018 0 42
-2.5119457 -1.867861 0.3323403 0 43
-2.5010509 -1.8597597 0.35991758 0 44
-2.5084414 -1.8652552 0.39014748 0 45
-2.5101507 -1.8665262 0.41966665 0 46
-2.5106182 -1.866874 0.44907588 0 47
-2.508034 -1.8649523 0.47799197 0 48
-2.4998896 -1.8588963 0.50580525 0 49
-2.5068111 -1.864043 0.53674048 0 50
-2.5044682 -1.8623008 0.56583947 0 51
-2.4890404 -1.8508288 0.59187037 0 52
-2.4935191 -1.8541591 0.62260908 0 53
-2.4951475 -1.85537 0.65281832 0 54
-2.4903424 -1.851797 0.68142158 0 55
-2.4804575 -1.8444467 0.70857906 0 56
-2.4865651 -1.8489883 0.74038613 0 57
-2.4804168 -1.8444164 0.76867545 0 58
-2.4867356 -1.849115 0.80096889 0 59
-2.484813 -1.8476855 0.8308059 0 60
-2.483422 -1.8466512 0.86093062 0 61
-2.472158 -1.8382753 0.88763303 0 62
-2.4725325 -1.8385537 0.91854209 0 63
-1.7730579 -1.3526005 -0.66481692 0 0
-1.8202608 -1.3886098 -0.65964901 0 1
-1.8824496 -1.4360514 -0.65866274 0 2
-1.9445705 -1.483441 -0.6562233 0 3
-1.9955702 -1.5223469 -0.64874667 0 4
-2.0743973 -1.5824811 -0.64883214 0 5
-2.1468737 -1.6377705 -0.64518905 0 6
-2.2313974 -1.7022506 -0.64336216 0 7
-2.3036032 -1.7573338 -0.63618958 0 8
-2.3881888 -1.821861 -0.63064778 0 9
-2.5012307 -1.9080967 -0.6303454 0 10
-2.5579474 -1.9513636 -0.61391521 0 11
-2.5574422 -1.9509782 -0.58318406 0 12
-2.5611982 -1.9538436 -0.55348778 0 13
-2.5398629 -1.9375676 -0.51867443 0 14
-2.5534523 -1.9479344 -0.49117586 0 15
-2.5369284 -1.9353291 -0.45800409 0 16
-2.5419121 -1.9391308 -0.42893085 0 17
-2.5369339 -1.9353333 -0.39825031 0 18
-2.5404913 -1.9380469 -0.36899489 0 19
-2.5392981 -1.9371368 -0.33908498 0 20
-2.5332949 -1.9325572 -0.30867493 0 21
-2.5487294 -1.9443315 -0.2808198 0 22
-2.5364199 -1.9349409 -0.24991901 0 23
-2.5313821 -1.9310979 -0.21997927 0 24
-2.5332015 -1.9324859 -0.19071029 0 25
-2.5331542 -1.9324498 -0.16131257 0 26
-2.5375938 -1.9358366 -0.132177 0 27
-2.5271158 -1.9278433 -0.10235673 0 28
-2.5357018 -1.9343933 -0.073347941 0 29
-2.5216002 -1.9236356 -0.043759085 0 30
-2.5347989 -1.9337044 -0.014661883 0 31
-2.5321891 -1.9317137 0.014646788 0 32
-2.5203013 -1.9226447 0.043736544 0 33
-2.5224593 -1.924291 0.072964884 0 34
-2.5069363 -1.9124491 0.1015394 0 35
-2.5100577 -1.9148302 0.1307427 0 36
-2.5133662 -1.9173542 0.16005245 0 37
-2.5083241 -1.9135079 0.18883742 0 38
-2.5186648 -1.9213963 0.21887413 0 39
-2.5075767 -1.9129378 0.24707706 0 40
-2.5004053 -1.9074669 0.27549544 0 41
-2.4993098 -1.9066311 0.30453393 0 42
-2.5098348 -1.9146603 0.3351506 0 43
-2.5022094 -1.9088432 0.36343461 0 44
-2.4937282 -1.9023731 0.39146781 0 45
-2.493197 -1.901968 0.4207105 0 46
-2.4970646 -1.9049183 0.45080727 0 47
-2.5090501 -1.9140615 0.48263475 0 48
-2.4882588 -1.8982008 0.50813621 0 49
-2.4997368 -1.9069569 0.54020566 0 50
-2.4937224 -1.9023687 0.56865376 0 51
-2.49821 -1.9057922 0.59957802 0 52
-2.4904621 -1.8998815 0.62763155 0 53
-2.487601 -1.897699 0.65689951 0 54
-2.4853828 -1.8960068 0.68639201 0 55
-2.4886501 -1.8984993 0.71753395 0 56
-2.4841309 -1.8950516 0.74654323 0 57
-2.4780502 -1.8904129 0.77508712 0 58
-2.4901309 -1.8996289 0.80952507 0 59
-2.4855423 -1.8961284 0.83878195 0 60
-2.4781137 -1.8904614 0.86708355 0 61
-2.4836614 -1.8946935 0.90006047 0 62
-2.4714663 -1.8853903 0.92668861 0 63
-1.7534119 -1.3720444 -0.66372639 0 0
-1.8180745 -1.4226429 -0.66514593 0 1
-1.871713 -1.4646151 -0.66115755 0 2
-1.9173249 -1.5003064 -0.65320522 0 3
-1.9856602 -1.5537788 -0.65168697 0 4
-2.0498879 -1.6040368 -0.64728647 0 5
-2.1328509 -1.6689553 -0.64709336 0 6
-2.2068298 -1.726844 -0.64235252 0 7
-2.2818189 -1.7855228 -0.63618881 0 8
-2.3761373 -1.859327 -0.63345492 0 9
-2.4733727 -1.9354136 -0.62927485 0 10
-2.5573742 -2.0011446 -0.61963654 0 11
-2.5607362 -2.0037756 -0.58950925 0 12
-2.5442255 -1.9908559 -0.55506825 0 13
-2.5539162 -1.998439 -0.52652282 0 14
-2.539336 -1.9870298 -0.49312314 0 15
-2.5466437 -1.9927481 -0.46414673 0 16
-2.5326378 -1.9817885 -0.43144536 0 17
-2.5375662 -1.9856449 -0.40215203 0 18
-2.5395091 -1.9871653 -0.37237316 0 19
-2.5431454 -1.9900107 -0.34284043 0 20
-2.5286541 -1.9786713 -0.31105056 0 21
-2.5271578 -1.9775004 -0.28110096 0 22
-2.5344157 -1.9831797 -0.2521053 0 23
-2.5322695 -1.9815004 -0.22215699 0 24
-2.5335944 -1.982537 -0.1925606 0 25
-2.5350034 -1.9836397 -0.16297127 0 26
-2.5246153 -1.975511 -0.13275625 0 27
-2.5296919 -1.9794835 -0.10343914 0 28
-2.5171046 -1.9696339 -0.073505014 0 29
-2.5108981 -1.9647774 -0.043989301 0 30
-2.5203612 -1.9721822 -0.014717532 0 31
-2.5166783 -1.9693004 0.014696027 0 32
-2.5125244 -1.9660498 0.044017792 0 33
-2.5204654 -1.9722636 0.073603153 0 34
-2.5234938 -1.9746333 0.10318569 0 35
-2.5229795 -1.974231 0.13267024 0 36
-2.5160968 -1.9688452 0.1617558 0 37
-2.5068169 -1.9615837 0.19052544 0 38
-2.5162637 -1.9689758 0.22075278 0 39
-2.5131907 -1.9665713 0.24999401 0 40
-2.5059912 -1.9609377 0.27874658 0 41
-2.5146251 -1.9676937 0.30932486 0 42
-2.4997404 -1.9560463 0.33698902 0 43
-2.5018308 -1.9576821 0.36684835 0 44
-2.5024815 -1.9581913 0.39659184 0 45
-2.4896429 -1.948145 0.42412102 0 46
-2.4945848 -1.9520121 0.45465857 0 47
-2.4968352 -1.953773 0.48486978 0 48
-2.4977155 -1.9544618 0.51493627 0 49
-2.4990594 -1.9555136 0.54521453 0 50
-2.4898086 -1.9482746 0.57318091 0 51
-2.4884069 -1.9471779 0.60292619 0 52
-2.4934924 -1.9511572 0.63439369 0 53
-2.4923673 -1.9502769 0.66444069 0 54
-2.493329 -1.9510294 0.69515949 0 55
-2.484591 -1.9441919 0.72320181 0 56
-2.4863591 -1.9455755 0.75434554 0 57
-2.4902382 -1.9486109 0.78633446 0 58
-2.4849186 -1.9444482 0.8155418 0 59
-2.4834273 -1.9432813 0.84606814 0 60
-2.4777267 -1.9388206 0.8752237 0 61
-2.4745631 -1.9363451 0.90532351 0 62
-2.4637332 -1.9278708 0.93260729 0 63
-1.7478938 -1.4027164 -0.66811621 0 0
-1.7946668 -1.4402525 -0.66301131 0 1
-1.8493865 -1.4841661 -0.65966767 0 2
-1.919475 -1.5404134 -0.66034091 0 3
-1.9723799 -1.5828706 -0.65366691 0 4
-2.0457025 -1.6417133 -0.65229005 0 5
-2.1022959 -1.6871305 -0.64406866 0 6
-2.1849208 -1.7534385 -0.64220273 0 7
