# .PCD v0.7 - Point Cloud Data file format
VERSION 0.7
FIELDS x y z intensity ring
SIZE 4 4 4 4 2
TYPE F F F F U
COUNT 1 1 1 1 1
WIDTH 1249
HEIGHT 1
VIEWPOINT 0 0 0 1 0 0 0
POINTS 1249
DATA ascii
-0.18172573 1.5085874 0.020964911 0 33
-0.18232904 1.5135957 0.035061479 0 34
-0.18014801 1.49549 0.048507106 0 35
-0.1811281 1.5036261 0.06271974 0 36
-0.18035974 1.4972476 0.076353818 0 37
-0.18080549 1.500948 0.090489998 0 38
-0.18285058 1.5179253 0.10563432 0 39
-0.18095875 1.5022202 0.11853384 0 40
-0.18275014 1.5170914 0.13385862 0 41
-0.18070512 1.5001147 0.14637627 0 42
-0.18080622 1.500954 0.16050658 0 43
-0.18153381 1.5069941 0.17528501 0 44
-0.18100192 1.5025786 0.18889251 0 45
-0.1806899 1.4999884 0.20269603 0 46
-0.18171038 1.5084599 0.21808486 0 47
-0.18163009 1.5077933 0.23226388 0 48
-0.18277328 1.5172834 0.24813148 0 49
-0.18070142 1.500084 0.25960377 0 50
-0.18080105 1.5009111 0.27408507 0 51
-0.1818784 1.5098547 0.29019004 0 52
-0.18032569 1.4969649 0.30211136 0 53
-0.18105778 1.5030423 0.31784838 0 54
-0.18181035 1.5092897 0.33379677 0 55
-0.18146642 1.5064346 0.34782395 0 56
-0.18116027 1.5038931 0.3619329 0 57
-0.18013069 1.4953462 0.37455255 0 58
-0.1803416 1.4970971 0.38975227 0 59
-0.18222323 1.5127174 0.4088051 0 60
-0.18318431 1.5206956 0.42610103 0 61
-0.18267213 1.5164438 0.44008464 0 62
-0.18288632 1.5182219 0.45587415 0 63
-0.20015453 1.5054388 -0.45274061 0 0
-0.19845003 1.4926187 -0.43384576 0 1
-0.20044029 1.5075881 -0.42308691 0 2
-0.19813538 1.490252 -0.40336186 0 3
-0.2004168 1.5074116 -0.39304939 0 4
-0.19838497 1.4921293 -0.37432954 0 5
-0.20058411 1.50867 -0.36364859 0 6
-0.19928567 1.4989038 -0.34662473 0 7
-0.20081814 1.5104301 -0.33456978 0 8
-0.20185795 1.5182509 -0.32156515 0 9
-0.1991954 1.4982249 -0.30283707 0 10
-0.2002196 1.5059283 -0.28988668 0 11
-0.19907433 1.4973142 -0.27385452 0 12
-0.20053694 1.5083151 -0.26143524 0 13
-0.20130247 1.514073 -0.24799252 0 14
-0.19996855 1.50404 -0.23204695 0 15
-0.20132631 1.5142522 -0.21926361 0 16
-0.20088413 1.5109265 -0.20449245 0 17
-0.20054512 1.5083766 -0.18991703 0 18
-0.20037831 1.507122 -0.1755732 0 19
-0.19968905 1.5019379 -0.16086221 0 20
-0.19864596 1.4940923 -0.14601593 0 21
-0.20123367 1.5135555 -0.13375485 0 22
-0.20048442 1.5079201 -0.11916911 0 23
-0.20009673 1.5050042 -0.10489842 0 24
-0.20018384 1.5056593 -0.090915576 0 25
-0.20023772 1.5060645 -0.076923199 0 26
-0.19802952 1.4894558 -0.062225532 0 27
-0.20090164 1.5110582 -0.049088489 0 28
-0.20177072 1.5175949 -0.035208926 0 29
-0.20065707 1.5092187 -0.021006387 0 30
-0.20121488 1.5134141 -0.007021198 0 31
-0.2019389 1.5188597 0.0070464616 0 32
-0.20143639 1.5150802 0.021087972 0 33
-0.19993721 1.5038043 0.034888979 0 34
-0.20059927 1.5087838 0.049014602 0 35
-0.20081402 1.5103991 0.063100487 0 36
-0.20085484 1.5107062 0.077160269 0 37
-0.19897124 1.4965389 0.090364859 0 38
-0.20210789 1.5201309 0.10595275 0 39
-0.19989108 1.5034573 0.11881642 0 40
-0.20101281 1.5118943 0.13360806 0 41
-0.20128426 1.5139359 0.14795522 0 42
-0.19822574 1.4909316 0.15968341 0 43
-0.20008136 1.5048885 0.17531301 0 44
-0.20097886 1.5116389 0.19032779 0 45
-0.19938432 1.4996458 0.20296569 0 46
-0.20016848 1.5055437 0.21800262 0 47
-0.20088801 1.5109557 0.23311391 0 48
-0.19977443 1.50258 0.24611007 0 49
-0.20034528 1.5068736 0.26118538 0 50
-0.20102935 1.5120187 0.27654395 0 51
-0.20019777 1.5057641 0.28985506 0 52
-0.20051022 1.5081142 0.304836 0 53
-0.20062554 1.5089815 0.31960186 0 54
-0.20029823 1.5065198 0.33370364 0 55
-0.20118681 1.513203 0.34993148 0 56
-0.19933608 1.4992831 0.361386 0 57
-0.20091742 1.5111768 0.37910798 0 58
-0.19985464 1.5031832 0.39194691 0 59
-0.19841495 1.4923549 0.40393105 0 60
-0.19902711 1.4969591 0.420104 0 61
-0.20183478 1.5180767 0.44124541 0 62
-0.20052764 1.5082451 0.45358455 0 63
-0.21951066 1.5087826 -0.45452359 0 0
-0.22041924 1.5150275 -0.44111359 0 1
-0.21915369 1.5063289 -0.4234578 0 2
-0.22161381 1.5232384 -0.41299653 0 3
-0.22069627 1.5169318 -0.39620939 0 4
-0.21997359 1.5119644 -0.37995541 0 5
-0.22200103 1.5258999 -0.36843184 0 6
-0.21631567 1.4868221 -0.34441993 0 7
-0.21812564 1.4992627 -0.33266512 0 8
-0.21630226 1.48673 -0.3154285 0 9
-0.22021602 1.5136309 -0.30647525 0 10
-0.21866429 1.5029651 -0.28981194 0 11
-0.21916591 1.506413 -0.27599072 0 12
-0.21790609 1.4977537 -0.2600494 0 13
-0.21885732 1.5042919 -0.24681257 0 14
-0.22015414 1.5132054 -0.23386098 0 15
-0.21918654 1.5065548 -0.21852277 0 16
-0.22120962 1.5204602 -0.20613532 0 17
-0.2194 1.5080221 -0.19019769 0 18
-0.2192699 1.5071278 -0.17587468 0 19
-0.22071253 1.5170435 -0.16275842 0 20
-0.22001168 1.5122262 -0.14804134 0 21
-0.21846876 1.5016211 -0.13292755 0 22
-0.22015913 1.5132397 -0.1197944 0 23
-0.21692663 1.4910216 -0.10410189 0 24
-0.21773231 1.4965593 -0.090520911 0 25
-0.22004068 1.5124257 -0.077380441 0 26
-0.21962139 1.5095437 -0.063172787 0 27
-0.21862006 1.5026611 -0.048899334 0 28
-0.21865197 1.5028805 -0.034927279 0 29
-0.21904019 1.5055488 -0.020991208 0 30
-0.21868737 1.5031238 -0.006985405 0 31
-0.22054295 1.5158778 0.0070446767 0 32
-0.22087732 1.5181762 0.021167267 0 33
-0.21923141 1.5068631 0.035019841 0 34
-0.22100155 1.51903 0.049432006 0 35
-0.21869092 1.5031482 0.062905148 0 36
-0.21986961 1.5112498 0.077320278 0 37
-0.21921133 1.5067251 0.0911358 0 38
-0.21979715 1.5107517 0.10547943 0 39
-0.22000462 1.5121777 0.11971033 0 40
-0.22003382 1.5123785 0.13387981 0 41
-0.22102977 1.519224 0.14872639 0 42
-0.22072457 1.5171262 0.16276731 0 43
-0.21996224 1.5118865 0.17642999 0 44
-0.22013226 1.5130551 0.19083248 0 45
-0.21777846 1.4968765 0.20293798 0 46
-0.21752688 1.4951473 0.21686813 0 47
-0.21704023 1.4918022 0.23055319 0 48
-0.21951498 1.5088123 0.24755424 0 49
-0.21788043 1.4975774 0.2600188 0 50
-0.21741098 1.4943507 0.27378079 0 51
-0.21865299 1.5028875 0.28979698 0 52
-0.22002032 1.5122857 0.30620289 0 53
-0.21963674 1.5096492 0.32029107 0 54
-0.21900496 1.5053067 0.33400619 0 55
-0.21734332 1.4938855 0.34605613 0 56
-0.21828836 1.5003812 0.3622703 0 57
-0.22030553 1.5142461 0.38052878 0 58
-0.2204513 1.5152479 0.3957696 0 59
-0.22113167 1.5199244 0.41209802 0 60
-0.21891773 1.5047071 0.42300186 0 61
-0.21850264 1.5018541 0.437278 0 62
-0.21863405 1.5027573 0.45270845 0 63
-0.23786937 1.5048561 -0.45418751 0 0
-0.23707888 1.499855 -0.43751171 0 1
-0.2386563 1.5098345 -0.42523611 0 2
-0.23646876 1.4959953 -0.40636775 0 3
-0.2368238 1.4982414 -0.39205861 0 4
-0.23917744 1.5131314 -0.38095894 0 5
-0.23682551 1.4982522 -0.36243197 0 6
-0.23881133 1.5108153 -0.35063162 0 7
-0.23726274 1.5010183 -0.33367679 0 8
-0.23741949 1.50201 -0.3192656 0 9
-0.23842242 1.5083549 -0.30597746 0 10
-0.23792323 1.5051968 -0.29078445 0 11
-0.2376411 1.503412 -0.27595541 0 12
-0.23835266 1.5079136 -0.26230246 0 13
-0.23857912 1.5093464 -0.24810445 0 14
-0.23718117 1.5005022 -0.23233093 0 15
-0.23669668 1.4974372 -0.21760599 0 16
-0.23833141 1.5077791 -0.20479794 0 17
-0.23861155 1.5095514 -0.19074622 0 18
-0.23746835 1.502319 -0.175641 0 19
-0.23669136 1.4974035 -0.16095142 0 20
-0.23960114 1.5158119 -0.14866954 0 21
-0.23875348 1.5104493 -0.1339588 0 22
-0.23748147 1.5024022 -0.11915862 0 23
-0.23759897 1.5031455 -0.1051444 0 24
-0.23823202 1.5071503 -0.09133181 0 25
-0.2379005 1.505053 -0.077147067 0 26
-0.23854063 1.5091027 -0.063272312 0 27
-0.23902801 1.5121862 -0.049301215 0 28
-0.23935291 1.5142416 -0.035257049 0 29
-0.23991536 1.5177999 -0.021201549 0 30
-0.23707432 1.4998262 -0.0069831004 0 31
-0.23668864 1.4973863 0.0069717402 0 32
-0.23755765 1.502884 0.020993195 0 33
-0.23624238 1.4945631 0.034798864 0 34
-0.23701803 1.4994702 0.048886642 0 35
-0.23824064 1.5072049 0.06319274 0 36
-0.2374678 1.5023155 0.07700675 0 37
-0.23736851 1.5016874 0.091000758 0 38
-0.23651807 1.4963073 0.10466608 0 39
-0.23754627 1.502812 0.11919113 0 40
-0.23824117 1.5072082 0.13367136 0 41
-0.23741716 1.5019952 0.14731441 0 42
-0.23868185 1.5099962 0.16230497 0 43
-0.2389902 1.5119469 0.17676663 0 44
-0.23643345 1.4957719 0.18900505 0 45
-0.23815462 1.5066607 0.20464602 0 46
-0.23614861 1.4939699 0.21710213 0 47
-0.23981799 1.5171838 0.23491383 0 48
-0.23695803 1.4990906 0.24641863 0 49
-0.23713042 1.5001812 0.26095742 0 50
-0.23590478 1.4924273 0.27393913 0 51
-0.23768163 1.5036683 0.29048917 0 52
-0.23878187 1.5106289 0.30643877 0 53
-0.23631005 1.4949912 0.3177737 0 54
-0.23852427 1.5089993 0.33545095 0 55
-0.23827803 1.5074414 0.3498486 0 56
-0.23666213 1.4972186 0.36218196 0 57
-0.23685573 1.4984434 0.37726095 0 58
-0.23760775 1.5032009 0.39335641 0 59
-0.23879397 1.5107055 0.41036358 0 60
-0.23953509 1.5153941 0.42680195 0 61
-0.23699205 1.4993058 0.4373515 0 62
-0.23897064 1.5118232 0.4562903 0 63
-0.25731859 1.5074661 -0.45589578 0 0
-0.25621536 1.5010029 -0.43873242 0 1
-0.25584608 1.4988396 -0.42299357 0 2
-0.2571044 1.5062114 -0.40997061 0 3
-0.25763115 1.5092973 -0.39575079 0 4
-0.25673696 1.5040587 -0.37944087 0 5
-0.25610632 1.5003642 -0.3636772 0 6
-0.25698277 1.5054988 -0.35010466 0 7
-0.25817496 1.512483 -0.33690563 0 8
-0.25863868 1.5151997 -0.3227208 0 9
-0.25769937 1.509697 -0.30686933 0 10
-0.25555888 1.4971571 -0.28981644 0 11
-0.25803781 1.5116795 -0.27803433 0 12
-0.25658175 1.5031494 -0.26200277 0 13
-0.2581712 1.5124611 -0.24911945 0 14
-0.25663877 1.5034834 -0.23326349 0 15
-0.25497743 1.4937508 -0.21750948 0 16
-0.25701004 1.5056586 -0.20492367 0 17
-0.25461644 1.4916359 -0.18886377 0 18
-0.25574774 1.4982635 -0.17552125 0 19
-0.25578979 1.4985098 -0.16139621 0 20
-0.25406793 1.4884225 -0.14627858 0 21
-0.25425363 1.4895104 -0.13236904 0 22
-0.25628197 1.5013932 -0.11931952 0 23
-0.2551327 1.4946605 -0.10476241 0 24
-0.25683823 1.504652 -0.09136489 0 25
-0.25711599 1.5062792 -0.077366136 0 26
-0.2588577 1.5164827 -0.063710369 0 27
-0.25836527 1.513598 -0.049447086 0 28
-0.25722009 1.5068891 -0.035156846 0 29
-0.25638211 1.5019798 -0.021023013 0 30
-0.25946167 1.5200211 -0.0070914449 0 31
-0.25667298 1.5036839 0.0070152259 0 32
-0.25698566 1.5055157 0.021072503 0 33
-0.25398242 1.4879217 0.034714323 0 34
-0.25685933 1.5047756 0.049158871 0 35
-0.25984803 1.5222846 0.063954115 0 36
-0.25779748 1.5102717 0.077571198 0 37
-0.25504982 1.4941748 0.0907287 0 38
-0.25711951 1.5062999 0.10557823 0 39
-0.25637928 1.5019633 0.11936483 0 40
-0.25691393 1.5050955 0.13375404 0 41
-0.25743306 1.5081367 0.14821604 0 42
-0.25906289 1.5176849 0.16346145 0 43
-0.25591961 1.4992704 0.17563921 0 44
-0.25593463 1.4993583 0.18984154 0 45
-0.25682014 1.504546 0.20477225 0 46
-0.25698015 1.5054835 0.2192179 0 47
-0.25518936 1.4949924 0.23194613 0 48
-0.25666174 1.503618 0.24766292 0 49
-0.25802681 1.5116152 0.26347837 0 50
-0.25873354 1.5157554 0.27878398 0 51
-0.25589371 1.4991187 0.29019615 0 52
-0.25827342 1.51306 0.3075529 0 53
-0.25709042 1.5061294 0.32078892 0 54
-0.25706062 1.5059549 0.33545148 0 55
-0.25575373 1.4982986 0.34843025 0 56
-0.25433496 1.4899869 0.36116183 0 57
-0.25663731 1.503475 0.37929359 0 58
-0.25864789 1.5152537 0.39731261 0 59
-0.25792739 1.5110326 0.4112829 0 60
-0.25563169 1.4975836 0.42263907 0 61
-0.25635788 1.501838 0.43897647 0 62
-0.25815263 1.5123522 0.45737347 0 63
-0.27591315 1.5046186 -0.4560262 0 0
-0.27728003 1.5120726 -0.44293109 0 1
-0.27708077 1.510986 -0.42735064 0 2
-0.27640742 1.507314 -0.41116473 0 3
-0.274142 1.49496 -0.3928456 0 4
-0.27624872 1.5064485 -0.38087192 0 5
-0.276795 1.5094274 -0.36667135 0 6
-0.27589408 1.5045146 -0.35063821 0 7
-0.27772152 1.51448 -0.33808559 0 8
-0.27559823 1.5029011 -0.3207989 0 9
-0.27797204 1.5158463 -0.30879068 0 10
-0.27690721 1.5100393 -0.29294714 0 11
-0.27296805 1.4885583 -0.27437836 0 12
-0.27689132 1.5099528 -0.26376212 0 13
-0.27564508 1.5031567 -0.24812645 0 14
-0.27585232 1.5042868 -0.23389673 0 15
-0.27546602 1.5021802 -0.21921356 0 16
-0.277051 1.5108236 -0.20607473 0 17
-0.27635857 1.5070477 -0.19123094 0 18
-0.275179 1.5006151 -0.17617983 0 19
-0.27466065 1.4977884 -0.16167004 0 20
-0.27570742 1.5034968 -0.14808202 0 21
-0.27595931 1.5048702 -0.13402545 0 22
-0.2761628 1.50598 -0.11994485 0 23
-0.27520323 1.5007472 -0.10541826 0 24
-0.27664417 1.5086049 -0.091804534 0 25
-0.27488089 1.4989893 -0.077159487 0 26
-0.27480951 1.4986001 -0.063096285 0 27
-0.27527165 1.5011203 -0.049146321 0 28
-0.27435115 1.4961005 -0.034981202 0 29
-0.27386713 1.4934611 -0.02094933 0 30
-0.27499577 1.4996159 -0.0070114932 0 31
-0.27867016 1.5196532 0.0071051782 0 32
-0.27368015 1.4924415 0.020935027 0 33
-0.27685106 1.5097332 0.035299957 0 34
-0.27825332 1.5173801 0.049678661 0 35
-0.27695709 1.5103115 0.063589372 0 36
-0.27573016 1.5036206 0.077397875 0 37
-0.27500597 1.4996716 0.091260903 0 38
-0.27320507 1.4898509 0.10465286 0 39
-0.27609813 1.5056274 0.11991677 0 40
-0.27665997 1.5086911 0.13436574 0 41
-0.27792078 1.5155666 0.1492708 0 42
-0.27729368 1.5121468 0.16321988 0 43
-0.27720496 1.5116631 0.17747691 0 44
-0.27718261 1.5115412 0.19180113 0 45
-0.27588484 1.5044641 0.2052073 0 46
-0.27606368 1.5054394 0.21968918 0 47
-0.27470371 1.4980233 0.23292284 0 48
-0.27368903 1.4924899 0.24636568 0 49
-0.27434078 1.4960442 0.26133251 0 50
-0.27535552 1.5015777 0.27677819 0 51
-0.27754289 1.5135058 0.29361963 0 52
-0.27659947 1.5083612 0.30726594 0 53
-0.27563748 1.5031152 0.32084459 0 54
-0.27686384 1.5098029 0.3370415 0 55
-0.27436313 1.4961659 0.34869248 0 56
-0.27517134 1.5005734 0.36452049 0 57
-0.27476051 1.4983329 0.37882006 0 58
-0.27657929 1.5082512 0.39633828 0 59
-0.2775681 1.5136435 0.4128913 0 60
-0.27696627 1.5103614 0.427174 0 61
-0.27671283 1.5089793 0.44202501 0 62
-0.27496624 1.4994549 0.45446113 0 63
-0.29633632 1.5110244 -0.45903739 0 0
-0.29503551 1.5043916 -0.44171041 0 1
-0.29373455 1.497758 -0.42459884 0 2
-0.29723135 1.5155883 -0.41438746 0 3
-0.29596713 1.5091419 -0.39749864 0 4
-0.29651043 1.5119122 -0.38314614 0 5
-0.29643673 1.5115365 -0.36804134 0 6
-0.29838365 1.5214638 -0.3554166 0 7
-0.29605362 1.5095829 -0.33777952 0 8
-0.29430065 1.5006444 -0.3210654 0 9
-0.29538131 1.5061548 -0.30753312 0 10
-0.29347947 1.4964573 -0.29099035 0 11
-0.29523045 1.5053855 -0.27812818 0 12
-0.29619768 1.5103174 -0.26444206 0 13
-0.29207882 1.4893154 -0.24641588 0 14
-0.29362169 1.4971824 -0.23333584 0 15
-0.29360735 1.4971093 -0.21898386 0 16
-0.29562211 1.5073828 -0.20608564 0 17
-0.29505181 1.5044746 -0.19135036 0 18
-0.2924315 1.4911137 -0.17547321 0 19
-0.29362696 1.4972094 -0.16198502 0 20
-0.29507896 1.5046132 -0.14853811 0 21
-0.29384336 1.4983128 -0.13375312 0 22
-0.29535955 1.5060438 -0.12023011 0 23
-0.29665637 1.5126565 -0.10650299 0 24
-0.2940166 1.4991962 -0.091445066 0 25
-0.29772934 1.5181274 -0.078327134 0 26
-0.29262173 1.4920838 -0.062968656 0 27
-0.29739222 1.5164086 -0.049762815 0 28
-0.29395914 1.4989032 -0.035128593 0 29
-0.29667777 1.5127655 -0.021269685 0 30
-0.29552707 1.5068982 -0.0070619979 0 31
-0.2936185 1.4971663 0.0070163901 0 32
-0.2936675 1.4974161 0.021053869 0 33
-0.29332611 1.4956752 0.035052944 0 34
-0.29797763 1.5193934 0.049860768 0 35
-0.29489401 1.5036701 0.063457623 0 36
-0.29501823 1.5043033 0.077613883 0 37
-0.29291078 1.4935576 0.09110114 0 38
-0.29831392 1.5211083 0.10709807 0 39
-0.29312813 1.4946657 0.11932178 0 40
-0.29405603 1.4993973 0.13384993 0 41
-0.29601312 1.5093764 0.14900835 0 42
-0.29243991 1.4911565 0.16133015 0 43
-0.29405326 1.4993831 0.17644636 0 44
-0.29525238 1.5054975 0.19148043 0 45
-0.29589149 1.5087563 0.20627342 0 46
-0.29225379 1.4902076 0.21797433 0 47
-0.29527196 1.5055972 0.23464727 0 48
-0.29413262 1.4997877 0.24814859 0 49
-0.29519919 1.5052261 0.26355061 0 50
-0.29380214 1.4981027 0.27678263 0 51
-0.29535201 1.5060054 0.29284698 0 52
-0.29409617 1.4996018 0.30619511 0 53
-0.29452217 1.5017741 0.32130706 0 54
-0.29739439 1.5164195 0.33930928 0 55
-0.29618889 1.5102726 0.35280231 0 56
-0.29389751 1.4985888 0.36488873 0 57
-0.29505438 1.5044878 0.38126466 0 58
-0.29276401 1.4928092 0.39319667 0 59
-0.29581958 1.5083896 0.41241923 0 60
-0.29633591 1.5110224 0.42835915 0 61
-0.2927362 1.4926673 0.43826804 0 62
-0.29325372 1.4953063 0.45426235 0 63
-0.31342813 1.5002558 -0.4569023 0 0
-0.3111003 1.4891136 -0.43831465 0 1
-0.31493178 1.5074532 -0.4284128 0 2
-0.31412831 1.5036073 -0.41213664 0 3
-0.31349677 1.5005844 -0.39623004 0 4
-0.3113713 1.4904106 -0.37863889 0 5
-0.31251469 1.4958836 -0.36513811 0 6
-0.31205732 1.4936944 -0.34979954 0 7
-0.31660092 1.5154427 -0.33993611 0 8
-0.3162623 1.513822 -0.32469222 0 9
-0.3136721 1.5014237 -0.30733141 0 10
-0.31437075 1.5047679 -0.29333586 0 11
-0.31499377 1.5077499 -0.27925953 0 12
-0.31210014 1.4938993 -0.26221952 0 13
-0.31490245 1.5073129 -0.25001547 0 14
-0.31199315 1.4933872 -0.23332463 0 15
-0.31490085 1.5073051 -0.22102489 0 16
-0.3145712 1.5057274 -0.20637256 0 17
-0.31344664 1.5003445 -0.19130081 0 18
-0.31474361 1.5065526 -0.17773207 0 19
-0.31649604 1.5149407 -0.16431203 0 20
-0.312608 1.4963303 -0.14808869 0 21
-0.31464761 1.5060931 -0.13478287 0 22
-0.3115117 1.4910827 -0.11933251 0 23
-0.31411913 1.5035634 -0.10612671 0 24
-0.31391725 1.5025971 -0.091881014 0 25
-0.3139919 1.5029545 -0.077737622 0 26
-0.31442493 1.5050272 -0.063673243 0 27
-0.31362304 1.5011889 -0.049386185 0 28
-0.31545323 1.5099492 -0.035475697 0 29
-0.3139486 1.5027472 -0.021181503 0 30
-0.31180134 1.4924692 -0.0070118154 0 31
-0.31441033 1.5049573 0.0070704864 0 32
-0.3155815 1.5105631 0.021291671 0 33
-0.31347004 1.5004566 0.035252672 0 34
-0.31420663 1.5039823 0.049478084 0 35
-0.31328139 1.4995534 0.063441671 0 36
-0.31503353 1.5079403 0.077995501 0 37
-0.31741339 1.5193317 0.092904307 0 38
-0.31565756 1.5109273 0.10664648 0 39
-0.31635535 1.5142673 0.12118799 0 40
-0.31474134 1.5065417 0.13482301 0 41
-0.31386647 1.502354 0.14868486 0 42
-0.31366464 1.5013881 0.16284209 0 43
-0.31109267 1.489077 0.17567043 0 44
-0.31570297 1.5111446 0.19267787 0 45
-0.31475723 1.5066178 0.2064946 0 46
-0.31335852 1.4999228 0.21994236 0 47
-0.31402746 1.5031247 0.234846 0 48
-0.31563103 1.5108002 0.2505939 0 49
-0.31380388 1.5020545 0.26365095 0 50
-0.31046507 1.4860728 0.27524456 0 51
-0.3154532 1.5099491 0.29434586 0 52
-0.31451026 1.5054356 0.30815265 0 53
-0.31438878 1.5048541 0.32276875 0 54
-0.31481111 1.5068756 0.33801439 0 55
-0.31170535 1.4920096 0.34940499 0 56
-0.31438085 1.5048163 0.36731854 0 57
-0.31651306 1.5150223 0.38489148 0 58
-0.31420252 1.5039625 0.39712203 0 59
-0.31576011 1.5114181 0.41427755 0 60
-0.31629679 1.5139871 0.43026966 0 61
-0.31520212 1.5087472 0.44409373 0 62
-0.31398815 1.5029365 0.4577187 0 63
-0.3315402 1.4948878 -0.45647454 0 0
-0.33458826 1.5086313 -0.44523698 0 1
-0.33305758 1.5017296 -0.42791769 0 2
-0.33207363 1.497293 -0.41149402 0 3
-0.33391428 1.5055923 -0.39860645 0 4
-0.33104095 1.4926367 -0.38020983 0 5
-0.33447558 1.5081232 -0.36910176 0 6
-0.33278811 1.5005145 -0.35232836 0 7
-0.33240563 1.4987899 -0.33709201 0 8
-0.33435264 1.5075688 -0.32420835 0 9
-0.33221504 1.4979306 -0.30742937 0 10
-0.33559614 1.5131757 -0.29575694 0 11
-0.33088496 1.4919333 -0.27706268 0 12
-0.33656335 1.5175368 -0.26707476 0 13
-0.33198878 1.4969105 -0.24894831 0 14
-0.33351243 1.5037805 -0.23557138 0 15
-0.32866529 1.481925 -0.2178794 0 16
-0.33414048 1.5066123 -0.20704134 0 17
-0.32980081 1.487045 -0.19010778 0 18
-0.33276579 1.5004139 -0.17747718 0 19
-0.33462995 1.5088192 -0.16408198 0 20
-0.33547789 1.5126426 -0.15010001 0 21
-0.3355802 1.5131038 -0.13576929 0 22
-0.33377695 1.5049732 -0.12076351 0 23
-0.33208963 1.4973651 -0.10596943 0 24
-0.33468685 1.5090758 -0.092521831 0 25
-0.33344692 1.503485 -0.077971242 0 26
-0.3318997 1.4965087 -0.06348072 0 27
-0.33338729 1.5032161 -0.049583994 0 28
-0.33564752 1.5134073 -0.035651218 0 29
-0.33340335 1.5032886 -0.021245314 0 30
-0.33252764 1.4993401 -0.0070627723 0 31
-0.33242023 1.4988558 0.007060491 0 32
-0.33368906 1.5045768 0.021263521 0 33
-0.33534139 1.5120271 0.035618704 0 34
-0.33527133 1.5117111 0.049864206 0 35
-0.33151215 1.4947613 0.063406594 0 36
-0.33497858 1.5103912 0.078329399 0 37
-0.33478037 1.5094975 0.092547692 0 38
-0.33360896 1.5042156 0.10645424 0 39
-0.33320904 1.5024124 0.12055804 0 40
-0.32908979 1.4838392 0.1331434 0 41
-0.33381876 1.5051616 0.14935768 0 42
-0.33414084 1.5066139 0.16384216 0 43
-0.33329055 1.50278 0.17775705 0 44
-0.33656579 1.5175477 0.19400732 0 45
-0.33442944 1.5079151 0.20722038 0 46
-0.33393332 1.5056782 0.2213717 0 47
-0.33257127 1.4995369 0.2349066 0 48
-0.33316955 1.5022345 0.24983375 0 49
-0.33149514 1.4946846 0.26305297 0 50
-0.331646 1.4953648 0.27769995 0 51
-0.33103505 1.4926101 0.29173729 0 52
-0.33240837 1.4988023 0.30760828 0 53
-0.33302137 1.5015663 0.32291746 0 54
-0.33496532 1.5103314 0.33968782 0 55
-0.33242533 1.4988788 0.3519443 0 56
-0.3347865 1.5095251 0.36944488 0 57
-0.33272302 1.500221 0.38214177 0 58
-0.3318502 1.4962856 0.39614245 0 59
-0.33262095 1.4997607 0.41217223 0 60
-0.33454284 1.5084265 0.42982599 0 61
-0.33534762 1.5120552 0.44624746 0 62
-0.33191442 1.4965752 0.45698977 0 63
-0.35202256 1.4997602 -0.45924938 0 0
-0.35516921 1.5131662 -0.44783038 0 1
-0.35385662 1.5075738 -0.43079033 0 2
-0.35396031 1.5080156 -0.41560563 0 3
-0.35350347 1.5060693 -0.39985332 0 4
-0.35493362 1.5121624 -0.38626602 0 5
-0.35344005 1.5057992 -0.36956871 0 6
-0.35004398 1.4913305 -0.35115606 0 7
-0.35189563 1.4992193 -0.33813623 0 8
-0.35155675 1.4977756 -0.32300749 0 9
-0.3515791 1.4978707 -0.30828103 0 10
-0.35264662 1.5024189 -0.29447976 0 11
-0.34885463 1.4862634 -0.27678543 0 12
-0.35307139 1.5042285 -0.26547661 0 13
-0.35378927 1.507287 -0.25137854 0 14
-0.35374668 1.5071055 -0.23675577 0 15
-0.35405329 1.5084118 -0.22239688 0 16
-0.3529599 1.5037537 -0.20722926 0 17
-0.3489219 1.48655 -0.19057858 0 18
-0.34861708 1.4852514 -0.17617741 0 19
-0.35096845 1.4952692 -0.16306542 0 20
-0.35101041 1.495448 -0.14881083 0 21
-0.35215682 1.5003321 -0.13500164 0 22
-0.35216296 1.5003582 -0.12073155 0 23
-0.35085335 1.4947788 -0.10608369 0 24
-0.35013106 1.4917016 -0.091713652 0 25
-0.35678786 1.5200622 -0.079052486 0 26
-0.35288113 1.503418 -0.063953035 0 27
-0.35369727 1.5068951 -0.049845036 0 28
-0.35546064 1.5144078 -0.035775047 0 29
-0.35294855 1.5037051 -0.021310925 0 30
-0.34745303 1.480292 -0.0069926418 0 31
-0.3553507 1.5139394 0.007151586 0 32
-0.35148731 1.4974798 0.021222698 0 33
-0.35155389 1.4977633 0.03538185 0 34
-0.353297 1.5051897 0.049788624 0 35
-0.34975705 1.490108 0.06338685 0 36
-0.3530238 1.5040258 0.078218497 0 37
-0.35057771 1.4936044 0.091830641 0 38
-0.34979135 1.4902543 0.10576259 0 39
-0.3535133 1.5061113 0.12119449 0 40
-0.35313505 1.5044998 0.13537665 0 41
-0.3558965 1.5162647 0.15088229 0 42
-0.35240364 1.5013837 0.16373223 0 43
-0.35229486 1.5009202 0.17803602 0 44
-0.35233638 1.5010971 0.19244355 0 45
-0.35082653 1.4946645 0.20597671 0 46
-0.35423955 1.5092053 0.22251388 0 47
-0.35317266 1.5046599 0.23637159 0 48
-0.35530129 1.5137289 0.25245285 0 49
-0.35400847 1.5082208 0.26618123 0 50
-0.35211712 1.500163 0.27937394 0 51
-0.35188299 1.4991655 0.29384208 0 52
-0.35520488 1.5133181 0.31146029 0 53
-0.35146099 1.4973676 0.32291952 0 54
-0.35102201 1.4954972 0.33729675 0 55
-0.35133258 1.4968204 0.35244873 0 56
-0.35441953 1.5099722 0.37059289 0 57
-0.35195792 1.4994848 0.38302764 0 58
-0.35337472 1.5055208 0.3997077 0 59
-0.35453916 1.5104818 0.41628531 0 60
-0.35335761 1.505448 0.43018284 0 61
-0.35438544 1.5098269 0.44684213 0 62
-0.3532958 1.5051847 0.46091044 0 63
-0.37293696 1.5054127 -0.46234956 0 0
-0.36984307 1.4929236 -0.44315195 0 1
-0.37436914 1.5111939 -0.43310744 0 2
-0.37281662 1.5049269 -0.41598636 0 3
-0.37031251 1.4948187 -0.39804521 0 4
-0.37775758 1.5248717 -0.39066949 0 5
-0.37158683 1.4999626 -0.36922973 0 6
-0.37028551 1.4947096 -0.35299715 0 7
-0.37384552 1.5090802 -0.34137127 0 8
-0.3705118 1.4956231 -0.32350138 0 9
-0.37499008 1.5137004 -0.31246436 0 10
-0.3722274 1.5025483 -0.29537994 0 11
-0.37234756 1.5030334 -0.28073993 0 12
-0.37121013 1.4984421 -0.26524094 0 13
-0.37237743 1.5031539 -0.25143388 0 14
-0.37159196 1.4999833 -0.23633686 0 15
-0.37146077 1.4994538 -0.22173281 0 16
-0.37550384 1.5157741 -0.20950626 0 17
-0.37452161 1.5118093 -0.19439259 0 18
-0.37149665 1.4995986 -0.17840762 0 19
-0.37368444 1.5084299 -0.16498929 0 20
-0.37263116 1.5041782 -0.15012418 0 21
-0.372852 1.5050697 -0.13583021 0 22
-0.37342978 1.5074019 -0.12165865 0 23
-0.37227079 1.5027236 -0.10696432 0 24
-0.37358993 1.5080484 -0.092994109 0 25
-0.36908534 1.4898651 -0.077712201 0 26
-0.37315434 1.5062902 -0.064265542 0 27
-0.37207344 1.5019269 -0.049828272 0 28
-0.3745248 1.5118222 -0.035820052 0 29
-0.37414032 1.5102702 -0.021467546 0 30
-0.37096545 1.4974544 -0.0070947255 0 31
-0.37177816 1.500735 0.0071102683 0 32
-0.37321502 1.5065351 0.021414453 0 33
-0.37165794 1.5002496 0.035545859 0 34
-0.37316722 1.5063421 0.049974751 0 35
-0.37133995 1.498966 0.063953057 0 36
-0.37012818 1.4940746 0.077931777 0 37
-0.37365654 1.5083174 0.093010686 0 38
-0.3724491 1.5034434 0.10701555 0 39
-0.37415978 1.5103487 0.12189648 0 40
-0.37165201 1.5002258 0.13539305 0 41
-0.37282783 1.5049721 0.15020342 0 42
-0.37146556 1.4994731 0.16400962 0 43
-0.37380925 1.5089338 0.17951824 0 44
-0.37382343 1.508991 0.1940302 0 45
-0.37192667 1.5013344 0.20751044 0 46
-0.37093577 1.4973345 0.22141942 0 47
-0.37637147 1.5192765 0.23937669 0 48
-0.37232846 1.5029563 0.2514008 0 49
-0.37205684 1.5018599 0.26584592 0 50
-0.37089419 1.4971668 0.27964413 0 51
-0.37497327 1.5136324 0.2975589 0 52
-0.37526721 1.514819 0.31269529 0 53
-0.37224418 1.5026162 0.32501397 0 54
-0.37246111 1.5034918 0.34010711 0 55
-0.37223959 1.5025977 0.35486001 0 56
-0.37040514 1.4951925 0.36805555 0 57
-0.37427881 1.5108292 0.38707182 0 58
-0.37542215 1.5154445 0.40353751 0 59
-0.3728441 1.5050378 0.416017 0 60
-0.3739194 1.5093784 0.43258715 0 61
-0.36925051 1.4905317 0.44244191 0 62
-0.37118924 1.4983577 0.46018279 0 63
-0.3909215 1.4988074 -0.46176237 0 0
-0.39319274 1.5075153 -0.44888449 0 1
-0.39437839 1.5120612 -0.43471301 0 2
-0.39086607 1.4985949 -0.41553319 0 3
-0.39286777 1.5062695 -0.40235031 0 4
-0.39203557 1.5030787 -0.38629201 0 5
-0.39133739 1.5004019 -0.3704944 0 6
-0.39157763 1.5013229 -0.35566923 0 7
-0.38757733 1.4859856 -0.33719963 0 8
-0.38725051 1.4847326 -0.32215139 0 9
-0.39291781 1.5064614 -0.3119438 0 10
-0.39044935 1.496997 -0.29521015 0 11
-0.39342719 1.5084143 -0.28262722 0 12
-0.39170465 1.50181 -0.26666951 0 13
-0.39113566 1.4996284 -0.25162962 0 14
-0.39344516 1.5084832 -0.23842034 0 15
-0.38909242 1.4917946 -0.22129099 0 16
-0.39564613 1.5169218 -0.21032141 0 17
-0.39289013 1.5063552 -0.19429779 0 18
-0.39112678 1.4995944 -0.17896578 0 19
-0.39321303 1.5075932 -0.16541412 0 20
-0.38824862 1.4885595 -0.14903057 0 21
-0.39524812 1.5153958 -0.13719037 0 22
-0.3917805 1.5021007 -0.12161043 0 23
-0.39378875 1.5098006 -0.10780457 0 24
-0.39245683 1.5046939 -0.093077794 0 25
-0.38798532 1.4875499 -0.077834412 0 26
-0.39298752 1.5067285 -0.064485542 0 27
-0.39234394 1.504261 -0.050061978 0 28
-0.39084721 1.4985225 -0.035616115 0 29
-0.39428312 1.5116959 -0.021555098 0 30
-0.38973448 1.4942563 -0.0071017416 0 31
-0.39087906 1.4986447 0.0071225986 0 32
-0.39296928 1.5066586 0.02148327 0 33
-0.39415371 1.5111997 0.035917424 0 34
-0.39254805 1.5050436 0.050088026 0 35
-0.39131069 1.5002996 0.064210393 0 36
-0.39272714 1.5057302 0.078785673 0 37
-0.38980874 1.494541 0.092449762 0 38
-0.3929013 1.5063981 0.10756163 0 39
-0.39095798 1.4989473 0.12135511 0 40
-0.39029345 1.4963994 0.13547061 0 41
-0.39272618 1.5057266 0.1507493 0 42
-0.39232519 1.5041891 0.16504063 0 43
-0.39197421 1.5028434 0.17935354 0 44
-0.39247298 1.5047559 0.1940915 0 45
-0.38859838 1.4899005 0.2065749 0 46
-0.39326912 1.5078082 0.22366641 0 47
-0.39143831 1.5007888 0.23720422 0 48
-0.38786048 1.4870713 0.24952261 0 49
-0.38881853 1.4907446 0.26470467 0 50
-0.39153495 1.5011593 0.28126788 0 51
-0.38771218 1.4865028 0.29314065 0 52
-0.38983417 1.4946384 0.30949563 0 53
-0.39248618 1.5048064 0.32650694 0 54
-0.39054149 1.4973505 0.33977851 0 55
-0.39445761 1.5123649 0.35828513 0 56
-0.39547265 1.5162566 0.37440941 0 57
-0.39735606 1.5234777 0.39153454 0 58
-0.39043915 1.496958 0.39986306 0 59
-0.39415386 1.5112003 0.41902846 0 60
-0.39090332 1.4987377 0.43088254 0 61
-0.38993049 1.4950079 0.44516018 0 62
-0.39108151 1.4994209 0.46195135 0 63
-0.41058117 1.4984882 -0.46318445 0 0
-0.41424051 1.5118436 -0.45165583 0 1
-0.41245618 1.5053313 -0.43420348 0 2
-0.41393274 1.5107203 -0.42027491 0 3
-0.41295001 1.5071337 -0.403907 0 4
-0.40940508 1.4941958 -0.38527375 0 5
-0.41139174 1.5014465 -0.37197337 0 6
-0.41258293 1.5057939 -0.35790327 0 7
-0.41441604 1.5124842 -0.34434298 0 8
-0.40773761 1.4881101 -0.32394761 0 9
-0.41119549 1.5007302 -0.31178048 0 10
-0.41485855 1.5140991 -0.29956603 0 11
-0.41375664 1.5100775 -0.2838707 0 12
-0.41364408 1.5096667 -0.26894742 0 13
-0.41337872 1.5086982 -0.25398523 0 14
-0.41214401 1.504192 -0.23852508 0 15
-0.41480508 1.5139041 -0.22531027 0 16
-0.4142592 1.5119117 -0.21031715 0 17
-0.40928563 1.4937599 -0.19330773 0 18
-0.40817305 1.4896994 -0.17837039 0 19
-0.40910429 1.493098 -0.16436324 0 20
-0.41152546 1.5019345 -0.15086485 0 21
-0.41311473 1.5077348 -0.13694635 0 22
-0.41353184 1.5092571 -0.12259221 0 23
-0.41146237 1.5017042 -0.1075796 0 24
-0.41370565 1.5098915 -0.093706906 0 25
-0.41021821 1.4971634 -0.078595422 0 26
-0.41529903 1.5157068 -0.065083429 0 27
-0.40982723 1.4957365 -0.049942221 0 28
-0.41530403 1.515725 -0.03614362 0 29
-0.41409409 1.5113091 -0.021620553 0 30
-0.4104661 1.4980682 -0.007143307 0 31
-0.40701935 1.4854887 0.0070833233 0 32
-0.4118973 1.5032916 0.021505855 0 33
-0.41366103 1.5097287 0.036000632 0 34
-0.41058245 1.4984927 0.050034251 0 35
-0.41469899 1.5135169 0.064989403 0 36
-0.41272599 1.5063161 0.079075895 0 37
-0.41227445 1.504668 0.093382731 0 38
-0.41476104 1.5137433 0.10844207 0 39
-0.41268662 1.5061723 0.12234165 0 40
-0.41274384 1.5063812 0.1368234 0 41
-0.41402775 1.511067 0.1517822 0 42
-0.41604367 1.5184245 0.16715123 0 43
-0.41105926 1.5002331 0.17963165 0 44
-0.41234529 1.5049266 0.19475281 0 45
-0.41472685 1.5136185 0.21055457 0 46
-0.4111661 1.500623 0.22333367 0 47
-0.40910265 1.4930921 0.23676492 0 48
-0.40924239 1.493602 0.2514438 0 49
-0.409374 1.4940823 0.26617107 0 50
-0.40973133 1.4953865 0.28110901 0 51
-0.41423038 1.5118065 0.29911244 0 52
-0.41109556 1.5003655 0.31170473 0 53
-0.41210982 1.5040672 0.32742131 0 54
-0.41018739 1.497051 0.34082934 0 55
-0.41258949 1.5058179 0.35790893 0 56
-0.41109246 1.5003542 0.37170276 0 57
-0.40704793 1.485593 0.38305554 0 58
-0.40853792 1.4910309 0.39959154 0 59
-0.41228479 1.5047058 0.41860172 0 60
-0.41355979 1.5093591 0.43536526 0 61
-0.41014612 1.4969003 0.44719166 0 62
-0.41133928 1.501255 0.46403965 0 63
-0.43133488 1.5015422 -0.46573266 0 0
-0.43203226 1.5039698 -0.4508566 0 1
-0.42784077 1.4893787 -0.43108693 0 2
-0.43021685 1.4976501 -0.41807896 0 3
-0.42967296 1.4957567 -0.40224355 0 4
-0.43116564 1.5009531 -0.38835379 0 5
-0.43315566 1.5078806 -0.37485856 0 6
-0.42917025 1.4940068 -0.35632902 0 7
-0.43476567 1.5134853 -0.3457619 0 8
-0.43222955 1.5046566 -0.32868177 0 9
-0.43438348 1.5121548 -0.31523985 0 10
-0.43306008 1.5075479 -0.29930082 0 11
-0.43020916 1.4976233 -0.28250259 0 12
-0.43049273 1.4986105 -0.26790056 0 13
-0.43232593 1.5049921 -0.25423703 0 14
-0.42766592 1.4887699 -0.23689553 0 15
-0.43035543 1.4981326 -0.22373369 0 16
-0.43309474 1.5076685 -0.21045178 0 17
-0.43057421 1.4988941 -0.1946426 0 18
-0.43146452 1.5019934 -0.18046404 0 19
-0.43000957 1.4969286 -0.16535448 0 20
-0.43378848 1.5100836 -0.15220769 0 21
-0.43404931 1.5109916 -0.13771652 0 22
-0.42901373 1.4934618 -0.12172852 0 23
-0.43108359 1.5006673 -0.10787691 0 24
-0.43099511 1.5003593 -0.093437172 0 25
-0.43109557 1.5007092 -0.079053856 0 26
-0.4289254 1.4931544 -0.064336658 0 27
-0.43229681 1.5048908 -0.050421558 0 28
-0.43332607 1.5084738 -0.036095038 0 29
-0.42873108 1.4924779 -0.021424955 0 30
-0.43104312 1.5005264 -0.0071797599 0 31
-0.43083879 1.4998152 0.0071763564 0 32
-0.43344057 1.5088724 0.021660302 0 33
-0.43175209 1.5029945 0.03596393 0 34
-0.43280652 1.5066651 0.05048101 0 35
-0.42792475 1.489671 0.064186566 0 36
-0.42715901 1.4870054 0.078331977 0 37
-0.43037421 1.4981979 0.093302563 0 38
-0.43082076 1.4997524 0.10781115 0 39
-0.43100795 1.5004041 0.12229436 0 40
-0.43072465 1.4994178 0.13666166 0 41
-0.43189189 1.5034813 0.15154222 0 42
-0.43046284 1.4985064 0.16552877 0 43
-0.4328256 1.5067316 0.18103333 0 44
-0.43088353 1.4999709 0.19478244 0 45
-0.43329111 1.508352 0.21054721 0 46
-0.43104625 1.5005374 0.22409284 0 47
-0.43017179 1.4974933 0.2382836 0 48
-0.42921802 1.494173 0.25240937 0 49
-0.42732131 1.4875704 0.26592696 0 50
-0.43029466 1.497921 0.28255874 0 51
-0.43056935 1.4988773 0.29757941 0 52
-0.43134212 1.5015674 0.31303269 0 53
-0.43019015 1.4975572 0.32713097 0 54
-0.42915803 1.4939642 0.34130222 0 55
-0.42830145 1.4909824 0.35560769 0 56
-0.43234158 1.5050466 0.37415403 0 57
-0.4318406 1.5033026 0.3889617 0 58
-0.43528265 1.5152849 0.40749511 0 59
-0.43057618 1.498901 0.41842815 0 60
-0.4293085 1.4944881 0.43256581 0 61
-0.4304558 1.498482 0.44921148 0 62
-0.43708295 1.5215521 0.47193912 0 63
-0.45102882 1.5003307 -0.46704182 0 0
-0.45299146 1.5068593 -0.45335835 0 1
-0.45270163 1.5058953 -0.43744561 0 2
-0.45326132 1.5077569 -0.42242429 0 3
-0.45130056 1.5012347 -0.40517843 0 4
-0.45250559 1.5052431 -0.39087391 0 5
-0.4520072 1.5035853 -0.37514415 0 6
-0.45341307 1.5082618 -0.36103138 0 7
-0.45015258 1.4974159 -0.34332937 0 8
-0.45214635 1.5040482 -0.32973844 0 9
-0.45573553 1.5159874 -0.31718311 0 10
-0.45191273 1.503271 -0.29953229 0 11
-0.44990379 1.4965882 -0.28332949 0 12
-0.45033792 1.4980325 -0.26876682 0 13
-0.44808692 1.4905446 -0.25270811 0 14
-0.45048389 1.498518 -0.23931001 0 15
-0.45190468 1.5032442 -0.22530991 0 16
-0.45095539 1.5000864 -0.21015157 0 17
-0.45218807 1.504187 -0.19603714 0 18
-0.44988766 1.4965347 -0.18045922 0 19
-0.45149249 1.5018731 -0.16650133 0 20
-0.45263144 1.5056618 -0.15231149 0 21
-0.44934735 1.4947373 -0.13672833 0 22
-0.4513166 1.5012881 -0.12280945 0 23
-0.4529447 1.5067037 -0.10870301 0 24
-0.45127639 1.5011542 -0.093825161 0 25
-0.45067614 1.4991575 -0.079258054 0 26
-0.45201507 1.5036114 -0.065021805 0 27
-0.44942808 1.4950058 -0.050271727 0 28
-0.44915545 1.494099 -0.035880521 0 29
-0.45030326 1.4979172 -0.021580894 0 30
-0.45156917 1.5021281 -0.0072134472 0 31
-0.44876486 1.4927998 0.0071686506 0 32
-0.45050171 1.4985774 0.021590404 0 33
-0.45305631 1.5070751 0.036192138 0 34
-0.45058325 1.4988486 0.050400939 0 35
-0.45119447 1.5008818 0.064903766 0 36
-0.45077178 1.4994756 0.079274878 0 37
-0.44969964 1.4959092 0.093497336 0 38
-0.45114845 1.5007286 0.10827193 0 39
-0.45149842 1.5018928 0.12285893 0 40
-0.45400923 1.510245 0.13814686 0 41
-0.45115924 1.5007646 0.15181608 0 42
-0.45062208 1.4989778 0.16618034 0 43
-0.45337304 1.5081286 0.18185726 0 44
-0.45106983 1.5004671 0.19555235 0 45
-0.45387226 1.5097893 0.21151088 0 46
-0.45395431 1.5100622 0.22633182 0 47
-0.45415187 1.5107194 0.24125855 0 48
-0.44928956 1.4945451 0.25338635 0 49
-0.45412439 1.510628 0.27102664 0 50
-0.44655004 1.4854321 0.28121746 0 51
-0.45066881 1.4991331 0.29870781 0 52
-0.45527577 1.5144581 0.31686312 0 53
-0.4500055 1.4969267 0.32817715 0 54
-0.45225888 1.5044224 0.34493583 0 55
-0.45144653 1.5017202 0.35946554 0 56
-0.45431069 1.5112476 0.37705591 0 57
-0.45380762 1.5095743 0.39199862 0 58
-0.45397741 1.510139 0.40758169 0 59
-0.45168218 1.5025041 0.42095262 0 60
-0.44968191 1.4958503 0.4345277 0 61
-0.45552811 1.5152974 0.45589706 0 62
-0.4478896 1.4898882 0.46379113 0 63
-0.47087523 1.4992346 -0.46846759 0 0
-0.47569919 1.5145937 -0.45741066 0 1
-0.47106463 1.4998376 -0.43733555 0 2
-0.46920025 1.4939016 -0.42012715 0 3
-0.47159973 1.5015414 -0.40679556 0 4
-0.47103804 1.499753 -0.39092278 0 5
-0.47107765 1.4998791 -0.37563631 0 6
-0.46966857 1.4953927 -0.35930616 0 7
-0.46899843 1.493259 -0.34367257 0 8
-0.47549847 1.5139546 -0.33316696 0 9
-0.46913999 1.4937097 -0.3137053 0 10
-0.46708789 1.4871759 -0.29744723 0 11
-0.47225073 1.5036142 -0.28573737 0 12
-0.47143888 1.5010293 -0.27032414 0 13
-0.47225946 1.503642 -0.25589383 0 14
-0.47253162 1.5045085 -0.24117635 0 15
-0.46950695 1.4948782 -0.2249043 0 16
-0.47078189 1.4989374 -0.21078567 0 17
-0.47010908 1.4967952 -0.19581237 0 18
-0.47084168 1.4991279 -0.18145633 0 19
-0.46707851 1.4871461 -0.16549288 0 20
-0.47074953 1.4988344 -0.15219489 0 21
-0.4700723 1.4966781 -0.1374242 0 22
-0.47170946 1.5018908 -0.12332392 0 23
-0.47189483 1.502481 -0.10880876 0 24
-0.46715394 1.4873862 -0.093316615 0 25
-0.47033963 1.4975293 -0.07947173 0 26
-0.47189873 1.5024934 -0.065219454 0 27
-0.47204778 1.502968 -0.050730813 0 28
-0.47241038 1.5041225 -0.036257993 0 29
-0.47188836 1.5024604 -0.021728303 0 30
-0.46989501 1.4961137 -0.0072117662 0 31
-0.46947491 1.4947761 0.0072053191 0 32
-0.4709256 1.499395 0.021683972 0 33
-0.47163686 1.5016596 0.036198623 0 34
-0.47169814 1.5018547 0.050693236 0 35
-0.47518796 1.512966 0.065674044 0 36
-0.47341675 1.5073266 0.079991661 0 37
-0.46879524 1.492612 0.09364447 0 38
-0.47124857 1.5004233 0.10865975 0 39
-0.47053504 1.4981515 0.12301689 0 40
-0.47037295 1.4976354 0.1375121 0 41
-0.47041911 1.4977823 0.15208806 0 42
-0.47212139 1.5032022 0.16727965 0 43
-0.46857667 1.4919162 0.18058342 0 44
-0.47041395 1.4977659 0.19593936 0 45
-0.46914157 1.4937148 0.21005124 0 46
-0.47153792 1.5013446 0.22587717 0 47
-0.47431588 1.5101894 0.24208702 0 48
-0.47368652 1.5081855 0.25666708 0 49
-0.46941727 1.4945925 0.26916492 0 50
-0.4745397 1.510902 0.28712231 0 51
-0.47340152 1.5072781 0.30146784 0 52
-0.47192612 1.5025806 0.31556836 0 53
-0.47415814 1.5096872 0.33222783 0 54
-0.47087005 1.4992181 0.34504405 0 55
-0.47272453 1.5051227 0.36164406 0 56
-0.47374588 1.5083746 0.37776396 0 57
-0.47331664 1.507008 0.39281383 0 58
-0.47301272 1.5060402 0.40801442 0 59
-0.46918282 1.4938461 0.42011154 0 60
-0.47240838 1.5041161 0.43858308 0 61
-0.47375995 1.5084194 0.45554599 0 62
-0.47376329 1.50843 0.47134089 0 63
-0.49751931 1.5184989 -0.47636274 0 0
-0.48965135 1.4944848 -0.45312181 0 1
-0.48997542 1.4954739 -0.43778682 0 2
-0.49374476 1.5069785 -0.42547998 0 3
-0.48874512 1.4917188 -0.40573198 0 4
-0.49129358 1.4994971 -0.3924011 0 5
-0.49500793 1.5108337 -0.37987554 0 6
-0.49118602 1.4991688 -0.36163738 0 7
-0.49020588 1.4961773 -0.34570536 0 8
-0.49178466 1.500996 -0.3316209 0 9
-0.49050313 1.4970845 -0.31565693 0 10
-0.48908752 1.4927639 -0.29974505 0 11
-0.49047059 1.4969852 -0.28560215 0 12
-0.49338457 1.505879 -0.27226955 0 13
-0.49401686 1.5078089 -0.25761729 0 14
-0.49120238 1.4992187 -0.2412784 0 15
-0.49512655 1.5111959 -0.22825803 0 16
-0.48886919 1.4920975 -0.21065323 0 17
-0.49353939 1.5063517 -0.19784154 0 18
-0.49158421 1.5003841 -0.18232627 0 19
-0.48833704 1.4904733 -0.16651878 0 20
-0.48884904 1.492036 -0.15210345 0 21
-0.48905203 1.4926555 -0.13759662 0 22
-0.48927292 1.4933298 -0.12310567 0 23
-0.49304369 1.5048387 -0.10941029 0 24
-0.49240169 1.5028791 -0.094661333 0 25
-0.49059761 1.4973729 -0.079777546 0 26
-0.49651217 1.515425 -0.066040806 0 27
-0.48956487 1.4942207 -0.050634928 0 28
-0.49140608 1.4998405 -0.036297686 0 29
-0.49261871 1.5035416 -0.021829892 0 30
-0.49081311 1.4980307 -0.0072495509 0 31
-0.49146938 1.5000336 0.0072592441 0 32
-0.4878943 1.489122 0.021620534 0 33
-0.49405646 1.5079298 0.036493458 0 34
-0.49333185 1.5057181 0.051024541 0 35
-0.49128297 1.4994648 0.065345272 0 36
-0.49206939 1.501865 0.080016874 0 37
-0.48772031 1.488591 0.093761362 0 38
-0.49175391 1.5009021 0.10912408 0 39
-0.49383038 1.5072398 0.12425237 0 40
-0.48534659 1.481346 0.13655408 0 41
-0.49220932 1.502292 0.15314899 0 42
-0.4944309 1.5090727 0.16859674 0 43
-0.49075824 1.4978632 0.18201993 0 44
-0.48958907 1.4942946 0.19625799 0 45
-0.49540231 1.5120374 0.21346833 0 46
-0.49331281 1.5056601 0.22742186 0 47
-0.49016312 1.4960468 0.24076791 0 48
-0.49013668 1.4959661 0.2555939 0 49
-0.4937745 1.5070692 0.27248475 0 50
-0.4900243 1.4956231 0.28534228 0 51
-0.48967364 1.4945529 0.30010429 0 52
-0.49340579 1.5059439 0.31752488 0 53
-0.49531499 1.511771 0.33400145 0 54
-0.48680413 1.4857947 0.34330636 0 55
-0.49391872 1.5075094 0.36364934 0 56
-0.49627858 1.514712 0.38085067 0 57
-0.4883047 1.4903747 0.39001387 0 58
-0.49353078 1.5063254 0.4097048 0 59
-0.49168667 1.5006968 0.42370641 0 60
-0.49289826 1.5043948 0.44039837 0 61
-0.49284139 1.5042212 0.45607385 0 62
-0.48940593 1.4937358 0.46859437 0 63
-0.51459742 1.5077107 -0.47492754 0 0
-0.51151079 1.4986672 -0.45626244 0 1
-0.51236302 1.5011642 -0.44126359 0 2
-0.51035374 1.4952773 -0.42391607 0 3
-0.51344907 1.5043461 -0.41085264 0 4
-0.51498413 1.5088438 -0.39647418 0 5
-0.50860018 1.4901395 -0.37621632 0 6
-0.50938421 1.4924365 -0.36149701 0 7
-0.51045263 1.4955668 -0.34698841 0 8
-0.5146184 1.5077722 -0.33449081 0 9
-0.50804555 1.4885145 -0.31514332 0 10
-0.51534563 1.5099028 -0.304436 0 11
-0.51561391 1.5106889 -0.28940436 0 12
-0.51278561 1.5024023 -0.27276036 0 13
-0.50549549 1.481043 -0.254087 0 14
-0.51127094 1.4979645 -0.24207002 0 15
-0.51439846 1.5071278 -0.22858167 0 16
-0.51103067 1.4972607 -0.21225326 0 17
-0.50665462 1.4844391 -0.19576703 0 18
-0.51666743 1.5137756 -0.18471168 0 19
-0.50983709 1.4937634 -0.16757411 0 20
-0.51247185 1.5014831 -0.15369731 0 21
-0.50857204 1.490057 -0.13792314 0 22
-0.51623136 1.512498 -0.12519968 0 23
-0.51213086 1.5004839 -0.10954325 0 24
-0.51593649 1.5116341 -0.09560515 0 25
-0.51052868 1.4957899 -0.08002162 0 26
-0.51109707 1.497455 -0.06552662 0 27
-0.50833833 1.4893724 -0.050678622 0 28
-0.5114302 1.4984311 -0.036413021 0 29
-0.51222974 1.5007737 -0.0218795 0 30
-0.504951 1.4794478 -0.0071891267 0 31
-0.51399827 1.5059553 0.0073179351 0 32
-0.51242429 1.5013436 0.021887809 0 33
-0.51535225 1.5099223 0.036692269 0 34
-0.51412249 1.5063192 0.051255267 0 35
-0.50996721 1.4941448 0.065381765 0 36
-0.51284713 1.5025826 0.080385014 0 37
-0.51260763 1.5018808 0.094988286 0 38
-0.51383835 1.5054867 0.10990848 0 39
-0.5127492 1.5022956 0.12435515 0 40
-0.51480818 1.5083282 0.13961434 0 41
-0.50890636 1.4910365 0.15262796 0 42
-0.5107854 1.496542 0.16788581 0 43
-0.51279485 1.5024294 0.1833272 0 44
-0.51260352 1.5018688 0.19806565 0 45
-0.51381677 1.5054234 0.21341042 0 46
-0.50955236 1.4929292 0.22642824 0 47
-0.51187336 1.4997296 0.24235526 0 48
-0.51261854 1.501913 0.25766742 0 49
-0.51540756 1.5100844 0.27415505 0 50
-0.5159815 1.511766 0.28961068 0 51
-0.51484692 1.5084417 0.30414137 0 52
-0.5102846 1.4950746 0.31653222 0 53
-0.50710893 1.4857703 0.32960981 0 54
-0.5150066 1.5089096 0.35008404 0 55
-0.50854373 1.4899741 0.36090055 0 56
-0.5066722 1.4844908 0.37479019 0 57
-0.51330882 1.5039352 0.3951844 0 58
-0.5120098 1.5001293 0.40970099 0 59
-0.51299882 1.503027 0.42611313 0 60
-0.50951755 1.4928274 0.43881303 0 61
-0.51322669 1.5036945 0.457793 0 62
-0.51051611 1.4957529 0.47116086 0 63
-0.53783137 1.5146031 -0.47914565 0 0
-0.53077108 1.4947205 -0.45701331 0 1
-0.53364646 1.502818 -0.44364506 0 2
-0.52953935 1.4912516 -0.42458871 0 3
-0.53681135 1.5117306 -0.41464084 0 4
-0.53316152 1.5014521 -0.39622465 0 5
-0.53194231 1.4980187 -0.3798283 0 6
-0.53785306 1.5146642 -0.36845508 0 7
-0.5328387 1.5005431 -0.34963667 0 8
-0.53174531 1.4974639 -0.33362928 0 9
-0.52765548 1.4859465 -0.31594944 0 10
-0.53595352 1.5093149 -0.30562311 0 11
-0.53610909 1.509753 -0.29046598 0 12
-0.53555208 1.5081843 -0.2749849 0 13
-0.53269517 1.500139 -0.25846732 0 14
-0.53462565 1.5055753 -0.2443438 0 15
-0.5297752 1.4919159 -0.22724538 0 16
-0.53563464 1.5084168 -0.21475224 0 17
-0.53047788 1.4938947 -0.19785932 0 18
-0.5297094 1.4917305 -0.18280269 0 19
-0.53127837 1.4961491 -0.16856185 0 20
-0.52990425 1.4922794 -0.15341058 0 21
-0.53193772 1.4980057 -0.13925381 0 22
-0.52924579 1.490425 -0.12390187 0 23
-0.53354025 1.5025188 -0.11016244 0 24
-0.53601027 1.5094748 -0.095878184 0 25
-0.53017569 1.4930437 -0.080217406 0 26
-0.53635752 1.5104526 -0.066378966 0 27
-0.5297581 1.4918678 -0.050981332 0 28
-0.53187782 1.4978371 -0.036554754 0 29
-0.53064024 1.4943519 -0.021879351 0 30
-0.53691685 1.5120276 -0.0073789665 0 31
-0.53119415 1.4959117 0.0073003182 0 32
-0.5332641 1.5017411 0.021987539 0 33
-0.52901334 1.4897704 0.036357891 0 34
-0.53496671 1.5065359 0.051482584 0 35
-0.53249764 1.4995826 0.065901265 0 36
-0.53017229 1.4930342 0.0802169 0 37
-0.53318655 1.5015228 0.095373094 0 38
-0.53670353 1.511427 0.11081558 0 39
-0.53217405 1.4986713 0.12458741 0 40
-0.52408105 1.4758805 0.13719705 0 41
-0.53326988 1.5017574 0.15438496 0 42
-0.52856272 1.4885014 0.16770025 0 43
-0.53212637 1.4985372 0.1836368 0 44
-0.53095281 1.4952322 0.19803646 0 45
-0.53400755 1.5038348 0.2140999 0 46
-0.53091091 1.4951141 0.22773252 0 47
-0.53031361 1.4934322 0.24237306 0 48
-0.53339148 1.5020998 0.25880516 0 49
-0.52782971 1.4864371 0.27101976 0 50
-0.53309876 1.5012755 0.28883496 0 51
-0.53156245 1.496949 0.30311912 0 52
-0.53235722 1.4991871 0.31876472 0 53
-0.53602213 1.5095081 0.33631268 0 54
-0.53314888 1.5014166 0.34984016 0 55
-0.52947998 1.4910845 0.36271912 0 56
-0.53420311 1.5043855 0.38144261 0 57
-0.53451252 1.5052568 0.39722869 0 58
-0.53006035 1.4927188 0.40942627 0 59
-0.5284465 1.488174 0.42371243 0 60
-0.53357887 1.5026276 0.44358888 0 61
-0.53079355 1.4947836 0.45703265 0 62
-0.53314012 1.5013919 0.47496629 0 63
-0.55272228 1.4978724 -0.47596696 0 0
-0.55802709 1.5122484 -0.46443537 0 1
-0.55804694 1.5123022 -0.44843671 0 2
-0.55755359 1.5109651 -0.43212086 0 3
-0.55695122 1.5093327 -0.41583014 0 4
-0.55129415 1.494002 -0.39601761 0 5
-0.55314958 1.4990304 -0.38178053 0 6
-0.5539844 1.5012926 -0.36683166 0 7
-0.55306733 1.4988073 -0.35079032 0 8
-0.55327976 1.4993831 -0.33554727 0 9
-0.55658042 1.5083278 -0.32213911 0 10
-0.5516578 1.4949875 -0.30407256 0 11
-0.55691147 1.509225 -0.29165989 0 12
-0.55509859 1.5043122 -0.27550259 0 13
-0.54961371 1.4894481 -0.25777027 0 14
-0.5507409 1.4925027 -0.2433029 0 15
-0.55562943 1.5057507 -0.23037592 0 16
-0.55151987 1.4946138 -0.21373646 0 17
-0.55254811 1.4974003 -0.19920844 0 18
-0.54961038 1.489439 -0.18333621 0 19
-0.55511415 1.5043542 -0.17024244 0 20
-0.55353987 1.5000881 -0.15490136 0 21
-0.5532766 1.4993744 -0.14000289 0 22
-0.5476169 1.4840368 -0.12392123 0 23
-0.55037689 1.4915162 -0.10984365 0 24
-0.54892147 1.4875722 -0.094908543 0 25
-0.55200189 1.4959201 -0.080730528 0 26
-0.55127561 1.4939518 -0.065946728 0 27
-0.55693167 1.5092797 -0.051806457 0 28
-0.55354744 1.5001086 -0.036773529 0 29
-0.55249929 1.4972681 -0.022019854 0 30
-0.55235839 1.4968861 -0.0073376652 0 31
-0.55198902 1.4958851 0.007332758 0 32
-0.5599221 1.5173837 0.022315688 0 33
-0.55024832 1.4911679 0.036554359 0 34
-0.55658644 1.5083442 0.051774345 0 35
-0.55012161 1.4908245 0.065808676 0 36
-0.55368328 1.5004767 0.080976434 0 37
-0.55749065 1.5107945 0.09639015 0 38
-0.55057335 1.4920487 0.10988286 0 39
-0.55209219 1.4961648 0.12493396 0 40
-0.55246222 1.4971676 0.13979682 0 41
-0.55336046 1.4996018 0.15485115 0 42
-0.55811822 1.5124952 0.17116372 0 43
-0.5542258 1.5019468 0.1848758 0 44
-0.55516428 1.5044901 0.20015165 0 45
-0.55426294 1.5020474 0.21479951 0 46
-0.55149275 1.4945403 0.22866078 0 47
-0.55159283 1.4948115 0.24367927 0 48
-0.54999691 1.4904865 0.25794998 0 49
-0.55624831 1.5074278 0.27607319 0 50
-0.55098563 1.493166 0.28855643 0 51
-0.54872185 1.4870312 0.30245429 0 52
-0.54960567 1.4894264 0.31810227 0 53
-0.5503816 1.4915291 0.33378965 0 54
-0.5522809 1.4966762 0.35029155 0 55
-0.55250245 1.4972765 0.36585039 0 56
-0.55195868 1.4958029 0.38095856 0 57
-0.55256802 1.4974542 0.39693266 0 58
-0.55334395 1.4995569 0.41313687 0 59
-0.55822057 1.5127727 0.43263781 0 60
-0.55037439 1.4915096 0.44227117 0 61
-0.55357879 1.5001934 0.46073312 0 62
-0.55982184 1.517112 0.48208064 0 63
-0.57103896 1.4908098 -0.47591805 0 0
-0.57146364 1.4919186 -0.46031508 0 1
