# .PCD v0.7 - Point Cloud Data file format
VERSION 0.7
FIELDS x y z intensity ring
SIZE 4 4 4 4 2
TYPE F F F F U
COUNT 1 1 1 1 1
WIDTH 1377
HEIGHT 1
VIEWPOINT 0 0 0 1 0 0 0
POINTS 1377
DATA ascii
-1.6948808 -9.9292297 -0.32437375 0 28
-1.6935562 -9.9214697 -0.23147528 0 29
-1.6972553 -9.94314 -0.13917282 0 30
-1.6958015 -9.9346228 -0.04634859 0 31
-1.695605 -9.9334726 0.046343219 0 32
-1.6946766 -9.9280338 0.13896137 0 33
-1.6954732 -9.9327002 0.2317373 0 34
-1.6932855 -9.9198837 0.32406843 0 35
-1.6956397 -9.9336758 0.41733292 0 36
-1.6961336 -9.9365692 0.51036614 0 37
-1.6939118 -9.9235525 0.60257405 0 38
-1.6944405 -9.92665 0.69576997 0 39
-1.6958402 -9.9348507 0.78954768 0 40
-1.6951783 -9.9309731 0.88254052 0 41
-1.6923349 -9.9143152 0.97435492 0 42
-1.6963596 -9.9378929 1.0703555 0 43
-1.6941671 -9.9250488 1.1627173 0 44
-1.6956214 -9.933568 1.2577406 0 45
-1.6946161 -9.9276791 1.3511804 0 46
-1.6912146 -9.9077511 1.4426969 0 47
-1.691783 -9.9110813 1.5376915 0 48
-1.6952204 -9.9312191 1.6357841 0 49
-1.6945912 -9.9275331 1.7303941 0 50
0 0 0 0 51
0 0 0 0 52
0 0 0 0 53
0 0 0 0 54
0 0 0 0 55
0 0 0 0 56
0 0 0 0 57
0 0 0 0 58
0 0 0 0 59
0 0 0 0 60
0 0 0 0 61
0 0 0 0 62
0 0 0 0 63
-0.38405761 -2.4297011 -0.73331922 0 0
-0.39935425 -2.5264735 -0.73697907 0 1
-0.41314787 -2.6137373 -0.73614395 0 2
-0.42826059 -2.7093465 -0.73595893 0 3
-0.44229466 -2.7981317 -0.73221284 0 4
-0.46138424 -2.9188998 -0.73488724 0 5
-0.48182356 -3.048207 -0.73737103 0 6
-0.50092703 -3.1690636 -0.73547959 0 7
-0.52077228 -3.2946122 -0.73239321 0 8
-0.54660237 -3.4580235 -0.73503369 0 9
-0.57119876 -3.6136303 -0.73304331 0 10
-0.60240936 -3.8110809 -0.73625124 0 11
-0.62973309 -3.9839413 -0.7312634 0 12
-0.66751224 -4.2229476 -0.73458421 0 13
-0.70579398 -4.4651332 -0.73397297 0 14
-0.74909538 -4.7390747 -0.73377675 0 15
-0.79834968 -5.0506773 -0.73395908 0 16
-0.85487211 -5.4082603 -0.73459071 0 17
-0.91949868 -5.8171139 -0.73504782 0 18
-0.99508154 -6.2952809 -0.73600179 0 19
-1.0852315 -6.8656058 -0.73796338 0 20
-1.1907576 -7.5332055 -0.73885041 0 21
-1.3214883 -8.36026 -0.74145514 0 22
-1.4537808 -9.1971941 -0.7294485 0 23
-1.5698665 -9.9315987 -0.69471127 0 24
-1.5692695 -9.9278221 -0.60161614 0 25
-1.5700631 -9.9328432 -0.50914466 0 26
-1.5684234 -9.9224691 -0.41602042 0 27
-1.5677183 -9.9180088 -0.32335296 0 28
-1.5680189 -9.9199104 -0.23097159 0 29
-1.5686244 -9.9237413 -0.13862084 0 30
-1.566769 -9.9120026 -0.046149686 0 31
-1.5705566 -9.9359646 0.046261251 0 32
-1.5687495 -9.9245329 0.1386319 0 33
-1.5691843 -9.9272833 0.23114325 0 34
-1.5690638 -9.9265203 0.32363048 0 35
-1.5673923 -9.915947 0.41574693 0 36
-1.5687716 -9.9246721 0.50872582 0 37
-1.5698794 -9.9316807 0.60184991 0 38
-1.569363 -9.9284134 0.69448841 0 39
-1.5688937 -9.9254446 0.78720754 0 40
-1.5693061 -9.9280539 0.88049972 0 41
-1.5672258 -9.9148932 0.97244424 0 42
-1.5695112 -9.9293509 1.0672762 0 43
-1.5687201 -9.924346 1.1602875 0 44
-1.5691246 -9.9269047 1.2543591 0 45
-1.5669084 -9.9128847 1.3464427 0 46
-1.5680463 -9.920084 1.4415761 0 47
-1.5686674 -9.9240122 1.5365889 0 48
-1.5690104 -9.9261827 1.6316534 0 49
-1.5691148 -9.9268436 1.7267803 0 50
0 0 0 0 51
0 0 0 0 52
0 0 0 0 53
0 0 0 0 54
0 0 0 0 55
0 0 0 0 56
0 0 0 0 57
0 0 0 0 58
0 0 0 0 59
0 0 0 0 60
0 0 0 0 61
0 0 0 0 62
0 0 0 0 63
-0.35519585 -2.4413998 -0.73547632 0 0
-0.36747688 -2.5258124 -0.73541248 0 1
-0.379336 -2.6073246 -0.73296869 0 2
-0.39456952 -2.7120306 -0.73531449 0 3
-0.41191018 -2.8312197 -0.73948997 0 4
-0.42735758 -2.9373958 -0.73816508 0 5
-0.44313192 -3.0458188 -0.73541957 0 6
-0.46236742 -3.1780319 -0.73618591 0 7
-0.48144031 -3.3091273 -0.7342484 0 8
-0.50172865 -3.4485772 -0.73165911 0 9
-0.52745086 -3.625376 -0.7340548 0 10
-0.55579448 -3.8201926 -0.73663551 0 11
-0.58581537 -4.0265379 -0.73770416 0 12
-0.61770505 -4.245728 -0.73716992 0 13
-0.6525631 -4.4853215 -0.73591685 0 14
-0.69788563 -4.7968407 -0.74133617 0 15
-0.73820478 -5.0739698 -0.73596919 0 16
-0.79367852 -5.4552627 -0.73959339 0 17
-0.8537876 -5.8684158 -0.74014777 0 18
-0.92165989 -6.334929 -0.7392562 0 19
-0.98980737 -6.8033328 -0.72990644 0 20
-1.0868025 -7.4700179 -0.731287 0 21
-1.203949 -8.2752113 -0.732544 0 22
-1.3467717 -9.2568884 -0.73281407 0 23
-1.4433759 -9.920887 -0.69266808 0 24
-1.4432408 -9.9199581 -0.60001874 0 25
-1.4435666 -9.9221973 -0.50765073 0 26
-1.442839 -9.9171963 -0.41502407 0 27
-1.4431292 -9.9191904 -0.32278857 0 28
-1.4447756 -9.9305067 -0.23078723 0 29
-1.4437952 -9.923769 -0.13836277 0 30
-1.4446815 -9.9298611 -0.046146635 0 31
-1.4428211 -9.9170742 0.046087209 0 32
-1.4427103 -9.9163113 0.13825879 0 33
-1.4453634 -9.9345474 0.23088114 0 34
-1.4444222 -9.9280787 0.32307777 0 35
-1.4438943 -9.924449 0.41532761 0 36
-1.4437417 -9.9234009 0.5077123 0 37
-1.4458318 -9.937767 0.60109591 0 38
-1.4445609 -9.9290314 0.69323677 0 39
-1.4437423 -9.9234047 0.78557837 0 40
-1.4454001 -9.9348001 0.87945521 0 41
-1.4450146 -9.9321499 0.97232056 0 42
-1.4448987 -9.9313536 1.0655012 0 43
-1.44338 -9.9209146 1.1577238 0 44
-1.4437581 -9.9235134 1.2515928 0 45
-1.4465802 -9.9429111 1.3480031 0 46
-1.4432368 -9.9199314 1.4388661 0 47
-1.4429283 -9.9178104 1.5327654 0 48
-1.4427003 -9.9162426 1.6269804 0 49
-1.4430422 -9.9185934 1.7221284 0 50
0 0 0 0 51
0 0 0 0 52
0 0 0 0 53
0 0 0 0 54
0 0 0 0 55
0 0 0 0 56
0 0 0 0 57
0 0 0 0 58
0 0 0 0 59
0 0 0 0 60
0 0 0 0 61
0 0 0 0 62
0 0 0 0 63
-0.32530931 -2.4467759 -0.73583513 0 0
-0.33875701 -2.5479212 -0.74058086 0 1
-0.34673563 -2.6079314 -0.73188537 0 2
-0.36170247 -2.7205029 -0.73635 0 3
-0.37620628 -2.8295913 -0.73780066 0 4
-0.38922328 -2.9274974 -0.73441941 0 5
-0.4044444 -3.0419812 -0.73323673 0 6
-0.42214438 -3.1751096 -0.73425096 0 7
-0.44203877 -3.324743 -0.73645157 0 8
-0.46200261 -3.4748986 -0.7359826 0 9
-0.48542342 -3.6510553 -0.73798996 0 10
-0.51000375 -3.8359337 -0.7384057 0 11
-0.53528333 -4.0260711 -0.73635703 0 12
-0.56280243 -4.2330527 -0.73371208 0 13
-0.59605873 -4.4831862 -0.73430848 0 14
-0.63014263 -4.7395439 -0.73122835 0 15
-0.67330998 -5.0642223 -0.73329896 0 16
-0.71990508 -5.4146814 -0.73283613 0 17
-0.77376008 -5.819746 -0.73275393 0 18
-0.8384583 -6.306366 -0.73466438 0 19
-0.91115999 -6.8531833 -0.73399717 0 20
-0.99872512 -7.5117941 -0.734119 0 21
-1.1046031 -8.3081427 -0.73420125 0 22
-1.2375023 -9.3077297 -0.73557866 0 23
-1.3194765 -9.9242887 -0.69172049 0 24
-1.3185779 -9.9175291 -0.5988459 0 25
-1.3190343 -9.9209623 -0.50671941 0 26
-1.3182088 -9.914753 -0.41421217 0 27
-1.3185017 -9.9169559 -0.32216391 0 28
-1.3201301 -9.929204 -0.23036228 0 29
-1.3184534 -9.9165936 -0.13802625 0 30
-1.3189045 -9.9199858 -0.046021894 0 31
-1.319463 -9.9241867 0.046041381 0 32
-1.3189251 -9.9201412 0.13807563 0 33
-1.3196726 -9.9257631 0.23028244 0 34
-1.3192326 -9.9224539 0.32234249 0 35
-1.3172464 -9.9075155 0.41390979 0 36
-1.3183541 -9.9158468 0.5064581 0 37
-1.3194628 -9.9241848 0.59924775 0 38
-1.3216101 -9.9403353 0.69283897 0 39
-1.3197761 -9.9265413 0.7844826 0 40
-1.3185534 -9.917346 0.87640864 0 41
-1.3203286 -9.9306965 0.97051561 0 42
-1.319123 -9.921629 1.0626372 0 43
-1.3179814 -9.913043 1.1548266 0 44
-1.3205285 -9.9322004 1.2505459 0 45
-1.3195537 -9.9248695 1.3432559 0 46
-1.3186383 -9.917984 1.4361233 0 47
-1.3187627 -9.9189186 1.5303149 0 48
-1.3185408 -9.9172506 1.6243628 0 49
-1.3191955 -9.9221745 1.7198038 0 50
0 0 0 0 51
0 0 0 0 52
0 0 0 0 53
0 0 0 0 54
0 0 0 0 55
0 0 0 0 56
0 0 0 0 57
0 0 0 0 58
0 0 0 0 59
0 0 0 0 60
0 0 0 0 61
0 0 0 0 62
0 0 0 0 63
-0.29558921 -2.4538195 -0.7368046 0 0
-0.30637822 -2.5433838 -0.7381112 0 1
-0.3150999 -2.6157866 -0.73294699 0 2
-0.32885385 -2.729964 -0.7377606 0 3
-0.3393921 -2.8174469 -0.73349041 0 4
-0.35334831 -2.9333038 -0.73473048 0 5
-0.36717096 -3.0480518 -0.73355627 0 6
-0.38415092 -3.1890101 -0.73631746 0 7
-0.40150768 -3.3330963 -0.73715252 0 8
-0.41668758 -3.4591117 -0.73149842 0 9
-0.43774903 -3.6339521 -0.73338938 0 10
-0.45774058 -3.7999113 -0.73033279 0 11
-0.48318595 -4.0111446 -0.73248494 0 12
-0.51355487 -4.2632508 -0.73779601 0 13
-0.54401624 -4.5161247 -0.73855197 0 14
-0.57636899 -4.7846994 -0.73704588 0 15
-0.61393291 -5.0965338 -0.73682892 0 16
-0.65716952 -5.455461 -0.73720586 0 17
-0.70415348 -5.8454957 -0.73485029 0 18
-0.76364595 -6.3393698 -0.73735952 0 19
-0.83042645 -6.8937449 -0.73719203 0 20
-0.91146523 -7.566484 -0.73831266 0 21
-1.0098587 -8.3832932 -0.73968911 0 22
-1.129181 -9.3738413 -0.73965019 0 23
-1.19508 -9.9208984 -0.69040775 0 24
-1.1954422 -9.9239054 -0.59829807 0 25
-1.1940455 -9.9123116 -0.50548941 0 26
-1.1934177 -9.9070988 -0.41324809 0 27
-1.1957746 -9.9266644 -0.32197726 0 28
-1.1963108 -9.9311152 -0.23004794 0 29
-1.1952982 -9.9227095 -0.13789637 0 30
-1.1958907 -9.9276285 -0.04598565 0 31
-1.1946666 -9.9174671 0.045938585 0 32
-1.1952133 -9.9220047 0.13788658 0 33
-1.1945337 -9.9163628 0.22970621 0 34
-1.1950443 -9.9206018 0.32178062 0 35
-1.1965679 -9.9332504 0.41433895 0 36
-1.1946594 -9.917407 0.50574929 0 37
-1.1929927 -9.9035711 0.59707206 0 38
-1.1961851 -9.9300728 0.69104618 0 39
-1.1943889 -9.9151611 0.78236341 0 40
-1.1948445 -9.9189425 0.87518525 0 41
-1.1971301 -9.9379177 0.96970934 0 42
-1.1942202 -9.9137602 1.0601416 0 43
-1.1966246 -9.9337206 1.1554341 0 44
-1.1950554 -9.9206944 1.2471526 0 45
-1.1965172 -9.9328299 1.3422405 0 46
-1.1963907 -9.9317789 1.4358821 0 47
-1.1960331 -9.9288111 1.5294565 0 48
-1.1952088 -9.9219675 1.6226056 0 49
-1.1950891 -9.9209738 1.7169187 0 50
0 0 0 0 51
0 0 0 0 52
0 0 0 0 53
0 0 0 0 54
0 0 0 0 55
0 0 0 0 56
0 0 0 0 57
0 0 0 0 58
0 0 0 0 59
0 0 0 0 60
0 0 0 0 61
0 0 0 0 62
0 0 0 0 63
-0.2641097 -2.4453604 -0.73323399 0 0
-0.27407256 -2.5376053 -0.73540062 0 1
-0.28381965 -2.6278524 -0.73529446 0 2
-0.29374674 -2.7197659 -0.73397297 0 3
-0.30594191 -2.8326797 -0.73642105 0 4
-0.31683427 -2.9335308 -0.73375601 0 5
-0.33097816 -3.0644872 -0.73647654 0 6
-0.34444323 -3.1891589 -0.7353183 0 7
-0.36113229 -3.3436811 -0.73845553 0 8
-0.37627482 -3.4838839 -0.73570293 0 9
-0.3922641 -3.6319268 -0.73195183 0 10
-0.41424656 -3.8354597 -0.73613048 0 11
-0.43632233 -4.0398564 -0.73669267 0 12
-0.45950121 -4.254467 -0.73524249 0 13
-0.48533303 -4.4936409 -0.73384362 0 14
-0.51513612 -4.7695842 -0.73368627 0 15
-0.55028421 -5.095016 -0.73557556 0 16
-0.5854727 -5.4208221 -0.73149693 0 17
-0.62983334 -5.831552 -0.73206848 0 18
-0.68041432 -6.2998753 -0.73173732 0 19
-0.73907566 -6.8430133 -0.73073995 0 20
-0.80846924 -7.4855204 -0.72938728 0 21
-0.89495945 -8.2863226 -0.73010689 0 22
-0.99990535 -9.2580042 -0.72948468 0 23
-1.0726373 -9.9314213 -0.69016999 0 24
-1.0719931 -9.925456 -0.59755164 0 25
-1.0699407 -9.9064531 -0.50448161 0 26
-1.0721414 -9.9268303 -0.41348997 0 27
-1.0714159 -9.9201117 -0.32131311 0 28
-1.0715249 -9.9211216 -0.22949387 0 29
-1.0702025 -9.9088774 -0.13751088 0 30
-1.0714333 -9.9202738 -0.045887087 0 31
-1.0725018 -9.9301672 0.045932848 0 32
-1.0717237 -9.9229622 0.13770634 0 33
-1.0709503 -9.915801 0.2293708 0 34
-1.0693542 -9.9010229 0.3206948 0 35
-1.071098 -9.9171686 0.41308752 0 36
-1.0705953 -9.9125137 0.50479025 0 37
-1.0705713 -9.9122925 0.59675914 0 38
-1.0708526 -9.914897 0.68902165 0 39
-1.0712289 -9.9183807 0.78151906 0 40
-1.0719385 -9.9249516 0.87448627 0 41
-1.0726762 -9.9317808 0.96775037 0 42
-1.071137 -9.9175301 1.059056 0 43
-1.0707678 -9.9141111 1.1515347 0 44
-1.0714482 -9.9204121 1.2453667 0 45
-1.0706209 -9.9127512 1.3376472 0 46
-1.0727079 -9.9320745 1.4339094 0 47
-1.0722107 -9.9274712 1.5271037 0 48
-1.0711297 -9.9174623 1.6195924 0 49
-1.0718466 -9.9240999 1.7150491 0 50
0 0 0 0 51
0 0 0 0 52
0 0 0 0 53
0 0 0 0 54
0 0 0 0 55
0 0 0 0 56
0 0 0 0 57
0 0 0 0 58
0 0 0 0 59
0 0 0 0 60
0 0 0 0 61
0 0 0 0 62
0 0 0 0 63
-0.23483901 -2.4569633 -0.73579162 0 0
-0.2434117 -2.5466535 -0.73709965 0 1
-0.25082389 -2.6242023 -0.73335463 0 2
-0.26169711 -2.7379618 -0.73795921 0 3
-0.26971415 -2.8218384 -0.73268497 0 4
-0.28074452 -2.9372418 -0.7337653 0 5
-0.29178852 -3.0527878 -0.7327472 0 6
-0.30441079 -3.1848462 -0.73340541 0 7
-0.31708094 -3.3174055 -0.73173612 0 8
-0.33401331 -3.4945576 -0.7370339 0 9
-0.35096821 -3.6719453 -0.73909128 0 10
-0.3664282 -3.8336928 -0.73487103 0 11
-0.38553047 -4.0335469 -0.73462206 0 12
-0.40436837 -4.2306356 -0.73020947 0 13
-0.43049783 -4.5040102 -0.73461699 0 14
-0.45927495 -4.8050861 -0.73822284 0 15
-0.48811501 -5.1068206 -0.73635757 0 16
-0.52188778 -5.4601622 -0.73588395 0 17
-0.55985743 -5.8574133 -0.73439521 0 18
-0.60510468 -6.3308048 -0.73441005 0 19
-0.65692788 -6.8729963 -0.73302364 0 20
-0.72094929 -7.5428095 -0.73405021 0 21
-0.79801744 -8.349122 -0.73471993 0 22
-0.89007372 -9.3122454 -0.73284078 0 23
-0.94703007 -9.9081411 -0.68769091 0 24
-0.94738322 -9.9118357 -0.59598523 0 25
-0.94839597 -9.922431 -0.50466323 0 26
-0.94751477 -9.9132118 -0.41240624 0 27
-0.94804376 -9.9187469 -0.32086703 0 28
-0.94909793 -9.9297762 -0.22940676 0 29
-0.94784021 -9.9166174 -0.13744615 0 30
-0.94631529 -9.9006634 -0.045739096 0 31
-0.94871789 -9.9257994 0.04585522 0 32
-0.9482438 -9.9208403 0.13750468 0 33
-0.94801587 -9.9184551 0.22914521 0 34
-0.94661272 -9.9037743 0.32038271 0 35
-0.94716942 -9.9095993 0.41225594 0 36
-0.9475134 -9.9131985 0.50419366 0 37
-0.94735646 -9.9115562 0.59596843 0 38
-0.94760746 -9.9141817 0.68811017 0 39
-0.94777054 -9.9158878 0.78034532 0 40
-0.94627255 -9.9002161 0.8712157 0 41
-0.94878757 -9.9265289 0.96602875 0 42
-0.94625074 -9.8999882 1.0558605 0 43
-0.94781774 -9.9163828 1.1503578 0 44
-0.94819927 -9.9203739 1.2438042 0 45
-0.9477523 -9.9156971 1.3363711 0 46
-0.94678605 -9.9055882 1.4282967 0 47
-0.94685441 -9.9063034 1.5219414 0 48
-0.94920963 -9.9309444 1.6197655 0 49
-0.94682175 -9.905962 1.7097732 0 50
0 0 0 0 51
0 0 0 0 52
0 0 0 0 53
0 0 0 0 54
0 0 0 0 55
0 0 0 0 56
0 0 0 0 57
0 0 0 0 58
0 0 0 0 59
0 0 0 0 60
0 0 0 0 61
0 0 0 0 62
0 0 0 0 63
-0.20407775 -2.453248 -0.733872 0 0
-0.21133484 -2.5404863 -0.73450696 0 1
-0.21925406 -2.6356845 -0.73575443 0 2
-0.22745037 -2.7342136 -0.73613948 0 3
-0.23647986 -2.8427584 -0.73730606 0 4
-0.24423341 -2.9359648 -0.73264068 0 5
-0.25540629 -3.0702758 -0.73613524 0 6
-0.26590431 -3.1964741 -0.73527455 0 7
-0.27560616 -3.3131011 -0.72998399 0 8
-0.29065248 -3.4939752 -0.73610163 0 9
-0.30425605 -3.6575055 -0.73537618 0 10
-0.31737009 -3.8151512 -0.73051351 0 11
-0.33400902 -4.0151706 -0.73047191 0 12
-0.35535884 -4.2718196 -0.73650801 0 13
-0.3757965 -4.5175037 -0.73600847 0 14
-0.39868775 -4.7926826 -0.7355085 0 15
-0.42449895 -5.1029625 -0.7349931 0 16
-0.45344415 -5.4509172 -0.73383105 0 17
-0.48551735 -5.8364739 -0.73096609 0 18
-0.53062636 -6.3787355 -0.73915744 0 19
-0.57588363 -6.9227796 -0.73752224 0 20
-0.63229114 -7.6008625 -0.73888731 0 21
-0.69802284 -8.3910332 -0.73759705 0 22
-0.78073406 -9.3853159 -0.73777992 0 23
-0.82501471 -9.9176207 -0.68759274 0 24
-0.82538033 -9.9220152 -0.59594202 0 25
-0.82473075 -9.9142075 -0.50369108 0 26
-0.82388419 -9.9040308 -0.41157168 0 27
-0.82333076 -9.897377 -0.31982404 0 28
-0.82513702 -9.9190903 -0.22890818 0 29
-0.82401288 -9.9055767 -0.13714232 0 30
-0.82477653 -9.9147577 -0.045753893 0 31
-0.82464415 -9.913166 0.04574655 0 32
-0.82443035 -9.9105959 0.13721181 0 33
-0.82410401 -9.9066725 0.2286216 0 34
-0.82456881 -9.9122601 0.32030499 0 35
-0.82518262 -9.9196386 0.4122203 0 36
-0.82437259 -9.9099016 0.50347233 0 37
-0.8248046 -9.9150944 0.59552634 0 38
-0.82577878 -9.9268055 0.68822956 0 39
-0.82490176 -9.9162626 0.77951759 0 40
-0.82325399 -9.8964539 0.86992812 0 41
-0.82393515 -9.9046431 0.96284008 0 42
-0.82386959 -9.9038544 1.0551127 0 43
-0.82476234 -9.9145861 1.1488861 0 44
-0.82418817 -9.9076843 1.2408487 0 45
-0.8242414 -9.9083242 1.3339105 0 46
-0.82497692 -9.9171667 1.4283955 0 47
-0.82477421 -9.9147291 1.5215628 0 48
-0.82359457 -9.9005489 1.6130341 0 49
-0.82484519 -9.9155827 1.709554 0 50
0 0 0 0 51
0 0 0 0 52
0 0 0 0 53
0 0 0 0 54
0 0 0 0 55
0 0 0 0 56
0 0 0 0 57
0 0 0 0 58
0 0 0 0 59
0 0 0 0 60
0 0 0 0 61
0 0 0 0 62
0 0 0 0 63
-0.17356086 -2.4508066 -0.73244792 0 0
-0.1795461 -2.5353227 -0.73232037 0 1
-0.18627985 -2.630408 -0.73358661 0 2
-0.19328587 -2.7293382 -0.73413146 0 3
-0.19993241 -2.8231924 -0.73153841 0 4
-0.20726009 -2.9266646 -0.72962874 0 5
-0.21700718 -3.0643005 -0.7340073 0 6
-0.22542259 -3.1831322 -0.73151267 0 7
-0.23710179 -3.3480513 -0.73698652 0 8
-0.24817768 -3.5044508 -0.73760992 0 9
-0.25802514 -3.6435044 -0.73186785 0 10
-0.2725774 -3.8489928 -0.73629594 0 11
-0.28632677 -4.0431442 -0.73486501 0 12
-0.30107167 -4.2513528 -0.73228568 0 13
-0.31864798 -4.4995432 -0.7323885 0 14
-0.33702338 -4.759017 -0.72965086 0 15
-0.36116758 -5.0999513 -0.73386419 0 16
-0.38764274 -5.4738002 -0.73621428 0 17
-0.41621816 -5.8773055 -0.73538333 0 18
-0.44946527 -6.3467793 -0.73475844 0 19
-0.48787856 -6.8892031 -0.73325056 0 20
-0.5335142 -7.5336118 -0.73165679 0 21
-0.58753186 -8.296381 -0.72858673 0 22
-0.65547419 -9.2557764 -0.72690821 0 23
-0.70177531 -9.9095821 -0.68638527 0 24
-0.70183253 -9.9103909 -0.59468049 0 25
-0.70214474 -9.9147987 -0.50324446 0 26
-0.70181316 -9.9101171 -0.41143486 0 27
-0.70242745 -9.9187908 -0.32021269 0 28
-0.70140541 -9.9043589 -0.22835192 0 29
-0.70141011 -9.9044256 -0.13699661 0 30
-0.7016983 -9.9084949 -0.045681726 0 31
-0.70208812 -9.9139986 0.045707099 0 32
-0.70192188 -9.9116516 0.13709657 0 33
-0.70185751 -9.9107428 0.2284991 0 34
-0.70194781 -9.9120178 0.31999403 0 35
-0.70179909 -9.9099178 0.41142663 0 36
-0.70241332 -9.9185915 0.50343698 0 37
-0.70189548 -9.9112787 0.59473377 0 38
-0.701473 -9.9053135 0.68608958 0 39
-0.70319706 -9.9296579 0.77983195 0 40
-0.7022084 -9.9156981 0.87079483 0 41
-0.70259434 -9.9211473 0.96353179 0 42
-0.7014069 -9.9043798 1.0541701 0 43
-0.70206654 -9.9136944 1.1476955 0 44
-0.70163667 -9.9076242 1.2396669 0 45
-0.70162219 -9.9074192 1.3325266 0 46
-0.70093864 -9.897768 1.4242524 0 47
-0.70228708 -9.9168081 1.5204417 0 48
-0.70104414 -9.8992577 1.6112975 0 49
-0.70225817 -9.9164 1.708077 0 50
0 0 0 0 51
0 0 0 0 52
0 0 0 0 53
0 0 0 0 54
0 0 0 0 55
0 0 0 0 56
0 0 0 0 57
0 0 0 0 58
0 0 0 0 59
0 0 0 0 60
0 0 0 0 61
0 0 0 0 62
0 0 0 0 63
-0.14433505 -2.4685123 -0.73715323 0 0
-0.14861538 -2.5417171 -0.73358405 0 1
-0.15431592 -2.6392114 -0.73545694 0 2
-0.1599424 -2.7354393 -0.73518795 0 3
-0.16679037 -2.8525577 -0.7385602 0 4
-0.17146689 -2.9325385 -0.73051226 0 5
-0.17944424 -3.0689726 -0.73454237 0 6
-0.18734713 -3.2041328 -0.73575372 0 7
-0.19555077 -3.3444366 -0.73560596 0 8
-0.20344943 -3.4795249 -0.73178166 0 9
-0.21335541 -3.6489434 -0.73237807 0 10
-0.22539134 -3.8547897 -0.73681903 0 11
-0.23671585 -4.0484691 -0.73524821 0 12
-0.24848831 -4.2498093 -0.73143816 0 13
-0.26420334 -4.5185776 -0.73490244 0 14
-0.28070039 -4.8007212 -0.7354601 0 15
-0.29910585 -5.1155038 -0.73551732 0 16
-0.31854564 -5.4479756 -0.73215878 0 17
-0.34109953 -5.8337064 -0.72934812 0 18
-0.37350345 -6.3878994 -0.7389313 0 19
-0.4047718 -6.9226713 -0.73622733 0 20
-0.44296092 -7.5758066 -0.73517013 0 21
-0.48931685 -8.3686161 -0.73434645 0 22
-0.54554719 -9.3303032 -0.73217905 0 23
-0.57980633 -9.9162264 -0.68629974 0 24
-0.57852834 -9.8943691 -0.59324741 0 25
-0.57979125 -9.9159679 -0.50290388 0 26
-0.57990003 -9.9178286 -0.41142789 0 27
-0.57960892 -9.9128494 -0.31976664 0 28
-0.57970345 -9.9144659 -0.22840333 0 29
-0.57966876 -9.9138727 -0.13701834 0 30
-0.57952648 -9.9114399 -0.045658994 0 31
-0.58023053 -9.923481 0.045714468 0 32
-0.57905078 -9.9033041 0.13687226 0 33
-0.57872647 -9.8977575 0.22801842 0 34
-0.57975042 -9.9152699 0.31984472 0 35
-0.57891077 -9.9009094 0.41072601 0 36
-0.57992309 -9.9182224 0.50301826 0 37
-0.57972407 -9.9148188 0.59447354 0 38
-0.57968265 -9.9141111 0.68615335 0 39
-0.58001298 -9.9197607 0.77843565 0 40
-0.5794915 -9.9108419 0.86967683 0 41
-0.57942975 -9.9097853 0.96166372 0 42
-0.57902652 -9.9028893 1.053174 0 43
-0.57978243 -9.9158173 1.1470293 0 44
-0.57984203 -9.9168367 1.2398337 0 45
-0.57885295 -9.8999214 1.3304601 0 46
-0.57932848 -9.9080534 1.4245996 0 47
-0.57983828 -9.9167728 1.5192281 0 48
-0.57974207 -9.9151268 1.6125983 0 49
-0.5796178 -9.9130011 1.7061348 0 50
0 0 0 0 51
0 0 0 0 52
0 0 0 0 53
0 0 0 0 54
0 0 0 0 55
0 0 0 0 56
0 0 0 0 57
0 0 0 0 58
0 0 0 0 59
0 0 0 0 60
0 0 0 0 61
0 0 0 0 62
0 0 0 0 63
-0.11396416 -2.4699206 -0.73709965 0 0
-0.11658996 -2.526829 -0.72881818 0 1
-0.12225458 -2.6495972 -0.73787642 0 2
-0.12559706 -2.722038 -0.73111582 0 3
-0.13103238 -2.8398366 -0.73479384 0 4
-0.1353925 -2.9343324 -0.73048919 0 5
-0.14247245 -3.0877748 -0.73856741 0 6
-0.14747503 -3.1961946 -0.73345912 0 7
-0.15359899 -3.328918 -0.73172188 0 8
-0.16122909 -3.4942834 -0.73441309 0 9
-0.16934693 -3.6702197 -0.73617476 0 10
-0.17721289 -3.8406968 -0.73365325 0 11
-0.18605584 -4.0323482 -0.73184967 0 12
-0.19777879 -4.286417 -0.73726451 0 13
-0.20823282 -4.5129848 -0.73352093 0 14
-0.22140355 -4.7984314 -0.73463672 0 15
-0.23443228 -5.0808001 -0.7300579 0 16
-0.25313094 -5.4860525 -0.73680198 0 17
-0.27135468 -5.8810115 -0.73478967 0 18
-0.29226378 -6.3341699 -0.73224497 0 19
-0.31768876 -6.8852 -0.73177147 0 20
-0.3520917 -7.6308074 -0.74003142 0 21
-0.38867515 -8.4236727 -0.73870248 0 22
-0.4337028 -9.3995476 -0.73713863 0 23
-0.45747915 -9.9148464 -0.68576312 0 24
-0.45738873 -9.9128876 -0.5939756 0 25
-0.4574956 -9.9152031 -0.50254184 0 26
-0.4570621 -9.9058084 -0.41066507 0 27
-0.45667017 -9.8973141 -0.31906024 0 28
-0.45670277 -9.8980207 -0.22787786 0 29
-0.45757204 -9.9168606 -0.1369715 0 30
-0.45725185 -9.9099207 -0.045622647 0 31
-0.45743731 -9.9139404 0.04564115 0 32
-0.45680654 -9.9002695 0.13674235 0 33
-0.45729962 -9.9109554 0.22817567 0 34
-0.45676735 -9.8994207 0.31912816 0 35
-0.45744136 -9.9140282 0.41100582 0 36
-0.45702559 -9.9050169 0.50202554 0 37
-0.45644513 -9.892437 0.59275025 0 38
-0.45700604 -9.9045935 0.68505394 0 39
-0.45670152 -9.8979931 0.77622813 0 40
-0.45742986 -9.9137793 0.86937529 0 41
-0.45752636 -9.9158707 0.96163553 0 42
-0.45706549 -9.9058819 1.0528151 0 43
-0.45740497 -9.9132395 1.1459938 0 44
-0.45704132 -9.9053583 1.2376025 0 45
-0.45727181 -9.9103537 1.3310058 0 46
-0.45759806 -9.9174242 1.4250302 0 47
-0.4571754 -9.9082642 1.5169487 0 48
-0.45735958 -9.9122553 1.6110948 0 49
-0.45703095 -9.9051332 1.7036847 0 50
0 0 0 0 51
0 0 0 0 52
0 0 0 0 53
0 0 0 0 54
0 0 0 0 55
0 0 0 0 56
0 0 0 0 57
0 0 0 0 58
0 0 0 0 59
0 0 0 0 60
0 0 0 0 61
0 0 0 0 62
0 0 0 0 63
-0.083140478 -2.4579482 -0.73316616 0 0
-0.086283229 -2.5508597 -0.7353878 0 1
-0.089216106 -2.6375668 -0.73416507 0 2
-0.092816435 -2.7440062 -0.73665398 0 3
-0.096236549 -2.8451178 -0.73579854 0 4
-0.099779665 -2.9498656 -0.7339952 0 5
-0.10396469 -3.0735908 -0.73481339 0 6
-0.10838189 -3.20418 -0.73493016 0 7
-0.11330777 -3.349808 -0.73595178 0 8
-0.11800534 -3.4886856 -0.73287618 0 9
-0.12395766 -3.664659 -0.73469818 0 10
-0.13057645 -3.8603351 -0.73704219 0 11
-0.13736373 -4.0609932 -0.73668635 0 12
-0.14484021 -4.2820263 -0.73614734 0 13
-0.15314917 -4.5276709 -0.73554623 0 14
-0.16348143 -4.8331318 -0.73958558 0 15
-0.17367306 -5.1344352 -0.73740208 0 16
-0.18507265 -5.4714503 -0.73447961 0 17
-0.19831567 -5.8629642 -0.73217469 0 18
-0.21619283 -6.3914804 -0.73850709 0 19
-0.23436946 -6.9288507 -0.73604882 0 20
-0.25591353 -7.5657749 -0.73336399 0 21
-0.28204003 -8.3381739 -0.73084539 0 22
-0.31997216 -9.4595909 -0.74148285 0 23
-0.33509544 -9.9066935 -0.68486243 0 24
-0.33493254 -9.9018774 -0.59302425 0 25
-0.33539507 -9.9155512 -0.50231242 0 26
-0.3346791 -9.8943844 -0.40998983 0 27
-0.33529991 -9.9127378 -0.3194004 0 28
-0.33481815 -9.8984957 -0.22777678 0 29
-0.33569044 -9.924284 -0.13700667 0 30
-0.33468336 -9.8945103 -0.045529313 0 31
-0.33513385 -9.9078293 0.045590598 0 32
-0.33468536 -9.8945694 0.13659646 0 33
-0.33501682 -9.9043684 0.22791193 0 34
-0.33517489 -9.9090424 0.31928131 0 35
-0.33513364 -9.9078226 0.41054666 0 36
-0.33510461 -9.9069643 0.50187749 0 37
-0.33487567 -9.9001961 0.59292358 0 38
-0.3346242 -9.8927612 0.68389928 0 39
-0.33533159 -9.9136753 0.77707583 0 40
-0.33506227 -9.9057121 0.86824095 0 41
-0.33508778 -9.9064665 0.96025139 0 42
-0.33509228 -9.9066 1.0523738 0 43
-0.33526284 -9.9116421 1.145246 0 44
-0.33505791 -9.9055843 1.2370224 0 45
-0.3351846 -9.9093294 1.3302141 0 46
-0.33501077 -9.9041901 1.4224291 0 47
-0.3349914 -9.9036169 1.5154921 0 48
-0.33529526 -9.9126005 1.6103591 0 49
-0.33532852 -9.9135838 1.7043 0 50
0 0 0 0 51
0 0 0 0 52
0 0 0 0 53
0 0 0 0 54
0 0 0 0 55
0 0 0 0 56
0 0 0 0 57
0 0 0 0 58
0 0 0 0 59
0 0 0 0 60
0 0 0 0 61
0 0 0 0 62
0 0 0 0 63
-0.053209163 -2.4725752 -0.73727828 0 0
-0.05517656 -2.5639982 -0.73892409 0 1
-0.056679741 -2.6338496 -0.73288101 0 2
-0.059056967 -2.7443168 -0.73648679 0 3
-0.061222151 -2.8449306 -0.7354998 0 4
-0.063405611 -2.9463937 -0.7328819 0 5
-0.066494107 -3.0899129 -0.73846436 0 6
-0.068640113 -3.189636 -0.73134536 0 7
-0.071677387 -3.3307748 -0.73152125 0 8
-0.075456157 -3.5063703 -0.73634064 0 9
-0.078939095 -3.6682189 -0.73516166 0 10
-0.082904987 -3.85251 -0.73529792 0 11
-0.087399475 -4.0613642 -0.73650301 0 12
-0.091945045 -4.2725921 -0.73427552 0 13
-0.096745424 -4.4956608 -0.73009753 0 14
-0.10338923 -4.8043914 -0.73493755 0 15
-0.10975012 -5.0999756 -0.7322039 0 16
-0.11834666 -5.4994483 -0.73798692 0 17
-0.1268703 -5.8955336 -0.73599154 0 18
-0.13664256 -6.3496404 -0.73342299 0 19
-0.14805137 -6.8797956 -0.73058903 0 20
-0.16433194 -7.6363368 -0.73995185 0 21
-0.1806592 -8.3950481 -0.73558009 0 22
-0.20120612 -9.3498421 -0.73263091 0 23
-0.21299408 -9.8976173 -0.68400222 0 24
-0.21316276 -9.9054556 -0.59303671 0 25
-0.2131418 -9.9044809 -0.50158095 0 26
-0.21295609 -9.8958511 -0.40991113 0 27
-0.21349023 -9.9206724 -0.3195473 0 28
-0.21325105 -9.9095583 -0.22795379 0 29
-0.2130392 -9.8997135 -0.13662098 0 30
-0.21303666 -9.8995953 -0.045537215 0 31
-0.21284482 -9.8906813 0.04549621 0 32
-0.21312888 -9.9038801 0.13667849 0 33
-0.21307163 -9.9012203 0.227762 0 34
-0.21316339 -9.9054842 0.31905809 0 35
-0.21338694 -9.9158726 0.41074046 0 36
-0.21317722 -9.906127 0.50166434 0 37
-0.21297424 -9.8966951 0.59251225 0 38
-0.21323259 -9.9087009 0.68476814 0 39
-0.21300635 -9.8981867 0.77559787 0 40
-0.21282816 -9.8899069 0.8665607 0 41
-0.21312641 -9.9037666 0.95966303 0 42
-0.21317664 -9.9061003 1.0519627 0 43
-0.21291125 -9.8937674 1.1427919 0 44
-0.2134648 -9.9194908 1.2383378 0 45
-0.21346864 -9.9196692 1.3311492 0 46
-0.21321014 -9.9076567 1.422443 0 47
-0.21296008 -9.8960371 1.513817 0 48
-0.21293761 -9.8949928 1.6069517 0 49
-0.21313015 -9.9039392 1.7020628 0 50
0 0 0 0 51
0 0 0 0 52
0 0 0 0 53
0 0 0 0 54
0 0 0 0 55
0 0 0 0 56
0 0 0 0 57
0 0 0 0 58
0 0 0 0 59
0 0 0 0 60
0 0 0 0 61
0 0 0 0 62
0 0 0 0 63
-0.022671154 -2.4586909 -0.73299968 0 0
-0.023452915 -2.543473 -0.73287034 0 1
-0.024379548 -2.6439667 -0.73555708 0 2
-0.025347559 -2.7489476 -0.73759013 0 3
-0.026334891 -2.8560238 -0.73822826 0 4
-0.027236268 -2.9537785 -0.73457992 0 5
-0.028485078 -3.0892119 -0.73815733 0 6
-0.029539971 -3.2036154 -0.7344119 0 7
-0.030838506 -3.3444419 -0.73438406 0 8
-0.032245222 -3.4970005 -0.73423421 0 9
-0.033820368 -3.6678252 -0.73494387 0 10
-0.03551238 -3.8513246 -0.73493272 0 11
-0.037450314 -4.0614939 -0.73638731 0 12
-0.039332714 -4.2656403 -0.73294228 0 13
-0.041859929 -4.5397172 -0.737113 0 14
-0.044281002 -4.8022828 -0.73447621 0 15
-0.047383402 -5.1387386 -0.73762965 0 16
-0.050454497 -5.4717999 -0.73413795 0 17
-0.054223333 -5.8805308 -0.73397988 0 18
-0.058934398 -6.3914466 -0.73811239 0 19
-0.063879341 -6.9277263 -0.73553997 0 20
-0.069857314 -7.5760388 -0.73397028 0 21
-0.078095444 -8.4694653 -0.74196041 0 22
-0.086850844 -9.4189911 -0.73790973 0 23
-0.091203153 -9.8909988 -0.68341571 0 24
-0.091147542 -9.8849688 -0.59169841 0 25
-0.091244422 -9.8954754 -0.50103021 0 26
-0.091272384 -9.8985071 -0.4099437 0 27
-0.091190301 -9.8896055 -0.31848645 0 28
-0.091336526 -9.9054632 -0.22781654 0 29
-0.091264822 -9.897687 -0.13656721 0 30
-0.091269858 -9.8982334 -0.045522347 0 31
-0.091339864 -9.9058256 0.045557264 0 32
-0.091307327 -9.902297 0.1366308 0 33
-0.091256343 -9.8967676 0.22761653 0 34
-0.09128654 -9.9000425 0.31882256 0 35
-0.091337405 -9.9055586 0.4102357 0 36
-0.091234431 -9.8943911 0.50097531 0 37
-0.091244094 -9.8954391 0.59232515 0 38
-0.091325864 -9.9043074 0.68433523 0 39
-0.091280386 -9.899375 0.7755444 0 40
-0.091250345 -9.8961172 0.86694098 0 41
-0.091481991 -9.9212399 0.96117449 0 42
-0.091320999 -9.90378 1.0515176 0 43
-0.091314152 -9.9030371 1.1436464 0 44
-0.091486081 -9.9216833 1.2383773 0 45
-0.091303743 -9.9019079 1.3285147 0 46
-0.091388799 -9.9111328 1.4226731 0 47
-0.091332704 -9.9050484 1.5149091 0 48
-0.091168575 -9.887249 1.6053908 0 49
-0.091279238 -9.899251 1.7009356 0 50
0 0 0 0 51
0 0 0 0 52
0 0 0 0 53
0 0 0 0 54
0 0 0 0 55
0 0 0 0 56
0 0 0 0 57
0 0 0 0 58
0 0 0 0 59
0 0 0 0 60
0 0 0 0 61
0 0 0 0 62
0 0 0 0 63
0.0075566322 -2.4572022 -0.73252815 0 0
0.0078292172 -2.5458391 -0.73352438 0 1
0.0081734564 -2.6577761 -0.73937094 0 2
0.0084073655 -2.7338364 -0.73350787 0 3
0.0087828562 -2.8559353 -0.73817742 0 4
0.0090821097 -2.9532442 -0.73441929 0 5
0.0094625093 -3.0769393 -0.73519695 0 6
0.0098902276 -3.2160213 -0.73722798 0 7
0.010287999 -3.3453653 -0.73455912 0 8
0.010697226 -3.4784341 -0.73030841 0 9
0.011287942 -3.6705179 -0.73545563 0 10
0.011884188 -3.8644004 -0.73740011 0 11
0.012463152 -4.0526633 -0.7347585 0 12
0.01310352 -4.2608924 -0.73209882 0 13
0.013931076 -4.5299907 -0.73550588 0 14
0.014707003 -4.7822995 -0.73139226 0 15
0.015742376 -5.1189737 -0.73476481 0 16
0.016795281 -5.461349 -0.73270804 0 17
0.018200008 -5.9181256 -0.73864442 0 18
0.019540552 -6.3540325 -0.73376393 0 19
0.021116501 -6.8664865 -0.7290104 0 20
0.023408772 -7.6118679 -0.73741364 0 21
0.025737381 -8.3690653 -0.73313719 0 22
0.028616963 -9.3054237 -0.72898507 0 23
0.030455669 -9.9033184 -0.68424106 0 24
0.030423768 -9.8929453 -0.59215349 0 25
0.030384047 -9.8800287 -0.50022924 0 26
0.030426377 -9.8937941 -0.409733 0 27
0.030425463 -9.8934965 -0.3185997 0 28
0.030419827 -9.8916636 -0.22749054 0 29
0.030445112 -9.8998861 -0.13659237 0 30
0.03045932 -9.9045057 -0.045549471 0 31
0.030444521 -9.8996935 0.045527343 0 32
0.030435124 -9.8966379 0.13654757 0 33
0.030407054 -9.8875103 0.22739504 0 34
0.030445671 -9.9000673 0.31881133 0 35
0.030433334 -9.8960562 0.40982667 0 36
0.030439971 -9.8982143 0.50114995 0 37
0.030443149 -9.8992472 0.59253067 0 38
0.030426225 -9.8937445 0.68357956 0 39
0.030431634 -9.895503 0.77521175 0 40
0.030504458 -9.9191828 0.86892885 0 41
0.030475736 -9.9098434 0.96003419 0 42
0.030457778 -9.9040041 1.0515016 0 43
0.030448241 -9.9009037 1.1433567 0 44
0.030470053 -9.9079952 1.2366222 0 45
0.030428018 -9.8943272 1.3274474 0 46
0.030459026 -9.9044104 1.4216545 0 47
0.030451633 -9.9020061 1.5143867 0 48
0.030467782 -9.9072571 1.6085787 0 49
0.030439693 -9.8981237 1.7006776 0 50
0 0 0 0 51
0 0 0 0 52
0 0 0 0 53
0 0 0 0 54
0 0 0 0 55
0 0 0 0 56
0 0 0 0 57
0 0 0 0 58
0 0 0 0 59
0 0 0 0 60
0 0 0 0 61
0 0 0 0 62
0 0 0 0 63
0.038014598 -2.4729202 -0.73729753 0 0
0.039254948 -2.5536072 -0.73584604 0 1
0.040442187 -2.6308393 -0.73196042 0 2
0.042325981 -2.7533836 -0.73883623 0 3
0.043953825 -2.859278 -0.73912525 0 4
0.045570143 -2.9644222 -0.73728269 0 5
0.047183216 -3.0693557 -0.73346817 0 6
0.04917359 -3.1988332 -0.73337108 0 7
0.051800083 -3.3696916 -0.73998445 0 8
0.053617828 -3.4879391 -0.73238707 0 9
0.05647102 -3.6735446 -0.73614556 0 10
0.05931199 -3.858355 -0.73633003 0 11
0.062096342 -4.0394821 -0.73245186 0 12
0.065844946 -4.2833357 -0.73603845 0 13
0.069484927 -4.5201235 -0.73398703 0 14
0.074197762 -4.8267021 -0.73826677 0 15
0.078602694 -5.1132512 -0.73402661 0 16
0.084450394 -5.4936547 -0.73712587 0 17
0.090421289 -5.8820729 -0.7342279 0 18
0.097135462 -6.3188419 -0.72978288 0 19
0.10669087 -6.9404392 -0.73694551 0 20
0.11616808 -7.5569491 -0.7321763 0 21
0.12984301 -8.4465294 -0.74000704 0 22
0.14407945 -9.3726349 -0.73433363 0 23
0.15211527 -9.895381 -0.68377018 0 24
0.15206674 -9.8922234 -0.59217745 0 25
0.15201561 -9.8888969 -0.50073504 0 26
0.15234926 -9.9106016 -0.41047561 0 27
0.1524016 -9.9140072 -0.31929642 0 28
0.15220991 -9.9015369 -0.22774345 0 29
0.15221529 -9.9018869 -0.13663548 0 30
0.15214461 -9.8972893 -0.045521449 0 31
0.15210767 -9.894886 0.045510393 0 32
0.15192765 -9.8831749 0.13637729 0 33
0.15218028 -9.8996096 0.22769913 0 34
0.15215896 -9.898222 0.31878805 0 35
0.15218993 -9.9002371 0.41004634 0 36
0.15218748 -9.9000778 0.50130117 0 37
0.15215281 -9.8978224 0.59251261 0 38
0.15221295 -9.9017344 0.68420917 0 39
0.15226874 -9.905364 0.77607226 0 40
0.15225859 -9.9047041 0.86775887 0 41
0.15200946 -9.8884974 0.95807487 0 42
0.15195623 -9.8850355 1.0496068 0 43
0.15200788 -9.8883944 1.1420418 0 44
0.15209179 -9.8938532 1.2349972 0 45
0.15212268 -9.8958626 1.327804 0 46
0.15186898 -9.8793592 1.4182196 0 47
0.15210232 -9.8945379 1.5134162 0 48
0.15235071 -9.910697 1.6093196 0 49
0.15225703 -9.9046021 1.7019838 0 50
0 0 0 0 51
0 0 0 0 52
0 0 0 0 53
0 0 0 0 54
0 0 0 0 55
0 0 0 0 56
0 0 0 0 57
0 0 0 0 58
0 0 0 0 59
0 0 0 0 60
0 0 0 0 61
0 0 0 0 62
0 0 0 0 63
0.033146545 -1.1977481 -0.35720137 0 0
0.033023901 -1.1933165 -0.34395641 0 1
0.033127151 -1.1970472 -0.33313441 0 2
0.033362813 -1.2055629 -0.32358342 0 3
0.033056617 -1.1944985 -0.30886039 0 4
0.033209492 -1.2000226 -0.29853714 0 5
0.033021852 -1.1932423 -0.28521845 0 6
0.032623667 -1.178854 -0.270338 0 7
0.033482164 -1.2098757 -0.26575908 0 8
0.032871027 -1.1877922 -0.24947508 0 9
0.032810237 -1.1855956 -0.23764567 0 10
0.033023838 -1.1933141 -0.22779281 0 11
0.033401605 -1.2069647 -0.21890862 0 12
0.033223156 -1.2005163 -0.20634854 0 13
0.032718841 -1.1822929 -0.19203402 0 14
0.033141684 -1.1975725 -0.18322282 0 15
0.032788537 -1.1848116 -0.17012922 0 16
0.0332161 -1.2002615 -0.16109093 0 17
0.033301327 -1.2033411 -0.15024644 0 18
0.032710191 -1.1819805 -0.13654678 0 19
0.033382483 -1.2062737 -0.12811771 0 20
0.033017054 -1.193069 -0.11562444 0 21
0.033165433 -1.1984305 -0.10502323 0 22
0.032729771 -1.182688 -0.092686579 0 23
0.033182025 -1.1990302 -0.082874835 0 24
0.033584952 -1.2135899 -0.072668269 0 25
0.033017181 -1.1930735 -0.060428556 0 26
0.033044636 -1.1940657 -0.049468696 0 27
0.032919019 -1.1895264 -0.038320739 0 28
0.033080235 -1.1953521 -0.027501352 0 29
0.033085171 -1.1955303 -0.01650141 0 30
0.033246279 -1.201352 -0.0055269431 0 31
0.03347984 -1.2097917 0.0055657709 0 32
0.033295628 -1.2031353 0.016606377 0 33
0.032999236 -1.1924251 0.027434012 0 34
0.033363346 -1.2055821 0.038837973 0 35
0.033382218 -1.2062641 0.049974065 0 36
0.032991037 -1.1921288 0.060380708 0 37
0.033208646 -1.1999922 0.071854055 0 38
0.033127561 -1.197062 0.082738802 0 39
0.033628557 -1.2151656 0.095231831 0 40
0.032955013 -1.1908271 0.10435691 0 41
0.033201527 -1.1997348 0.11627045 0 42
0.033103973 -1.1962097 0.12704884 0 43
0.033297241 -1.2031934 0.13899736 0 44
0.033065449 -1.1948177 0.14918222 0 45
0.0329988 -1.1924094 0.16003709 0 46
0.033298038 -1.2032223 0.17277285 0 47
0.03343831 -1.2082911 0.1848627 0 48
0.033233985 -1.2009078 0.19505753 0 49
0.033277299 -1.2024728 0.20668483 0 50
0.033490691 -1.2101837 0.21949247 0 51
0.033501908 -1.2105892 0.23109047 0 52
0.033328313 -1.2043164 0.24139813 0 53
0.033036292 -1.1937641 0.25072938 0 54
0.033271778 -1.2022735 0.2640892 0 55
0.033037737 -1.1938163 0.2737692 0 56
0.032941423 -1.1903361 0.28452379 0 57
0.033248611 -1.2014362 0.2988888 0 58
0.033288337 -1.2028717 0.31102544 0 59
0.03307043 -1.1949977 0.32074764 0 60
0.033101086 -1.1961055 0.3328723 0 61
0.03302354 -1.1933033 0.34395266 0 62
0.033033062 -1.1936474 0.3559784 0 63
0.047479562 -1.1874602 -0.35428056 0 0
0.048210923 -1.2057514 -0.34768522 0 1
0.047822945 -1.1960481 -0.33299482 0 2
0.047868352 -1.1971837 -0.32146809 0 3
0.047625974 -1.1911219 -0.30811545 0 4
0.047716748 -1.1933922 -0.29701114 0 5
0.047273424 -1.1823046 -0.28272161 0 6
0.047900017 -1.1979758 -0.27483734 0 7
0.047998186 -1.2004309 -0.26379415 0 8
0.04737087 -1.1847417 -0.2489379 0 9
0.047920674 -1.1984924 -0.24033068 0 10
0.048023686 -1.2010686 -0.22936848 0 11
0.048196532 -1.2053915 -0.21871424 0 12
0.047526948 -1.1886452 -0.20439309 0 13
0.047990184 -1.2002307 -0.19502866 0 14
0.047812942 -1.195798 -0.18302745 0 15
0.047827598 -1.1961645 -0.17183086 0 16
0.048040301 -1.2014842 -0.16132213 0 17
0.047823109 -1.1960523 -0.14939849 0 18
0.047847208 -1.1966549 -0.13829952 0 19
0.047782011 -1.1950244 -0.12697574 0 20
0.047909755 -1.1982193 -0.11617188 0 21
0.048224397 -1.2060884 -0.10573828 0 22
0.048180617 -1.2049935 -0.094473936 0 23
0.047907226 -1.198156 -0.082848869 0 24
0.048012201 -1.2007815 -0.071931228 0 25
0.047893587 -1.1978149 -0.060693949 0 26
0.047601044 -1.1904984 -0.049341429 0 27
0.047984846 -1.2000973 -0.038677365 0 28
0.047707498 -1.1931608 -0.02746236 0 29
0.047636159 -1.1913766 -0.016450919 0 30
0.048353937 -1.2093282 -0.005565953 0 31
0.04797449 -1.1998383 0.0055222758 0 32
0.04838457 -1.2100943 0.01670938 0 33
0.048183329 -1.2050613 0.027736265 0 34
0.047683652 -1.1925644 0.038434587 0 35
0.048069816 -1.2022223 0.049827337 0 36
0.047983192 -1.2000558 0.0608075 0 37
0.047969889 -1.1997231 0.071867831 0 38
0.048118632 -1.2034432 0.083214462 0 39
0.04850173 -1.2130245 0.095103577 0 40
0.04812951 -1.2037153 0.10553023 0 41
0.04740119 -1.1855 0.11493871 0 42
0.047960225 -1.1994815 0.12744932 0 43
0.047677081 -1.1924001 0.13780779 0 44
0.048071291 -1.2022593 0.15017381 0 45
0.047871523 -1.197263 0.16075535 0 46
0.047903549 -1.1980641 0.17210373 0 47
0.048408389 -1.21069 0.1853068 0 48
0.04768423 -1.1925789 0.19378529 0 49
0.047304168 -1.1830736 0.20343502 0 50
0.048425265 -1.2111121 0.21975222 0 51
0.048175961 -1.204877 0.23009576 0 52
0.04732459 -1.1835843 0.23734121 0 53
0.047779948 -1.1949728 0.25108767 0 54
0.048385758 -1.210124 0.26592425 0 55
0.048248842 -1.2066998 0.27683881 0 56
0.047453653 -1.1868122 0.2837995 0 57
0.047338728 -1.1839379 0.29465815 0 58
0.047933824 -1.1988212 0.31010708 0 59
0.047782939 -1.1950475 0.32089448 0 60
0.048007358 -1.2006602 0.33427891 0 61
0.047809385 -1.195709 0.34478942 0 62
0.047666557 -1.1921369 0.35567585 0 63
0.062440407 -1.193745 -0.35635778 0 0
0.062693685 -1.1985873 -0.34581554 0 1
0.063094437 -1.2062488 -0.33602542 0 2
0.062003482 -1.1853918 -0.31848237 0 3
0.062666439 -1.1980662 -0.31008765 0 4
0.063031524 -1.2050461 -0.30008179 0 5
0.062525891 -1.1953793 -0.28601035 0 6
0.063332759 -1.2108052 -0.27793831 0 7
0.062587179 -1.196551 -0.26309079 0 8
0.062037706 -1.1860461 -0.24935342 0 9
0.06279552 -1.2005341 -0.24087673 0 10
0.06208748 -1.1869978 -0.22680999 0 11
0.063308008 -1.2103319 -0.21973529 0 12
0.062174957 -1.18867 -0.20451337 0 13
0.062574282 -1.1963044 -0.194501 0 14
0.06122648 -1.170537 -0.17926271 0 15
0.06279356 -1.2004967 -0.17255107 0 16
0.062971584 -1.2039001 -0.16173826 0 17
0.062731139 -1.1993033 -0.14988959 0 18
0.062413726 -1.1932349 -0.13798255 0 19
0.061847094 -1.182402 -0.12570587 0 20
0.062333215 -1.1916957 -0.11560497 0 21
0.062540337 -1.1956555 -0.10488312 0 22
0.062878571 -1.2021219 -0.094302282 0 23
0.06272576 -1.1992004 -0.082968146 0 24
0.062500581 -1.1948955 -0.071619257 0 25
0.062608331 -1.1969553 -0.060684815 0 26
0.063171789 -1.2077277 -0.05008392 0 27
0.062736347 -1.1994028 -0.038676921 0 28
0.062261906 -1.1903324 -0.027412808 0 29
0.062010676 -1.1855294 -0.01637947 0 30
0.062680364 -1.1983325 -0.005518476 0 31
0.06231552 -1.1913574 0.0054863542 0 32
0.062545508 -1.1957544 0.01652074 0 33
0.062081639 -1.1868861 0.02733344 0 34
0.061557766 -1.1768706 0.037950326 0 35
0.061868697 -1.182815 0.049050804 0 36
0.063153833 -1.2073845 0.06121356 0 37
0.062501743 -1.1949177 0.071620591 0 38
0.06293375 -1.2031769 0.083243258 0 39
0.062715687 -1.1990077 0.094058 0 40
0.062399492 -1.1929628 0.10464691 0 41
0.06264811 -1.1977159 0.11618898 0 42
0.062488195 -1.1946586 0.12700891 0 43
0.062598042 -1.1967586 0.13839002 0 44
0.062841557 -1.2014142 0.15015343 0 45
0.062504947 -1.194979 0.16053973 0 46
0.061645251 -1.1785431 0.16939561 0 47
0.063221522 -1.2086785 0.18510392 0 48
0.062458154 -1.1940843 0.19414003 0 49
0.062698938 -1.1986876 0.2062369 0 50
0.062861323 -1.2017921 0.2181849 0 51
0.06265074 -1.1977662 0.22886764 0 52
0.062710524 -1.1989092 0.24055073 0 53
0.06261947 -1.1971684 0.25169176 0 54
0.062145393 -1.1881049 0.26123372 0 55
0.063719235 -1.2181939 0.27963439 0 56
0.061989553 -1.1851256 0.283557 0 57
0.062884957 -1.2022439 0.299384 0 58
0.062555447 -1.1959443 0.30953845 0 59
0.061774559 -1.1810153 0.31730652 0 60
0.063120246 -1.2067423 0.33616289 0 61
0.061935015 -1.1840829 0.34163073 0 62
0.062127672 -1.1877661 0.35457295 0 63
0.076983638 -1.1908793 -0.35575801 0 0
0.078044496 -1.2072899 -0.34857696 0 1
0.077095158 -1.1926044 -0.33246344 0 2
0.077128477 -1.1931199 -0.32078925 0 3
0.077565745 -1.1998841 -0.31078151 0 4
0.076914728 -1.1898133 -0.29650158 0 5
0.076556027 -1.1842644 -0.28355479 0 6
0.078086235 -1.2079357 -0.27747905 0 7
0.076864801 -1.189041 -0.26162758 0 8
0.077647164 -1.2011435 -0.25270912 0 9
0.076582424 -1.1846727 -0.23786527 0 10
0.076627292 -1.1853669 -0.22666129 0 11
0.076339312 -1.180912 -0.21454832 0 12
0.076804295 -1.188105 -0.20456317 0 13
0.077750117 -1.2027361 -0.19568732 0 14
0.077169158 -1.1937492 -0.18294905 0 15
0.077421732 -1.1976563 -0.17226662 0 16
0.077185325 -1.1939993 -0.16052349 0 17
0.076893643 -1.1894871 -0.14876969 0 18
0.077233613 -1.1947461 -0.13825665 0 19
0.076655865 -1.1858089 -0.12615874 0 20
0.077246383 -1.1949437 -0.11600343 0 21
0.077721551 -1.2022942 -0.10554133 0 22
0.077092953 -1.1925703 -0.093620285 0 23
0.077759311 -1.2028784 -0.083282463 0 24
0.07789851 -1.2050316 -0.072278745 0 25
0.077187173 -1.1940279 -0.060579933 0 26
0.077187002 -1.1940252 -0.049551301 0 27
0.077167995 -1.1937311 -0.038521711 0 28
0.077261649 -1.1951799 -0.027544241 0 29
0.077921957 -1.2053944 -0.016665906 0 30
0.077700891 -1.2019746 -0.0055392291 0 31
0.076852828 -1.1888556 0.0054787714 0 32
0.078108825 -1.2082851 0.016705872 0 33
0.077572204 -1.199984 0.027654955 0 34
0.078058265 -1.207503 0.03896613 0 35
0.077613689 -1.2006257 0.049825214 0 36
0.076767303 -1.1875328 0.060250398 0 37
0.077652387 -1.2012243 0.072050385 0 38
0.078102097 -1.208181 0.083649598 0 39
0.077486686 -1.1986611 0.094098426 0 40
0.076143898 -1.1778891 0.10339896 0 41
0.076818123 -1.1883188 0.1153603 0 42
0.07756006 -1.1997961 0.12764685 0 43
0.077177308 -1.1938752 0.13815586 0 44
0.076729149 -1.1869425 0.14845143 0 45
0.077653162 -1.2012362 0.16149645 0 46
0.076900005 -1.1895856 0.17110576 0 47
0.078024589 -1.2069819 0.18497704 0 48
0.077922285 -1.2053994 0.19612065 0 49
0.077287912 -1.1955862 0.20585126 0 50
0.076202005 -1.1787881 0.21416245 0 51
0.077135913 -1.1932348 0.22816576 0 52
0.077095062 -1.1926029 0.23945753 0 53
0.076690041 -1.1863376 0.24959408 0 54
0.077626787 -1.2008283 0.26422116 0 55
0.076640368 -1.1855692 0.27234116 0 56
0.077462487 -1.1982868 0.28691223 0 57
0.077496201 -1.1988082 0.29874313 0 58
0.077870615 -1.2046002 0.31200305 0 59
0.076626197 -1.1853498 0.31870016 0 60
0.076952636 -1.1903996 0.33184883 0 61
0.077184886 -1.1939924 0.34473759 0 62
0.077335298 -1.1963191 0.35738307 0 63
0.091000922 -1.1817988 -0.3533529 0 0
0.092392057 -1.199865 -0.34673497 0 1
0.091514111 -1.1884633 -0.33159769 0 2
0.092350163 -1.1993209 -0.3227374 0 3
0.092699289 -1.2038548 -0.31208163 0 4
0.091374211 -1.1866466 -0.29597005 0 5
0.092399694 -1.199964 -0.28756413 0 6
0.09153337 -1.1887134 -0.27330133 0 7
0.091800421 -1.1921816 -0.26254714 0 8
0.092999443 -1.2077528 -0.25432101 0 9
0.092900783 -1.2064717 -0.2424532 0 10
0.092184499 -1.1971694 -0.22911756 0 11
0.091959499 -1.1942475 -0.21716014 0 12
0.092602469 -1.2025975 -0.20723882 0 13
0.091146559 -1.1836901 -0.19275628 0 14
0.092418425 -1.2002074 -0.18409905 0 15
0.092904657 -1.206522 -0.17369302 0 16
0.091332234 -1.1861013 -0.1596006 0 17
0.092507109 -1.2013592 -0.15038542 0 18
0.092667952 -1.2034479 -0.13938496 0 19
0.092398107 -1.1999435 -0.12777375 0 20
0.09268491 -1.2036681 -0.11695218 0 21
0.092477612 -1.200976 -0.10551745 0 22
0.092684418 -1.2036617 -0.094573312 0 23
0.092876099 -1.206151 -0.083581805 0 24
0.090826131 -1.1795288 -0.070810705 0 25
0.092396617 -1.1999242 -0.060932126 0 26
0.092082359 -1.195843 -0.049669974 0 27
0.091896623 -1.1934309 -0.038545575 0 28
0.092821002 -1.2054355 -0.027804794 0 29
0.091954872 -1.1941874 -0.016525341 0 30
0.092749849 -1.2045115 -0.0055557559 0 31
0.091864489 -1.1930135 0.0055027222 0 32
0.091713242 -1.1910493 0.016481917 0 33
0.092455111 -1.2006838 0.02769519 0 34
0.091854133 -1.1928791 0.038527753 0 35
0.093119934 -1.2093177 0.05022965 0 36
0.092866279 -1.2060235 0.061241847 0 37
0.092264012 -1.198202 0.071931712 0 38
0.091890752 -1.1933547 0.082695067 0 39
0.092190817 -1.1972516 0.094069652 0 40
0.092050992 -1.1954356 0.10503068 0 41
0.091304958 -1.1857471 0.11521093 0 42
0.092157781 -1.1968224 0.12744141 0 43
0.092299119 -1.198658 0.13883017 0 44
0.092358761 -1.1994325 0.15014426 0 45
0.09234523 -1.1992568 0.16137078 0 46
0.092142642 -1.1966258 0.17226835 0 47
0.091351308 -1.186349 0.18197334 0 48
0.092537753 -1.2017571 0.19569837 0 49
0.09258011 -1.2023071 0.20718879 0 50
0.093179703 -1.2100939 0.22004162 0 51
0.091919757 -1.1937313 0.22845955 0 52
0.092224374 -1.1976874 0.24068791 0 53
0.092622422 -1.2028567 0.25329 0 54
0.091286682 -1.1855098 0.26107785 0 55
0.092895351 -1.2064011 0.27736798 0 56
0.091242924 -1.1849415 0.28396407 0 57
0.091561936 -1.1890844 0.29657811 0 58
0.092647821 -1.2031865 0.31190836 0 59
0.091655299 -1.1902969 0.32030904 0 60
0.091735505 -1.1913385 0.33239987 0 61
0.09214592 -1.1966684 0.34581125 0 62
0.092961974 -1.2072662 0.36096758 0 63
0.10627172 -1.1889458 -0.35585365 0 0
0.10711647 -1.1983966 -0.34666508 0 1
0.10743108 -1.2019165 -0.33569446 0 2
0.1067887 -1.1947297 -0.32183093 0 3
0.10747264 -1.2023815 -0.31201869 0 4
0.10640454 -1.1904317 -0.29721802 0 5
0.10486326 -1.1731883 -0.28143522 0 6
0.10695465 -1.1965863 -0.27539295 0 7
0.10651232 -1.1916375 -0.26269588 0 8
0.10706019 -1.197767 -0.25247639 0 9
0.10664134 -1.193081 -0.24000761 0 10
0.10701567 -1.197269 -0.2293711 0 11
0.10676175 -1.1944281 -0.21741527 0 12
0.1064383 -1.1908095 -0.20541745 0 13
0.10753713 -1.2031028 -0.19611804 0 14
0.10685086 -1.195425 -0.18355314 0 15
0.10647202 -1.1911868 -0.17166083 0 16
0.10714442 -1.1987094 -0.1614622 0 17
0.1069561 -1.1966025 -0.14994329 0 18
0.10635922 -1.1899247 -0.13795973 0 19
0.10709994 -1.1982118 -0.12771992 0 20
0.10682597 -1.1951466 -0.11624305 0 21
0.10692334 -1.196236 -0.10520856 0 22
0.1067779 -1.1946088 -0.093958072 0 23
0.10571604 -1.182729 -0.08204262 0 24
0.10705587 -1.1977186 -0.071976282 0 25
0.10714829 -1.1987526 -0.060934935 0 26
0.10702012 -1.1973187 -0.049782164 0 27
0.10635697 -1.1898996 -0.038470849 0 28
0.10770997 -1.2050365 -0.027824039 0 29
0.10695373 -1.1965759 -0.01657534 0 30
0.10742906 -1.2018938 -0.0055493554 0 31
0.10656912 -1.192273 0.0055049346 0 32
0.10613958 -1.1874675 0.016449166 0 33
0.10783183 -1.2063999 0.027855517 0 34
0.10839479 -1.2126982 0.039207961 0 35
0.10804183 -1.2087494 0.050257429 0 36
0.10734974 -1.2010064 0.061049499 0 37
0.10664053 -1.193072 0.071697041 0 38
0.10683554 -1.1952537 0.082911424 0 39
0.10625035 -1.1887066 0.093493864 0 40
0.10697495 -1.1968135 0.10525934 0 41
0.10579386 -1.1835996 0.11511996 0 42
0.10804731 -1.2088107 0.12884969 0 43
0.10585742 -1.1843107 0.13730884 0 44
0.10662556 -1.1929045 0.14947991 0 45
0.10668207 -1.1935366 0.16076545 0 46
0.10698082 -1.196879 0.17248115 0 47
0.10723276 -1.1996977 0.1842092 0 48
0.10596104 -1.1854699 0.19324368 0 49
0.10630396 -1.1893065 0.20515817 0 50
0.10717907 -1.199097 0.21826512 0 51
0.10667346 -1.1934404 0.22863765 0 52
0.10741819 -1.2017723 0.24175599 0 53
0.1070474 -1.197624 0.25244623 0 54
0.1068183 -1.1950608 0.26345056 0 55
0.10650874 -1.1915975 0.27424482 0 56
0.10628888 -1.1891377 0.2852613 0 57
0.10657499 -1.1923387 0.29769415 0 58
0.10752665 -1.2029856 0.31217548 0 59
0.10593387 -1.185166 0.31925473 0 60
