# .PCD v0.7 - Point Cloud Data file format
VERSION 0.7
FIELDS x y z intensity ring
SIZE 4 4 4 4 2
TYPE F F F F U
COUNT 1 1 1 1 1
WIDTH 1249
HEIGHT 1
VIEWPOINT 0 0 0 1 0 0 0
POINTS 1249
DATA ascii
-0.1396742 1.4613175 -0.15585348 0 20
-0.13829614 1.4468999 -0.14080924 0 21
-0.13860859 1.4501688 -0.12761438 0 22
-0.13828807 1.4468154 -0.11385925 0 23
-0.13830572 1.4470001 -0.10043144 0 24
-0.13853355 1.4493836 -0.087149478 0 25
-0.13930584 1.4574637 -0.074127838 0 26
-0.1391739 1.4560832 -0.0605755 0 27
-0.13827758 1.4467056 -0.046800282 0 28
-0.13823175 1.4462262 -0.033412039 0 29
-0.13852748 1.4493202 -0.020087846 0 30
-0.13799655 1.4437655 -0.0066699097 0 31
-0.13915555 1.4558913 0.0067259278 0 32
-0.13871497 1.4512818 0.020115033 0 33
-0.13836178 1.4475865 0.03344347 0 34
-0.1399298 1.4639918 0.047359481 0 35
-0.13904087 1.4546915 0.060517605 0 36
-0.1396254 1.4608071 0.074297883 0 37
-0.13870399 1.4511669 0.0872567 0 38
-0.13942261 1.4586853 0.10124247 0 39
-0.13949847 1.4594791 0.11485584 0 40
-0.1384638 1.4486539 0.12748106 0 41
-0.13993187 1.4640135 0.14247468 0 42
-0.1385511 1.4495673 0.15460029 0 43
-0.13925213 1.4569017 0.16900903 0 44
-0.13788149 1.4425616 0.18086658 0 45
-0.13878644 1.4520295 0.19569476 0 46
-0.13860221 1.4501021 0.20909169 0 47
-0.13794109 1.4431853 0.2217218 0 48
-0.13791333 1.4428947 0.23534027 0 49
-0.13712308 1.4346269 0.24761723 0 50
-0.13782848 1.4420071 0.26262996 0 51
-0.13931215 1.4575297 0.27939022 0 52
-0.13943689 1.4588348 0.2936351 0 53
-0.13947698 1.4592543 0.30776995 0 54
-0.13826635 1.4465882 0.31908092 0 55
-0.1390513 1.4548006 0.33501107 0 56
-0.13981964 1.4628391 0.35111883 0 57
-0.13889046 1.4531178 0.36300975 0 58
-0.13852307 1.4492742 0.37630129 0 59
-0.13992962 1.4639899 0.39458725 0 60
-0.13783143 1.4420379 0.40298921 0 61
-0.13910753 1.4553889 0.4212456 0 62
-0.13822252 1.4461296 0.43307525 0 63
-0.15692706 1.4529691 -0.43566844 0 0
-0.15599997 1.4443852 -0.41858429 0 1
-0.157589 1.4590977 -0.40826738 0 2
-0.15650538 1.4490646 -0.39105359 0 3
-0.15655157 1.4494925 -0.3768293 0 4
-0.15740702 1.4574128 -0.36453867 0 5
-0.15517305 1.4367287 -0.34528354 0 6
-0.15705566 1.4541597 -0.33528283 0 7
-0.15747574 1.4580492 -0.32201171 0 8
-0.1562165 1.4463899 -0.30543882 0 9
-0.15525404 1.4374787 -0.2896989 0 10
-0.15476853 1.4329834 -0.275029 0 11
-0.15688191 1.4525509 -0.26488158 0 12
-0.15571272 1.4417255 -0.24915409 0 13
-0.15461971 1.4316055 -0.23379138 0 14
-0.15586212 1.4431089 -0.22198774 0 15
-0.15537925 1.438638 -0.20769845 0 16
-0.15644845 1.4485376 -0.19546865 0 17
-0.15643699 1.4484315 -0.18182999 0 18
-0.15553886 1.4401158 -0.16727099 0 19
-0.15673283 1.4511706 -0.1549651 0 20
-0.15755048 1.4587412 -0.14213939 0 21
-0.15682578 1.4520311 -0.12793829 0 22
-0.15675825 1.451406 -0.11436357 0 23
-0.15719047 1.4554079 -0.1011415 0 24
-0.15565777 1.4412167 -0.086766936 0 25
-0.15584172 1.4429201 -0.07348004 0 26
-0.15839407 1.4665519 -0.061087422 0 27
-0.15661718 1.4500999 -0.046968836 0 28
-0.15772018 1.4603124 -0.033779725 0 29
-0.15716572 1.4551787 -0.020194305 0 30
-0.15760444 1.4592408 -0.0067498451 0 31
-0.15662423 1.4501652 0.0067078643 0 32
-0.15708813 1.4544603 0.020184336 0 33
-0.15659869 1.4499286 0.03353953 0 34
-0.15772517 1.4603586 0.047301114 0 35
-0.15728422 1.4562759 0.06065939 0 36
-0.15889429 1.4711833 0.074919336 0 37
-0.15874517 1.4698026 0.088487923 0 38
-0.15583776 1.4428833 0.10027112 0 39
-0.15616095 1.4458756 0.1139278 0 40
-0.15685564 1.4523077 0.12796265 0 41
-0.15775122 1.4605998 0.14232048 0 42
-0.15802963 1.4631776 0.15624729 0 43
-0.15560029 1.4406847 0.16733707 0 44
-0.15864141 1.468842 0.18439223 0 45
-0.15564875 1.4411334 0.19446951 0 46
-0.15555446 1.4402603 0.20793267 0 47
-0.1568111 1.4518954 0.22333932 0 48
-0.15584984 1.4429951 0.2356514 0 49
-0.15885639 1.4708325 0.25418425 0 50
-0.15626083 1.4468005 0.26383296 0 51
-0.15605073 1.4448551 0.27730754 0 52
-0.15745318 1.4578403 0.29380241 0 53
-0.15614668 1.4457434 0.30530229 0 54
-0.15603116 1.4446739 0.31905776 0 55
-0.15682545 1.4520283 0.33479139 0 56
-0.15671705 1.4510244 0.34871918 0 57
-0.1562745 1.446927 0.36191589 0 58
-0.15765014 1.459664 0.37947363 0 59
-0.1562978 1.4471427 0.39053494 0 60
-0.15662627 1.450184 0.40577325 0 61
-0.15721002 1.4555889 0.42183113 0 62
-0.15635374 1.4476607 0.43407673 0 63
-0.17376976 1.4425412 -0.43314964 0 0
-0.17449448 1.4485574 -0.42038345 0 1
-0.17328328 1.4385028 -0.40307048 0 2
-0.1738154 1.4429201 -0.38994271 0 3
-0.17268932 1.4335719 -0.37321422 0 4
-0.17261337 1.4329414 -0.3589215 0 5
-0.17407487 1.4450741 -0.34777728 0 6
-0.17399034 1.4443723 -0.33349425 0 7
-0.17393886 1.4439449 -0.319345 0 8
-0.17433541 1.4472369 -0.3060472 0 9
-0.17456834 1.4491706 -0.29246569 0 10
-0.17420936 1.4461905 -0.27795395 0 11
-0.17390555 1.4436685 -0.26363182 0 12
-0.17428266 1.446799 -0.2503823 0 13
-0.17474702 1.4506538 -0.2372351 0 14
-0.17506318 1.4532784 -0.22386628 0 15
-0.17294358 1.4356827 -0.20756312 0 16
-0.17438594 1.4476564 -0.19562431 0 17
-0.17694674 1.4689149 -0.18466055 0 18
-0.17660318 1.4660627 -0.17052409 0 19
-0.17475003 1.4506788 -0.15513033 0 20
-0.1752225 1.454601 -0.14193518 0 21
-0.17342554 1.4396837 -0.12702864 0 22
-0.17481613 1.4512277 -0.11451024 0 23
-0.17368494 1.441837 -0.10033924 0 24
-0.17247944 1.4318297 -0.086322963 0 25
-0.17373446 1.4422481 -0.073549062 0 26
-0.17365791 1.4416126 -0.06013301 0 27
-0.17458813 1.4493349 -0.047010038 0 28
-0.17513874 1.4539057 -0.033678796 0 29
-0.17438798 1.4476733 -0.020118386 0 30
-0.17407665 1.4450889 -0.006693779 0 31
-0.17480011 1.4510946 0.0067215986 0 32
-0.17515469 1.454038 0.020206837 0 33
-0.1758624 1.4599133 0.033817958 0 34
-0.17388709 1.4435152 0.046821274 0 35
-0.17309736 1.4369593 0.059938908 0 36
-0.17469069 1.4501864 0.073953874 0 37
-0.17390247 1.4436429 0.087035164 0 38
-0.17352374 1.4404989 0.10024612 0 39
-0.17439307 1.4477156 0.11423311 0 40
-0.17443109 1.4480311 0.12776518 0 41
-0.17317657 1.4376169 0.14027794 0 42
-0.17648593 1.4650893 0.15667135 0 43
-0.17400265 1.4444746 0.16801308 0 44
-0.17254385 1.4323645 0.18006572 0 45
-0.17420158 1.4461259 0.19541749 0 46
-0.17420493 1.4461538 0.20907697 0 47
-0.1752505 1.4548335 0.22410583 0 48
-0.17365988 1.4416291 0.23575921 0 49
-0.17423902 1.4464368 0.2503196 0 50
-0.17419995 1.4461125 0.26407814 0 51
-0.17494816 1.4523237 0.27913272 0 52
-0.17255725 1.4324756 0.28909639 0 53
-0.17426056 1.4466155 0.3059158 0 54
-0.17415288 1.4457216 0.31973794 0 55
-0.17454773 1.4489995 0.33456263 0 56
-0.17409107 1.4452085 0.34780961 0 57
-0.17511968 1.4537475 0.36413297 0 58
-0.17468929 1.4501746 0.37753654 0 59
-0.17466883 1.4500048 0.3918573 0 60
-0.17424116 1.4464544 0.40529853 0 61
-0.17289673 1.4352938 0.41653425 0 62
-0.17350596 1.4403514 0.43249208 0 63
-0.19330117 1.4538921 -0.4372386 0 0
-0.19055438 1.4332324 -0.41658452 0 1
-0.19055279 1.4332205 -0.40221652 0 2
-0.19301705 1.4517552 -0.39294204 0 3
-0.19264764 1.4489766 -0.3778128 0 4
-0.19169687 1.4418256 -0.36170986 0 5
-0.19209586 1.4448266 -0.34825984 0 6
-0.19255486 1.4482789 -0.3349176 0 7
-0.19245279 1.4475111 -0.32063282 0 8
-0.19148833 1.440257 -0.30504605 0 9
-0.18978903 1.4274759 -0.28853655 0 10
-0.19272065 1.4495258 -0.27902937 0 11
-0.19070397 1.4343576 -0.26233995 0 12
-0.19111034 1.4374142 -0.249146 0 13
-0.19456518 1.4633992 -0.23969257 0 14
-0.19020821 1.4306288 -0.22072089 0 15
-0.19188118 1.4432118 -0.20897695 0 16
-0.19321172 1.4532193 -0.19668221 0 17
-0.19215436 1.4452665 -0.18197095 0 18
-0.19216371 1.4453368 -0.16837549 0 19
-0.19275202 1.4497617 -0.15527399 0 20
-0.19253847 1.4481555 -0.14152658 0 21
-0.192904 1.4509048 -0.12821834 0 22
-0.19012226 1.4299823 -0.11300978 0 23
-0.19275814 1.4498078 -0.10105125 0 24
-0.19401066 1.4592285 -0.088111959 0 25
-0.19269547 1.4493364 -0.074025773 0 26
-0.19238903 1.4470316 -0.060453158 0 27
-0.19131045 1.4389191 -0.046744965 0 28
-0.19110616 1.4373826 -0.033347961 0 29
-0.190761 1.4347866 -0.019970385 0 30
-0.19213134 1.4450934 -0.0067042368 0 31
-0.19278184 1.4499861 0.0067269355 0 32
-0.19174229 1.4421672 0.020073116 0 33
-0.19181882 1.4427428 0.033472322 0 34
-0.19225077 1.4459916 0.046974726 0 35
-0.19300465 1.4516618 0.060646597 0 36
-0.19356041 1.4558419 0.074358046 0 37
-0.1913875 1.4394987 0.086920626 0 38
-0.19119699 1.4380658 0.10023284 0 39
-0.19164664 1.4414477 0.11391588 0 40
-0.19268785 1.4492791 0.12807466 0 41
-0.19253094 1.448099 0.14152105 0 42
-0.19248314 1.4477395 0.15505739 0 43
-0.19317169 1.4529183 0.16925871 0 44
-0.19367917 1.4567353 0.18341497 0 45
-0.19351164 1.4554751 0.19698752 0 46
-0.19315471 1.4527905 0.21036395 0 47
-0.18996535 1.4288021 0.22043906 0 48
-0.1919834 1.4439807 0.23651198 0 49
-0.19281307 1.4502209 0.25136581 0 50
-0.19238251 1.4469826 0.26464903 0 51
-0.19236206 1.4468287 0.27851018 0 52
-0.19178058 1.4424553 0.29156432 0 53
-0.19124413 1.4384203 0.30465704 0 54
-0.19239026 1.4470409 0.32052869 0 55
-0.19061373 1.4336789 0.33154133 0 56
-0.192066 1.444602 0.34820572 0 57
-0.19122279 1.4382597 0.36081532 0 58
-0.19274707 1.4497246 0.37800783 0 59
-0.19153298 1.4405929 0.3899208 0 60
-0.19168895 1.441766 0.40461472 0 61
-0.19237871 1.446954 0.42057282 0 62
-0.19227189 1.4461505 0.43491042 0 63
-0.21003719 1.4436678 -0.43490762 0 0
-0.21093576 1.4498439 -0.42213482 0 1
-0.20919165 1.437856 -0.40420875 0 2
-0.21000591 1.4434527 -0.39136422 0 3
-0.21065737 1.4479305 -0.37818685 0 4
-0.20995341 1.4430919 -0.3626478 0 5
-0.20900044 1.4365417 -0.34685612 0 6
-0.20847224 1.4329112 -0.33193153 0 7
-0.21163572 1.4546551 -0.32276732 0 8
-0.20934647 1.4389201 -0.30528504 0 9
-0.21041745 1.4462814 -0.29283854 0 10
-0.21058752 1.4474503 -0.27910721 0 11
-0.21111947 1.4511067 -0.26585802 0 12
-0.21008767 1.4440147 -0.25071889 0 13
-0.20787813 1.4288275 -0.23443098 0 14
-0.21422209 1.4724321 -0.2275596 0 15
-0.208341 1.4320091 -0.20771007 0 16
-0.21219388 1.4584914 -0.19773397 0 17
-0.21067806 1.4480727 -0.18263663 0 18
-0.20808622 1.430258 -0.16690435 0 19
-0.21028687 1.4453839 -0.15507032 0 20
-0.21011181 1.4441806 -0.14137992 0 21
-0.21136755 1.4528117 -0.12860681 0 22
-0.20927399 1.438422 -0.11387151 0 23
-0.21185488 1.4561613 -0.10166798 0 24
-0.20943311 1.4395156 -0.087070569 0 25
-0.21041246 1.4462471 -0.07399454 0 26
-0.20917721 1.4377567 -0.060168583 0 27
-0.20982563 1.4422135 -0.046932258 0 28
-0.21092848 1.4497939 -0.033693537 0 29
-0.209729 1.4415494 -0.020098893 0 30
-0.20939477 1.439252 -0.0066885767 0 31
-0.21220186 1.4585463 0.0067782421 0 32
-0.21181582 1.4558929 0.020298878 0 33
-0.20868005 1.4343395 0.033334374 0 34
-0.21161525 1.4545144 0.047332551 0 35
-0.21218626 1.4584391 0.061034124 0 36
-0.20849109 1.4330407 0.073318854 0 37
-0.210357 1.4458659 0.087454669 0 38
-0.21209148 1.4577876 0.10178152 0 39
-0.20833224 1.4319489 0.11335908 0 40
-0.21083848 1.4491754 0.1282849 0 41
-0.20865352 1.4341571 0.14039867 0 42
-0.2086865 1.4343839 0.15389016 0 43
-0.21068469 1.4481182 0.16898854 0 44
-0.20998877 1.4433349 0.1820391 0 45
-0.20900144 1.4365486 0.19475906 0 46
-0.21033202 1.4456942 0.20969506 0 47
-0.21022321 1.4449463 0.22331177 0 48
-0.20970529 1.4413865 0.23649155 0 49
-0.21120963 1.4517263 0.25205782 0 50
-0.20971505 1.4414535 0.26408947 0 51
-0.21198376 1.4570471 0.28095773 0 52
-0.21161367 1.4545035 0.29450333 0 53
-0.20933254 1.4388244 0.30526471 0 54
-0.21342008 1.4669195 0.32548863 0 55
-0.21005024 1.4437574 0.33444405 0 56
-0.20989205 1.4426701 0.34833583 0 57
-0.20839377 1.4323717 0.35995385 0 58
-0.21084408 1.4492139 0.37852207 0 59
-0.21011415 1.4441967 0.39156592 0 60
-0.21055916 1.4472554 0.40685111 0 61
-0.21014838 1.444432 0.42055908 0 62
-0.20961533 1.4407681 0.43403411 0 63
-0.22423197 1.4185805 -0.4281483 0 0
-0.22532816 1.4255154 -0.41582665 0 1
-0.22781901 1.4412736 -0.40592632 0 2
-0.22617404 1.4308667 -0.38867643 0 3
-0.22683063 1.4350207 -0.37551507 0 4
-0.22668092 1.4340736 -0.36105466 0 5
-0.2252609 1.42509 -0.3447338 0 6
-0.22946176 1.4516662 -0.33690423 0 7
-0.22692046 1.435589 -0.31913179 0 8
-0.22580683 1.4285437 -0.30364969 0 9
-0.22879733 1.4474628 -0.29362521 0 10
-0.22849549 1.4455532 -0.27926207 0 11
-0.2275006 1.4392592 -0.26417997 0 12
-0.22973153 1.4533728 -0.2528151 0 13
-0.22876152 1.4472362 -0.23789488 0 14
-0.22936754 1.4510701 -0.22467707 0 15
-0.22694035 1.4357147 -0.20863655 0 16
-0.22697927 1.435961 -0.19504306 0 17
-0.22934546 1.4509304 -0.1833389 0 18
-0.22797444 1.4422569 -0.16861893 0 19
-0.22630593 1.4317012 -0.15388927 0 20
-0.22596985 1.429575 -0.14021149 0 21
-0.22556406 1.4270078 -0.12655854 0 22
-0.22684078 1.4350848 -0.11381955 0 23
-0.22791985 1.4419115 -0.10086112 0 24
-0.22750141 1.4392643 -0.087217979 0 25
-0.22707288 1.4365532 -0.073635861 0 26
-0.2285544 1.4459258 -0.060623486 0 27
-0.22853452 1.4458001 -0.047136858 0 28
-0.2278062 1.4411925 -0.033556204 0 29
-0.22640346 1.4323182 -0.020007489 0 30
-0.22844061 1.445206 -0.0067287921 0 31
-0.22724688 1.437654 0.00669363 0 32
-0.22888288 1.448004 0.020226598 0 33
-0.22600947 1.4298257 0.033291545 0 34
-0.22789626 1.4417623 0.047005214 0 35
-0.22789639 1.441763 0.060448952 0 36
-0.22957039 1.4523535 0.074445754 0 37
-0.22842547 1.4451102 0.087572239 0 38
-0.22802338 1.4425664 0.10090693 0 39
-0.22767051 1.4403341 0.11423587 0 40
-0.22623882 1.4312766 0.12693714 0 41
-0.22765766 1.4402528 0.14125876 0 42
-0.22685406 1.4351689 0.15426199 0 43
-0.22620843 1.4310844 0.16731273 0 44
-0.22758871 1.4398166 0.18193457 0 45
-0.22840165 1.4449595 0.1962653 0 46
-0.22767535 1.4403646 0.20931226 0 47
-0.22693501 1.4356811 0.2222943 0 48
-0.22732587 1.4381537 0.23640192 0 49
-0.22810312 1.4430709 0.25102305 0 50
-0.22758023 1.4397629 0.26427245 0 51
-0.2286382 1.4464561 0.2794365 0 52
-0.22833119 1.4445138 0.29302698 0 53
-0.22856435 1.4459889 0.30735782 0 54
-0.22697337 1.4359237 0.31920621 0 55
-0.22938198 1.4511615 0.3367871 0 56
-0.22844532 1.4452358 0.34960714 0 57
-0.22742164 1.4387596 0.36223444 0 58
-0.22754157 1.4395183 0.376692 0 59
-0.22688596 1.4353707 0.38989988 0 60
-0.22646987 1.4327383 0.40352243 0 61
-0.22722264 1.4375006 0.41932276 0 62
-0.22777048 1.4409665 0.43490472 0 63
-0.24644484 1.4437637 -0.43663055 0 0
-0.24419078 1.4305586 -0.41814205 0 1
-0.24575225 1.4397062 -0.40630528 0 2
-0.24817199 1.453882 -0.39572725 0 3
-0.24661413 1.4447556 -0.37882736 0 4
-0.24559446 1.4387819 -0.36297294 0 5
-0.24561989 1.4389309 -0.34878621 0 6
-0.24472237 1.4336728 -0.3334015 0 7
-0.24401695 1.4295403 -0.31843013 0 8
-0.24584867 1.4402711 -0.30676186 0 9
-0.2464246 1.4436451 -0.29344326 0 10
-0.24406715 1.4298344 -0.27678424 0 11
-0.24730484 1.448802 -0.26646963 0 12
-0.247247 1.4484631 -0.25247079 0 13
-0.24411014 1.4300863 -0.23555139 0 14
-0.24669267 1.4452157 -0.22422333 0 15
-0.2471227 1.4477348 -0.21080895 0 16
-0.24367113 1.4275143 -0.19428806 0 17
-0.24477442 1.4339777 -0.18156336 0 18
-0.24474221 1.4337891 -0.16796809 0 19
-0.24608634 1.4416635 -0.1552736 0 20
-0.24524742 1.4367489 -0.1412002 0 21
-0.24572569 1.4395506 -0.12792924 0 22
-0.24664377 1.4449291 -0.11483218 0 23
-0.24626096 1.4426864 -0.1011195 0 24
-0.24493566 1.4349223 -0.087130792 0 25
-0.243847 1.4285446 -0.073373497 0 26
-0.24526028 1.4368242 -0.060363758 0 27
-0.2477268 1.4512739 -0.047411047 0 28
-0.24370053 1.4276866 -0.03330899 0 29
-0.24711439 1.4476862 -0.020263072 0 30
-0.24716233 1.4479671 -0.0067552868 0 31
-0.2455793 1.4386932 0.0067120204 0 32
-0.24422765 1.4307747 0.020026363 0 33
-0.24634126 1.4431568 0.033669926 0 34
-0.24523933 1.4367014 0.046934985 0 35
-0.24183089 1.4167335 0.059519708 0 36
-0.24502462 1.4354436 0.073727846 0 37
-0.24479328 1.4340882 0.087080143 0 38
-0.24458905 1.4328917 0.10043298 0 39
-0.24448214 1.4322656 0.11382578 0 40
-0.24549673 1.4382094 0.12781005 0 41
-0.24613814 1.4419669 0.14171302 0 42
-0.24622928 1.4425008 0.1553638 0 43
-0.24525745 1.4368075 0.1683217 0 44
-0.24508815 1.4358157 0.18179609 0 45
-0.24626862 1.4427314 0.19635913 0 46
-0.24607496 1.4415967 0.20991518 0 47
-0.24533391 1.4372555 0.22298834 0 48
-0.24631487 1.4430023 0.23767881 0 49
-0.24595931 1.4409193 0.25115588 0 50
-0.24428909 1.4311346 0.26322016 0 51
-0.24479353 1.4340898 0.27760801 0 52
-0.24763197 1.4507184 0.29488102 0 53
-0.24596354 1.4409441 0.30690518 0 54
-0.24462347 1.4330934 0.31922162 0 55
-0.24423754 1.4308326 0.33274099 0 56
-0.24470988 1.4335997 0.34749398 0 57
-0.24591576 1.4406642 0.36344782 0 58
-0.24419995 1.4306123 0.37511888 0 59
-0.24542238 1.4377737 0.39134279 0 60
-0.24639304 1.4434602 0.40736473 0 61
-0.24699685 1.4469976 0.42294705 0 62
-0.24386269 1.4286366 0.43205574 0 63
-0.26439551 1.4418103 -0.43698996 0 0
-0.26425797 1.4410602 -0.42212945 0 1
-0.26421678 1.4408356 -0.4075101 0 2
-0.26381159 1.4386258 -0.39242804 0 3
-0.26302704 1.4343476 -0.3769179 0 4
-0.26451853 1.4424809 -0.36469916 0 5
-0.26511994 1.4457606 -0.35120535 0 6
-0.26474765 1.4437306 -0.33647203 0 7
-0.26261005 1.4320736 -0.31968957 0 8
-0.26559338 1.4483426 -0.3091532 0 9
-0.26341441 1.43646 -0.29261905 0 10
-0.26213238 1.4294688 -0.27731648 0 11
-0.25990224 1.4173074 -0.26124507 0 12
-0.26211324 1.4293644 -0.24968477 0 13
-0.26471239 1.4435383 -0.23828521 0 14
-0.26360509 1.4374999 -0.22351225 0 15
-0.26320931 1.4353416 -0.20945978 0 16
-0.26459295 1.4428868 -0.19680822 0 17
-0.26520047 1.4461999 -0.1835099 0 18
-0.26590058 1.4500177 -0.17023943 0 19
-0.26264885 1.4322853 -0.15459968 0 20
-0.26334101 1.4360597 -0.14144002 0 21
-0.26195914 1.428524 -0.12722598 0 22
-0.26614681 1.4513605 -0.11559464 0 23
-0.26195738 1.4285146 -0.10034436 0 24
-0.26614532 1.4513524 -0.088320486 0 25
-0.26119921 1.4243801 -0.073319018 0 26
-0.26460093 1.4429305 -0.060752396 0 27
-0.26276705 1.4329298 -0.04691378 0 28
-0.26201203 1.4288125 -0.033407904 0 29
-0.26073602 1.421854 -0.019944871 0 30
-0.26434153 1.4415158 -0.0067398446 0 31
-0.26393905 1.439321 0.0067295833 0 32
-0.26324451 1.4355335 0.020136759 0 33
-0.26619333 1.4516141 0.033941042 0 34
-0.26556513 1.4481884 0.047413342 0 35
-0.26297748 1.4340774 0.06037965 0 36
-0.26426056 1.4410743 0.074178346 0 37
-0.26321992 1.4353994 0.08734969 0 38
-0.26413029 1.4403639 0.1011767 0 39
-0.26385179 1.4388453 0.11459786 0 40
-0.26393503 1.4392991 0.12818561 0 41
-0.26533106 1.4469119 0.14250888 0 42
-0.26285011 1.4333827 0.15471815 0 43
-0.261154 1.4241334 0.16720049 0 44
-0.26313555 1.4349394 0.18208104 0 45
-0.26326481 1.4356441 0.19582035 0 46
-0.26433957 1.4415051 0.21035922 0 47
-0.26263791 1.4322256 0.22269216 0 48
-0.26602963 1.4507214 0.23947093 0 49
-0.26186198 1.4279941 0.24944539 0 50
-0.26406902 1.4400297 0.26543337 0 51
-0.2644659 1.442194 0.27978516 0 52
-0.26295757 1.4339687 0.29211155 0 53
-0.26176357 1.4274577 0.30469525 0 54
-0.26424897 1.4410111 0.32168472 0 55
-0.2654871 1.4477628 0.33741179 0 56
-0.26311514 1.434828 0.3485496 0 57
-0.26346669 1.436745 0.36324897 0 58
-0.2631188 1.434848 0.37704939 0 59
-0.26597667 1.4504325 0.39564866 0 60
-0.26446196 1.4421725 0.4078882 0 61
-0.26426896 1.4411201 0.42214701 0 62
-0.2631177 1.434842 0.43487799 0 63
-0.28205827 1.4382204 -0.43692014 0 0
-0.28284207 1.442217 -0.42345512 0 1
-0.28027567 1.4291309 -0.4051438 0 2
-0.27693355 1.4120893 -0.38608912 0 3
-0.28091073 1.4323691 -0.37727717 0 4
-0.2839528 1.4478806 -0.36691937 0 5
-0.28371769 1.4466819 -0.35224998 0 6
-0.2811991 1.4338394 -0.33494738 0 7
-0.28150174 1.4353826 -0.32117671 0 8
-0.28518099 1.4541432 -0.31111634 0 9
-0.28249311 1.4404377 -0.29411471 0 10
-0.2822305 1.4390986 -0.27983674 0 11
-0.28427449 1.4495209 -0.26780689 0 12
-0.28164873 1.4361321 -0.25145289 0 13
-0.28399494 1.4480956 -0.23959582 0 14
-0.28085551 1.4320874 -0.22319078 0 15
-0.28334457 1.4447793 -0.21132949 0 16
-0.28117093 1.4336959 -0.19601136 0 17
-0.28226537 1.4392765 -0.18305795 0 18
-0.28089774 1.4323027 -0.1685524 0 19
-0.28208843 1.4383742 -0.15561956 0 20
-0.28053483 1.4304523 -0.14121683 0 21
-0.27861565 1.4206663 -0.1268217 0 22
-0.28496695 1.4530518 -0.11599967 0 23
-0.28313965 1.4437343 -0.10165033 0 24
-0.28425744 1.449434 -0.088409774 0 25
-0.2789416 1.4223285 -0.073384427 0 26
-0.28106722 1.433167 -0.060482264 0 27
-0.28234342 1.4396744 -0.04724469 0 28
-0.27848086 1.4199791 -0.033278916 0 29
-0.28016213 1.428552 -0.020085631 0 30
-0.28211391 1.4385042 -0.0067414735 0 31
-0.2836597 1.446386 0.0067784111 0 32
-0.2798557 1.4269894 0.020063661 0 33
-0.28060812 1.4308261 0.033533126 0 34
-0.28077048 1.431654 0.046981491 0 35
-0.28231353 1.439522 0.060750455 0 36
-0.28180838 1.4369462 0.074138619 0 37
-0.28314087 1.4437405 0.088062495 0 38
-0.28183791 1.4370968 0.101183 0 39
-0.28482899 1.4523484 0.11594351 0 40
-0.28185683 1.4371933 0.12829705 0 41
-0.28311437 1.4436055 0.14251533 0 42
-0.28252366 1.4405935 0.15585966 0 43
-0.28112987 1.4334865 0.16869168 0 44
-0.27919197 1.4236051 0.18106475 0 45
-0.27875236 1.4213636 0.19432531 0 46
-0.27908054 1.4230368 0.20814919 0 47
-0.28165591 1.4361687 0.22382686 0 48
-0.28049481 1.4302483 0.2366429 0 49
-0.27940291 1.4246807 0.2494479 0 50
-0.2820009 1.4379278 0.26566499 0 51
-0.27929699 1.4241406 0.27692813 0 52
-0.28401858 1.448216 0.29570293 0 53
-0.283108 1.443573 0.30885485 0 54
-0.28063178 1.4309467 0.32018414 0 55
-0.28419957 1.449139 0.33852136 0 56
-0.28053099 1.4304327 0.34829351 0 57
-0.28091866 1.4324095 0.36299872 0 58
-0.28012443 1.4283596 0.37622109 0 59
-0.28277117 1.4418554 0.39422768 0 60
-0.28116092 1.4336448 0.40642342 0 61
-0.27991161 1.4272746 0.4190678 0 62
-0.28189117 1.4373683 0.43666124 0 63
-0.30234808 1.4472201 -0.44075027 0 0
-0.29619795 1.4177819 -0.41731846 0 1
-0.29903561 1.4313647 -0.40678868 0 2
-0.29943013 1.433253 -0.39285263 0 3
-0.29978874 1.4349695 -0.37890443 0 4
-0.29957908 1.4339659 -0.36429915 0 5
-0.29832369 1.4279569 -0.34855753 0 6
-0.30137396 1.4425575 -0.33782408 0 7
-0.30090085 1.4402927 -0.32307884 0 8
-0.29883572 1.4304079 -0.30680114 0 9
-0.30133972 1.4423934 -0.2952483 0 10
-0.29868072 1.4296659 -0.27869567 0 11
-0.3004559 1.4381629 -0.26637089 0 12
-0.30017596 1.4368231 -0.25220111 0 13
-0.29743007 1.4236796 -0.23614334 0 14
-0.29887167 1.4305799 -0.22351171 0 15
-0.30076343 1.4396349 -0.21110202 0 16
-0.30295223 1.450112 -0.19875002 0 17
-0.29937962 1.4330113 -0.18271551 0 18
-0.30049387 1.4383447 -0.16968541 0 19
-0.29833391 1.4280059 -0.154883 0 20
-0.29885703 1.4305099 -0.14157459 0 21
-0.2996473 1.4342926 -0.12835731 0 22
-0.29865044 1.429521 -0.11440568 0 23
-0.29945436 1.433369 -0.10117214 0 24
-0.29955128 1.4338329 -0.087676212 0 25
-0.29805779 1.4266841 -0.073792674 0 26
-0.29675913 1.420468 -0.060095798 0 27
-0.30108073 1.4411539 -0.047411151 0 28
-0.30059728 1.4388397 -0.033805005 0 29
-0.29810697 1.4269196 -0.020112699 0 30
-0.30019617 1.4369198 -0.0067508374 0 31
-0.297975 1.4262879 0.0067008869 0 32
-0.2960059 1.4168627 0.019970946 0 33
-0.30034968 1.4376546 0.033777162 0 34
-0.29943648 1.4332834 0.047152229 0 35
-0.29615742 1.4175879 0.059973948 0 36
-0.30284896 1.4496176 0.074978866 0 37
-0.29850566 1.428828 0.087370172 0 38
-0.30187339 1.4449478 0.10198942 0 39
-0.30190319 1.4450907 0.11565173 0 40
-0.29997793 1.4358751 0.12849894 0 41
-0.30140975 1.4427286 0.14278387 0 42
-0.30124274 1.4419293 0.15639314 0 43
-0.30270076 1.4489082 0.17093161 0 44
-0.29944292 1.4333143 0.18275414 0 45
-0.29945403 1.4333674 0.19645503 0 46
-0.29912889 1.4318111 0.20995475 0 47
-0.30055597 1.438642 0.22477131 0 48
-0.3002148 1.4370089 0.23835424 0 49
-0.29851481 1.4288718 0.25080544 0 50
-0.30069572 1.4393109 0.26658353 0 51
-0.29949099 1.4335443 0.2794517 0 52
-0.29682913 1.4208032 0.29082894 0 53
-0.29792279 1.426038 0.30586389 0 54
-0.29933256 1.432786 0.32139498 0 55
-0.29681334 1.4207274 0.33271185 0 56
-0.29650488 1.4192511 0.34643245 0 57
-0.29753292 1.4241718 0.36181095 0 58
-0.29788586 1.4258612 0.37649935 0 59
-0.29863518 1.4294479 0.39180964 0 60
-0.3013868 1.4426188 0.40998706 0 61
-0.29856375 1.429106 0.42065167 0 62
-0.29938075 1.4330167 0.43642461 0 63
-0.3180263 1.4339547 -0.43786818 0 0
-0.31727284 1.4305575 -0.42219535 0 1
-0.31836987 1.4355037 -0.40904665 0 2
-0.31531847 1.4217454 -0.39073163 0 3
-0.31676188 1.4282537 -0.37813097 0 4
-0.3185811 1.4364562 -0.36589935 0 5
-0.31871656 1.437067 -0.3517113 0 6
-0.31931394 1.4397607 -0.33806306 0 7
-0.31834593 1.435396 -0.32283413 0 8
-0.31849515 1.4360688 -0.30883199 0 9
-0.31876409 1.4372814 -0.29498196 0 10
-0.31908524 1.4387294 -0.28120607 0 11
-0.31851226 1.4361459 -0.26670256 0 12
-0.31806058 1.4341093 -0.25239217 0 13
-0.31394073 1.4155332 -0.23541462 0 14
-0.3129279 1.4109665 -0.2210318 0 15
-0.31752864 1.4317108 -0.21049668 0 16
-0.31641859 1.4267057 -0.19606043 0 17
-0.32069027 1.4459664 -0.18485616 0 18
-0.31735477 1.4309268 -0.16925786 0 19
-0.31703022 1.4294635 -0.15545216 0 20
-0.31896499 1.4381871 -0.14271177 0 21
-0.31642783 1.4267473 -0.12802061 0 22
-0.31630468 1.4261922 -0.11444189 0 23
-0.31720862 1.4302678 -0.10122091 0 24
-0.31493512 1.4200168 -0.087061606 0 25
-0.31898028 1.4382561 -0.074588455 0 26
-0.31567082 1.4233341 -0.060376711 0 27
-0.31732652 1.4307995 -0.047195312 0 28
-0.31829712 1.4351759 -0.033808324 0 29
-0.31702197 1.4294262 -0.02020145 0 30
-0.31984791 1.4421682 -0.0067934594 0 31
-0.31894657 1.4381042 0.0067743151 0 32
-0.31524664 1.4214214 0.020088322 0 33
-0.31541169 1.4221658 0.033501845 0 34
-0.31493035 1.4199953 0.046838935 0 35
-0.3190068 1.4383757 0.061014764 0 36
-0.3179698 1.4337 0.074352168 0 37
-0.31658 1.4274335 0.087516323 0 38
-0.31531766 1.4217417 0.10061751 0 39
-0.31723964 1.4304078 0.11478017 0 40
-0.31844997 1.435865 0.12883873 0 41
-0.31703976 1.4295065 0.1418504 0 42
-0.31729403 1.430653 0.15558152 0 43
-0.31525415 1.4214553 0.16813752 0 44
-0.31712157 1.4298754 0.18279904 0 45
-0.31630364 1.4261874 0.19598921 0 46
-0.31744435 1.4313307 0.2104408 0 47
-0.31918815 1.4391934 0.22545364 0 48
-0.31666449 1.4278145 0.2374571 0 49
-0.31772786 1.4326091 0.25212815 0 50
-0.32051077 1.4451571 0.26837599 0 51
-0.31569719 1.423453 0.27822024 0 52
-0.31827211 1.435063 0.29452667 0 53
-0.31735942 1.4309478 0.3077307 0 54
-0.31577113 1.4237864 0.32022303 0 55
-0.31700307 1.4293411 0.33561647 0 56
-0.31499776 1.4202994 0.34760755 0 57
-0.31591487 1.4244344 0.36283714 0 58
-0.31821835 1.4348207 0.37986961 0 59
-0.31864563 1.4367472 0.39485449 0 60
-0.31831464 1.4352548 0.40897572 0 61
-0.31555215 1.422799 0.4199056 0 62
-0.31591827 1.4244498 0.43496579 0 63
-0.337396 1.4374449 -0.44016755 0 0
-0.33658713 1.4339988 -0.42440036 0 1
-0.33195469 1.4142627 -0.40412658 0 2
-0.33457625 1.4254317 -0.39284569 0 3
-0.33394232 1.4227309 -0.37772742 0 4
-0.33707964 1.4360971 -0.36683595 0 5
-0.33615661 1.4321645 -0.35149655 0 6
-0.33571264 1.4302732 -0.33677918 0 7
-0.33663604 1.4342072 -0.3234733 0 8
-0.33810988 1.4404863 -0.31065261 0 9
-0.33651668 1.4336987 -0.2950736 0 10
-0.33601806 1.4315743 -0.28059396 0 11
-0.33440673 1.4247094 -0.2653223 0 12
-0.33644372 1.4333879 -0.25297418 0 13
-0.33591124 1.4311193 -0.23867561 0 14
-0.33490208 1.4268198 -0.22414346 0 15
-0.33633864 1.4329402 -0.21126953 0 16
-0.33887371 1.4437406 -0.19895899 0 17
-0.33719587 1.4365923 -0.18417393 0 18
-0.33468649 1.4259014 -0.16913745 0 19
-0.334782 1.4263083 -0.15554494 0 20
-0.33428237 1.4241797 -0.14171898 0 21
-0.33367074 1.4215738 -0.12791488 0 22
-0.33624202 1.4325285 -0.1152734 0 23
-0.33420983 1.4238706 -0.10105138 0 24
-0.3320322 1.414593 -0.08697281 0 25
-0.33668301 1.4344074 -0.074597917 0 26
-0.33295909 1.4185419 -0.060342539 0 27
-0.33648011 1.433543 -0.047418695 0 28
-0.33360428 1.4212906 -0.03357533 0 29
-0.33050665 1.4080935 -0.01995589 0 30
-0.33578366 1.4305758 -0.0067577912 0 31
-0.33702916 1.4358821 0.0067828568 0 32
-0.33649102 1.4335893 0.020317227 0 33
-0.33599642 1.4314822 0.033816084 0 34
-0.3340936 1.4233755 0.047082379 0 35
-0.33454043 1.4252791 0.060629129 0 36
-0.33169028 1.4131362 0.073491685 0 37
-0.33278778 1.4178121 0.087170735 0 38
-0.33686942 1.4352015 0.10185552 0 39
-0.33695522 1.435567 0.11551791 0 40
-0.33452919 1.4252312 0.12824397 0 41
-0.33537167 1.4288205 0.14218079 0 42
-0.33237997 1.4160746 0.15442893 0 43
-0.33599067 1.4314576 0.16979651 0 44
-0.33570325 1.4302332 0.18335867 0 45
-0.33511934 1.4277455 0.19675472 0 46
-0.33598933 1.431452 0.21105011 0 47
-0.33356005 1.4211023 0.22324526 0 48
-0.33445355 1.4249089 0.23763987 0 49
-0.33460987 1.4255749 0.25159529 0 50
-0.33167714 1.4130802 0.26315659 0 51
-0.33713907 1.4363503 0.28153008 0 52
-0.33425444 1.4240607 0.29308999 0 53
-0.33347219 1.4207278 0.30639154 0 54
-0.33316478 1.4194182 0.32013777 0 55
-0.33695093 1.4355488 0.3380214 0 56
-0.33755922 1.4381403 0.35296318 0 57
-0.33356199 1.4211104 0.36300775 0 58
-0.33357766 1.4211773 0.37731495 0 59
-0.33322963 1.4196945 0.39126453 0 60
-0.33515981 1.427918 0.40802857 0 61
-0.33722493 1.4367161 0.42520455 0 62
-0.33705974 1.4360123 0.43972883 0 63
-0.35151669 1.4189467 -0.43579373 0 0
-0.35391605 1.4286321 -0.42406794 0 1
-0.34976748 1.4118857 -0.40464577 0 2
-0.35155839 1.4191149 -0.39226654 0 3
-0.3517395 1.4198461 -0.37808123 0 4
-0.35577759 1.4361464 -0.36793822 0 5
-0.3524529 1.4227258 -0.35021719 0 6
-0.35448092 1.4309123 -0.33793047 0 7
-0.35616201 1.4376981 -0.32522383 0 8
-0.35594097 1.436806 -0.3107793 0 9
-0.35462311 1.4314861 -0.29549336 0 10
-0.35520241 1.4338245 -0.2818698 0 11
-0.35429069 1.4301443 -0.26712555 0 12
-0.35305807 1.4251686 -0.25227073 0 13
-0.35367492 1.4276587 -0.23880571 0 14
-0.35170057 1.4196889 -0.22368571 0 15
-0.35457572 1.4312949 -0.21165377 0 16
-0.35379913 1.4281601 -0.19739647 0 17
-0.35218501 1.4216444 -0.18279894 0 18
-0.35235584 1.4223341 -0.16921544 0 19
-0.35309631 1.425323 -0.15589921 0 20
-0.35262761 1.423431 -0.14206523 0 21
-0.35383996 1.4283249 -0.1289041 0 22
-0.35452563 1.4310926 -0.11549992 0 23
-0.35687432 1.4405735 -0.10254046 0 24
-0.35292768 1.4246424 -0.087850861 0 25
-0.3528361 1.4242727 -0.074290864 0 26
-0.35253677 1.4230645 -0.060714733 0 27
-0.35604671 1.4372327 -0.047681961 0 28
-0.35770294 1.4439183 -0.034211185 0 29
-0.35239136 1.4224775 -0.020219626 0 30
-0.35512328 1.4335052 -0.0067917434 0 31
-0.35252196 1.4230045 0.0067419927 0 32
-0.35189238 1.4204632 0.020190995 0 33
-0.35484162 1.4323682 0.033937525 0 34
-0.35210231 1.4213107 0.04715373 0 35
-0.35318318 1.4256737 0.060826059 0 36
-0.35643619 1.4388049 0.075048879 0 37
-0.35554028 1.4351884 0.088501178 0 38
-0.35020801 1.4136641 0.10062504 0 39
-0.35715109 1.4416907 0.11635526 0 40
-0.35660636 1.4394919 0.12991191 0 41
-0.35316727 1.4256095 0.14228265 0 42
-0.35062227 1.4153363 0.15480688 0 43
-0.35268638 1.4236683 0.16937417 0 44
-0.35434636 1.430369 0.18392079 0 45
-0.35307232 1.4252262 0.19699097 0 46
-0.35632795 1.4383681 0.21269973 0 47
-0.35441288 1.4306376 0.22541076 0 48
-0.35137856 1.4183891 0.23725519 0 49
-0.35407007 1.4292538 0.25299382 0 50
-0.35379049 1.4281251 0.2667484 0 51
-0.35419068 1.4297407 0.28106695 0 52
-0.3554188 1.4346981 0.29615641 0 53
-0.35269508 1.4237034 0.30794525 0 54
-0.35156232 1.4191309 0.32102373 0 55
-0.35254541 1.4230993 0.33608535 0 56
-0.35279721 1.4241158 0.35055932 0 57
-0.35326561 1.4260064 0.36534038 0 58
-0.35246083 1.4227579 0.3788566 0 59
-0.3564572 1.4388897 0.39773262 0 60
-0.35456043 1.4312332 0.41019073 0 61
-0.35006976 1.4131058 0.41945925 0 62
-0.35451519 1.4310505 0.43951112 0 63
-0.36941972 1.4163687 -0.43636411 0 0
-0.37094867 1.4222308 -0.42348978 0 1
-0.3731854 1.4308065 -0.41135252 0 2
-0.37391764 1.4336139 -0.39751515 0 3
-0.36931181 1.4159551 -0.37822577 0 4
-0.37024352 1.4195273 -0.36481923 0 5
-0.37150088 1.4243479 -0.3517144 0 6
-0.37160924 1.4247634 -0.33753198 0 7
-0.37116024 1.4230419 -0.32291645 0 8
-0.37098718 1.4223784 -0.30862203 0 9
-0.37261939 1.4286363 -0.29582855 0 10
-0.37173694 1.425253 -0.2810621 0 11
-0.37373567 1.4329163 -0.26848137 0 12
-0.37137848 1.4238787 -0.25283161 0 13
-0.37008765 1.4189296 -0.2380888 0 14
-0.37454009 1.4360005 -0.22696422 0 15
-0.37170625 1.4251354 -0.21140285 0 16
-0.36955568 1.41689 -0.19645199 0 17
-0.373301 1.4312497 -0.18461029 0 18
-0.36965552 1.4172728 -0.16914129 0 19
-0.37334827 1.4314309 -0.15705755 0 20
-0.36883125 1.4141124 -0.14157714 0 21
-0.37258241 1.4284946 -0.12932311 0 22
-0.37044799 1.4203112 -0.11498872 0 23
-0.36951891 1.416749 -0.1011604 0 24
-0.3709397 1.4221964 -0.087974645 0 25
-0.37012646 1.4190784 -0.074251711 0 26
-0.37206626 1.4265157 -0.061052561 0 27
-0.37080604 1.4216839 -0.047313806 0 28
-0.36938506 1.4162358 -0.033660367 0 29
-0.37221336 1.4270797 -0.020348564 0 30
-0.36934143 1.4160686 -0.0067301397 0 31
-0.37374359 1.4329467 0.0068103564 0 32
-0.37142301 1.4240494 0.020305354 0 33
-0.37123573 1.4233314 0.033829011 0 34
-0.37182981 1.4256091 0.047444437 0 35
-0.36922139 1.4156083 0.060585745 0 36
-0.37166661 1.4249834 0.074560687 0 37
-0.37161583 1.4247887 0.088134997 0 38
-0.36888865 1.4143326 0.10098787 0 39
-0.37225521 1.4272401 0.11554968 0 40
-0.36703429 1.4072229 0.12739737 0 41
-0.37452734 1.4359516 0.1437636 0 42
-0.37355393 1.4322194 0.15714405 0 43
-0.36859399 1.4132029 0.16865557 0 44
-0.37493154 1.4375013 0.18541665 0 45
-0.371162 1.4230486 0.19730589 0 46
-0.3727828 1.4292629 0.21201511 0 47
-0.36963466 1.4171928 0.22399162 0 48
-0.37081626 1.421723 0.23855753 0 49
-0.37145361 1.4241668 0.25288278 0 50
-0.37197161 1.4261527 0.26721412 0 51
-0.37168938 1.4250706 0.28102615 0 52
-0.37121135 1.4232379 0.2947107 0 53
-0.37370709 1.4328067 0.31088471 0 54
-0.37151539 1.4244037 0.32322544 0 55
-0.37232372 1.4275029 0.33818096 0 56
-0.37180457 1.4255123 0.35200194 0 57
-0.37137035 1.4238474 0.36592954 0 58
-0.37120715 1.4232218 0.38016686 0 59
-0.3709245 1.4221381 0.39433312 0 60
-0.36910525 1.415163 0.40685508 0 61
-0.37418625 1.4346437 0.42718592 0 62
-0.37099299 1.4224007 0.4382225 0 63
-0.38772357 1.4150653 -0.43739831 0 0
-0.39074779 1.4261028 -0.42604122 0 1
-0.38918296 1.4203916 -0.40970314 0 2
-0.38929465 1.4207993 -0.39525932 0 3
-0.38891354 1.4194083 -0.3803969 0 4
-0.38795295 1.4159025 -0.36508608 0 5
-0.38825735 1.4170135 -0.35105565 0 6
-0.38804576 1.4162412 -0.33661798 0 7
-0.38690266 1.4120692 -0.32148179 0 8
-0.38826692 1.4170485 -0.30847815 0 9
-0.38947546 1.4214592 -0.29531175 0 10
-0.38814703 1.4166108 -0.28027788 0 11
-0.39332616 1.4355129 -0.26985371 0 12
-0.39170629 1.429601 -0.2546837 0 13
-0.39123595 1.4278843 -0.24038042 0 14
-0.39043024 1.4249437 -0.22595839 0 15
-0.39154205 1.4290016 -0.21267445 0 16
-0.38673219 1.411447 -0.19634183 0 17
-0.39003506 1.4235015 -0.18421559 0 18
-0.3859818 1.4087085 -0.16867287 0 19
-0.38598898 1.4087347 -0.15507634 0 20
-0.38891003 1.4193954 -0.14257406 0 21
-0.38882592 1.4190885 -0.12889467 0 22
-0.38881177 1.4190369 -0.11526391 0 23
-0.38917971 1.4203798 -0.10175366 0 24
-0.38841227 1.4175788 -0.087977797 0 25
-0.3892431 1.4206111 -0.074576713 0 26
-0.38612425 1.4092283 -0.060511321 0 27
-0.38590488 1.4084277 -0.047027007 0 28
-0.3913869 1.4284353 -0.034062129 0 29
-0.38688973 1.412022 -0.020200167 0 30
-0.39485273 1.4410844 -0.0068715885 0 31
-0.38735968 1.4137372 0.0067411875 0 32
-0.39226505 1.4316403 0.020480821 0 33
-0.38769126 1.4149474 0.033740498 0 34
-0.38808277 1.4163762 0.047292404 0 35
-0.38912901 1.4201947 0.060982212 0 36
-0.39485782 1.441103 0.075652458 0 37
-0.39135149 1.4283061 0.088643551 0 38
-0.38740557 1.4139047 0.10128979 0 39
-0.39135009 1.4283009 0.1160164 0 40
-0.39231533 1.4318237 0.1300514 0 41
-0.38652098 1.4106762 0.14169824 0 42
-0.38760927 1.4146482 0.15572731 0 43
-0.38972074 1.4223543 0.17030677 0 44
-0.38808563 1.4163867 0.18329486 0 45
-0.38816068 1.4166605 0.19706707 0 46
-0.39156708 1.4290929 0.21268806 0 47
-0.3901597 1.4239564 0.22580183 0 48
-0.39381957 1.4373138 0.24196783 0 49
-0.38750324 1.4142611 0.25195092 0 50
-0.38887924 1.4192832 0.26680276 0 51
-0.38884261 1.4191495 0.28078017 0 52
-0.3884446 1.4176968 0.29453012 0 53
-0.39024565 1.4242702 0.31005025 0 54
-0.39165196 1.4294026 0.32542804 0 55
-0.38680688 1.4117197 0.3355433 0 56
-0.38676828 1.4115788 0.34970924 0 57
-0.39047331 1.425101 0.36745787 0 58
-0.39173961 1.4297225 0.38316107 0 59
-0.38581458 1.4080981 0.39172596 0 60
-0.3926166 1.4329233 0.41331783 0 61
-0.38879085 1.4189605 0.42390749 0 62
-0.3900027 1.4233834 0.43996945 0 63
-0.40961826 1.4259434 -0.4422842 0 0
-0.40854594 1.4222103 -0.42634696 0 1
-0.40850052 1.4220523 -0.4115999 0 2
-0.40576345 1.4125241 -0.39431545 0 3
-0.40655649 1.4152849 -0.38060281 0 4
-0.41202649 1.4343268 -0.37111503 0 5
-0.40679187 1.4161042 -0.352043 0 6
-0.40940005 1.4251837 -0.33991432 0 7
-0.40627098 1.4142909 -0.32310054 0 8
-0.4058274 1.4127468 -0.30860472 0 9
-0.40493748 1.4096488 -0.29387036 0 10
-0.40508559 1.4101644 -0.2799668 0 11
-0.40704438 1.4169832 -0.2672911 0 12
-0.40895298 1.4236274 -0.25449613 0 13
-0.40405551 1.4065785 -0.23761211 0 14
-0.40560672 1.4119785 -0.22467636 0 15
-0.40636507 1.4146185 -0.21126156 0 16
-0.40653002 1.4151927 -0.19754331 0 17
-0.40855357 1.4222369 -0.18468811 0 18
-0.40860295 1.4224089 -0.17090198 0 19
-0.41187811 1.4338102 -0.15838227 0 20
-0.40622529 1.4141319 -0.14253631 0 21
-0.40701783 1.4168907 -0.12913989 0 22
-0.40952751 1.4256274 -0.11619949 0 23
-0.40909627 1.4241261 -0.10237468 0 24
-0.40907076 1.4240373 -0.088684104 0 25
-0.4085111 1.4220892 -0.074912347 0 26
-0.40818453 1.4209522 -0.06122563 0 27
-0.40921542 1.424541 -0.047729429 0 28
-0.41338986 1.4390727 -0.0344344 0 29
-0.40544891 1.4114292 -0.020261476 0 30
-0.4107787 1.429983 -0.0068422216 0 31
-0.40760997 1.4189521 0.0067894408 0 32
-0.40437943 1.407706 0.020208031 0 33
-0.40876016 1.4229561 0.034048755 0 34
-0.40621772 1.4141055 0.047379784 0 35
-0.40711647 1.4172342 0.061065428 0 36
-0.40609607 1.413682 0.074469477 0 37
-0.41028908 1.4282786 0.088948227 0 38
-0.40802932 1.4204119 0.10210767 0 39
-0.40619311 1.4140198 0.11525338 0 40
-0.4089494 1.423615 0.12975274 0 41
-0.4063639 1.4146144 0.14258495 0 42
-0.40524185 1.4107083 0.15583037 0 43
-0.4072957 1.4178581 0.17035522 0 44
-0.40950704 1.4255561 0.18511912 0 45
-0.40897825 1.4237154 0.19873297 0 46
-0.40849128 1.4220201 0.21236692 0 47
-0.40908879 1.4241002 0.22660516 0 48
-0.40974867 1.4263973 0.24096008 0 49
-0.41085842 1.4302605 0.2556819 0 50
-0.40652785 1.4151851 0.26695195 0 51
-0.40960827 1.4259086 0.28309256 0 52
-0.40603957 1.4134853 0.29467016 0 53
-0.40885013 1.4232693 0.31090328 0 54
-0.40547141 1.4115075 0.32246464 0 55
-0.40713447 1.4172969 0.33803329 0 56
-0.40599909 1.4133445 0.35135692 0 57
-0.40882161 1.4231701 0.36822838 0 58
-0.40705609 1.417024 0.38107052 0 59
-0.40475386 1.4090097 0.39333439 0 60
-0.41189963 1.4338851 0.41502482 0 61
-0.41005519 1.4274642 0.42792195 0 62
-0.40771294 1.4193106 0.44022691 0 63
-0.42763263 1.4225041 -0.44281495 0 0
-0.42336902 1.4083214 -0.42371193 0 1
-0.42762718 1.4224861 -0.4132162 0 2
-0.42734104 1.4215342 -0.39826751 0 3
-0.42434213 1.4115584 -0.3809751 0 4
-0.42768529 1.4226793 -0.36943418 0 5
-0.42844158 1.4251951 -0.35558581 0 6
-0.42785388 1.4232402 -0.34067982 0 7
-0.42375872 1.4096177 -0.32319888 0 8
-0.4290725 1.4272938 -0.31291127 0 9
-0.42224616 1.4045862 -0.29387513 0 10
-0.42419875 1.4110814 -0.28116319 0 11
-0.4223173 1.4048228 -0.26595673 0 12
-0.42606863 1.4173015 -0.25428265 0 13
-0.42676929 1.4196322 -0.24068557 0 14
-0.4204047 1.3984606 -0.22333106 0 15
-0.42330679 1.4081144 -0.21105163 0 16
-0.4205001 1.398778 -0.19595899 0 17
-0.42786834 1.4232882 -0.1854938 0 18
-0.42924857 1.4278795 -0.17218043 0 19
-0.42687157 1.4199725 -0.15742163 0 20
-0.42908049 1.4273205 -0.14438653 0 21
-0.4272615 1.4212695 -0.130008 0 22
-0.42700294 1.4204094 -0.11619337 0 23
-0.42381325 1.4097991 -0.10171171 0 24
-0.42521271 1.4144543 -0.088406242 0 25
-0.42712432 1.4208132 -0.07511612 0 26
-0.42801422 1.4237735 -0.061569311 0 27
-0.42832267 1.4247996 -0.047910936 0 28
-0.42792681 1.4234827 -0.034184683 0 29
-0.42651334 1.4187809 -0.020440755 0 30
-0.42604062 1.4172084 -0.0068056495 0 31
-0.42232999 1.4048651 0.006746375 0 32
-0.42874908 1.426218 0.020547904 0 33
-0.42474523 1.4128993 0.033930525 0 34
-0.42749175 1.4220356 0.047817994 0 35
-0.42861477 1.4257712 0.0616557 0 36
-0.42690739 1.4200916 0.075077973 0 37
-0.42700645 1.4204212 0.088779181 0 38
-0.42681563 1.4197865 0.10243225 0 39
-0.42797542 1.4236444 0.116458 0 40
-0.42965004 1.429215 0.13073479 0 41
-0.42699477 1.4203823 0.14368469 0 42
-0.41993183 1.3968877 0.15486239 0 43
-0.42653361 1.4188483 0.17109141 0 44
-0.4233422 1.4082321 0.18353158 0 45
-0.42857078 1.4256248 0.19972004 0 46
-0.42606965 1.4173049 0.21242912 0 47
-0.42346406 1.4086375 0.22495629 0 48
-0.42781049 1.4230958 0.24127278 0 49
-0.42208174 1.4040393 0.25190321 0 50
-0.42240316 1.4051085 0.26601079 0 51
-0.42805165 1.423898 0.28371695 0 52
-0.42830878 1.4247534 0.29809463 0 53
-0.42593542 1.4168584 0.3106235 0 54
-0.42648134 1.4186745 0.32527542 0 55
-0.42560923 1.4157734 0.33889252 0 56
-0.42385876 1.4099505 0.35178229 0 57
-0.4271377 1.4208578 0.36896119 0 58
-0.42485029 1.4132488 0.38143131 0 59
-0.42619887 1.4177349 0.39720303 0 60
-0.42539996 1.4150773 0.41106403 0 61
-0.42880744 1.4264121 0.42915475 0 62
-0.42446458 1.4119658 0.43953446 0 63
-0.44610822 1.4203782 -0.44382724 0 0
-0.44483596 1.4163274 -0.42773399 0 1
-0.4484145 1.4277213 -0.41630721 0 2
-0.441807 1.4066833 -0.39559892 0 3
-0.44867113 1.4285383 -0.3870177 0 4
-0.44582754 1.4194845 -0.37000015 0 5
-0.44271863 1.409586 -0.3530229 0 6
-0.44787109 1.4259911 -0.34263065 0 7
-0.44355884 1.4122611 -0.32503095 0 8
-0.44529909 1.417802 -0.31200719 0 9
-0.44620362 1.4206818 -0.29836816 0 10
-0.44377822 1.4129596 -0.28260335 0 11
-0.44230133 1.4082572 -0.26761633 0 12
-0.44037271 1.4021167 -0.25251073 0 13
-0.44319865 1.4111142 -0.24014722 0 14
-0.44141182 1.4054252 -0.22529306 0 15
-0.44852841 1.4280839 -0.2148551 0 16
-0.44018069 1.4015052 -0.19708443 0 17
-0.4389388 1.3975512 -0.18282917 0 18
-0.44542667 1.4182082 -0.17166172 0 19
-0.44526464 1.4176923 -0.15776391 0 20
-0.44751239 1.4248489 -0.14468224 0 21
-0.44382203 1.4130991 -0.12975003 0 22
-0.44427776 1.4145501 -0.11615217 0 23
-0.44775024 1.4256063 -0.10324154 0 24
-0.44704089 1.4233477 -0.089298919 0 25
-0.44582912 1.4194895 -0.07533028 0 26
-0.4424437 1.4087106 -0.06114858 0 27
-0.44471651 1.4159471 -0.04779353 0 28
-0.44059837 1.4028351 -0.033816386 0 29
-0.44213617 1.4077314 -0.020358352 0 30
-0.44441888 1.4149994 -0.0068207686 0 31
-0.44667822 1.4221931 0.0068554445 0 32
-0.44404489 1.4138087 0.020446239 0 33
-0.44669113 1.4222341 0.034284011 0 34
-0.44696772 1.4231148 0.048035465 0 35
-0.44590938 1.4197451 0.061627559 0 36
-0.44457006 1.4154809 0.075117536 0 37
-0.44476622 1.4161053 0.088844538 0 38
-0.4470717 1.4234457 0.10308508 0 39
-0.44572723 1.419165 0.11653112 0 40
-0.44573912 1.4192029 0.13031048 0 41
-0.44106612 1.4043244 0.14259814 0 42
-0.44630116 1.4209925 0.15813115 0 43
-0.44574317 1.4192158 0.17178369 0 44
-0.44343159 1.4118559 0.18470052 0 45
-0.44306085 1.4106755 0.19837397 0 46
-0.4429751 1.4104025 0.21219495 0 47
-0.44453052 1.4153548 0.22688483 0 48
-0.44360387 1.4124044 0.24036679 0 49
-0.44319639 1.4111071 0.2541298 0 50
-0.44357488 1.4123122 0.2683869 0 51
-0.44302306 1.4105551 0.28212246 0 52
-0.44444695 1.4150888 0.29719353 0 53
-0.43987104 1.4005195 0.30820394 0 54
-0.44869313 1.4286083 0.32879326 0 55
-0.44678843 1.4225439 0.34180239 0 56
-0.44782969 1.4258592 0.35709846 0 57
-0.44511294 1.4172093 0.36940712 0 58
-0.44466665 1.4157883 0.38356349 0 59
-0.44354054 1.4122028 0.39715114 0 60
-0.44310606 1.4108195 0.41137886 0 61
-0.44693246 1.4230025 0.42974988 0 62
-0.44575861 1.419265 0.44347942 0 63
-0.465011 1.419279 -0.44523683 0 0
-0.4611659 1.4075432 -0.42676145 0 1
-0.46476829 1.4185381 -0.41526458 0 2
-0.46491286 1.4189794 -0.40063438 0 3
-0.46574086 1.4215065 -0.38663498 0 4
-0.46068767 1.4060836 -0.36795586 0 5
-0.46224871 1.410848 -0.3547357 0 6
-0.46432367 1.4171811 -0.34185988 0 7
-0.46272975 1.4123163 -0.32632852 0 8
-0.46019641 1.4045842 -0.31032026 0 9
-0.4659473 1.4221367 -0.29985434 0 10
-0.46874449 1.4306741 -0.28727752 0 11
-0.46460369 1.4180357 -0.27053979 0 12
-0.46493798 1.4190561 -0.25657159 0 13
-0.47086728 1.4371531 -0.24554539 0 14
-0.45955437 1.4026246 -0.22573291 0 15
-0.46780676 1.427812 -0.21566333 0 16
-0.45979917 1.4033717 -0.19812699 0 17
-0.46963796 1.433401 -0.18826033 0 18
-0.46175098 1.4093289 -0.17126127 0 19
-0.4605504 1.4056646 -0.15704377 0 20
-0.46318641 1.4137101 -0.14411862 0 21
-0.46102691 1.4071189 -0.12971164 0 22
-0.46356535 1.4148667 -0.1166374 0 23
-0.46598774 1.4222602 -0.10340636 0 24
-0.46695626 1.4252162 -0.089769602 0 25
-0.46346399 1.4145572 -0.075365268 0 26
-0.46229514 1.4109898 -0.061489623 0 27
-0.46188796 1.409747 -0.047772348 0 28
-0.4617067 1.4091938 -0.034103945 0 29
-0.46356523 1.4148662 -0.020542417 0 30
-0.46268407 1.4121768 -0.0068340707 0 31
-0.46516019 1.4197344 0.0068706446 0 32
-0.46140358 1.4082686 0.020446625 0 33
-0.4639934 1.4161731 0.034272853 0 34
-0.46306983 1.4133543 0.04789459 0 35
-0.4632116 1.4137869 0.061611515 0 36
-0.45629868 1.3926877 0.074200094 0 37
-0.4638024 1.41559 0.089163281 0 38
-0.46123102 1.4077419 0.10235081 0 39
-0.46174973 1.4093251 0.11618058 0 40
-0.46259013 1.4118901 0.13015147 0 41
-0.46366191 1.4151613 0.14426658 0 42
-0.46604615 1.4224384 0.15891778 0 43
-0.46370435 1.4152908 0.17198576 0 44
-0.45997146 1.4038976 0.1843854 0 45
-0.46130636 1.4079719 0.19877644 0 46
-0.46178788 1.4094416 0.21288858 0 47
-0.45981574 1.4034224 0.2258613 0 48
-0.46257895 1.4118561 0.24122323 0 49
-0.46420377 1.4168152 0.25616643 0 50
-0.46153393 1.4086664 0.26875228 0 51
-0.46095967 1.4069138 0.28250647 0 52
-0.46288705 1.4127964 0.29788494 0 53
-0.46075362 1.4062848 0.31069601 0 54
-0.46137413 1.4081787 0.32537249 0 55
-0.46889088 1.4311209 0.3452225 0 56
-0.46428412 1.4170604 0.3562977 0 57
-0.45872533 1.4000943 0.36638853 0 58
-0.46410382 1.4165101 0.38527599 0 59
-0.46063659 1.4059277 0.39694932 0 60
-0.46489707 1.4189312 0.41537964 0 61
-0.4630855 1.4134021 0.42853785 0 62
-0.4672066 1.4259802 0.44733906 0 63
-0.48406267 1.4182475 -0.44674671 0 0
-0.48371992 1.4172432 -0.43147328 0 1
-0.48495632 1.4208658 -0.41766009 0 2
-0.47988483 1.4060068 -0.39860761 0 3
-0.47986531 1.4059497 -0.38397956 0 4
-0.48139036 1.4104178 -0.3706111 0 5
-0.48084006 1.4088055 -0.3556819 0 6
-0.4835763 1.4168224 -0.34318182 0 7
-0.48301619 1.4151814 -0.32833806 0 8
-0.48004356 1.4064718 -0.31201789 0 9
-0.47865239 1.402396 -0.29691058 0 10
-0.4790965 1.4036971 -0.28302214 0 11
-0.48208845 1.4124632 -0.27058715 0 12
-0.4807694 1.4085985 -0.25573036 0 13
-0.48035595 1.4073871 -0.24145064 0 14
-0.48222205 1.4128546 -0.22831632 0 15
-0.48199862 1.4122001 -0.21418427 0 16
-0.48503962 1.4211098 -0.20145804 0 17
-0.48408705 1.4183189 -0.18704712 0 18
-0.48410866 1.4183822 -0.17307171 0 19
-0.47799861 1.4004805 -0.15710938 0 20
-0.48117307 1.4097812 -0.14431037 0 21
-0.48617515 1.4244368 -0.13184917 0 22
-0.47782725 1.3999784 -0.11588567 0 23
-0.48260269 1.4139699 -0.10322727 0 24
-0.48437169 1.4191529 -0.089756057 0 25
-0.4819667 1.4121065 -0.075544737 0 26
-0.47922736 1.4040805 -0.06144068 0 27
-0.48298818 1.4150994 -0.048151344 0 28
-0.4815079 1.4107623 -0.034282602 0 29
-0.48480991 1.4204367 -0.020708283 0 30
-0.48225453 1.4129498 -0.0068659903 0 31
-0.48056155 1.4079896 0.0068418868 0 32
-0.47595382 1.3944895 0.020330003 0 33
-0.47813427 1.400878 0.034042407 0 34
-0.47923854 1.4041133 0.047777526 0 35
-0.48679635 1.4262568 0.062411085 0 36
-0.48197925 1.4121432 0.075546704 0 37
-0.48678964 1.4262371 0.090204112 0 38
-0.48321563 1.4157658 0.10335838 0 39
-0.48287129 1.4147569 0.11710898 0 40
-0.47748196 1.3989667 0.1294916 0 41
-0.48272559 1.4143299 0.14477599 0 42
-0.48128447 1.4101076 0.15818939 0 43
-0.48227564 1.4130117 0.1724164 0 44
-0.48061875 1.4081571 0.185707 0 45
-0.4794344 1.4046872 0.19912995 0 46
-0.47879884 1.402825 0.21276239 0 47
-0.47919026 1.4039719 0.22688088 0 48
-0.4818058 1.411635 0.24217941 0 49
-0.47769034 1.3995773 0.25409254 0 50
-0.48158994 1.4110026 0.27030733 0 51
-0.48395371 1.4179282 0.2858915 0 52
