# .PCD v0.7 - Point Cloud Data file format
VERSION 0.7
FIELDS x y z intensity ring
SIZE 4 4 4 4 2
TYPE F F F F U
COUNT 1 1 1 1 1
WIDTH 1318
HEIGHT 1
VIEWPOINT 0 0 0 1 0 0 0
POINTS 1318
DATA ascii
-2.4564919 -0.98449987 -0.73621118 0 2
-2.547471 -1.0209619 -0.73635036 0 3
-2.6520693 -1.0628823 -0.73848271 0 4
-2.7487531 -1.1016307 -0.73641646 0 5
-2.8589725 -1.1458038 -0.73593217 0 6
-2.9728003 -1.1914231 -0.73416162 0 7
-3.110431 -1.246582 -0.73577797 0 8
-3.2712827 -1.3110473 -0.73991805 0 9
-3.4049327 -1.3646109 -0.73498875 0 10
-3.6037307 -1.4442841 -0.74082637 0 11
-3.7842727 -1.5166408 -0.73914486 0 12
-4.0060444 -1.6055213 -0.74152869 0 13
-4.2160082 -1.6896695 -0.73745131 0 14
-4.5024743 -1.8044778 -0.74183595 0 15
-4.7830038 -1.916907 -0.73962098 0 16
-5.1138735 -2.0495112 -0.7391355 0 17
-5.5142794 -2.2099836 -0.74145198 0 18
-5.9604063 -2.3887801 -0.74152511 0 19
-6.4727044 -2.5940962 -0.74033451 0 20
-7.1135101 -2.850915 -0.74241525 0 21
-7.8834953 -3.1595054 -0.74399519 0 22
-8.8413086 -3.5433729 -0.74617738 0 23
-10.061895 -4.0325532 -0.7489472 0 24
-11.653183 -4.670301 -0.75144345 0 25
-11.946098 -4.787694 -0.65159833 0 26
-11.953246 -4.7905588 -0.53329432 0 27
-11.955243 -4.7913589 -0.41476014 0 28
-11.958456 -4.7926464 -0.29628673 0 29
-11.958576 -4.7926946 -0.17775376 0 30
-11.953609 -4.7907043 -0.059223305 0 31
-11.946445 -4.7878332 0.059187811 0 32
-11.957561 -4.7922878 0.17773867 0 33
-11.949619 -4.7891049 0.29606777 0 34
-11.95607 -4.7916903 0.41478884 0 35
-11.952631 -4.7903123 0.5332669 0 36
-11.942618 -4.7862992 0.65140855 0 37
-11.962626 -4.7943182 0.77139753 0 38
-11.958827 -4.7927952 0.89014339 0 39
-11.935082 -4.7832789 1.0072817 0 40
-11.949646 -4.7891159 1.1277332 0 41
-11.967264 -4.7961764 1.2489867 0 42
-11.9633 -4.7945876 1.3683373 0 43
-11.981933 -4.8020554 1.4906539 0 44
-11.998663 -4.8087602 1.6133446 0 45
-11.993674 -4.8067613 1.73351 0 46
0 0 0 0 47
0 0 0 0 48
0 0 0 0 49
0 0 0 0 50
0 0 0 0 51
0 0 0 0 52
0 0 0 0 53
0 0 0 0 54
0 0 0 0 55
0 0 0 0 56
0 0 0 0 57
0 0 0 0 58
0 0 0 0 59
0 0 0 0 60
0 0 0 0 61
0 0 0 0 62
0 0 0 0 63
-2.2841468 -0.94818795 -0.73727387 0 0
-2.3509362 -0.97591335 -0.73340833 0 1
-2.4452512 -1.0150652 -0.73652738 0 2
-2.5401013 -1.0544391 -0.73791218 0 3
-2.6231005 -1.0888934 -0.73408908 0 4
-2.7499919 -1.1415682 -0.74045312 0 5
-2.8416736 -1.1796267 -0.73515749 0 6
-2.9572318 -1.227597 -0.73398924 0 7
-3.0894227 -1.2824715 -0.7344833 0 8
-3.2535427 -1.3506006 -0.73960602 0 9
-3.4064965 -1.4140943 -0.73902392 0 10
-3.5826211 -1.4872066 -0.74019027 0 11
-3.7515192 -1.5573192 -0.73643208 0 12
-3.9692662 -1.6477096 -0.73841548 0 13
-4.2055092 -1.7457781 -0.7393139 0 14
-4.4750586 -1.8576725 -0.74102646 0 15
-4.7624378 -1.9769685 -0.7401439 0 16
-5.0975881 -2.1160951 -0.74048656 0 17
-5.4950233 -2.2810771 -0.74257821 0 18
-5.9342513 -2.463408 -0.74198353 0 19
-6.4755697 -2.6881185 -0.74438661 0 20
-7.1208797 -2.9559977 -0.74692148 0 21
-7.8926978 -3.2763925 -0.74860924 0 22
-8.8653336 -3.6801498 -0.75196731 0 23
-9.5419149 -3.9610102 -0.71381444 0 24
-9.5445118 -3.9620883 -0.61856282 0 25
-9.5430794 -3.9614935 -0.52314341 0 26
-9.5534496 -3.9657986 -0.42837065 0 27
-9.5661411 -3.971067 -0.33354449 0 28
-9.581687 -3.9775202 -0.23859283 0 29
-9.5736399 -3.97418 -0.14301935 0 30
-9.5856476 -3.9791644 -0.047730215 0 31
-9.5844221 -3.9786558 0.047724117 0 32
-9.5984869 -3.9844944 0.14339054 0 33
-9.5909052 -3.9813468 0.23882239 0 34
-9.6066923 -3.9879005 0.3349584 0 35
-9.6007109 -3.9854176 0.43048981 0 36
-9.6136322 -3.9907813 0.5270111 0 37
-9.6363192 -4.0001993 0.62451267 0 38
-9.6285515 -3.9969745 0.72029555 0 39
-9.6426544 -4.0028291 0.81790054 0 40
-9.6409216 -4.0021095 0.91442537 0 41
-9.6367998 -4.0003986 1.0108207 0 42
-9.6441574 -4.0034528 1.1086255 0 43
-9.6536961 -4.0074124 1.2070409 0 44
-9.6616335 -4.0107074 1.3056393 0 45
-9.6732759 -4.0155406 1.4051609 0 46
-9.6747952 -4.0161715 1.5035872 0 47
-9.6908321 -4.0228286 1.6047082 0 48
-9.6935587 -4.0239601 1.7040938 0 49
0 0 0 0 50
0 0 0 0 51
0 0 0 0 52
0 0 0 0 53
0 0 0 0 54
0 0 0 0 55
0 0 0 0 56
0 0 0 0 57
0 0 0 0 58
0 0 0 0 59
0 0 0 0 60
0 0 0 0 61
0 0 0 0 62
0 0 0 0 63
-2.2709601 -0.97561878 -0.73683405 0 0
-2.3425355 -1.006368 -0.73459262 0 1
-2.4284205 -1.0432647 -0.73526627 0 2
-2.5148885 -1.0804119 -0.73439163 0 3
-2.6179588 -1.1246916 -0.7364648 0 4
-2.7322011 -1.1737708 -0.73949319 0 5
-2.8321972 -1.2167298 -0.73652089 0 6
-2.9598267 -1.2715602 -0.73845828 0 7
-3.0824459 -1.3242381 -0.73664021 0 8
-3.2286053 -1.3870292 -0.73775852 0 9
-3.3965101 -1.4591621 -0.74069399 0 10
-3.5372519 -1.5196258 -0.73462188 0 11
-3.7336528 -1.6040008 -0.73674095 0 12
-3.9564161 -1.6997013 -0.73985714 0 13
-4.1786733 -1.7951844 -0.73842102 0 14
-4.4286413 -1.9025723 -0.73715848 0 15
-4.7494955 -2.0404131 -0.74197567 0 16
-5.0871229 -2.1854601 -0.74281394 0 17
-5.4703379 -2.3500915 -0.74309123 0 18
-5.9268241 -2.546201 -0.74491328 0 19
-6.4603825 -2.7754209 -0.74650747 0 20
-7.125102 -3.0609889 -0.75125569 0 21
-7.7921863 -3.3475723 -0.74292397 0 22
-8.67278 -3.7258811 -0.73946494 0 23
-8.6731882 -3.7260566 -0.65220469 0 24
-8.6848145 -3.7310512 -0.56577796 0 25
-8.6776371 -3.7279677 -0.47817746 0 26
-8.694623 -3.7352648 -0.39189127 0 27
-8.6831818 -3.7303495 -0.30433452 0 28
-8.6896381 -3.7331235 -0.21750663 0 29
-8.7053127 -3.739857 -0.13072462 0 30
-8.7016983 -3.7383044 -0.043554328 0 31
-8.7130747 -3.743192 0.043611273 0 32
-8.7057657 -3.740052 0.13073143 0 33
-8.7164841 -3.7446566 0.2181786 0 34
-8.7252874 -3.7484386 0.3058103 0 35
-8.7315331 -3.7511218 0.39355493 0 36
-8.7424154 -3.7557967 0.48174703 0 37
-8.7363205 -3.7531781 0.56913328 0 38
-8.7659655 -3.765914 0.6591813 0 39
-8.7505589 -3.7592952 0.74609655 0 40
-8.7462234 -3.7574327 0.833884 0 41
-8.7689133 -3.7671804 0.92457569 0 42
-8.7756157 -3.7700598 1.0140363 0 43
-8.7756529 -3.7700758 1.1029686 0 44
-8.7845545 -3.7738998 1.1932948 0 45
-8.7866268 -3.7747903 1.2830099 0 46
-8.7990713 -3.7801363 1.3746085 0 47
-8.7842445 -3.7737668 1.4621595 0 48
-8.7987146 -3.7799833 1.5548371 0 49
-8.8112059 -3.7853496 1.6477118 0 50
-8.8218803 -3.7899354 1.7407726 0 51
0 0 0 0 52
0 0 0 0 53
0 0 0 0 54
0 0 0 0 55
0 0 0 0 56
0 0 0 0 57
0 0 0 0 58
0 0 0 0 59
0 0 0 0 60
0 0 0 0 61
0 0 0 0 62
0 0 0 0 63
-2.2577641 -1.0030107 -0.73649853 0 0
-2.3362021 -1.0378568 -0.73655289 0 1
-2.4251068 -1.0773526 -0.73821825 0 2
-2.5080867 -1.1142164 -0.7363506 0 3
-2.618392 -1.1632195 -0.74055439 0 4
-2.7111864 -1.2044435 -0.73775816 0 5
-2.8188674 -1.2522807 -0.73700321 0 6
-2.924612 -1.2992576 -0.73360294 0 7
-3.0744021 -1.3658018 -0.73867565 0 8
-3.208324 -1.4252965 -0.73707318 0 9
-3.3516724 -1.4889791 -0.73485321 0 10
-3.5293398 -1.5679078 -0.73692697 0 11
-3.7218244 -1.6534189 -0.73836291 0 12
-3.9343035 -1.7478127 -0.73968518 0 13
-4.1567383 -1.8466293 -0.73850167 0 14
-4.4336276 -1.9696372 -0.74196374 0 15
-4.7275434 -2.1002092 -0.74252462 0 16
-5.0766535 -2.255301 -0.74527824 0 17
-5.457191 -2.4243548 -0.74529856 0 18
-5.9336491 -2.6360211 -0.74978834 0 19
-6.3867054 -2.8372912 -0.74196929 0 20
-7.0269814 -3.1217334 -0.74490106 0 21
-7.8153143 -3.4719501 -0.74914289 0 22
-7.9260364 -3.5211384 -0.67943585 0 23
-7.9348941 -3.5250733 -0.59990072 0 24
-7.9419055 -3.5281882 -0.52016759 0 25
-7.932704 -3.5241003 -0.4394829 0 26
-7.9537034 -3.5334294 -0.36042702 0 27
-7.9498672 -3.5317252 -0.28013369 0 28
-7.9548678 -3.5339468 -0.20018747 0 29
-7.9610705 -3.5367022 -0.12019258 0 30
-7.9669228 -3.5393021 -0.040091384 0 31
-7.9769859 -3.5437727 0.040142026 0 32
-7.9844112 -3.5470715 0.12054497 0 33
-7.9676833 -3.5396399 0.20050998 0 34
-7.9773884 -3.5439513 0.28110346 0 35
-7.9809785 -3.5455465 0.36166304 0 36
-7.9847751 -3.5472331 0.44236773 0 37
-7.9869146 -3.5481834 0.52311552 0 38
-7.9968286 -3.5525877 0.6045832 0 39
-7.991034 -3.5500135 0.68500757 0 40
-8.0001135 -3.5540471 0.76685697 0 41
-8.001153 -3.5545089 0.84816897 0 42
-8.0083427 -3.557703 0.93036151 0 43
-8.0126171 -3.5596018 1.0124911 0 44
-8.011467 -3.5590909 1.0941408 0 45
-8.0288706 -3.5668223 1.1786786 0 46
-8.0350542 -3.5695693 1.2620139 0 47
-8.0423746 -3.5728216 1.3458844 0 48
-8.0574799 -3.5795321 1.4315219 0 49
-8.0538464 -3.5779178 1.514197 0 50
-8.0592642 -3.5803246 1.5988562 0 51
-8.0557222 -3.5787511 1.6820365 0 52
0 0 0 0 53
0 0 0 0 54
0 0 0 0 55
0 0 0 0 56
0 0 0 0 57
0 0 0 0 58
0 0 0 0 59
0 0 0 0 60
0 0 0 0 61
0 0 0 0 62
0 0 0 0 63
-2.2481446 -1.0320191 -0.73744452 0 0
-2.33829 -1.0734007 -0.74131644 0 1
-2.4009411 -1.1021609 -0.73493201 0 2
-2.5073481 -1.1510074 -0.74023306 0 3
-2.5966706 -1.1920114 -0.73850077 0 4
-2.6939759 -1.2366797 -0.73715717 0 5
-2.8152041 -1.2923299 -0.74014419 0 6
-2.9374757 -1.3484591 -0.74093282 0 7
-3.0630183 -1.40609 -0.74003875 0 8
-3.2128465 -1.4748691 -0.74222255 0 9
-3.3596504 -1.5422601 -0.7407043 0 10
-3.5365496 -1.6234663 -0.74254447 0 11
-3.7316689 -1.7130365 -0.74443859 0 12
-3.9103365 -1.7950546 -0.73927313 0 13
-4.1348829 -1.8981333 -0.73870957 0 14
-4.3927541 -2.01651 -0.73921728 0 15
-4.6906362 -2.153254 -0.74083048 0 16
-5.049593 -2.3180344 -0.74543381 0 17
-5.4337025 -2.4943614 -0.74622321 0 18
-5.8455596 -2.6834259 -0.74277061 0 19
-6.3853664 -2.9312263 -0.74594468 0 20
-7.0314989 -3.2278357 -0.74953079 0 21
-7.2936268 -3.3481665 -0.70302939 0 22
-7.2934618 -3.3480909 -0.62869191 0 23
-7.2909422 -3.3469341 -0.55428571 0 24
-7.3121209 -3.3566566 -0.48158583 0 25
-7.3066077 -3.3541255 -0.40705052 0 26
-7.3180866 -3.359395 -0.3334704 0 27
-7.317358 -3.3590605 -0.25928152 0 28
-7.3164945 -3.358664 -0.18514787 0 29
-7.319108 -3.3598638 -0.11111587 0 30
-7.3128247 -3.3569794 -0.037004739 0 31
-7.3303533 -3.365026 0.037093438 0 32
-7.3297911 -3.364768 0.11127806 0 33
-7.3371434 -3.3681431 0.18567041 0 34
-7.3371978 -3.3681681 0.25998449 0 35
-7.3391156 -3.3690484 0.33442864 0 36
-7.3394828 -3.3692169 0.40888196 0 37
-7.3362288 -3.367723 0.48317361 0 38
-7.3547339 -3.3762181 0.55913544 0 39
-7.3485694 -3.3733883 0.6334421 0 40
-7.3506708 -3.3743529 0.70852786 0 41
-7.3620663 -3.3795841 0.78476799 0 42
-7.3697538 -3.3831129 0.86094183 0 43
-7.3656125 -3.381212 0.93591726 0 44
-7.383112 -3.389245 1.0139402 0 45
-7.3722887 -3.3842766 1.0883161 0 46
-7.3791323 -3.387418 1.1654466 0 47
-7.3817053 -3.3885992 1.2422011 0 48
-7.4075489 -3.4004629 1.3233815 0 49
-7.3894267 -3.392144 1.3970165 0 50
-7.3928423 -3.3937118 1.4748138 0 51
-7.3977327 -3.395957 1.5532501 0 52
-7.3946428 -3.3945384 1.6303017 0 53
-7.4025502 -3.3981683 1.7101158 0 54
0 0 0 0 55
0 0 0 0 56
0 0 0 0 57
0 0 0 0 58
0 0 0 0 59
0 0 0 0 60
0 0 0 0 61
0 0 0 0 62
0 0 0 0 63
-2.2374308 -1.0606003 -0.73815233 0 0
-2.3158917 -1.0977929 -0.73843926 0 1
-2.4041936 -1.1396501 -0.74016124 0 2
-2.4712794 -1.1714506 -0.73378187 0 3
-2.5692735 -1.2179023 -0.73491251 0 4
-2.6764181 -1.2686917 -0.73656589 0 5
-2.7920396 -1.3234993 -0.7382769 0 6
-2.9180529 -1.3832328 -0.74026799 0 7
-3.0275574 -1.4351407 -0.73567927 0 8
-3.1858399 -1.5101708 -0.74021757 0 9
-3.3421657 -1.5842733 -0.74108845 0 10
-3.5125735 -1.665051 -0.74175316 0 11
-3.6872935 -1.7478728 -0.73981774 0 12
-3.9200094 -1.8581862 -0.74536526 0 13
-4.1126695 -1.949512 -0.7389679 0 14
-4.3763695 -2.0745127 -0.74069679 0 15
-4.6851082 -2.2208629 -0.74421424 0 16
-5.0182872 -2.3787982 -0.74507409 0 17
-5.3751998 -2.5479844 -0.74243557 0 18
-5.834816 -2.7658541 -0.74567056 0 19
-6.3782582 -3.0234599 -0.74940085 0 20
-6.7314577 -3.1908858 -0.72167546 0 21
-6.7342958 -3.1922309 -0.65285003 0 22
-6.7363601 -3.1932094 -0.58401054 0 23
-6.7336688 -3.1919336 -0.51486462 0 24
-6.7453446 -3.1974685 -0.44681293 0 25
-6.7345815 -3.1923664 -0.37734133 0 26
-6.7370787 -3.1935501 -0.30876112 0 27
-6.7517934 -3.2005253 -0.24061774 0 28
-6.7431827 -3.1964436 -0.17162158 0 29
-6.7679329 -3.2081759 -0.10333924 0 30
-6.759357 -3.2041106 -0.034400824 0 31
-6.7749782 -3.2115154 0.034480326 0 32
-6.7628899 -3.2057853 0.10326223 0 33
-6.7592945 -3.2040808 0.17203163 0 34
-6.7753859 -3.2117088 0.24145852 0 35
-6.7665577 -3.2075238 0.31011215 0 36
-6.7942653 -3.2206581 0.38068545 0 37
-6.7811813 -3.2144561 0.44918677 0 38
-6.7801027 -3.2139447 0.51841497 0 39
-6.7754784 -3.2117527 0.58740193 0 40
-6.7854176 -3.216464 0.65780598 0 41
-6.7785811 -3.2132235 0.72672755 0 42
-6.8123808 -3.2292452 0.80040717 0 43
-6.7910399 -3.2191291 0.86787289 0 44
-6.7956738 -3.2213259 0.93863487 0 45
-6.8009744 -3.2238383 1.0097529 0 46
-6.8044491 -3.2254853 1.0808647 0 47
-6.8039951 -3.2252703 1.1515703 0 48
-6.8129911 -3.2295346 1.224164 0 49
-6.809052 -3.2276673 1.2946986 0 50
-6.8168783 -3.2313771 1.3677368 0 51
-6.8267431 -3.2360535 1.4416093 0 52
-6.8257284 -3.2355723 1.51353 0 53
-6.8380699 -3.2414224 1.588799 0 54
-6.839951 -3.2423143 1.6620692 0 55
-6.8469143 -3.245615 1.7369636 0 56
0 0 0 0 57
0 0 0 0 58
0 0 0 0 59
0 0 0 0 60
0 0 0 0 61
0 0 0 0 62
0 0 0 0 63
-2.2246847 -1.0882573 -0.73830616 0 0
-2.3011165 -1.1256458 -0.73808575 0 1
-2.3990235 -1.1735393 -0.74295598 0 2
-2.4761608 -1.2112727 -0.73959786 0 3
-2.5720901 -1.258199 -0.74008775 0 4
-2.655968 -1.2992297 -0.73527896 0 5
-2.7819886 -1.3608758 -0.73998809 0 6
-2.8963547 -1.4168206 -0.73912728 0 7
-3.0400064 -1.4870913 -0.74309152 0 8
-3.156388 -1.5440222 -0.73773009 0 9
-3.3085117 -1.6184371 -0.73798305 0 10
-3.4801743 -1.7024099 -0.73927605 0 11
-3.687645 -1.803899 -0.74428248 0 12
-3.8756368 -1.8958597 -0.74130476 0 13
-4.1036468 -2.0073962 -0.7417258 0 14
-4.3497734 -2.127795 -0.74056774 0 15
-4.6589003 -2.2790117 -0.7444464 0 16
-4.9618406 -2.4272022 -0.74106866 0 17
-5.351656 -2.6178896 -0.74357373 0 18
-5.816648 -2.8453515 -0.74776357 0 19
-6.2304363 -3.0477657 -0.7363804 0 20
-6.2389269 -3.0519192 -0.67284399 0 21
-6.2332287 -3.0491316 -0.60786331 0 22
-6.2488499 -3.0567732 -0.54496318 0 23
-6.2437205 -3.0542641 -0.48023787 0 24
-6.2592616 -3.0618663 -0.41707712 0 25
-6.2497497 -3.0572135 -0.35225573 0 26
-6.2484469 -3.056576 -0.28806782 0 27
-6.2535567 -3.0590756 -0.22418535 0 28
-6.2742472 -3.0691969 -0.16063502 0 29
-6.2635779 -3.063978 -0.09620627 0 30
-6.2667384 -3.0655239 -0.032083128 0 31
-6.2620525 -3.0632315 0.032059137 0 32
-6.2699933 -3.067116 0.096304804 0 33
-6.2525387 -3.0585775 0.16007923 0 34
-6.2711616 -3.0676875 0.22481649 0 35
-6.2835245 -3.0737352 0.28968498 0 36
-6.2792392 -3.0716391 0.35391784 0 37
-6.2856078 -3.0747542 0.41883266 0 38
-6.2779422 -3.0710044 0.48287004 0 39
-6.2950649 -3.0793803 0.54899359 0 40
-6.2834191 -3.0736835 0.61275786 0 41
-6.3000741 -3.0818307 0.67943847 0 42
-6.2973843 -3.0805149 0.74429297 0 43
-6.3047919 -3.0841386 0.81051725 0 44
-6.2985067 -3.081064 0.87513167 0 45
-6.3169799 -3.0901008 0.94346356 0 46
-6.3149753 -3.0891201 1.0090709 0 47
-6.3029971 -3.0832605 1.0731125 0 48
-6.3033471 -3.0834317 1.1393173 0 49
-6.3168578 -3.0900409 1.2082444 0 50
-6.3322845 -3.0975873 1.2780538 0 51
-6.3254814 -3.0942593 1.3436905 0 52
-6.3329949 -3.097935 1.412612 0 53
-6.3323541 -3.0976214 1.480036 0 54
-6.3271203 -3.0950613 1.5465853 0 55
-6.3354726 -3.0991468 1.6167636 0 56
-6.3314633 -3.0971854 1.6841216 0 57
0 0 0 0 58
0 0 0 0 59
0 0 0 0 60
0 0 0 0 61
0 0 0 0 62
0 0 0 0 63
-2.2075639 -1.1137267 -0.73711348 0 0
-2.2825978 -1.1515818 -0.73663211 0 1
-2.3582261 -1.1897365 -0.73479646 0 2
-2.4597893 -1.2409757 -0.73920989 0 3
-2.5535877 -1.2882974 -0.73926616 0 4
-2.6494625 -1.3366667 -0.73797244 0 5
-2.7628367 -1.3938645 -0.73939693 0 6
-2.8775778 -1.4517519 -0.73883528 0 7
-3.0105863 -1.5188555 -0.74040937 0 8
-3.1710737 -1.5998222 -0.74570405 0 9
-3.2937083 -1.6616919 -0.73918289 0 10
-3.4814408 -1.7564038 -0.74407673 0 11
-3.6552467 -1.8440897 -0.74226409 0 12
-3.8855512 -1.9602795 -0.74775511 0 13
-4.0862513 -2.0615335 -0.74310732 0 14
-4.3390231 -2.1890583 -0.74326408 0 15
-4.6593571 -2.3506684 -0.74908149 0 16
-4.9469218 -2.4957461 -0.74336779 0 17
-5.357646 -2.7029583 -0.74896735 0 18
-5.7514729 -2.9016461 -0.74391556 0 19
-5.8394127 -2.946012 -0.69439399 0 20
-5.8365078 -2.9445465 -0.63330162 0 21
-5.839766 -2.9461904 -0.57298255 0 22
-5.8413854 -2.9470072 -0.5125497 0 23
-5.8317804 -2.9421616 -0.4513019 0 24
-5.8456302 -2.9491489 -0.39190215 0 25
-5.8584156 -2.9555991 -0.33222219 0 26
-5.861855 -2.9573345 -0.27190098 0 27
-5.8419271 -2.9472806 -0.21071203 0 28
-5.8499093 -2.9513078 -0.15068874 0 29
-5.8618684 -2.9573412 -0.090587854 0 30
-5.8670635 -2.9599621 -0.03022101 0 31
-5.8598356 -2.9563155 0.030183779 0 32
-5.8666544 -2.9597557 0.090661816 0 33
-5.8619657 -2.9573903 0.15099931 0 34
-5.8565083 -2.9546371 0.21123797 0 35
-5.8734107 -2.9631641 0.27243698 0 36
-5.8639607 -2.9583967 0.33253667 0 37
-5.8757782 -2.9643586 0.39392331 0 38
-5.8934631 -2.9732809 0.45607534 0 39
-5.9020519 -2.9776139 0.51787287 0 40
-5.8871546 -2.9700983 0.57763219 0 41
-5.8878174 -2.9704325 0.63886911 0 42
-5.9011722 -2.97717 0.70173812 0 43
-5.8866873 -2.9698622 0.76140463 0 44
-5.9040289 -2.9786112 0.8253485 0 45
-5.9074588 -2.9803417 0.88770646 0 46
-5.9001975 -2.9766784 0.94857049 0 47
-5.8993764 -2.976264 1.0105488 0 48
-5.9091368 -2.9811883 1.0746092 0 49
-5.8993201 -2.9762359 1.135295 0 50
-5.913527 -2.9834032 1.2008488 0 51
-5.9170432 -2.985177 1.26463 0 52
-5.9046154 -2.9789071 1.3251296 0 53
-5.9069152 -2.9800675 1.3890597 0 54
-5.9110508 -2.9821539 1.4537359 0 55
-5.9291553 -2.9912877 1.522346 0 56
-5.9209986 -2.9871726 1.5845917 0 57
-5.9319544 -2.9926999 1.6522667 0 58
-5.9389014 -2.9962046 1.7193178 0 59
0 0 0 0 60
0 0 0 0 61
0 0 0 0 62
0 0 0 0 63
-2.1947975 -1.1413548 -0.73748118 0 0
-2.2801363 -1.1857334 -0.7404871 0 1
-2.3512065 -1.2226918 -0.73723823 0 2
-2.441716 -1.2697592 -0.73841482 0 3
-2.5454473 -1.3237023 -0.74156564 0 4
-2.6353912 -1.3704756 -0.73869115 0 5
-2.7388122 -1.4242574 -0.73759866 0 6
-2.8637922 -1.4892504 -0.73994166 0 7
-2.9937496 -1.5568317 -0.74092066 0 8
-3.1264229 -1.6258255 -0.73984933 0 9
-3.2953734 -1.7136844 -0.74422938 0 10
-3.4463544 -1.7921987 -0.7412318 0 11
-3.6267622 -1.8860158 -0.74113315 0 12
-3.8430719 -1.9985027 -0.74425322 0 13
-4.0618463 -2.1122713 -0.74333644 0 14
-4.3262172 -2.2497516 -0.74575293 0 15
-4.5803313 -2.3818977 -0.74102926 0 16
-4.9378653 -2.5678253 -0.74669522 0 17
-5.27982 -2.745651 -0.74275124 0 18
-5.4515715 -2.8349664 -0.70958054 0 19
-5.4324546 -2.8250251 -0.65008223 0 20
-5.4490995 -2.8336811 -0.59500098 0 21
-5.4478731 -2.8330433 -0.53790843 0 22
-5.4525428 -2.8354716 -0.48145378 0 23
-5.4459276 -2.8320315 -0.4241049 0 24
-5.4480662 -2.8331437 -0.36755651 0 25
-5.4669685 -2.8429735 -0.31198266 0 26
-5.4666762 -2.8428214 -0.25517288 0 27
-5.4627891 -2.8407998 -0.19828188 0 28
-5.4731679 -2.8461974 -0.141875 0 29
-5.467052 -2.8430166 -0.085020281 0 30
-5.4796391 -2.8495624 -0.028403742 0 31
-5.4708748 -2.8450048 0.02835831 0 32
-5.4686308 -2.843838 0.085044838 0 33
-5.4661961 -2.8425717 0.14169426 0 34
-5.4776535 -2.8485298 0.19882143 0 35
-5.4801316 -2.8498185 0.25580093 0 36
-5.4767909 -2.8480814 0.31254321 0 37
-5.4878273 -2.8538206 0.37023902 0 38
-5.4818797 -2.8507276 0.42690468 0 39
-5.4900279 -2.854965 0.48476371 0 40
-5.4923906 -2.8561935 0.54230398 0 41
-5.4891672 -2.8545175 0.59937608 0 42
-5.4891143 -2.8544898 0.6568625 0 43
-5.492558 -2.8562806 0.71491539 0 44
-5.5007653 -2.8605485 0.77383327 0 45
-5.4898505 -2.8548727 0.83016545 0 46
-5.5019717 -2.861176 0.89013702 0 47
-5.5040002 -2.8622308 0.94877899 0 48
-5.5078197 -2.864217 1.0079561 0 49
-5.5196729 -2.8703811 1.0689454 0 50
-5.5241475 -2.8727081 1.1288661 0 51
-5.5133443 -2.86709 1.185794 0 52
-5.5052514 -2.8628814 1.2433097 0 53
-5.5064654 -2.863513 1.3030723 0 54
-5.5144482 -2.8676641 1.3647664 0 55
-5.5134406 -2.8671403 1.4245533 0 56
-5.5172892 -2.8691416 1.4858795 0 57
-5.5209379 -2.8710389 1.5475 0 58
-5.5214009 -2.8712797 1.6085508 0 59
-5.5336614 -2.8776555 1.6734698 0 60
-5.5384617 -2.8801517 1.7366257 0 61
0 0 0 0 62
0 0 0 0 63
-2.1904638 -1.1735404 -0.74081779 0 0
-2.278933 -1.2209377 -0.74491554 0 1
-2.3379648 -1.252564 -0.73785985 0 2
-2.4347496 -1.3044164 -0.74110276 0 3
-2.5075006 -1.3433927 -0.73526746 0 4
-2.6225071 -1.4050075 -0.73986644 0 5
-2.7217669 -1.4581858 -0.73778129 0 6
-2.8522472 -1.5280906 -0.74175757 0 7
-2.9673381 -1.5897506 -0.73916626 0 8
-3.1133683 -1.6679862 -0.74155766 0 9
-3.2698631 -1.7518282 -0.74327683 0 10
-3.4213443 -1.8329843 -0.74064445 0 11
-3.6088886 -1.9334611 -0.74228299 0 12
-3.7905705 -2.030797 -0.73886585 0 13
-4.0335608 -2.160979 -0.74296671 0 14
-4.2993865 -2.3033953 -0.74595392 0 15
-4.5686202 -2.4476368 -0.74394768 0 16
-4.9123077 -2.6317675 -0.74766755 0 17
-5.1161628 -2.7409828 -0.72441506 0 18
-5.127327 -2.746964 -0.67172241 0 19
-5.1354651 -2.7513239 -0.61854434 0 20
-5.1220951 -2.7441611 -0.56293654 0 21
-5.1321516 -2.7495487 -0.51003462 0 22
-5.1242962 -2.7453401 -0.45541632 0 23
-5.1364365 -2.7518444 -0.4026078 0 24
-5.1412544 -2.7544255 -0.34911594 0 25
-5.1264968 -2.7465191 -0.29445806 0 26
-5.1237421 -2.7450435 -0.24072282 0 27
-5.1249356 -2.745683 -0.1872302 0 28
-5.1352258 -2.7511959 -0.1339817 0 29
-5.1298547 -2.7483182 -0.080295876 0 30
-5.1545353 -2.7615409 -0.026892548 0 31
-5.140007 -2.7537572 0.02681675 0 32
-5.1523037 -2.7603455 0.080647267 0 33
-5.1563096 -2.7624912 0.13453178 0 34
-5.1335416 -2.7502935 0.1875446 0 35
-5.1498313 -2.7590206 0.24194853 0 36
-5.1480627 -2.7580731 0.29569677 0 37
-5.1509023 -2.7595944 0.34977105 0 38
-5.1598325 -2.7643788 0.40444162 0 39
-5.1634774 -2.7663317 0.45889854 0 40
-5.1602778 -2.7646174 0.51282984 0 41
-5.1634221 -2.7663021 0.56747854 0 42
-5.1647182 -2.7669964 0.62206775 0 43
-5.1605883 -2.7647836 0.67607993 0 44
-5.172575 -2.7712057 0.73240268 0 45
-5.1650701 -2.7671847 0.78613871 0 46
-5.1849794 -2.7778513 0.84431475 0 47
-5.1672468 -2.7683511 0.89652973 0 48
-5.1706095 -2.7701526 0.95240688 0 49
-5.1798654 -2.7751114 1.0096701 0 50
-5.1738362 -2.7718813 1.0641643 0 51
-5.1873026 -2.7790959 1.1229348 0 52
-5.1911421 -2.7811527 1.1800052 0 53
-5.1880274 -2.779484 1.2357103 0 54
-5.1838508 -2.7772467 1.2913014 0 55
-5.2093158 -2.7908895 1.3547386 0 56
-5.1869278 -2.7788951 1.4060051 0 57
-5.2025905 -2.7872863 1.4677641 0 58
-5.2015171 -2.7867112 1.5252265 0 59
-5.2037511 -2.7879083 1.5839471 0 60
-5.1914983 -2.7813437 1.6384327 0 61
-5.1993189 -2.7855337 1.6995032 0 62
0 0 0 0 63
-2.1662798 -1.1950945 -0.737553 0 0
-2.2401574 -1.2358513 -0.73715258 0 1
-2.3324246 -1.2867533 -0.74104887 0 2
-2.4239314 -1.3372358 -0.74275881 0 3
-2.5095296 -1.3844587 -0.74079829 0 4
-2.5910907 -1.4294543 -0.73590642 0 5
-2.7081106 -1.494012 -0.73900342 0 6
-2.8331892 -1.5630153 -0.74174351 0 7
-2.94505 -1.6247269 -0.73853511 0 8
-3.0910673 -1.7052817 -0.74118435 0 9
-3.2404118 -1.7876722 -0.74152291 0 10
-3.4060397 -1.8790458 -0.74227703 0 11
-3.5846655 -1.9775903 -0.74224621 0 12
-3.7896898 -2.0906982 -0.74364907 0 13
-4.0117254 -2.213191 -0.74390131 0 14
-4.247066 -2.3430238 -0.74181885 0 15
-4.5505009 -2.5104229 -0.74596751 0 16
-4.8117647 -2.6545572 -0.73727703 0 17
-4.8153639 -2.6565428 -0.68639737 0 18
-4.8239956 -2.6613045 -0.6362226 0 19
-4.8272443 -2.6630969 -0.58532041 0 20
-4.8281603 -2.6636024 -0.53419137 0 21
-4.8223672 -2.6604064 -0.48246279 0 22
-4.8239732 -2.6612923 -0.4316012 0 23
-4.8310657 -2.665205 -0.38121203 0 24
-4.8334665 -2.6665294 -0.33041719 0 25
-4.8230805 -2.6607997 -0.27888849 0 26
-4.8252993 -2.6620238 -0.22822204 0 27
-4.8375545 -2.6687849 -0.17791671 0 28
-4.8388729 -2.6695123 -0.12709647 0 29
-4.8398304 -2.6700404 -0.076264374 0 30
-4.8481221 -2.6746147 -0.025463572 0 31
-4.8455863 -2.6732159 0.025450254 0 32
-4.8380752 -2.6690722 0.07623671 0 33
-4.854321 -2.6780345 0.12750223 0 34
-4.8515773 -2.6765208 0.17843242 0 35
-4.8461504 -2.673527 0.22920825 0 36
-4.8565416 -2.6792598 0.28082335 0 37
-4.8683357 -2.6857662 0.33280087 0 38
-4.8654928 -2.6841977 0.3839286 0 39
-4.8613634 -2.6819198 0.43494651 0 40
-4.8529596 -2.6772833 0.48552346 0 41
-4.857903 -2.6800106 0.53748208 0 42
-4.8479815 -2.6745369 0.58783489 0 43
-4.8505521 -2.6759553 0.63972503 0 44
-4.8783484 -2.6912899 0.69537538 0 45
-4.8541465 -2.6779382 0.7437709 0 46
-4.8753738 -2.6896491 0.7992242 0 47
-4.8839188 -2.6943631 0.85305542 0 48
-4.8646908 -2.6837554 0.9020682 0 49
-4.8790131 -2.6916566 0.95740652 0 50
-4.8714828 -2.6875024 1.0086966 0 51
-4.8803434 -2.6923907 1.0635716 0 52
-4.8838553 -2.6943281 1.117602 0 53
-4.8710551 -2.6872663 1.1679945 0 54
-4.8854585 -2.6952124 1.2251345 0 55
-4.880918 -2.6927075 1.2778494 0 56
-4.8841434 -2.6944869 1.3328106 0 57
-4.8724451 -2.6880331 1.3838433 0 58
-4.8937969 -2.6998127 1.44462 0 59
-4.9070001 -2.7070966 1.5036389 0 60
-4.908762 -2.7080686 1.5595928 0 61
-4.8971496 -2.7016621 1.61147 0 62
-4.9080343 -2.7076671 1.6710378 0 63
-2.156261 -1.2243876 -0.73921204 0 0
-2.2203155 -1.2607595 -0.73566914 0 1
-2.3132722 -1.3135431 -0.74003965 0 2
-2.3909252 -1.3576368 -0.73770458 0 3
-2.4866738 -1.4120057 -0.73912096 0 4
-2.5860729 -1.4684472 -0.73955375 0 5
-2.696305 -1.5310403 -0.74086326 0 6
-2.809191 -1.5951401 -0.74053985 0 7
-2.931808 -1.6647657 -0.74029189 0 8
-3.0702095 -1.7433541 -0.7412672 0 9
-3.2320087 -1.8352283 -0.74470776 0 10
-3.3762808 -1.9171503 -0.74087322 0 11
-3.5709505 -2.0276892 -0.74451286 0 12
-3.75296 -2.1310396 -0.74152762 0 13
-3.9941354 -2.2679861 -0.74575454 0 14
-4.2396541 -2.4073987 -0.74563843 0 15
-4.536139 -2.5757513 -0.7487486 0 16
-4.5798826 -2.6005905 -0.70659357 0 17
-4.580029 -2.6006734 -0.65736067 0 18
-4.5838566 -2.6028469 -0.60872656 0 19
-4.571353 -2.595747 -0.55812079 0 20
-4.5843196 -2.6031096 -0.51071548 0 21
-4.5867119 -2.6044683 -0.46205539 0 22
-4.5886393 -2.6055624 -0.41338113 0 23
-4.5856228 -2.6038499 -0.36434346 0 24
-4.5849714 -2.6034799 -0.31559461 0 25
-4.5968771 -2.6102405 -0.26764432 0 26
-4.5884905 -2.605478 -0.21852049 0 27
-4.5949554 -2.6091492 -0.17016144 0 28
-4.5987711 -2.6113157 -0.12162423 0 29
-4.5990973 -2.611501 -0.072971478 0 30
-4.6101022 -2.6177497 -0.024380652 0 31
-4.6019192 -2.6131034 0.024337377 0 32
-4.5963359 -2.6099331 0.072927669 0 33
-4.6025677 -2.6134715 0.12172463 0 34
-4.6078629 -2.6164784 0.17063944 0 35
-4.5960822 -2.6097889 0.21888204 0 36
-4.6190372 -2.6228232 0.26893452 0 37
-4.6118436 -2.6187387 0.31744429 0 38
-4.6056204 -2.615205 0.36593232 0 39
-4.6048827 -2.6147861 0.41484445 0 40
-4.6124406 -2.6190777 0.46464723 0 41
-4.6031456 -2.6137998 0.51281285 0 42
-4.6225576 -2.6248224 0.56437236 0 43
-4.6180959 -2.6222889 0.61327338 0 44
-4.6149735 -2.6205161 0.66237622 0 45
-4.6302505 -2.6291904 0.71436435 0 46
-4.6224785 -2.6247776 0.76300013 0 47
-4.6192031 -2.6229177 0.81239063 0 48
-4.6190124 -2.6228094 0.86242682 0 49
-4.6299744 -2.6290338 0.91481227 0 50
-4.624073 -2.6256828 0.96407998 0 51
-4.629909 -2.6289968 1.0159628 0 52
-4.6373215 -2.6332057 1.0685149 0 53
-4.6304312 -2.6292932 1.117965 0 54
-4.628963 -2.6284597 1.1688296 0 55
-4.6274457 -2.627598 1.2198558 0 56
-4.6430922 -2.6364827 1.2757818 0 57
-4.6473708 -2.638912 1.3290347 0 58
-4.6388497 -2.6340735 1.3788182 0 59
-4.6529303 -2.6420689 1.4356316 0 60
-4.642539 -2.6361682 1.4851961 0 61
-4.6694155 -2.6514297 1.5471426 0 62
-4.6586442 -2.6453135 1.5970821 0 63
-2.1356037 -1.2476294 -0.73733383 0 0
-2.2163105 -1.2947787 -0.7395615 0 1
-2.2963214 -1.3415215 -0.73983824 0 2
-2.3822789 -1.3917383 -0.74026114 0 3
-2.4825656 -1.4503262 -0.74314445 0 4
-2.5774386 -1.5057515 -0.74232346 0 5
-2.6636319 -1.5561061 -0.73708761 0 6
-2.7927835 -1.631557 -0.74144727 0 7
-2.9221375 -1.7071261 -0.74309433 0 8
-3.0467873 -1.779947 -0.74084055 0 9
-3.2082086 -1.8742502 -0.74447793 0 10
-3.3589213 -1.9622973 -0.74230266 0 11
-3.5558648 -2.0773525 -0.74663693 0 12
-3.7385674 -2.1840882 -0.74393404 0 13
-3.9497197 -2.3074443 -0.74270308 0 14
-4.2092614 -2.45907 -0.74555486 0 15
-4.3256631 -2.5270724 -0.7190817 0 16
-4.3290682 -2.5290616 -0.6726445 0 17
-4.3257604 -2.5271292 -0.62527895 0 18
-4.3285193 -2.5287409 -0.57890379 0 19
-4.3220739 -2.5249753 -0.53143656 0 20
-4.3296824 -2.5294201 -0.48577598 0 21
-4.3335018 -2.5316515 -0.4396503 0 22
-4.3173347 -2.5222068 -0.39170426 0 23
-4.3374405 -2.5339527 -0.34707394 0 24
-4.3402843 -2.5356143 -0.3008756 0 25
-4.3405685 -2.53578 -0.25451744 0 26
-4.3433371 -2.5373974 -0.20831557 0 27
-4.342515 -2.5369172 -0.161956 0 28
-4.3456564 -2.5387523 -0.11574694 0 29
-4.3410697 -2.536073 -0.069367044 0 30
-4.3490233 -2.5407193 -0.023163402 0 31
-4.3534508 -2.5433059 0.023186985 0 32
-4.3551593 -2.5443041 0.069592178 0 33
-4.3464184 -2.5391974 0.11576723 0 34
-4.3474765 -2.5398157 0.16214103 0 35
-4.3418016 -2.5365005 0.20824192 0 36
-4.3492832 -2.5408711 0.25502846 0 37
-4.3616867 -2.5481174 0.30235922 0 38
-4.347383 -2.5397611 0.34786949 0 39
-4.3635597 -2.5492115 0.39589816 0 40
-4.362958 -2.5488601 0.44263875 0 41
-4.3478885 -2.5400565 0.48781863 0 42
-4.3636966 -2.5492914 0.53655446 0 43
-4.3735571 -2.555052 0.5849272 0 44
-4.37851 -2.5579457 0.63290375 0 45
-4.3590202 -2.5465596 0.67729837 0 46
-4.3772092 -2.5571859 0.72765052 0 47
-4.3658471 -2.5505478 0.77328962 0 48
-4.3640695 -2.5495095 0.8206172 0 49
-4.371727 -2.553983 0.86992592 0 50
-4.3659182 -2.5505896 0.91672653 0 51
-4.3814278 -2.5596502 0.96827078 0 52
-4.3734574 -2.5549939 1.0148786 0 53
-4.3801003 -2.5588746 1.0650419 0 54
-4.3673711 -2.5514381 1.1106147 0 55
-4.3942142 -2.5671201 1.1666061 0 56
-4.3817897 -2.5598617 1.212541 0 57
-4.3832436 -2.5607111 1.26241 0 58
-4.3906841 -2.565058 1.3143309 0 59
-4.3805571 -2.5591414 1.3611991 0 60
-4.3859696 -2.5623035 1.4130898 0 61
-4.3871112 -2.5629704 1.4639368 0 62
-4.3927703 -2.5662766 1.5166383 0 63
-2.1242344 -1.2762765 -0.73877108 0 0
-2.1953096 -1.3189797 -0.73791003 0 1
-2.2908499 -1.3763819 -0.74347204 0 2
-2.3692362 -1.4234778 -0.74159127 0 3
-2.4537039 -1.4742273 -0.73987538 0 4
-2.5626867 -1.539706 -0.74347138 0 5
-2.6533704 -1.5941904 -0.73961669 0 6
-2.7758095 -1.6677538 -0.74232924 0 7
-2.9078135 -1.7470641 -0.7448585 0 8
-3.0128796 -1.8101896 -0.73795229 0 9
-3.183692 -1.9128166 -0.74419057 0 10
-3.3314691 -2.0016036 -0.74161905 0 11
-3.504128 -2.10534 -0.74115336 0 12
-3.7227585 -2.236697 -0.74620473 0 13
-3.926213 -2.3589361 -0.74368107 0 14
-4.0981894 -2.4622622 -0.73118889 0 15
-4.0991936 -2.4628658 -0.6864168 0 16
-4.1010656 -2.4639904 -0.64187694 0 17
-4.0801744 -2.4514387 -0.59409237 0 18
-4.1033273 -2.4653492 -0.55279881 0 19
-4.0968308 -2.4614463 -0.50742424 0 20
-4.1033301 -2.4653511 -0.46374622 0 21
-4.0948625 -2.4602635 -0.41847706 0 22
-4.1075921 -2.4679115 -0.37539959 0 23
-4.1166482 -2.4733527 -0.33181509 0 24
-4.1139369 -2.4717238 -0.28727004 0 25
-4.1172228 -2.4736981 -0.24318637 0 26
-4.1039205 -2.4657056 -0.19827184 0 27
-4.1095514 -2.469089 -0.15438817 0 28
-4.1177568 -2.4740188 -0.11047874 0 29
-4.109055 -2.4687908 -0.066139705 0 30
-4.1234598 -2.4774451 -0.022122607 0 31
-4.123723 -2.4776034 0.02212402 0 32
-4.1195698 -2.4751081 0.066308953 0 33
-4.1239829 -2.4777596 0.11064579 0 34
-4.1294465 -2.4810424 0.15513559 0 35
-4.1182113 -2.4742918 0.19896226 0 36
-4.1094651 -2.4690371 0.24272817 0 37
-4.1271834 -2.4796827 0.28819501 0 38
-4.1321831 -2.4826863 0.33306724 0 39
-4.1378565 -2.486095 0.37816551 0 40
-4.1100016 -2.4693594 0.42002422 0 41
-4.1197095 -2.4751921 0.46559739 0 42
-4.1277952 -2.4800501 0.51125944 0 43
-4.1306553 -2.4817684 0.55648041 0 44
-4.1357388 -2.4848228 0.60218281 0 45
-4.1369076 -2.4855249 0.64748675 0 46
-4.1331935 -2.4832933 0.69211006 0 47
-4.1451335 -2.4904673 0.7395646 0 48
-4.1389804 -2.4867704 0.78398228 0 49
-4.137435 -2.4858418 0.82932413 0 50
-4.132906 -2.4831207 0.87414533 0 51
-4.1392269 -2.4869184 0.92143422 0 52
-4.1426644 -2.4889839 0.96835124 0 53
-4.1399946 -2.4873798 1.0140195 0 54
-4.1301985 -2.4814942 1.0579817 0 55
-4.1481729 -2.4922934 1.1093377 0 56
-4.1297812 -2.4812431 1.1511604 0 57
-4.151196 -2.4941096 1.2043203 0 58
-4.1527929 -2.495069 1.2522087 0 59
-4.158258 -2.4983525 1.3015704 0 60
-4.1505127 -2.4936993 1.3470068 0 61
-4.1427112 -2.4890118 1.3924906 0 62
-4.149786 -2.4932623 1.443222 0 63
-2.1089969 -1.3026788 -0.73898679 0 0
-2.184345 -1.3492196 -0.73974514 0 1
-2.2561557 -1.3935754 -0.73771799 0 2
-2.3523059 -1.452965 -0.74182814 0 3
-2.4328952 -1.5027434 -0.73911691 0 4
-2.5437763 -1.571232 -0.74353415 0 5
-2.6308372 -1.6250075 -0.73884964 0 6
-2.747407 -1.6970099 -0.74025816 0 7
-2.881717 -1.7799702 -0.74372405 0 8
-3.0079703 -1.8579539 -0.7422896 0 9
-3.1527541 -1.9473835 -0.74250013 0 10
-3.3272307 -2.0551536 -0.74624473 0 11
-3.4896007 -2.1554458 -0.74363041 0 12
-3.7094328 -2.2912312 -0.74912435 0 13
-3.906759 -2.413115 -0.74556035 0 14
-3.8978748 -2.4076273 -0.70067841 0 15
-3.9009597 -2.409533 -0.6581338 0 16
-3.9063826 -2.4128826 -0.61600339 0 17
-3.9158077 -2.418704 -0.57444692 0 18
-3.9167223 -2.4192691 -0.53162694 0 19
-3.9010377 -2.4095812 -0.48680678 0 20
-3.8968325 -2.4069836 -0.44371992 0 21
-3.9082894 -2.4140604 -0.40241328 0 22
-3.9003978 -2.4091859 -0.35914403 0 23
-3.9232371 -2.4232931 -0.31860328 0 24
-3.9228623 -2.4230616 -0.27598727 0 25
-3.8977468 -2.4075482 -0.23195393 0 26
-3.9204042 -2.4215434 -0.19082981 0 27
-3.9128509 -2.4168777 -0.14810379 0 28
-3.9178615 -2.4199727 -0.10590596 0 29
-3.9156559 -2.4186103 -0.063500643 0 30
-3.9192636 -2.4208388 -0.021185186 0 31
-3.8999815 -2.4089286 0.02108096 0 32
-3.9238119 -2.4236481 0.063632905 0 33
-3.9309053 -2.4280295 0.10625856 0 34
-3.9396265 -2.4334164 0.14911726 0 35
-3.9332423 -2.4294732 0.19145472 0 36
-3.9221888 -2.4226456 0.23340848 0 37
-3.9273784 -2.4258511 0.27630499 0 38
-3.9288216 -2.4267426 0.31905678 0 39
-3.9326427 -2.4291027 0.36211312 0 40
-3.9322462 -2.4288578 0.40487996 0 41
-3.9251289 -2.4244616 0.44694194 0 42
-3.9355192 -2.4308794 0.49110967 0 43
-3.9340556 -2.4299753 0.53397965 0 44
-3.9368041 -2.431673 0.57752705 0 45
-3.9482207 -2.438725 0.62260091 0 46
-3.9383686 -2.4326396 0.6644451 0 47
-3.9370852 -2.4318466 0.70772684 0 48
-3.9398005 -2.4335239 0.75186586 0 49
-3.9380238 -2.4324265 0.79528856 0 50
-3.9463403 -2.4375634 0.84096116 0 51
-3.9334321 -2.4295905 0.88220602 0 52
-3.9527416 -2.4415174 0.93090391 0 53
-3.9353249 -2.4307594 0.97113681 0 54
-3.9467726 -2.4378304 1.0185975 0 55
-3.9492481 -2.4393594 1.0640808 0 56
-3.9501204 -2.4398983 1.1093597 0 57
-3.9413733 -2.4344954 1.1520454 0 58
-3.9532058 -2.4418042 1.2009892 0 59
-3.9452925 -2.4369161 1.2441957 0 60
-3.9474003 -2.4382181 1.2907213 0 61
-3.9471686 -2.4380751 1.3367388 0 62
-3.9615715 -2.4469714 1.3881239 0 63
-2.0874932 -1.3251299 -0.73710573 0 0
-2.1722903 -1.3789587 -0.7413491 0 1
-2.2408326 -1.422469 -0.73837113 0 2
-2.3286421 -1.47821 -0.74004179 0 3
-2.4262512 -1.5401716 -0.74279583 0 4
-2.5227954 -1.6014576 -0.74310136 0 5
-2.6230032 -1.6650689 -0.74234349 0 6
-2.7360091 -1.7368045 -0.74288529 0 7
-2.8734512 -1.824052 -0.74732292 0 8
-2.9799259 -1.8916415 -0.74105299 0 9
-3.1210859 -1.9812492 -0.74072349 0 10
-3.3015962 -2.0958362 -0.74621898 0 11
-3.4712045 -2.2035027 -0.74542779 0 12
-3.6557837 -2.3206728 -0.7439965 0 13
-3.6990988 -2.3481688 -0.71138728 0 14
-3.7045221 -2.3516116 -0.67106885 0 15
-3.7007008 -2.3491857 -0.62917387 0 16
-3.7077873 -2.3536842 -0.58920598 0 17
-3.7058289 -2.3524411 -0.54784524 0 18
-3.7053244 -2.3521209 -0.5068208 0 19
-3.717386 -2.3597775 -0.4674747 0 20
-3.7117662 -2.35621 -0.42591387 0 21
-3.7170854 -2.3595867 -0.38568446 0 22
-3.7049596 -2.3518891 -0.34378526 0 23
-3.7168303 -2.3594246 -0.30417421 0 24
-3.723907 -2.3639169 -0.26401511 0 25
-3.7166488 -2.3593094 -0.22288644 0 26
-3.717674 -2.3599603 -0.18236046 0 27
-3.7197883 -2.3613024 -0.14188455 0 28
-3.7124872 -2.3566678 -0.10113006 0 29
-3.7191932 -2.3609247 -0.060780786 0 30
-3.7323604 -2.3692832 -0.020330844 0 31
-3.7219269 -2.3626599 0.02027401 0 32
-3.7145734 -2.3579922 0.060705289 0 33
-3.7341118 -2.3703949 0.10171913 0 34
-3.7170813 -2.3595841 0.14178129 0 35
-3.7275977 -2.3662598 0.18284723 0 36
-3.7286425 -2.3669231 0.22360571 0 37
-3.7238564 -2.3638847 0.26401153 0 38
-3.7262192 -2.3653848 0.30494258 0 39
-3.7266054 -2.3656299 0.34579378 0 40
-3.7271585 -2.3659811 0.38672966 0 41
-3.7241306 -2.364059 0.42733267 0 42
-3.7268462 -2.3657827 0.46866435 0 43
-3.7403557 -2.3743584 0.51161247 0 44
-3.73245 -2.3693399 0.55178076 0 45
-3.7421627 -2.3755057 0.59466863 0 46
-3.7455184 -2.377636 0.63679355 0 47
-3.7382693 -2.373034 0.67718208 0 48
-3.7482975 -2.3794 0.72084886 0 49
-3.7352891 -2.3711424 0.76017684 0 50
-3.7354653 -2.371254 0.80217677 0 51
-3.730737 -2.3682525 0.84321237 0 52
-3.7469556 -2.3785481 0.88926047 0 53
-3.7435038 -2.3763568 0.93094087 0 54
-3.7548313 -2.3835475 0.976551 0 55
-3.7375727 -2.3725917 1.0148312 0 56
-3.7425091 -2.3757255 1.059178 0 57
-3.7514024 -2.381371 1.1049933 0 58
-3.7505696 -2.3808422 1.1482353 0 59
-3.7515962 -2.381494 1.1922562 0 60
-3.7426419 -2.3758097 1.2332286 0 61
-3.7516978 -2.3815584 1.2803619 0 62
-3.7559288 -2.3842442 1.3262398 0 63
-2.0823224 -1.3580533 -0.74112046 0 0
-2.1573412 -1.4069793 -0.74209565 0 1
-2.2279377 -1.453021 -0.73995358 0 2
-2.3042347 -1.5027807 -0.73810196 0 3
-2.4091179 -1.5711836 -0.74340916 0 4
-2.5014763 -1.631418 -0.74267453 0 5
-2.5993443 -1.6952457 -0.7414912 0 6
-2.7105808 -1.7677922 -0.74182707 0 7
-2.8235378 -1.8414607 -0.74017465 0 8
-2.9684563 -1.935974 -0.74406451 0 9
-3.1063588 -2.0259116 -0.74308443 0 10
-3.2861695 -2.1431808 -0.74863207 0 11
-3.4430096 -2.2454691 -0.74524617 0 12
-3.5320284 -2.3035257 -0.72452056 0 13
-3.5337551 -2.3046517 -0.6849876 0 14
-3.5259519 -2.2995627 -0.64379466 0 15
-3.550575 -2.3156214 -0.60844529 0 16
-3.5329452 -2.3041234 -0.56588131 0 17
-3.5501137 -2.3153205 -0.5289942 0 18
-3.5419316 -2.3099842 -0.48831999 0 19
-3.5395057 -2.3084023 -0.44864124 0 20
-3.5318632 -2.3034179 -0.40848976 0 21
-3.5490437 -2.3146226 -0.37117359 0 22
-3.5610852 -2.3224759 -0.33305982 0 23
-3.5509918 -2.3158932 -0.29291084 0 24
-3.5427885 -2.3105431 -0.25316945 0 25
-3.5432329 -2.310833 -0.21417458 0 26
-3.5497854 -2.3151064 -0.17550826 0 27
-3.5465889 -2.3130217 -0.13635273 0 28
-3.5545545 -2.3182166 -0.097597025 0 29
-3.5529466 -2.317168 -0.058525126 0 30
-3.5605879 -2.3221517 -0.01954923 0 31
-3.557698 -2.320267 0.019533364 0 32
-3.5602202 -2.3219118 0.058644943 0 33
-3.5541704 -2.3179662 0.09758649 0 34
-3.560678 -2.3222103 0.1368944 0 35
-3.552974 -2.3171859 0.17566592 0 36
-3.5541222 -2.3179348 0.21483281 0 37
-3.5625358 -2.323422 0.25458062 0 38
-3.5618787 -2.3229933 0.29380885 0 39
-3.5621991 -2.3232024 0.33316401 0 40
-3.5585203 -2.3208032 0.37216467 0 41
-3.5632505 -2.3238881 0.41211998 0 42
-3.569232 -2.3277891 0.45240912 0 43
-3.5625343 -2.323421 0.49116048 0 44
-3.5641577 -2.3244798 0.53108686 0 45
-3.5703955 -2.328548 0.57187986 0 46
-3.5739794 -2.3308852 0.61245596 0 47
-3.5807161 -2.3352787 0.65379387 0 48
-3.5701883 -2.3284128 0.69204986 0 49
-3.5661433 -2.3257747 0.73151851 0 50
-3.5681107 -2.3270578 0.7723245 0 51
-3.5757654 -2.3320501 0.81460577 0 52
-3.573631 -2.3306582 0.85486245 0 53
-3.5708656 -2.3288546 0.89506269 0 54
-3.5700226 -2.3283048 0.93586147 0 55
-3.5707281 -2.3287647 0.97723067 0 56
-3.5641875 -2.3244991 1.0167232 0 57
-3.5786865 -2.333955 1.0624923 0 58
-3.5695164 -2.3279746 1.1014866 0 59
-3.5804021 -2.3350742 1.1468891 0 60
-3.5823278 -2.3363299 1.1897801 0 61
-3.5851843 -2.3381929 1.233254 0 62
-3.569314 -2.3278427 1.2703565 0 63
-2.0801013 -1.3933568 -0.74637145 0 0
-2.1301746 -1.4268984 -0.73873031 0 1
-2.2253861 -1.4906759 -0.74513763 0 2
-2.2948928 -1.5372349 -0.74110842 0 3
-2.391484 -1.6019367 -0.74398988 0 4
-2.4852746 -1.6647624 -0.74388576 0 5
-2.5911839 -1.7357057 -0.74519539 0 6
-2.6877568 -1.800395 -0.74158341 0 7
-2.7994885 -1.8752385 -0.73985904 0 8
-2.9520459 -1.9774293 -0.74598956 0 9
-3.0893931 -2.0694313 -0.74505687 0 10
-3.2309985 -2.1642857 -0.74207008 0 11
-3.3704727 -2.2577126 -0.73549891 0 12
-3.3842404 -2.2669349 -0.69987017 0 13
-3.3778462 -2.2626519 -0.66010934 0 14
-3.3815849 -2.2651563 -0.62247366 0 15
-3.3850555 -2.2674809 -0.58481479 0 16
-3.3899534 -2.2707617 -0.54740894 0 17
-3.3813486 -2.2649977 -0.50795859 0 18
-3.3896255 -2.2705421 -0.47113544 0 19
-3.3723977 -2.259002 -0.4309482 0 20
-3.3863907 -2.2683754 -0.39486086 0 21
-3.3823822 -2.2656903 -0.35663021 0 22
-3.3816438 -2.2651956 -0.31885809 0 23
-3.3794701 -2.2637396 -0.28103739 0 24
-3.3894594 -2.2704308 -0.24418907 0 25
-3.3867419 -2.2686105 -0.20638591 0 26
-3.4004457 -2.2777901 -0.16949661 0 27
-3.394788 -2.2740002 -0.13158165 0 28
-3.3922639 -2.2723095 -0.09390112 0 29
-3.386472 -2.2684298 -0.056238133 0 30
-3.3925138 -2.2724769 -0.01877843 0 31
-3.3889992 -2.2701225 0.018758975 0 32
-3.3964198 -2.2750933 0.056403331 0 33
-3.3937576 -2.2733099 0.093942463 0 34
-3.399509 -2.2771626 0.13176464 0 35
-3.4100246 -2.2842064 0.16997409 0 36
-3.3881693 -2.2695668 0.2064729 0 37
-3.4005039 -2.2778289 0.24498476 0 38
-3.4158218 -2.2880898 0.28406042 0 39
-3.4038119 -2.2800448 0.32094833 0 40
-3.4058664 -2.2814212 0.3591063 0 41
-3.4174306 -2.2891674 0.39848021 0 42
-3.4062603 -2.2816849 0.43527541 0 43
-3.4088449 -2.2834163 0.47380683 0 44
-3.3981035 -2.276221 0.51047558 0 45
-3.3980148 -2.2761617 0.5487107 0 46
-3.4140124 -2.2868779 0.58981752 0 47
-3.4259493 -2.2948735 0.63064015 0 48
-3.4120717 -2.2855778 0.66679776 0 49
-3.4092193 -2.2836671 0.70503581 0 50
-3.4148145 -2.287415 0.74517512 0 51
-3.4151103 -2.2876132 0.78435552 0 52
-3.405793 -2.2813718 0.82136178 0 53
-3.4075899 -2.2825756 0.86110663 0 54
-3.4178813 -2.2894692 0.90329015 0 55
-3.4170063 -2.2888832 0.94279182 0 56
-3.4103682 -2.2844365 0.98078352 0 57
-3.4090638 -2.2835629 1.0203918 0 58
-3.4262037 -2.2950442 1.0658908 0 59
-3.4169068 -2.2888165 1.1034496 0 60
-3.4275763 -2.2959635 1.1476732 0 61
-3.4290287 -2.2969365 1.1891643 0 62
-3.4280879 -2.2963061 1.2300493 0 63
-2.0531313 -1.412169 -0.74286884 0 0
-2.1259944 -1.462285 -0.74346012 0 1
-2.1979177 -1.5117549 -0.74210846 0 2
-2.2736158 -1.5638208 -0.74039119 0 3
-2.3704915 -1.6304531 -0.74364001 0 4
-2.4599159 -1.6919603 -0.74246663 0 5
-2.5714431 -1.7686702 -0.74571639 0 6
-2.6744013 -1.839486 -0.74408311 0 7
-2.7814202 -1.913095 -0.74124497 0 8
-2.905211 -1.9982398 -0.74030751 0 9
-3.077924 -2.117034 -0.74851239 0 10
-3.2197869 -2.2146089 -0.74569315 0 11
-3.2351525 -2.2251778 -0.71188664 0 12
-3.2340388 -2.2244115 -0.67441356 0 13
-3.2348654 -2.2249801 -0.63746601 0 14
-3.2332261 -2.2238526 -0.60015249 0 15
-3.2412434 -2.229367 -0.56466258 0 16
-3.2431483 -2.2306771 -0.52809227 0 17
-3.2402587 -2.2286897 -0.4908433 0 18
-3.2306187 -2.2220592 -0.4527981 0 19
-3.2471476 -2.233428 -0.4184207 0 20
-3.2446084 -2.2316813 -0.38149965 0 21
-3.2282896 -2.2204573 -0.34323594 0 22
-3.2312622 -2.222502 -0.30723214 0 23
-3.2427268 -2.2303872 -0.27192596 0 24
-3.2312028 -2.222461 -0.23473878 0 25
-3.2468998 -2.2332575 -0.19952241 0 26
-3.2365065 -2.2261088 -0.16267714 0 27
-3.2588398 -2.2414701 -0.127371 0 28
-3.235801 -2.2256236 -0.090320803 0 29
-3.2480416 -2.2340429 -0.054391347 0 30
-3.2435081 -2.2309248 -0.018104123 0 31
-3.2505665 -2.2357795 0.01814352 0 32
-3.255496 -2.2391701 0.054516178 0 33
-3.2543657 -2.2383926 0.090838999 0 34
-3.2405884 -2.2289164 0.12665765 0 35
-3.252147 -2.2368665 0.16346326 0 36
-3.2543778 -2.2384009 0.19998194 0 37
-3.2563734 -2.2397735 0.23656736 0 38
-3.2487967 -2.2345622 0.27243498 0 39
-3.2592759 -2.24177 0.30989569 0 40
-3.2446871 -2.2317357 0.34497935 0 41
-3.2535264 -2.2378154 0.38254821 0 42
-3.2612629 -2.2431366 0.42023954 0 43
-3.2622066 -2.2437856 0.45722538 0 44
-3.264394 -2.2452903 0.49449939 0 45
-3.2580116 -2.2409003 0.53051251 0 46
-3.2620168 -2.2436552 0.56828159 0 47
-3.2676492 -2.2475293 0.60654211 0 48
-3.2557113 -2.2393181 0.64157391 0 49
-3.2572339 -2.2403655 0.6792506 0 50
-3.2606244 -2.2426975 0.71749163 0 51
-3.2705989 -2.2495582 0.75746107 0 52
-3.2645757 -2.2454152 0.79390371 0 53
-3.2618222 -2.2435212 0.83117938 0 54
-3.2585647 -2.2412808 0.86840338 0 55
-3.2595532 -2.2419608 0.90688652 0 56
-3.2613881 -2.2432227 0.94579983 0 57
-3.2636507 -2.2447789 0.98505467 0 58
-3.2731035 -2.2512808 1.0267959 0 59
-3.2774062 -2.2542403 1.0672704 0 60
-3.2670155 -2.2470934 1.1030804 0 61
-3.2685432 -2.2481441 1.1430094 0 62
-3.2635906 -2.2447376 1.18084 0 63
-2.0272949 -1.4314334 -0.73983335 0 0
-2.0866842 -1.4733672 -0.73599333 0 1
-2.1654968 -1.5290152 -0.7374543 0 2
-2.2444599 -1.5847694 -0.73718685 0 3
-2.3565412 -1.6639078 -0.74562585 0 4
-2.4415224 -1.7239114 -0.74325693 0 5
-2.5338023 -1.7890685 -0.74112427 0 6
-2.6493757 -1.8706726 -0.74346405 0 7
-2.7612591 -1.9496714 -0.74220502 0 8
-2.8930891 -2.0427539 -0.74356318 0 9
-3.0442643 -2.1494958 -0.74669802 0 10
-3.1023715 -2.1905241 -0.72468352 0 11
-3.0855711 -2.1786616 -0.68481487 0 12
-3.0851464 -2.1783619 -0.64890099 0 13
-3.1022573 -2.1904435 -0.61659533 0 14
-3.1032429 -2.1911395 -0.58098227 0 15
-3.0967739 -2.1865718 -0.54413724 0 16
-3.0871971 -2.1798098 -0.50702447 0 17
-3.0924041 -2.1834865 -0.47247738 0 18
-3.1079731 -2.1944792 -0.43935716 0 19
-3.0961046 -2.1860993 -0.40239105 0 20
-3.0928347 -2.1837904 -0.3667838 0 21
-3.1147487 -2.1992633 -0.33401412 0 22
-3.0988715 -2.1880529 -0.29718 0 23
-3.0983958 -2.187717 -0.26205882 0 24
-3.1097114 -2.1957066 -0.22785695 0 25
-3.0919142 -2.1831403 -0.19163366 0 26
-3.0923717 -2.1834633 -0.15677011 0 27
-3.1032953 -2.1911764 -0.12233542 0 28
-3.1207407 -2.2034943 -0.087858796 0 29
-3.1146207 -2.199173 -0.052605964 0 30
-3.1087356 -2.1950176 -0.0175012 0 31
-3.1095731 -2.1956091 0.017505916 0 32
-3.1167171 -2.2006533 0.052641373 0 33
-3.1042352 -2.1918402 0.087394118 0 34
-3.0996063 -2.1885717 0.12218999 0 35
-3.1056635 -2.1928484 0.15744396 0 36
-3.1137366 -2.1985488 0.19298619 0 37
-3.1036868 -2.191453 0.22741552 0 38
-3.1130586 -2.19807 0.26329899 0 39
-3.1027241 -2.190773 0.29754946 0 40
-3.111078 -2.1966717 0.33362049 0 41
-3.127095 -2.2079809 0.37084678 0 42
-3.1172891 -2.2010572 0.40514433 0 43
-3.1218216 -2.2042575 0.44131488 0 44
-3.1278327 -2.2085018 0.47789037 0 45
-3.1185992 -2.2019823 0.51218182 0 46
-3.1184413 -2.2018707 0.54794443 0 47
-3.114285 -2.198936 0.58304954 0 48
-3.1299748 -2.2100143 0.62210435 0 49
-3.1181638 -2.2016747 0.65584552 0 50
-3.1138489 -2.1986282 0.69109088 0 51
-3.121834 -2.2042663 0.72922981 0 52
-3.1202526 -2.2031498 0.76533651 0 53
-3.1197615 -2.2028029 0.80182099 0 54
-3.1401627 -2.2172077 0.84405136 0 55
-3.1350162 -2.2135739 0.87974381 0 56
-3.1252882 -2.2067051 0.91413093 0 57
-3.1257212 -2.207011 0.95154315 0 58
-3.1190357 -2.2022905 0.98688442 0 59
-3.1189742 -2.2022469 1.0244188 0 60
-3.1293881 -2.2096002 1.0657049 0 61
-3.1247096 -2.2062967 1.1021147 0 62
-3.1381314 -2.2157736 1.1452178 0 63
-2.0124991 -1.4583952 -0.74092221 0 0
-2.0731537 -1.5023499 -0.73768103 0 1
-2.1607332 -1.5658159 -0.74233276 0 2
-2.2422519 -1.6248901 -0.74296802 0 3
-2.3292875 -1.6879621 -0.74351382 0 4
-2.408916 -1.7456664 -0.73980951 0 5
-2.5222449 -1.8277922 -0.74426144 0 6
-2.631994 -1.907324 -0.74511153 0 7
-2.7644753 -2.003329 -0.74963427 0 8
-2.8791561 -2.0864346 -0.74651963 0 9
-2.9828379 -2.1615696 -0.73809499 0 10
-2.9678578 -2.1507139 -0.69938713 0 11
-2.9752114 -2.1560431 -0.66615522 0 12
-2.9751935 -2.1560299 -0.63130301 0 13
-2.97575 -2.1564331 -0.59667629 0 14
-2.9689627 -2.1515148 -0.56075329 0 15
-2.9754562 -2.1562202 -0.5274393 0 16
-2.9845595 -2.1628172 -0.49449828 0 17
-2.9751749 -2.1560163 -0.45858222 0 18
-2.9770398 -2.1573679 -0.42456585 0 19
-2.9836502 -2.1621583 -0.39120156 0 20
-2.9731987 -2.1545844 -0.35571101 0 21
-2.9821701 -2.1610856 -0.32262218 0 22
-2.9867625 -2.1644137 -0.28895929 0 23
-2.9799998 -2.1595128 -0.25427175 0 24
-2.9947677 -2.1702147 -0.22137333 0 25
-2.9765484 -2.1570117 -0.18611325 0 26
-2.9884431 -2.1656315 -0.15283984 0 27
-2.9810083 -2.1602437 -0.11855292 0 28
-2.9745879 -2.155591 -0.084483974 0 29
-2.9829309 -2.1616371 -0.050826825 0 30
-2.9785829 -2.1584861 -0.016916625 0 31
-2.9819281 -2.1609101 0.016935624 0 32
-2.9811654 -2.1603575 0.05079674 0 33
-2.9951859 -2.1705177 0.085068993 0 34
-2.9922955 -2.1684232 0.11900181 0 35
-2.9891393 -2.166136 0.15287544 0 36
-2.9971814 -2.1719639 0.18740337 0 37
-2.9886847 -2.1658065 0.22092369 0 38
-2.9925225 -2.1685877 0.25534025 0 39
