# .PCD v0.7 - Point Cloud Data file format
VERSION 0.7
FIELDS x y z intensity ring
SIZE 4 4 4 4 2
TYPE F F F F U
COUNT 1 1 1 1 1
WIDTH 1306
HEIGHT 1
VIEWPOINT 0 0 0 1 0 0 0
POINTS 1306
DATA ascii
1.6545811 2.2685211 0.53578132 0 52
1.653849 2.2675176 0.56234574 0 53
1.6543078 2.2681465 0.58940971 0 54
1.6613387 2.2777863 0.61904156 0 55
1.6482341 2.2598193 0.64118046 0 56
1.6559641 2.2704175 0.67145073 0 57
1.6583028 2.2736237 0.699821 0 58
1.6537811 2.2674243 0.72538549 0 59
1.6515578 2.2643762 0.75197679 0 60
1.6598215 2.2757061 0.78358084 0 61
1.6575626 2.272609 0.81046075 0 62
1.6518879 2.2648287 0.83568466 0 63
1.4292719 2.0110903 -0.73551887 0 0
1.4787898 2.0807657 -0.73550493 0 1
1.5334719 2.1577072 -0.73640263 0 2
1.5812041 2.22487 -0.73234487 0 3
1.5875412 2.2337868 -0.70832562 0 4
1.5837896 2.228508 -0.67988855 0 5
1.5896271 2.2367218 -0.65565526 0 6
1.5887913 2.2355456 -0.62870264 0 7
1.5894767 2.23651 -0.60246646 0 8
1.5890113 2.2358553 -0.57589728 0 9
1.5968152 2.2468359 -0.5523054 0 10
1.5881211 2.2346025 -0.52311862 0 11
1.5899183 2.2371316 -0.49759319 0 12
1.5920367 2.2401123 -0.47219101 0 13
1.5902864 2.2376492 -0.44571751 0 14
1.5852494 2.230562 -0.41851082 0 15
1.5961124 2.245847 -0.39547989 0 16
1.5914693 2.2393138 -0.36857411 0 17
1.588146 2.2346377 -0.34216624 0 18
1.5911925 2.2389243 -0.31719413 0 19
1.5936794 2.2424235 -0.29207584 0 20
1.5916289 2.2395384 -0.26616886 0 21
1.5888702 2.2356567 -0.24026595 0 22
1.5939926 2.2428644 -0.21555808 0 23
1.5914774 2.2393253 -0.1898123 0 24
1.5921096 2.2402148 -0.16450426 0 25
1.5923381 2.2405362 -0.13916872 0 26
1.5931374 2.2416608 -0.11389032 0 27
1.5892646 2.2362118 -0.088346086 0 28
1.5918031 2.2397835 -0.063194439 0 29
1.6015223 2.2534592 -0.038143873 0 30
1.5924832 2.2407403 -0.012642149 0 31
1.5833207 2.2278483 0.012569413 0 32
1.5965933 2.2465236 0.038026478 0 33
1.5937597 2.2425365 0.063272119 0 34
1.5936093 2.2423251 0.088587604 0 35
1.5897723 2.2369261 0.11364976 0 36
1.602466 2.254787 0.14005388 0 37
1.5961868 2.2459517 0.16492553 0 38
1.5914631 2.239305 0.1898106 0 39
1.5888302 2.2356005 0.21485996 0 40
1.5885917 2.2352648 0.24022384 0 41
1.5867729 2.2327056 0.26535678 0 42
1.5903345 2.2377172 0.29146281 0 43
1.5878472 2.2342174 0.31652731 0 44
1.5913607 2.239161 0.34285885 0 45
1.5950485 2.2443502 0.36940306 0 46
1.5972294 2.2474186 0.39575666 0 47
1.5948954 2.2441344 0.42105737 0 48
1.5931033 2.2416131 0.44650707 0 49
1.5798053 2.2229018 0.46856326 0 50
1.5932627 2.2418373 0.49863985 0 51
1.5938463 2.2426586 0.52500451 0 52
1.5897729 2.236927 0.54986966 0 53
1.5902294 2.2375691 0.57633871 0 54
1.6002887 2.2517235 0.60656464 0 55
1.5943061 2.2433054 0.63088489 0 56
1.5871117 2.2331824 0.65461779 0 57
1.5964477 2.2463188 0.6853224 0 58
1.5891789 2.2360911 0.70905632 0 59
1.5955119 2.245002 0.73897171 0 60
1.5825584 2.2267756 0.75997496 0 61
1.592679 2.2410159 0.7921499 0 62
1.5894847 2.2365215 0.8179661 0 63
1.3973615 2.0182931 -0.73181367 0 0
1.4480999 2.0915775 -0.73297709 0 1
1.5009887 2.1679683 -0.73355001 0 2
1.5355492 2.217886 -0.7237761 0 3
1.5350754 2.2172017 -0.69702834 0 4
1.5353738 2.2176325 -0.67075998 0 5
1.5277395 2.2066059 -0.64127219 0 6
1.5336463 2.2151377 -0.61761302 0 7
1.5353148 2.2175474 -0.592228 0 8
1.5305997 2.2107372 -0.56453705 0 9
1.5277377 2.2066035 -0.53775722 0 10
1.5370692 2.2200813 -0.51525569 0 11
1.5258199 2.2038333 -0.48597693 0 12
1.5296532 2.2093699 -0.46171117 0 13
1.5347559 2.2167401 -0.43776041 0 14
1.5347397 2.2167168 -0.41234109 0 15
1.5339472 2.2155721 -0.38679793 0 16
1.5348136 2.2168236 -0.36173871 0 17
1.5320486 2.2128298 -0.33591709 0 18
1.5307468 2.2109497 -0.31054074 0 19
1.5284679 2.2076578 -0.28507805 0 20
1.5293199 2.2088885 -0.26027146 0 21
1.5331789 2.2144625 -0.23594427 0 22
1.5319426 2.2126768 -0.21083042 0 23
1.5256124 2.2035336 -0.18517436 0 24
1.5309031 2.2111752 -0.1609773 0 25
1.5294657 2.2090993 -0.13603757 0 26
1.5338166 2.2153833 -0.11158859 0 27
1.5322849 2.213171 -0.086684883 0 28
1.5277811 2.206666 -0.061725333 0 29
1.5378648 2.2212305 -0.037275437 0 30
1.5297641 2.2095301 -0.012358998 0 31
1.5294902 2.2091346 0.012356786 0 32
1.535177 2.2173483 0.037210289 0 33
1.5214293 2.1974916 0.061468709 0 34
1.5316771 2.2122931 0.086650498 0 35
1.5341977 2.215934 0.11161632 0 36
1.5364306 2.2191589 0.13665706 0 37
1.5341177 2.2158184 0.16131534 0 38
1.5236641 2.2007196 0.18493788 0 39
1.5361216 2.2187128 0.21140555 0 40
1.5310299 2.2113585 0.23561357 0 41
1.5278952 2.2068307 0.26002899 0 42
1.5301826 2.2101347 0.28539786 0 43
1.5342222 2.2159693 0.3112458 0 44
1.5337957 2.2153533 0.33630013 0 45
1.5277591 2.206634 0.36007601 0 46
1.5256174 2.2035408 0.3846975 0 47
1.5323797 2.2133081 0.41170701 0 48
1.5356262 2.2179971 0.43800864 0 49
1.5273544 2.2060497 0.46101731 0 50
1.5334483 2.2148514 0.48840663 0 51
1.5351864 2.2173619 0.51462454 0 52
1.5310795 2.2114301 0.53893346 0 53
1.5422804 2.2276084 0.56884527 0 54
1.530917 2.2111955 0.59053159 0 55
1.5375546 2.2207825 0.61918688 0 56
1.5218883 2.1981547 0.63881606 0 57
1.5287201 2.2080224 0.66785318 0 58
1.5304159 2.2104716 0.69491261 0 59
1.531713 2.2123451 0.72196794 0 60
1.5383431 2.2219214 0.75180548 0 61
1.527231 2.2058713 0.77303046 0 62
1.5285517 2.2077789 0.80051935 0 63
1.3800083 2.046546 -0.73584932 0 0
1.4227372 2.1099126 -0.73321623 0 1
1.4753735 2.1879721 -0.73412454 0 2
1.4757931 2.1885943 -0.70824164 0 3
1.4810849 2.1964421 -0.68472493 0 4
1.4787766 2.1930187 -0.65776539 0 5
1.4732096 2.184763 -0.62961209 0 6
1.4768102 2.1901026 -0.60552394 0 7
1.4777442 2.1914878 -0.58037168 0 8
1.469967 2.1799543 -0.55201876 0 9
1.4713045 2.1819377 -0.52729714 0 10
1.4740705 2.1860397 -0.50311017 0 11
1.4740987 2.1860814 -0.47802919 0 12
1.4653585 2.1731198 -0.4503361 0 13
1.4722103 2.1832809 -0.42754561 0 14
1.4731959 2.1847427 -0.40299329 0 15
1.4738883 2.1857696 -0.37840229 0 16
1.4730916 2.184588 -0.35349604 0 17
1.4775352 2.1911778 -0.32984722 0 18
1.4676912 2.1765792 -0.30315545 0 19
1.4744341 2.186579 -0.27999371 0 20
1.4702452 2.1803668 -0.25476128 0 21
1.4723439 2.1834793 -0.23069666 0 22
1.4742072 2.1862423 -0.20656881 0 23
1.4796418 2.1943018 -0.18285578 0 24
1.4714066 2.1820891 -0.15753067 0 25
1.4754781 2.188127 -0.13361873 0 26
1.4705945 2.1808848 -0.10893182 0 27
1.4837198 2.2003496 -0.085461639 0 28
1.4743421 2.1864426 -0.060647938 0 29
1.475287 2.1878436 -0.036407974 0 30
1.4658599 2.1738634 -0.012057763 0 31
1.4790275 2.1933908 0.012166075 0 32
1.4713638 2.1820254 0.036311157 0 33
1.4741397 2.1861422 0.060639609 0 34
1.4737744 2.1856008 0.084888786 0 35
1.4629416 2.1695356 0.10836495 0 36
1.4781744 2.1921258 0.13386291 0 37
1.4772606 2.1907706 0.15815741 0 38
1.4757795 2.1885743 0.18237849 0 39
1.476433 2.1895432 0.20688069 0 40
1.4697734 2.1796672 0.2302939 0 41
1.4736531 2.1854208 0.25535178 0 42
1.4816813 2.1973264 0.28136995 0 43
1.4793658 2.1938927 0.30556688 0 44
1.4731083 2.1846128 0.32885894 0 45
1.4746231 2.1868591 0.35386357 0 46
1.4825051 2.1985481 0.38061455 0 47
1.4805653 2.1956716 0.40500921 0 48
1.4709797 2.1814561 0.42718825 0 49
1.4685848 2.1779044 0.45132759 0 50
1.4716769 2.1824901 0.47724384 0 51
1.4707787 2.1811578 0.50198662 0 52
1.4677182 2.1766193 0.52601188 0 53
1.4734229 2.1850793 0.55331659 0 54
1.4717231 2.1825585 0.57800692 0 55
1.4730055 2.1844604 0.60396397 0 56
1.479593 2.1942296 0.63234019 0 57
1.4713997 2.1820788 0.65448409 0 58
1.4742867 2.1863604 0.68158197 0 59
1.4773395 2.1908877 0.70898378 0 60
1.4705817 2.1808658 0.73174018 0 61
1.4778492 2.1916435 0.76161849 0 62
1.4709389 2.1813955 0.78433537 0 63
1.3557013 2.0648222 -0.7363711 0 0
1.4044675 2.1390965 -0.73730057 0 1
1.4186617 2.1607153 -0.71907163 0 2
1.4178988 2.1595533 -0.69314927 0 3
1.417887 2.1595352 -0.66773373 0 4
1.4186671 2.1607234 -0.64279801 0 5
1.4220883 2.1659341 -0.6190998 0 6
1.4128807 2.1519103 -0.59011644 0 7
1.4196541 2.1622267 -0.56795651 0 8
1.4133884 2.1526835 -0.54067129 0 9
1.4134862 2.1528325 -0.51602411 0 10
1.4218428 2.1655602 -0.49433568 0 11
1.415568 2.1560032 -0.46761036 0 12
1.4149473 2.1550579 -0.44295406 0 13
1.4188337 2.1609771 -0.41972965 0 14
1.4208957 2.1641178 -0.3959361 0 15
1.4122663 2.1509745 -0.36934423 0 16
1.4156982 2.1562016 -0.34605971 0 17
1.4116094 2.1499741 -0.32100743 0 18
1.4163746 2.1572318 -0.29801241 0 19
1.4154257 2.1557865 -0.27380133 0 20
1.41298 2.1520617 -0.24940504 0 21
1.4177407 2.1593122 -0.22628428 0 22
1.407928 2.144367 -0.2009612 0 23
1.4132717 2.1525056 -0.17791121 0 24
1.4259489 2.171814 -0.15551129 0 25
1.417853 2.1594834 -0.13079506 0 26
1.4266968 2.1729531 -0.10765124 0 27
1.4106421 2.1485009 -0.082767859 0 28
1.4199332 2.1626518 -0.059499215 0 29
1.4183193 2.1601937 -0.035654932 0 30
1.4229014 2.1671724 -0.0119227 0 31
1.4207257 2.1638587 0.01190447 0 32
1.4176641 2.1591957 0.035638459 0 33
1.4203607 2.1633027 0.059517127 0 34
1.4125489 2.1514049 0.082879737 0 35
1.4129211 2.1519718 0.1066118 0 36
1.4144377 2.1542816 0.13047999 0 37
1.4122529 2.150954 0.15401763 0 38
1.4188761 2.1610415 0.17861672 0 39
1.4200492 2.1628284 0.20269133 0 40
1.4163017 2.1571209 0.22605462 0 41
1.419125 2.1614208 0.25048968 0 42
1.4188439 2.1609926 0.27446255 0 43
1.4157704 2.1563115 0.2978853 0 44
1.4105878 2.1484179 0.32077509 0 45
1.4214361 2.1649406 0.34746227 0 46
1.4220989 2.1659503 0.37191573 0 47
1.4129243 2.1519766 0.39371482 0 48
1.4173971 2.1587892 0.41930467 0 49
1.4248072 2.1700752 0.44604075 0 50
1.4176879 2.1592319 0.46831065 0 51
1.4150553 2.1552224 0.49197584 0 52
1.4167707 2.157835 0.51722318 0 53
1.4274423 2.1740887 0.54604745 0 54
1.4208177 2.1639991 0.56842202 0 55
1.4161063 2.1568232 0.59146369 0 56
1.4157952 2.1563494 0.61636013 0 57
1.412811 2.1518042 0.64014465 0 58
1.4164349 2.1573236 0.66704988 0 59
1.4137533 2.1532393 0.69112265 0 60
1.4229603 2.1672621 0.72125041 0 61
1.413522 2.1528871 0.74205393 0 62
1.4228028 2.1670222 0.77281839 0 63
1.3304353 2.0816867 -0.73649544 0 0
1.3667387 2.1384895 -0.73124343 0 1
1.3715063 2.1459491 -0.70849156 0 2
1.3624017 2.1317034 -0.67878193 0 3
1.3669544 2.1388271 -0.65608382 0 4
1.3620865 2.1312103 -0.62898791 0 5
1.3657514 2.1369445 -0.60596746 0 6
1.364527 2.1350288 -0.5808419 0 7
1.3672389 2.139272 -0.55746871 0 8
1.3600835 2.1280761 -0.53025031 0 9
1.3684853 2.1412222 -0.50916922 0 10
1.3663144 2.1378255 -0.48413289 0 11
1.3595785 2.1272862 -0.45772144 0 12
1.36622 2.1376777 -0.43589574 0 13
1.3621939 2.1313784 -0.41069618 0 14
1.3683592 2.1410251 -0.38860336 0 15
1.3624363 2.1317577 -0.36314034 0 16
1.3642604 2.1346118 -0.33987656 0 17
1.3640864 2.1343393 -0.31614476 0 18
1.3597443 2.1275456 -0.29157954 0 19
1.3662596 2.1377399 -0.26935515 0 20
1.3548487 2.1198857 -0.24372695 0 21
1.3625036 2.1318629 -0.22163525 0 22
1.3635367 2.1334794 -0.19835456 0 23
1.3647609 2.1353948 -0.17509665 0 24
1.362662 2.1321106 -0.15145712 0 25
1.3636734 2.1336935 -0.1282077 0 26
1.360262 2.1283555 -0.10460526 0 27
1.3654022 2.1363983 -0.081648655 0 28
1.3595271 2.1272058 -0.0580597 0 29
1.3591641 2.1266377 -0.034822591 0 30
1.3683636 2.141032 -0.011685436 0 31
1.3598061 2.1276422 0.011612358 0 32
1.3653744 2.1363549 0.034981702 0 33
1.3564621 2.1224101 0.057928804 0 34
1.3661757 2.1376085 0.081694908 0 35
1.356657 2.122715 0.10432803 0 36
1.3673213 2.139401 0.12855065 0 37
1.3626474 2.1320879 0.15145549 0 38
1.3694364 2.1427104 0.17569651 0 39
1.3626922 2.132158 0.19823171 0 40
1.3587776 2.1260328 0.22102915 0 41
1.3651721 2.1360383 0.24558407 0 42
1.365121 2.1359584 0.26913068 0 43
1.3627722 2.1322832 0.29222885 0 44
1.3665452 2.1381867 0.31671461 0 45
1.3642759 2.1346362 0.33988044 0 46
1.3660438 2.1374021 0.36410189 0 47
1.3681427 2.1406863 0.38854188 0 48
1.3593012 2.1268523 0.40982404 0 49
1.3598654 2.1277349 0.43386832 0 50
1.3626252 2.1320531 0.45874718 0 51
1.3691484 2.1422598 0.48513708 0 52
1.362812 2.1323457 0.50705838 0 53
1.3632741 2.1330686 0.53149426 0 54
1.367332 2.1394176 0.55750662 0 55
1.3599031 2.127794 0.57887357 0 56
1.3678424 2.1402164 0.60689527 0 57
1.3628114 2.1323447 0.62932265 0 58
1.3704416 2.1442831 0.65775746 0 59
1.368187 2.1407554 0.68166429 0 60
1.3547862 2.1197877 0.69985425 0 61
1.3647968 2.1354508 0.7302044 0 62
1.3625979 2.1320105 0.75429988 0 63
1.3052217 2.0986636 -0.73676777 0 0
1.3112532 2.1083617 -0.71537387 0 1
1.3152717 2.1148229 -0.69282317 0 2
1.3088344 2.1044724 -0.66493595 0 3
1.3116231 2.1089563 -0.6419251 0 4
1.3119075 2.1094136 -0.61774725 0 5
1.3132931 2.1116414 -0.59416813 0 6
1.3171601 2.1178594 -0.57172132 0 7
1.3152033 2.114713 -0.54681319 0 8
1.3132079 2.1115043 -0.52205813 0 9
1.3079059 2.1029794 -0.49621347 0 10
1.3153516 2.1149514 -0.47525403 0 11
1.3085575 2.104027 -0.44922075 0 12
1.3060521 2.0999987 -0.42490569 0 13
1.3162458 2.1163893 -0.40465859 0 14
1.3168108 2.1172976 -0.38132903 0 15
1.3107445 2.1075435 -0.35624304 0 16
1.3116167 2.1089461 -0.33319685 0 17
1.3176839 2.1187015 -0.31140485 0 18
1.3131214 2.1113653 -0.28712744 0 19
1.3162247 2.1163552 -0.26460138 0 20
1.3150374 2.1144462 -0.24122421 0 21
1.3223941 2.1262751 -0.21934721 0 22
1.3139826 2.1127501 -0.19491038 0 23
1.3135324 2.1120262 -0.17184308 0 24
1.3133571 2.1117444 -0.14885192 0 25
1.3079526 2.1030545 -0.12539083 0 26
1.3153359 2.1149259 -0.10314249 0 27
1.31147 2.1087103 -0.07996811 0 28
1.308273 2.1035697 -0.056971192 0 29
1.3069504 2.1014431 -0.034144305 0 30
1.3198289 2.1221504 -0.011492938 0 31
1.3146168 2.1137698 0.011447552 0 32
1.3118601 2.1093373 0.034272574 0 33
1.3134913 2.1119602 0.057198435 0 34
1.3139867 2.1127567 0.080121562 0 35
1.3025695 2.094399 0.10214142 0 36
1.3140377 2.1128385 0.12597418 0 37
1.3152822 2.1148398 0.1490701 0 38
1.3122236 2.1099217 0.17167185 0 39
1.3141134 2.1129603 0.19492978 0 40
1.3110492 2.1080337 0.21746542 0 41
1.3105685 2.1072605 0.24040446 0 42
1.3090543 2.104826 0.2631599 0 43
1.3121016 2.1097257 0.28690445 0 44
1.3134346 2.1118691 0.31040064 0 45
1.321309 2.1245303 0.33565903 0 46
1.3101274 2.1065514 0.35607532 0 47
1.3091553 2.1049883 0.37911209 0 48
1.302017 2.0935106 0.40028414 0 49
1.3159428 2.1159019 0.42812344 0 50
1.312578 2.1104918 0.45060095 0 51
1.3071915 2.1018307 0.47230569 0 52
1.3137631 2.1123974 0.49843568 0 53
1.3161514 2.1162372 0.52322835 0 54
1.3141508 2.1130204 0.54637557 0 55
1.3133415 2.1117194 0.57006383 0 56
1.3078288 2.1028554 0.59169596 0 57
1.3094555 2.1054711 0.61659271 0 58
1.3099836 2.1063201 0.6411227 0 59
1.3033874 2.0957141 0.66216868 0 60
1.3144171 2.1134489 0.69237298 0 61
1.3179176 2.1190772 0.7190097 0 62
1.315809 2.1156869 0.74274409 0 63
1.2576312 2.0787063 -0.72427768 0 0
1.2641042 2.0894055 -0.70361471 0 1
1.2630298 2.0876296 -0.67877519 0 2
1.2635514 2.0884917 -0.65492791 0 3
1.2632234 2.0879495 -0.63075536 0 4
1.2656084 2.0918918 -0.60801244 0 5
1.2662621 2.092972 -0.58448958 0 6
1.257548 2.0785689 -0.5568983 0 7
1.2636627 2.0886755 -0.53602219 0 8
1.2576969 2.078815 -0.5101136 0 9
1.2672757 2.0946474 -0.49053344 0 10
1.2606314 2.0836654 -0.46470526 0 11
1.2590976 2.08113 -0.44099319 0 12
1.2649928 2.0908742 -0.41988039 0 13
1.2656012 2.0918796 -0.39696673 0 14
1.2735307 2.1049864 -0.3762629 0 15
1.2605104 2.0834653 -0.34952661 0 16
1.268846 2.0972431 -0.32885796 0 17
1.2633581 2.0881722 -0.30461138 0 18
1.2616775 2.0853944 -0.28146452 0 19
1.2620277 2.0859733 -0.258843 0 20
1.2599828 2.0825932 -0.23580495 0 21
1.2668215 2.0938969 -0.21438389 0 22
1.2566878 2.0771468 -0.19018586 0 23
1.261497 2.0850961 -0.16837709 0 24
1.2626023 2.0869229 -0.1459969 0 25
1.2579314 2.0792024 -0.12303713 0 26
1.2613567 2.0848641 -0.10091236 0 27
1.2562788 2.0764711 -0.078153782 0 28
1.2656868 2.0920212 -0.056232661 0 29
1.25845 2.0800598 -0.033542901 0 30
1.2633274 2.0881214 -0.011223668 0 31
1.2646475 2.0903034 0.011235396 0 32
1.2677007 2.09535 0.033789475 0 33
1.2656449 2.0919521 0.056230806 0 34
1.2605654 2.0835562 0.078420453 0 35
1.2599304 2.0825067 0.10079826 0 36
1.2618837 2.0857353 0.1234237 0 37
1.2645644 2.0901661 0.14622378 0 38
1.2622309 2.086309 0.16847503 0 39
1.257967 2.0792613 0.19037947 0 40
1.2625794 2.086885 0.21366598 0 41
1.2603528 2.0832047 0.23587419 0 42
1.2575275 2.0785348 0.25792 0 43
1.265747 2.0921206 0.28237239 0 44
1.2605298 2.0834973 0.30392942 0 45
1.2622985 2.0864208 0.32716098 0 46
1.2626992 2.0870831 0.35013357 0 47
1.2609252 2.084151 0.37253863 0 48
1.2638447 2.0889764 0.3964158 0 49
1.2611272 2.0844848 0.41859731 0 50
1.2589031 2.0808089 0.44092512 0 51
1.2650356 2.090945 0.46632877 0 52
1.254436 2.0734253 0.48556352 0 53
1.2662979 2.0930314 0.51360214 0 54
1.2644111 2.0899127 0.53633964 0 55
1.2587245 2.0805132 0.55741924 0 56
1.2594746 2.0817533 0.58135659 0 57
1.2657555 2.092135 0.60808313 0 58
1.253539 2.0719423 0.6259197 0 59
1.2564677 2.0767832 0.65125632 0 60
1.2598785 2.0824208 0.67708164 0 61
1.2638234 2.0889413 0.70345837 0 62
1.2676408 2.0952508 0.73004234 0 63
1.2159512 2.0667727 -0.71485597 0 0
1.2153507 2.065752 -0.69056445 0 1
1.2164116 2.0675552 -0.66733444 0 2
1.2205499 2.074589 -0.64581293 0 3
1.2097882 2.0562971 -0.61665285 0 4
1.2155513 2.0660927 -0.59612447 0 5
1.210464 2.057446 -0.57036865 0 6
1.2152669 2.0656095 -0.5493809 0 7
1.2145921 2.0644627 -0.52593571 0 8
1.209669 2.0560946 -0.50085038 0 9
1.2112572 2.0587943 -0.47861302 0 10
1.2136248 2.0628185 -0.45669317 0 11
1.213039 2.0618227 -0.43370843 0 12
1.2150805 2.0652928 -0.41171166 0 13
1.2140929 2.0636139 -0.38874048 0 14
1.2141076 2.0636392 -0.36617589 0 15
1.2123457 2.0606441 -0.34317124 0 16
1.2114091 2.0590522 -0.32050946 0 17
1.2184937 2.071094 -0.29991177 0 18
1.2199063 2.0734951 -0.2778129 0 19
1.2204581 2.0744331 -0.25552949 0 20
1.2136805 2.0629132 -0.23186931 0 21
1.2133658 2.0623782 -0.2096134 0 22
1.219095 2.0721161 -0.18833846 0 23
1.215848 2.0665972 -0.16566342 0 24
1.2193741 2.0725906 -0.14393441 0 25
1.2074739 2.0523636 -0.1205612 0 26
1.2196155 2.0730009 -0.099604733 0 27
1.2092104 2.0553153 -0.076792084 0 28
1.2215999 2.0763738 -0.055404115 0 29
1.2136554 2.0628703 -0.033022553 0 30
1.2154202 2.06587 -0.011022903 0 31
1.2236183 2.0798044 0.011097252 0 32
1.2117299 2.0595977 0.032970164 0 33
1.2162031 2.0672009 0.055159349 0 34
1.2132255 2.0621397 0.077047057 0 35
1.2166882 2.0680254 0.099365667 0 36
1.2153442 2.0657408 0.12134702 0 37
1.2105573 2.0576046 0.14289367 0 38
1.2211102 2.0755415 0.16638042 0 39
1.2224109 2.0777524 0.18885073 0 40
1.2147703 2.0647655 0.20985603 0 41
1.2122488 2.0604794 0.23159577 0 42
1.2089288 2.0548365 0.25311556 0 43
1.2122366 2.0604589 0.27606627 0 44
1.210953 2.0582771 0.29805574 0 45
1.2203172 2.0741937 0.32286635 0 46
1.2169622 2.068491 0.34447804 0 47
1.2123864 2.0607133 0.36565676 0 48
1.2157536 2.0664368 0.38927221 0 49
1.2177621 2.0698507 0.41262028 0 50
1.2158158 2.0665424 0.43470123 0 51
1.2091342 2.0551856 0.45500332 0 52
1.2137282 2.0629942 0.47958937 0 53
1.2159477 2.0667667 0.5034501 0 54
1.217292 2.0690515 0.52710479 0 55
1.2139603 2.0633888 0.54879028 0 56
1.215721 2.0663815 0.57284576 0 57
1.2135496 2.0626907 0.5951429 0 58
1.2153022 2.0656695 0.61946344 0 59
1.2134278 2.0624835 0.64204454 0 60
1.2117656 2.0596585 0.66478562 0 61
1.2189626 2.0718911 0.69261664 0 62
1.2136534 2.0628672 0.71350515 0 63
1.1697655 2.045404 -0.7024368 0 0
1.1672204 2.0409536 -0.67742532 0 1
1.1641417 2.0355704 -0.65234119 0 2
1.1680243 2.0423596 -0.63126123 0 3
1.1689035 2.0438967 -0.60857773 0 4
1.173992 2.0527945 -0.58807796 0 5
1.1768996 2.0578783 -0.56643385 0 6
1.1734716 2.0518842 -0.54185176 0 7
1.1666474 2.0399518 -0.51599777 0 8
1.1708366 2.0472767 -0.49515796 0 9
1.1732798 2.051549 -0.47353896 0 10
1.1645974 2.0363672 -0.44763276 0 11
1.168 2.0423169 -0.42655197 0 12
1.1672943 2.0410829 -0.40399358 0 13
1.1667058 2.0400541 -0.38157091 0 14
1.1710414 2.0476351 -0.36075372 0 15
1.1699851 2.045788 -0.33827567 0 16
1.1749302 2.0544348 -0.31751782 0 17
1.1722342 2.0497205 -0.29470709 0 18
1.1671985 2.0409155 -0.27150425 0 19
1.1743307 2.0533867 -0.25113925 0 20
1.1669855 2.0405431 -0.22772482 0 21
1.1676933 2.0417807 -0.206045 0 22
1.1757897 2.0559378 -0.18553983 0 23
1.1684349 2.0430772 -0.16261397 0 24
1.1669478 2.0404773 -0.14069709 0 25
1.1683582 2.0429432 -0.11915489 0 26
1.1653986 2.0377681 -0.097215958 0 27
1.1694953 2.0449317 -0.075861081 0 28
1.1678112 2.0419867 -0.054099299 0 29
1.1691853 2.0443895 -0.032494105 0 30
1.1738756 2.0525906 -0.010874206 0 31
1.1680332 2.0423751 0.010820087 0 32
1.1700352 2.0458755 0.032517727 0 33
1.1669509 2.0404825 0.054059446 0 34
1.1714438 2.0483387 0.075987481 0 35
1.1662884 2.039324 0.097290181 0 36
1.1729722 2.0510111 0.11962544 0 37
1.1619091 2.0316668 0.14008959 0 38
1.1666504 2.039957 0.16236563 0 39
1.1667877 2.0401971 0.1841193 0 40
1.1776798 2.0592425 0.20780715 0 41
1.1690037 2.0440719 0.22811864 0 42
1.1710035 2.0475686 0.25042766 0 43
1.1683288 2.0428917 0.27176717 0 44
1.1649013 2.0368986 0.29286355 0 45
1.1704792 2.0466518 0.31631497 0 46
1.1731985 2.0514066 0.33920473 0 47
1.1645809 2.0363386 0.35876352 0 48
1.1656965 2.0382893 0.38124081 0 49
1.1746517 2.0539477 0.40653995 0 50
1.1707972 2.0472078 0.42757347 0 51
1.1704392 2.0465822 0.44987822 0 52
1.1663241 2.0393865 0.47073165 0 53
1.1636221 2.034662 0.49210697 0 54
1.1693896 2.0447466 0.5172106 0 55
1.1765615 2.0572872 0.54327852 0 56
1.1742971 2.0533276 0.56518126 0 57
1.1618581 2.0315773 0.58199978 0 58
1.1659442 2.0387223 0.60703707 0 59
1.1709515 2.0474777 0.6328432 0 60
1.1650423 2.0371451 0.65284592 0 61
1.1673222 2.0411317 0.67748445 0 62
1.1634529 2.0343659 0.69864607 0 63
1.118593 2.0129614 -0.68651968 0 0
1.1259917 2.0262756 -0.66790742 0 1
1.1290548 2.0317879 -0.64663094 0 2
1.1233687 2.0215557 -0.62051463 0 3
1.1233605 2.0215409 -0.597763 0 4
1.1240042 2.0226994 -0.5754534 0 5
1.1229911 2.0208759 -0.55240625 0 6
1.1244798 2.023555 -0.53067917 0 7
1.1236222 2.0220118 -0.50792664 0 8
1.1267706 2.0276773 -0.48702976 0 9
1.1276571 2.0292726 -0.46516135 0 10
1.1303334 2.0340889 -0.4440431 0 11
1.1242517 2.0231445 -0.41962865 0 12
1.1273974 2.0288055 -0.39878947 0 13
1.1231774 2.0212114 -0.37543496 0 14
1.1291263 2.0319169 -0.35551146 0 15
1.1350312 2.0425427 -0.33540592 0 16
1.1243027 2.0232365 -0.31053588 0 17
1.1322253 2.0374935 -0.29092535 0 18
1.1272643 2.0285659 -0.26799715 0 19
1.1219244 2.0189564 -0.24522245 0 20
1.126704 2.0275576 -0.22471251 0 21
1.1270013 2.0280926 -0.20324983 0 22
1.1333789 2.0395694 -0.1827911 0 23
1.1254681 2.0253336 -0.16008809 0 24
1.1253464 2.0251145 -0.13867316 0 25
1.1339006 2.0405085 -0.11819071 0 26
1.1263994 2.0270095 -0.096034653 0 27
1.1241298 2.0229251 -0.074526288 0 28
1.1262513 2.0267432 -0.053324509 0 29
1.1256911 2.0257349 -0.03197518 0 30
1.1248717 2.0242603 -0.010650035 0 31
1.1323926 2.0377946 0.010721241 0 32
1.1247824 2.0240996 0.031949367 0 33
1.134135 2.04093 0.053697772 0 34
1.121302 2.0178363 0.074338816 0 35
1.121096 2.0174658 0.0955825 0 36
1.1284052 2.0306191 0.1176179 0 37
1.1195899 2.0147555 0.13796379 0 38
1.1260929 2.0264578 0.16017696 0 39
1.1233351 2.0214951 0.18117125 0 40
1.1253172 2.0250621 0.20294613 0 41
1.122613 2.0201955 0.22389656 0 42
1.1269621 2.0280221 0.24632357 0 43
1.1232659 2.0213706 0.26704657 0 44
1.1287323 2.0312078 0.29002786 0 45
1.1271294 2.0283232 0.31131664 0 46
1.1258482 2.0260174 0.3326923 0 47
1.1323754 2.0377634 0.35653442 0 48
1.130679 2.0347109 0.37794247 0 49
1.1232604 2.0213606 0.39732605 0 50
1.1217442 2.0186322 0.41869271 0 51
1.1241565 2.0229733 0.44161654 0 52
1.1200902 2.0156558 0.46204004 0 53
1.1239187 2.0225453 0.48579708 0 54
1.119553 2.014689 0.50608718 0 55
1.1250069 2.0245035 0.53092796 0 56
1.1219393 2.0189834 0.55188888 0 57
1.1254365 2.0252769 0.57618672 0 58
1.1239345 2.0225737 0.59806842 0 59
1.1240727 2.0228224 0.62090349 0 60
1.1204628 2.0163262 0.64171016 0 61
1.1229979 2.0208883 0.66613162 0 62
1.1284542 2.0307074 0.69257188 0 63
1.0757867 1.993265 -0.67523968 0 0
1.0859401 2.0120778 -0.6587761 0 1
1.0818043 2.0044146 -0.63363773 0 2
1.0816774 2.0041797 -0.61105227 0 3
1.0896337 2.0189214 -0.5929817 0 4
1.0865389 2.0131874 -0.56890321 0 5
1.0754896 1.9927148 -0.54105246 0 6
1.0811176 2.0031424 -0.5218001 0 7
1.0830243 2.0066752 -0.50069094 0 8
1.079812 2.0007234 -0.47733036 0 9
1.0722593 1.9867293 -0.45235279 0 10
1.0842991 2.0090373 -0.43563074 0 11
1.0833062 2.0071976 -0.41352683 0 12
1.0858744 2.0119562 -0.39282316 0 13
1.0804164 2.0018432 -0.36934176 0 14
1.080397 2.0018072 -0.3478927 0 15
1.0881627 2.0161958 -0.32885739 0 16
1.0849134 2.0101755 -0.30646047 0 17
1.0812258 2.0033429 -0.28412926 0 18
1.082857 2.0063651 -0.26328516 0 19
1.0869553 2.0139587 -0.24297366 0 20
1.0784255 1.9981543 -0.21996744 0 21
1.0823472 2.0054204 -0.19962882 0 22
1.0824004 2.0055194 -0.17853312 0 23
1.07968 2.0004787 -0.15706223 0 24
1.0839626 2.0084136 -0.13660648 0 25
1.0865772 2.0132582 -0.11582966 0 26
1.0799335 2.0009484 -0.094163686 0 27
1.0805271 2.0020483 -0.073262133 0 28
1.0837115 2.0079484 -0.052475438 0 29
1.0746025 1.9910709 -0.031217095 0 30
1.0829334 2.0065069 -0.010485778 0 31
1.0845144 2.0094361 0.010501086 0 32
1.0753996 1.9925478 0.031240249 0 33
1.0880747 2.0160327 0.05268671 0 34
1.0754058 1.9925594 0.072914906 0 35
1.0829678 2.0065703 0.094428249 0 36
1.0808598 2.0026646 0.11522017 0 37
1.0828708 2.0063908 0.1364689 0 38
1.0803872 2.0017891 0.15716511 0 39
1.0816984 2.0042186 0.17841731 0 40
1.0829979 2.0066264 0.19974884 0 41
1.0789791 1.9991801 0.22008035 0 42
1.0853931 2.0110643 0.24262445 0 43
1.0848652 2.0100863 0.26377344 0 44
1.0791541 1.9995043 0.28358486 0 45
1.0838858 2.0082712 0.3061702 0 46
1.0801105 2.0012765 0.32642391 0 47
1.0918219 2.0229759 0.35157156 0 48
1.0821573 2.0050685 0.36993682 0 49
1.0822294 2.0052023 0.39150453 0 50
1.0835551 2.0076587 0.41362184 0 51
1.0735652 1.989149 0.43131828 0 52
1.0820864 2.0049374 0.45649856 0 53
1.0826322 2.0059485 0.47857696 0 54
1.0850834 2.0104902 0.50164282 0 55
1.0886918 2.0171762 0.52545583 0 56
1.0822845 2.0053043 0.54447073 0 57
1.0858737 2.0119545 0.56855488 0 58
1.082311 2.0053537 0.58899665 0 59
1.0853789 2.0110381 0.61314327 0 60
1.0848327 2.0100257 0.63541156 0 61
1.0817401 2.0042958 0.65622818 0 62
1.0875235 2.0150115 0.68260652 0 63
1.0454305 1.9953356 -0.67153549 0 0
1.0429742 1.9906473 -0.64751154 0 1
1.0397277 1.9844508 -0.62323803 0 2
1.0485562 2.0013013 -0.60619771 0 3
1.0388111 1.9827014 -0.57854795 0 4
1.0437174 1.9920658 -0.55926549 0 5
1.0367721 1.9788098 -0.53377527 0 6
1.0413803 1.987605 -0.51437825 0 7
1.0358497 1.9770494 -0.49008378 0 8
1.0401771 1.9853086 -0.47056556 0 9
1.0372199 1.9796644 -0.44780642 0 10
1.0417683 1.9883459 -0.42833406 0 11
1.0449802 1.994476 -0.40822774 0 12
1.0408698 1.9866308 -0.38535047 0 13
1.0464743 1.9973277 -0.36610678 0 14
1.0370786 1.9793948 -0.34175557 0 15
1.0389249 1.9829187 -0.32132164 0 16
1.0416722 1.9881624 -0.30112895 0 17
1.0316166 1.9689697 -0.27743414 0 18
1.0370357 1.979313 -0.25804237 0 19
1.042074 1.988929 -0.23839001 0 20
1.0419251 1.988645 -0.21749374 0 21
1.0404323 1.9857959 -0.1963869 0 22
1.0393447 1.9837199 -0.17544155 0 23
1.0401285 1.9852158 -0.15484804 0 24
1.0314813 1.9687115 -0.13303331 0 25
1.0359493 1.9772395 -0.11301594 0 26
1.0410639 1.9870012 -0.092897885 0 27
1.0437772 1.9921799 -0.072425872 0 28
1.0386065 1.982311 -0.05146778 0 29
1.040695 1.986297 -0.030939272 0 30
1.039922 1.9848217 -0.01030485 0 31
1.0359122 1.9771684 0.010265115 0 32
1.0358698 1.9770879 0.030795826 0 33
1.0376157 1.9804199 0.051418681 0 34
1.0329303 1.9714772 0.071673222 0 35
1.0347304 1.9749129 0.092332721 0 36
1.0434388 1.991534 0.113833 0 37
1.0367405 1.9787496 0.13371161 0 38
1.0353532 1.9761016 0.15413712 0 39
1.0367631 1.9787927 0.17500576 0 40
1.040645 1.9862016 0.19642703 0 41
1.040518 1.9859595 0.21720004 0 42
1.038437 1.9819875 0.23755801 0 43
1.0488336 2.0018308 0.26097801 0 44
1.0473989 1.9990926 0.28167853 0 45
1.0493891 2.0028911 0.30335978 0 46
1.0369623 1.9791728 0.32071462 0 47
1.0358162 1.9769853 0.34133956 0 48
1.0397729 1.9845371 0.36376232 0 49
1.0418578 1.9885167 0.38571629 0 50
1.0400933 1.9851488 0.40631866 0 51
1.0380722 1.9812913 0.42681435 0 52
1.0448788 1.9942825 0.45111305 0 53
1.0371549 1.9795405 0.46919838 0 54
1.0384654 1.9820417 0.4913213 0 55
1.0418203 1.9884448 0.51459557 0 56
1.0437491 1.9921263 0.53736734 0 57
1.034268 1.9740304 0.55420208 0 58
1.0386566 1.9824066 0.57846189 0 59
1.0341917 1.9738848 0.59789324 0 60
1.0350416 1.9755068 0.62042904 0 61
1.0436397 1.9919174 0.64792466 0 62
1.0398253 1.9846373 0.66793495 0 63
0.99740708 1.9619879 -0.65613496 0 0
0.99928093 1.9656739 -0.63534337 0 1
1.0004773 1.9680274 -0.61416996 0 2
1.003943 1.9748447 -0.59439975 0 3
0.99257493 1.9524826 -0.56612587 0 4
1.0014718 1.9699835 -0.5495671 0 5
0.99300402 1.9533267 -0.52356803 0 6
1.0011084 1.9692688 -0.50640893 0 7
0.99653554 1.9602735 -0.48285118 0 8
1.0056816 1.9782646 -0.46592963 0 9
0.99808073 1.9633131 -0.44129816 0 10
0.99686688 1.9609253 -0.41975468 0 11
0.98984432 1.9471112 -0.39601195 0 12
0.9958455 1.9589161 -0.37757081 0 13
0.99465954 1.9565833 -0.35636958 0 14
1.0003294 1.9677364 -0.33759338 0 15
0.99919397 1.9655029 -0.31648457 0 16
0.99978524 1.966666 -0.29598868 0 17
1.0017793 1.9705886 -0.27590567 0 18
0.99956197 1.9662268 -0.25471467 0 19
1.0015038 1.9700464 -0.23463298 0 20
0.99942845 1.9659641 -0.21365295 0 21
1.0022953 1.9716035 -0.19374982 0 22
0.99509221 1.9574344 -0.17202166 0 23
0.99711323 1.9614098 -0.1520233 0 24
0.99479401 1.9568478 -0.13139509 0 25
0.99844187 1.9640235 -0.11155035 0 26
1.0004293 1.9679328 -0.091424324 0 27
0.99367821 1.9546529 -0.070612021 0 28
0.99739754 1.9619691 -0.050617378 0 29
0.99457181 1.9564108 -0.030280968 0 30
0.99943358 1.9659742 -0.010142425 0 31
0.99783391 1.9628274 0.01012619 0 32
1.0072863 1.9814214 0.030668078 0 33
1.0027292 1.9724568 0.050887953 0 34
0.99509281 1.9574355 0.070712544 0 35
0.99921626 1.9655467 0.091313481 0 36
0.99395216 1.9551917 0.11104874 0 37
0.99283379 1.9529918 0.13113618 0 38
0.99998075 1.9670506 0.1524605 0 39
0.99834228 1.9638275 0.17258349 0 40
0.99882847 1.9647839 0.19307967 0 41
0.9987238 1.964578 0.21350233 0 42
0.99952185 1.9661478 0.23416865 0 43
0.99984312 1.9667798 0.25478631 0 44
1.0003941 1.9678637 0.27552417 0 45
0.99669534 1.9605879 0.2950739 0 46
0.99600059 1.9592212 0.31547311 0 47
0.99796104 1.9630775 0.33679411 0 48
0.99698234 1.9611524 0.35720181 0 49
1.0010941 1.9692407 0.3795608 0 50
0.998487 1.9641123 0.3994697 0 51
0.99982953 1.966753 0.42100218 0 52
0.99943304 1.9659731 0.44189608 0 53
0.99916631 1.9654485 0.46291113 0 54
0.99365407 1.9546053 0.48145503 0 55
0.99045724 1.9483169 0.50102103 0 56
1.0060321 1.9789542 0.53043717 0 57
0.99946207 1.9660302 0.5484643 0 58
1.0023957 1.9718012 0.57172734 0 59
0.99966311 1.9664258 0.59186578 0 60
0.99786502 1.9628887 0.61256629 0 61
1.0015081 1.9700549 0.6367594 0 62
0.99525803 1.9577606 0.65472126 0 63
0.96391237 1.9552476 -0.64986795 0 0
0.95940131 1.9460971 -0.62515545 0 1
0.95763671 1.9425178 -0.6024887 0 2
0.95967507 1.9466524 -0.58231843 0 3
0.96222019 1.951815 -0.56245911 0 4
0.96098268 1.9493048 -0.540461 0 5
0.96320295 1.9538085 -0.52048314 0 6
0.95675296 1.9407251 -0.49600586 0 7
0.95646882 1.9401487 -0.47496119 0 8
0.95691335 1.9410504 -0.45435908 0 9
0.96565723 1.958787 -0.43757874 0 10
0.96405679 1.9555405 -0.416033 0 11
0.96276987 1.9529301 -0.39475778 0 12
0.95971012 1.9467236 -0.37291798 0 13
0.96505988 1.9575752 -0.35436207 0 14
0.95889461 1.9450693 -0.33165652 0 15
0.95999449 1.9473004 -0.3116293 0 16
0.96004885 1.9474106 -0.29129195 0 17
0.95422167 1.9355905 -0.26934233 0 18
0.95805109 1.9433582 -0.25020713 0 19
0.95468128 1.9365227 -0.22922483 0 20
0.96237153 1.952122 -0.21084668 0 21
0.96399558 1.9554163 -0.19097981 0 22
0.96364939 1.9547142 -0.17072834 0 23
0.96011478 1.9475445 -0.15002224 0 24
0.95632935 1.9398658 -0.12945543 0 25
0.9606058 1.9485404 -0.10999176 0 26
0.95788741 1.9430262 -0.089713261 0 27
0.95868176 1.9446375 -0.069819078 0 28
0.96006769 1.9474487 -0.049934417 0 29
0.96061736 1.9485638 -0.029974423 0 30
0.95896047 1.9452029 -0.0099736787 0 31
0.95211124 1.9313096 0.0099024428 0 32
0.95796472 1.9431831 0.029891649 0 33
0.95963216 1.9465654 0.049911764 0 34
0.960109 1.9475325 0.069923021 0 35
0.95490783 1.9369823 0.089434199 0 36
0.95425159 1.9356512 0.10926419 0 37
0.95680612 1.9408329 0.12951997 0 38
0.96298438 1.9533652 0.15047061 0 39
0.96133935 1.9500284 0.17031908 0 40
0.96336728 1.9541419 0.19085532 0 41
0.9595632 1.9464256 0.21023141 0 42
0.96204191 1.9514534 0.23099217 0 43
0.95692658 1.9410774 0.24991347 0 44
0.9619571 1.9512814 0.27152577 0 45
0.96245211 1.9522854 0.29202113 0 46
0.96045059 1.9482255 0.31177735 0 47
0.96377462 1.9549682 0.3333444 0 48
0.95536971 1.9379191 0.35080391 0 49
0.96264261 1.9526719 0.37405744 0 50
0.96219283 1.9517596 0.39452118 0 51
0.95706892 1.941366 0.41301742 0 52
0.95960665 1.9465137 0.43483698 0 53
0.96398318 1.9553913 0.45771599 0 54
0.96588165 1.9592422 0.47963539 0 55
0.96069741 1.9487262 0.49805078 0 56
0.96530056 1.9580635 0.5216167 0 57
0.95135468 1.929775 0.53504622 0 58
0.95983398 1.9469748 0.5610643 0 59
0.9600895 1.9474931 0.5825699 0 60
0.95963991 1.9465811 0.60374898 0 61
0.95570058 1.9385904 0.62274396 0 62
0.95597804 1.9391532 0.64451861 0 63
0.9189409 1.9232974 -0.63544482 0 0
0.92164642 1.9289597 -0.61596316 0 1
0.9193604 1.9241753 -0.59324843 0 2
0.91815853 1.9216599 -0.57142168 0 3
0.92143106 1.9285091 -0.55243611 0 4
0.92365438 1.9331625 -0.53279614 0 5
0.92284459 1.9314675 -0.51147002 0 6
0.92813927 1.9425491 -0.49351788 0 7
0.92175508 1.9291872 -0.46946752 0 8
0.91689509 1.9190155 -0.44652829 0 9
0.92420214 1.9343089 -0.42953932 0 10
0.92096758 1.9275391 -0.40763575 0 11
0.91753036 1.9203452 -0.38586143 0 12
0.92371261 1.9332842 -0.36813983 0 13
0.93192673 1.9504761 -0.35097605 0 14
0.91975945 1.9250104 -0.32628316 0 15
0.91925228 1.923949 -0.30606028 0 16
0.92232311 1.9303761 -0.28702581 0 17
0.93056959 1.9476355 -0.26940578 0 18
0.92562467 1.937286 -0.24794118 0 19
0.92403793 1.9339651 -0.22755992 0 20
0.91796029 1.921245 -0.20627691 0 21
0.92111689 1.9278516 -0.18716726 0 22
0.91695797 1.9191471 -0.16662446 0 23
0.91858709 1.9225568 -0.14721617 0 24
0.91790205 1.9211231 -0.12744179 0 25
0.91816491 1.9216732 -0.10782969 0 26
0.91699034 1.9192148 -0.08808656 0 27
0.92023838 1.9260129 -0.068738922 0 28
0.92359477 1.9330376 -0.049269974 0 29
0.91792601 1.9211732 -0.029377226 0 30
0.92583519 1.9377267 -0.009876227 0 31
0.91715735 1.9195645 0.0097836573 0 32
0.92286706 1.9315146 0.029535359 0 33
0.9226234 1.9310046 0.049218155 0 34
0.92762786 1.9414787 0.069290899 0 35
0.9205184 1.9265989 0.088425472 0 36
0.92512321 1.9362366 0.10864688 0 37
0.92114806 1.9279168 0.12789246 0 38
0.91758138 1.920452 0.147055 0 39
0.91562182 1.9163507 0.16638166 0 40
0.92116123 1.9279443 0.18717626 0 41
0.926539 1.9391998 0.20820466 0 42
0.92684418 1.9398385 0.22825101 0 43
0.92417115 1.9342439 0.24755183 0 44
0.92284232 1.9314628 0.2671687 0 45
0.9197219 1.9249319 0.28621632 0 46
0.92334479 1.9325144 0.30742285 0 47
0.92377186 1.9334083 0.32770655 0 48
0.92563707 1.937312 0.34860724 0 49
0.92067808 1.9269331 0.36693045 0 50
0.92383033 1.9335307 0.38851085 0 51
0.91965288 1.9247875 0.40705383 0 52
0.91965038 1.9247822 0.4274238 0 53
0.92747581 1.9411606 0.45168114 0 54
0.91663998 1.9184816 0.46686229 0 55
0.92377079 1.9334061 0.49119502 0 56
0.91937059 1.9241966 0.50954461 0 57
0.91954255 1.9245566 0.5304243 0 58
0.92443258 1.9347911 0.55423564 0 59
0.91858244 1.922547 0.57168549 0 60
0.92150688 1.9286678 0.59463352 0 61
0.92219698 1.9301122 0.61633116 0 62
0.92111647 1.9278507 0.63694924 0 63
0.88433725 1.9109273 -0.62771761 0 0
0.88570708 1.9138873 -0.60762644 0 1
0.88768911 1.9181701 -0.58798718 0 2
0.88198715 1.905849 -0.56345266 0 3
0.88471496 1.9117435 -0.54447597 0 4
0.88479954 1.9119263 -0.52390504 0 5
0.8854304 1.9132893 -0.50373507 0 6
0.8914156 1.9262226 -0.48654845 0 7
0.88890493 1.9207973 -0.4647308 0 8
0.88581568 1.914122 -0.44282165 0 9
0.8839376 1.9100637 -0.42170981 0 10
0.88630527 1.9151798 -0.40268677 0 11
0.88553023 1.9135052 -0.38227022 0 12
0.88720304 1.9171199 -0.36295694 0 13
0.88352334 1.9091685 -0.34156224 0 14
0.88163203 1.9050816 -0.32104349 0 15
0.8761816 1.8933041 -0.29944876 0 16
0.88540804 1.9132411 -0.28283781 0 17
0.88859564 1.9201291 -0.26406959 0 18
0.89011717 1.9234169 -0.24474682 0 19
0.87904382 1.8994888 -0.22221462 0 20
0.88279772 1.9076006 -0.20363107 0 21
0.88716692 1.9170418 -0.18504468 0 22
0.88679415 1.9162363 -0.16541247 0 23
0.89263976 1.9288678 -0.14684783 0 24
0.88261616 1.9072082 -0.12578924 0 25
0.88071322 1.9030963 -0.10617159 0 26
0.88514841 1.91268 -0.087280482 0 27
0.88648617 1.9155707 -0.067972071 0 28
0.8888272 1.9206294 -0.048671454 0 29
0.88417488 1.9105763 -0.02904674 0 30
0.88912344 1.9212695 -0.0097358879 0 31
0.88151926 1.904838 0.009652622 0 32
0.88275862 1.907516 0.029000213 0 33
0.88858324 1.9201022 0.048658095 0 34
0.88556856 1.9135879 0.067901708 0 35
0.88135123 1.904475 0.086906061 0 36
0.8869487 1.9165703 0.10692329 0 37
0.88420725 1.9106463 0.12601601 0 38
0.87800711 1.8972487 0.14444062 0 39
0.88326985 1.9086207 0.16475508 0 40
0.88539243 1.9132074 0.18467456 0 41
0.88534153 1.9130974 0.20421785 0 42
0.88418287 1.9105936 0.22351372 0 43
0.88433439 1.9109211 0.24315679 0 44
0.8890844 1.9211851 0.26421481 0 45
0.87890726 1.8991939 0.28076118 0 46
0.88491166 1.9121684 0.30243239 0 47
0.87959558 1.9006813 0.32030195 0 48
0.88478035 1.9118848 0.3420482 0 49
0.88048679 1.902607 0.36020932 0 50
0.88718855 1.9170885 0.38298607 0 51
0.88525367 1.9129076 0.40220898 0 52
0.88370144 1.9095534 0.42159712 0 53
0.88905811 1.9211284 0.44444254 0 54
0.88464648 1.9115953 0.46250442 0 55
0.88313597 1.9083315 0.48202932 0 56
0.88359559 1.9093246 0.50269121 0 57
0.88775855 1.9183203 0.52565712 0 58
0.88462257 1.9115438 0.54441911 0 59
0.88892168 1.9208336 0.56788278 0 60
0.87951434 1.9005055 0.58257234 0 61
0.88854551 1.9200207 0.60957372 0 62
0.88421357 1.9106599 0.62762982 0 63
0.84628874 1.889317 -0.61715388 0 0
0.84870631 1.8947142 -0.59818083 0 1
0.85353935 1.9055039 -0.58084333 0 2
0.85162306 1.9012259 -0.55894762 0 3
0.84673679 1.8903174 -0.53536791 0 4
0.85208434 1.9022557 -0.51834482 0 5
0.85193461 1.9019214 -0.49794632 0 6
0.84808391 1.8933249 -0.47556865 0 7
0.8506062 1.8989557 -0.45688114 0 8
0.84970295 1.8969392 -0.43639636 0 9
0.85169667 1.9013901 -0.41745102 0 10
0.85308266 1.9044843 -0.39820221 0 11
0.8445453 1.885425 -0.37455752 0 12
0.8462795 1.8892965 -0.35569227 0 13
0.84767181 1.8924047 -0.33667281 0 14
0.85400432 1.9065419 -0.31949577 0 15
0.84876865 1.8948534 -0.29802057 0 16
0.85095572 1.899736 -0.27927336 0 17
0.84859318 1.8944618 -0.259085 0 18
0.85033107 1.8983415 -0.24020745 0 19
0.84795815 1.893044 -0.2202242 0 20
0.84435534 1.8850008 -0.20009518 0 21
0.84893215 1.8952184 -0.18191677 0 22
0.84761196 1.8922712 -0.16243179 0 23
0.84970117 1.8969353 -0.14361046 0 24
0.84848446 1.894219 -0.12423502 0 25
0.85106313 1.8999758 -0.1054057 0 26
0.85009313 1.8978103 -0.086118422 0 27
0.85150838 1.9009697 -0.067077361 0 28
0.85163343 1.9012489 -0.047911327 0 29
0.84663862 1.8900983 -0.028574975 0 30
0.85281062 1.903877 -0.0095938873 0 31
0.85114145 1.9001507 0.0095751099 0 32
0.85395187 1.9064249 0.028821804 0 33
0.84207422 1.8799083 0.047373544 0 34
0.85523474 1.9092888 0.067370906 0 35
0.84281445 1.8815608 0.085381053 0 36
0.85117894 1.9002345 0.10542005 0 37
0.84768188 1.8924273 0.12411752 0 38
0.85174048 1.9014879 0.14395513 0 39
0.84487939 1.8861709 0.16190813 0 40
0.85132343 1.9005569 0.18242921 0 41
0.84602231 1.8887223 0.20049021 0 42
0.85186982 1.9017767 0.2212401 0 43
0.85421258 1.9070069 0.24130392 0 44
0.84369689 1.883531 0.25759012 0 45
0.84703791 1.8909895 0.27798757 0 46
0.85213041 1.9023584 0.29920095 0 47
0.8540349 1.9066103 0.31950721 0 48
0.84891599 1.8951824 0.33716699 0 49
0.85181171 1.901647 0.35801744 0 50
0.8447054 1.8857824 0.37462851 0 51
0.84910607 1.8956068 0.396346 0 52
0.85201442 1.9020995 0.41760677 0 53
0.84403872 1.884294 0.4334873 0 54
0.85123819 1.9003667 0.45722058 0 55
0.85059118 1.8989222 0.47697461 0 56
0.84985155 1.897271 0.49672881 0 57
0.84353071 1.8831599 0.51314145 0 58
0.84800267 1.8931434 0.53616828 0 59
0.85064834 1.8990498 0.55830789 0 60
0.84962159 1.8967577 0.57817727 0 61
0.84644896 1.8896748 0.5965898 0 62
0.8489151 1.8951803 0.61906916 0 63
0.81649286 1.884573 -0.61227828 0 0
0.82183367 1.8969003 -0.59563553 0 1
0.81282794 1.876114 -0.56879491 0 2
0.8168779 1.8854618 -0.55131835 0 3
0.82180274 1.8968289 -0.53430969 0 4
0.81611556 1.8837022 -0.51051611 0 5
0.8111794 1.8723089 -0.48754507 0 6
0.81919205 1.8908031 -0.47236934 0 7
0.81820482 1.8885245 -0.45191661 0 8
0.81189394 1.873958 -0.42878035 0 9
0.81353909 1.8777553 -0.41003469 0 10
0.82442826 1.9028889 -0.39571908 0 11
0.81556791 1.8824381 -0.37194377 0 12
0.80863428 1.8664345 -0.34948966 0 13
0.81211126 1.8744597 -0.3316786 0 14
0.818708 1.8896859 -0.31496018 0 15
0.81447774 1.8799218 -0.29407471 0 16
0.81477535 1.8806088 -0.27496791 0 17
0.8113361 1.8726705 -0.25472119 0 18
0.81160468 1.8732904 -0.23575696 0 19
0.81104416 1.8719968 -0.21659914 0 20
0.81474286 1.8805338 -0.19854252 0 21
0.81476843 1.8805928 -0.17953765 0 22
0.81542182 1.8821008 -0.16068593 0 23
0.81521398 1.8816211 -0.14168146 0 24
0.81158924 1.8732549 -0.12219629 0 25
0.81359929 1.8778943 -0.10361782 0 26
0.8110038 1.8719037 -0.084483914 0 27
0.81475413 1.8805598 -0.065998673 0 28
0.8141259 1.8791097 -0.047097586 0 29
0.81608528 1.8836322 -0.028323367 0 30
0.81126922 1.8725162 -0.009384877 0 31
0.81034696 1.8703874 0.0093742087 0 32
0.81832653 1.8888054 0.028401153 0 33
0.82146084 1.8960397 0.047521915 0 34
0.81171137 1.8735367 0.065752193 0 35
0.8157236 1.8827974 0.084975578 0 36
0.81242037 1.8751731 0.10346767 0 37
0.8233155 1.9003205 0.12396184 0 38
0.81689972 1.8855121 0.14197445 0 39
0.81318349 1.8769345 0.16024485 0 40
0.81052411 1.8707963 0.1786024 0 41
0.82030278 1.8933669 0.19989741 0 42
0.81627733 1.8840756 0.21799672 0 43
0.81563997 1.8826045 0.23692915 0 44
0.82121378 1.8954694 0.2578223 0 45
0.80935454 1.8680968 0.27313849 0 46
0.81377321 1.8782958 0.29382038 0 47
0.81557357 1.8824512 0.31375435 0 48
0.81665748 1.884953 0.33353534 0 49
0.81515712 1.8814899 0.35230881 0 50
0.81166124 1.8734211 0.37016213 0 51
0.81036484 1.8704288 0.38896877 0 52
0.80767262 1.8642148 0.40707791 0 53
0.81331843 1.877246 0.42953268 0 54
0.81196159 1.8741143 0.4484683 0 55
0.81769425 1.887346 0.47150567 0 56
0.81455082 1.8800906 0.48957142 0 57
0.8155551 1.8824085 0.51016551 0 58
0.81470078 1.8804367 0.52969223 0 59
0.81984401 1.892308 0.55332017 0 60
0.81241477 1.8751602 0.56850576 0 61
0.8116526 1.873401 0.58825666 0 62
0.8081581 1.8653352 0.60602814 0 63
0.78188562 1.8673072 -0.60349953 0 0
0.77632612 1.8540298 -0.57913268 0 1
0.78797764 1.8818561 -0.56755525 0 2
0.77476346 1.8502979 -0.53820986 0 3
0.78182852 1.8671707 -0.52320778 0 4
0.78109086 1.865409 -0.50291729 0 5
0.78050101 1.8640003 -0.48284587 0 6
0.78623176 1.8776866 -0.46664196 0 7
0.78701979 1.8795686 -0.44742388 0 8
0.78561372 1.8762106 -0.42705306 0 9
0.78178573 1.8670685 -0.40557122 0 10
0.78203881 1.8676728 -0.38636667 0 11
0.77572024 1.8525829 -0.36413255 0 12
0.7827518 1.8693757 -0.34821182 0 13
0.77922189 1.8609456 -0.3275671 0 14
0.77883512 1.8600217 -0.30839643 0 15
0.77968627 1.8620546 -0.28975812 0 16
0.77845287 1.8591089 -0.27040434 0 17
0.78284389 1.8695956 -0.25297448 0 18
0.78138334 1.8661075 -0.2336261 0 19
0.78156507 1.8665416 -0.21483973 0 20
0.78158748 1.866595 -0.19604139 0 21
0.78890795 1.8840779 -0.17893073 0 22
0.78676766 1.8789665 -0.15958029 0 23
0.77933162 1.8612076 -0.13941225 0 24
0.78483206 1.8743438 -0.1216286 0 25
0.78135192 1.8660325 -0.10242543 0 26
0.78215665 1.8679544 -0.083865263 0 27
0.78102922 1.8652618 -0.06511981 0 28
0.78163952 1.8667192 -0.046542618 0 29
0.78452909 1.8736203 -0.028025644 0 30
0.78235924 1.8684381 -0.0093155187 0 31
0.77964658 1.8619598 0.0092832195 0 32
0.7762394 1.8538227 0.027729513 0 33
0.78070796 1.8644946 0.046487149 0 34
0.77763402 1.8571534 0.064836733 0 35
0.7722888 1.8443879 0.082807198 0 36
0.78422999 1.8729059 0.10280271 0 37
0.77675641 1.8550574 0.12037708 0 38
0.77572769 1.8526007 0.13876756 0 39
0.78145695 1.8662833 0.15850312 0 40
0.78011239 1.8630722 0.17693581 0 41
0.78124511 1.8657774 0.19595551 0 42
0.78044474 1.863866 0.21453176 0 43
0.78041267 1.8637894 0.23333588 0 44
0.78139973 1.8661466 0.25250778 0 45
0.78217387 1.8679955 0.27169687 0 46
0.77293533 1.8459319 0.28724924 0 47
0.77659106 1.8546625 0.30750787 0 48
0.77893537 1.8602613 0.32744667 0 49
0.77779061 1.8575274 0.34600478 0 50
0.7790184 1.8604596 0.36568075 0 51
0.78016526 1.8631985 0.38544104 0 52
0.77858412 1.8594224 0.40391031 0 53
0.78051174 1.864026 0.42427966 0 54
0.77985454 1.8624563 0.44335037 0 55
0.78046691 1.8639189 0.46322042 0 56
0.78179771 1.8670971 0.48364809 0 57
0.78188068 1.8672953 0.50342584 0 58
0.77557397 1.8522335 0.51902217 0 59
0.77767676 1.8572555 0.54023367 0 60
0.77902633 1.8604784 0.56110793 0 61
0.78276736 1.8694129 0.58393782 0 62
0.77925199 1.8610175 0.60146677 0 63
0.74738032 1.8483715 -0.59436458 0 0
0.75102055 1.8573743 -0.57724911 0 1
0.75198644 1.8597631 -0.55806124 0 2
0.7512762 1.8580067 -0.53772438 0 3
0.75179058 1.8592788 -0.51836681 0 4
0.75123078 1.8578943 -0.49836317 0 5
0.7467258 1.8467529 -0.47596368 0 6
0.74868459 1.8515972 -0.4578357 0 7
0.74740416 1.8484305 -0.43779072 0 8
0.74990529 1.8546162 -0.42000726 0 9
0.74987984 1.8545533 -0.40081933 0 10
0.7480185 1.84995 -0.38076872 0 11
0.74537373 1.8434091 -0.36050066 0 12
0.74982673 1.8544219 -0.34368289 0 13
0.7529068 1.8620394 -0.32610539 0 14
0.74420989 1.8405308 -0.30362454 0 15
0.74542457 1.8435347 -0.28542829 0 16
0.75173533 1.8591421 -0.26904434 0 17
0.74705023 1.8475553 -0.24873042 0 18
0.74654573 1.8463076 -0.2299806 0 19
0.74716288 1.8478338 -0.21161297 0 20
0.74679244 1.8469176 -0.19299571 0 21
0.75022733 1.8554126 -0.17531902 0 22
0.74815863 1.8502965 -0.15635221 0 23
0.74947596 1.8535545 -0.13813825 0 24
0.74621671 1.8454939 -0.11915205 0 25
0.74951452 1.8536497 -0.10123222 0 26
0.74319142 1.8380119 -0.082104437 0 27
0.7472837 1.8481326 -0.064196147 0 28
0.74797976 1.8498541 -0.045889333 0 29
0.74447554 1.8411877 -0.027401516 0 30
0.75296748 1.8621894 -0.0092375036 0 31
0.74201667 1.8351066 0.0091031576 0 32
0.7466839 1.8466493 0.027482796 0 33
0.7511791 1.8577665 0.046085615 0 34
0.75346667 1.8634239 0.064727299 0 35
0.7438783 1.8397106 0.082180321 0 36
0.74847603 1.8510814 0.10109195 0 37
0.74764383 1.8490232 0.11937992 0 38
0.74838299 1.8508513 0.13793679 0 39
0.74697596 1.8473716 0.15610506 0 40
0.74190199 1.834823 0.17337349 0 41
0.74776626 1.8493261 0.19324738 0 42
0.74938172 1.8533213 0.2122414 0 43
0.75107288 1.8575038 0.23137523 0 44
0.74807489 1.8500893 0.24907157 0 45
0.7503956 1.8558289 0.26856485 0 46
0.74826306 1.8505547 0.28651515 0 47
0.7478494 1.8495318 0.30510941 0 48
0.74519497 1.8429669 0.32276514 0 49
0.74474478 1.8418535 0.34135357 0 50
0.74801427 1.8499395 0.36177775 0 51
0.74270934 1.8368196 0.37806615 0 52
0.74735481 1.8483086 0.39946967 0 53
0.7489984 1.8523734 0.41949934 0 54
0.75027335 1.8555264 0.43947133 0 55
0.74561322 1.8440014 0.4559575 0 56
0.75064015 1.8564336 0.4784587 0 57
0.74671102 1.8467163 0.49536479 0 58
0.74718887 1.8478981 0.51519382 0 59
0.74891961 1.8521786 0.53603762 0 60
0.75257909 1.8612288 0.55850106 0 61
0.74953151 1.8536918 0.57610464 0 62
0.74731165 1.8482018 0.59430999 0 63
0.71587342 1.8350592 -0.58720887 0 0
0.71461856 1.8318425 -0.5665403 0 1
0.71360052 1.8292328 -0.54622567 0 2
0.71942866 1.8441726 -0.5311203 0 3
0.71589571 1.8351164 -0.50913751 0 4
0.71409714 1.830506 -0.48862419 0 5
0.71605825 1.835533 -0.47076705 0 6
0.71407783 1.8304564 -0.45040309 0 7
0.71469527 1.8320391 -0.43179443 0 8
0.71476585 1.83222 -0.41291365 0 9
0.71481055 1.8323346 -0.39408779 0 10
0.72022784 1.8462213 -0.37814984 0 11
0.71205509 1.8252714 -0.35521445 0 12
0.72032493 1.8464702 -0.34054187 0 13
