# .PCD v0.7 - Point Cloud Data file format
VERSION 0.7
FIELDS x y z intensity ring
SIZE 4 4 4 4 2
TYPE F F F F U
COUNT 1 1 1 1 1
WIDTH 1250
HEIGHT 1
VIEWPOINT 0 0 0 1 0 0 0
POINTS 1250
DATA ascii
-1.1029932 1.0025976 -0.24201313 0 14
-1.1134602 1.0121118 -0.23012587 0 15
-1.1154438 1.0139149 -0.21636666 0 16
-1.1226299 1.0204468 -0.20353767 0 17
-1.114145 1.0127343 -0.18791877 0 18
-1.1127701 1.0114845 -0.1736559 0 19
-1.1240422 1.0217305 -0.16127199 0 20
-1.118197 1.0164175 -0.14639135 0 21
-1.1185125 1.0167042 -0.13241169 0 22
-1.1146629 1.0132051 -0.11800575 0 23
-1.1175892 1.0158651 -0.10434888 0 24
-1.1060815 1.0054048 -0.08946909 0 25
-1.1230479 1.0208269 -0.07683982 0 26
-1.1265273 1.0239896 -0.063045919 0 27
-1.1133137 1.0119786 -0.048449609 0 28
-1.1144336 1.0129967 -0.034635816 0 29
-1.1120877 1.0108643 -0.020735405 0 30
-1.1179466 1.0161898 -0.0069478233 0 31
-1.1207218 1.0187124 0.006965071 0 32
-1.1246089 1.0222456 0.020968867 0 33
-1.1282487 1.0255543 0.035065178 0 34
-1.1201525 1.0181949 0.048747223 0 35
-1.1190013 1.0171485 0.062624723 0 36
-1.1228374 1.0206355 0.07682541 0 37
-1.1225377 1.0203631 0.090800203 0 38
-1.1201309 1.0181754 0.10458619 0 39
-1.1226031 1.0204225 0.11884636 0 40
-1.1230242 1.0208054 0.13294579 0 41
-1.1175535 1.0158325 0.1463071 0 42
-1.1167326 1.0150864 0.16022325 0 43
-1.1101822 1.0091321 0.17325205 0 44
-1.1189771 1.0171266 0.18873376 0 45
-1.1233357 1.0210885 0.20366566 0 46
-1.1158123 1.0142498 0.21643813 0 47
-1.1175513 1.0158306 0.23097141 0 48
-1.1218923 1.0197765 0.24615987 0 49
-1.1259271 1.0234439 0.26143071 0 50
-1.1189893 1.0171376 0.27416199 0 51
-1.1150905 1.0135937 0.28754666 0 52
-1.1142312 1.0128127 0.30170441 0 53
-1.1218557 1.0197432 0.31830004 0 54
-1.1235801 1.0213106 0.33339909 0 55
-1.1191086 1.017246 0.34668282 0 56
-1.1272399 1.0246373 0.36398068 0 57
-1.1205615 1.0185667 0.3765803 0 58
-1.1252269 1.0228074 0.39303359 0 59
-1.1163715 1.0147581 0.40477917 0 60
-1.1130161 1.0117081 0.41842982 0 61
-1.1206154 1.0186157 0.43633229 0 62
-1.1268805 1.0243106 0.45398188 0 63
-1.1218185 0.99479592 -0.44698071 0 0
-1.1424521 1.0130931 -0.43995103 0 1
-1.1334113 1.0050761 -0.42141917 0 2
-1.1194637 0.99270767 -0.40144399 0 3
-1.1224985 0.99539888 -0.38777599 0 4
-1.1294019 1.0015206 -0.37538421 0 5
-1.1266555 0.99908513 -0.35979792 0 6
-1.1269789 0.99937195 -0.34528795 0 7
-1.1202005 0.99336112 -0.32874691 0 8
-1.1258142 0.99833918 -0.31591627 0 9
-1.1311339 1.0030565 -0.30291855 0 10
-1.1296288 1.0017219 -0.28809756 0 11
-1.124928 0.99755329 -0.27259105 0 12
-1.1261054 0.99859744 -0.25860143 0 13
-1.130776 1.0027392 -0.24538511 0 14
-1.1223789 0.99529284 -0.22942239 0 15
-1.1201266 0.99329561 -0.21488956 0 16
-1.135322 1.0067704 -0.20357892 0 17
-1.1231762 0.99599987 -0.18736216 0 18
-1.1342763 1.005843 -0.17506871 0 19
-1.1356884 1.0070953 -0.161154 0 20
-1.1368165 1.0080956 -0.14719498 0 21
-1.1197978 0.99300402 -0.13110845 0 22
-1.1296729 1.0017608 -0.1182818 0 23
-1.1158612 0.98951316 -0.10304366 0 24
-1.1254039 0.99797535 -0.090032607 0 25
-1.1208397 0.9939279 -0.075846769 0 26
-1.126056 0.99855351 -0.062327653 0 27
-1.1296231 1.0017167 -0.048619654 0 28
-1.1391478 1.0101629 -0.035015218 0 29
-1.1228572 0.99571699 -0.020706352 0 30
-1.1359733 1.0073479 -0.0069823465 0 31
-1.1216835 0.99467617 0.006894513 0 32
-1.1273236 0.99967766 0.020788714 0 33
-1.1205413 0.99366337 0.034443293 0 34
-1.1240853 0.99680603 0.048381306 0 35
-1.1323434 1.0041291 0.06267567 0 36
-1.131056 1.0029874 0.076538093 0 37
-1.125682 0.99822193 0.090054862 0 38
-1.1279627 1.0002444 0.10416117 0 39
-1.1292303 1.0013684 0.11823545 0 40
-1.1274391 0.99978012 0.13200311 0 41
-1.1189246 0.9922297 0.14487834 0 42
-1.1223779 0.99529195 0.15926524 0 43
-1.1208103 0.99390179 0.17299031 0 44
-1.1343594 1.0059167 0.18922766 0 45
-1.1183662 0.99173445 0.20053852 0 46
-1.1258883 0.99840492 0.21599491 0 47
-1.137167 1.0084064 0.23244518 0 48
-1.1158665 0.98951787 0.24214967 0 49
-1.1356766 1.0070848 0.26079938 0 50
-1.1342398 1.0058107 0.27484748 0 51
-1.1190464 0.99233764 0.28539863 0 52
-1.12958 1.0016786 0.30250242 0 53
-1.1259824 0.99848831 0.31596345 0 54
-1.1236141 0.99638808 0.32974869 0 55
-1.1369352 1.008201 0.34833843 0 56
-1.1246539 0.99731022 0.35915872 0 57
-1.1205535 0.9936741 0.3724432 0 58
-1.1265157 0.99896121 0.38916376 0 59
-1.1332941 1.0049721 0.40640363 0 60
-1.1232215 0.99604005 0.41763043 0 61
-1.123278 0.99609011 0.43256721 0 62
-1.131655 1.0035186 0.45089999 0 63
-1.1413155 0.98728555 -0.44987798 0 0
-1.1413468 0.98731267 -0.43481731 0 1
-1.1335735 0.98058844 -0.41696468 0 2
-1.1405518 0.98662496 -0.40462512 0 3
-1.1271434 0.97502613 -0.38520965 0 4
-1.1381685 0.98456323 -0.37424573 0 5
-1.1325725 0.97972256 -0.35781324 0 6
-1.1395954 0.98579758 -0.34541339 0 7
-1.1332242 0.98028636 -0.32900664 0 8
-1.143721 0.98936641 -0.31750324 0 9
-1.1340669 0.98101526 -0.30045083 0 10
-1.133747 0.98073852 -0.28605056 0 11
-1.1327784 0.97990066 -0.27155304 0 12
-1.1384872 0.98483902 -0.25864428 0 13
-1.1331313 0.98020589 -0.24326223 0 14
-1.1263084 0.97430384 -0.2277595 0 15
-1.1317868 0.97904289 -0.21480069 0 16
-1.1373743 0.98387623 -0.2017623 0 17
-1.1451764 0.99062544 -0.18898582 0 18
-1.1257089 0.97378522 -0.17188525 0 19
-1.1426216 0.98841542 -0.16040105 0 20
-1.1357608 0.98248053 -0.14548303 0 21
-1.1292411 0.97684067 -0.13079783 0 22
-1.1465707 0.99183154 -0.11876512 0 23
-1.127064 0.97495735 -0.10296331 0 24
-1.1356047 0.98234546 -0.089875527 0 25
-1.1352794 0.98206413 -0.076000981 0 26
-1.1330423 0.98012894 -0.062042572 0 27
-1.1289159 0.97655946 -0.048068743 0 28
-1.1414914 0.98743778 -0.034711413 0 29
-1.1336336 0.98064047 -0.020681147 0 30
-1.1433878 0.98907816 -0.0069526387 0 31
-1.1293087 0.97689921 0.0068670278 0 32
-1.1285546 0.97624689 0.020588487 0 33
-1.1309524 0.97832102 0.03439093 0 34
-1.1439679 0.98957998 0.048709646 0 35
-1.1351054 0.98191351 0.062155537 0 36
-1.1421921 0.9880439 0.076463751 0 37
-1.1272957 0.97515792 0.089217931 0 38
-1.1322516 0.97944498 0.10343724 0 39
-1.144733 0.99024189 0.11857476 0 40
-1.1400083 0.98615479 0.13204499 0 41
-1.1362662 0.98291773 0.14554778 0 42
-1.1390109 0.98529202 0.15989417 0 43
-1.1422634 0.98810554 0.17441297 0 44
-1.1337008 0.98069859 0.18709204 0 45
-1.1415724 0.98750776 0.20250702 0 46
-1.1436346 0.98929161 0.21704924 0 47
-1.1361892 0.98285115 0.22975758 0 48
-1.1337266 0.98072082 0.24339002 0 49
-1.1308297 0.97821492 0.25690463 0 50
-1.1427971 0.98856723 0.27395475 0 51
-1.141129 0.98712426 0.28791308 0 52
-1.1221567 0.97071242 0.29729542 0 53
-1.1399113 0.98607093 0.31644568 0 54
-1.1349268 0.98175907 0.32950091 0 55
-1.1262701 0.97427064 0.34137446 0 56
-1.1394182 0.9856444 0.35997602 0 57
-1.1340992 0.98104322 0.3729077 0 58
-1.1360874 0.98276311 0.38826635 0 59
-1.1275297 0.97536033 0.40000537 0 60
-1.1413482 0.98731393 0.41982448 0 61
-1.1417141 0.98763037 0.43495721 0 62
-1.1365188 0.98313624 0.44798723 0 63
-1.1400503 0.96194041 -0.44468316 0 0
-1.15045 0.97071534 -0.43370515 0 1
-1.1568666 0.97612947 -0.42108572 0 2
-1.1278708 0.95166373 -0.39594498 0 3
-1.1473204 0.96807474 -0.38800773 0 4
-1.1371471 0.95949078 -0.37000245 0 5
-1.1518409 0.97188902 -0.36009789 0 6
-1.1298703 0.95335078 -0.33888686 0 7
-1.1513361 0.97146297 -0.33077183 0 8
-1.1516004 0.97168601 -0.31634977 0 9
-1.1381978 0.96037734 -0.29839402 0 10
-1.1346585 0.95739096 -0.28328887 0 11
-1.1456543 0.96666896 -0.27176964 0 12
-1.136507 0.9589507 -0.25549623 0 13
-1.1431679 0.96457088 -0.24285223 0 14
-1.1401736 0.96204442 -0.22815384 0 15
-1.1440576 0.96532166 -0.2148605 0 16
-1.1486751 0.96921778 -0.20163758 0 17
-1.138966 0.96102542 -0.18599668 0 18
-1.1512445 0.97138572 -0.17394732 0 19
-1.1404601 0.96228623 -0.15842457 0 20
-1.1521183 0.97212309 -0.1460361 0 21
-1.1350217 0.95769739 -0.13009353 0 22
-1.1385251 0.96065348 -0.11669932 0 23
-1.1520739 0.97208548 -0.10414823 0 24
-1.1391325 0.96116602 -0.089212596 0 25
-1.151785 0.97184175 -0.076300167 0 26
-1.1498654 0.97022206 -0.062305775 0 27
-1.1395109 0.96148527 -0.048012827 0 28
-1.1393574 0.96135575 -0.034284454 0 29
-1.1405348 0.96234918 -0.020589607 0 30
-1.1317528 0.95493931 -0.0068099732 0 31
-1.1441456 0.96539587 0.0068845423 0 32
-1.1520742 0.97208583 0.020797923 0 33
-1.1470411 0.967839 0.034515664 0 34
-1.1544282 0.97407204 0.048641361 0 35
-1.1337625 0.95663494 0.061433237 0 36
-1.131152 0.95443231 0.074933335 0 37
-1.143018 0.96444446 0.089516886 0 38
-1.1379862 0.96019876 0.1028747 0 39
-1.1443555 0.96557301 0.11729694 0 40
-1.1437709 0.96507972 0.13109635 0 41
-1.1500894 0.97041106 0.14577892 0 42
-1.1430726 0.96449047 0.15878746 0 43
-1.1380249 0.96023142 0.17194991 0 44
-1.1455522 0.96658272 0.18707225 0 45
-1.1601737 0.97891986 0.20365603 0 46
-1.1435239 0.96487135 0.21476027 0 47
-1.1472343 0.96800202 0.22956672 0 48
-1.1488255 0.96934468 0.24405414 0 49
-1.1441599 0.96540797 0.25721666 0 50
-1.1493679 0.96980232 0.27265057 0 51
-1.1398166 0.9617433 0.28457668 0 52
-1.1465527 0.96742696 0.30058438 0 53
-1.1455138 0.96655029 0.31467777 0 54
-1.1432879 0.96467227 0.32845968 0 55
-1.1386069 0.96072245 0.34150726 0 56
-1.144784 0.96593451 0.35789165 0 57
-1.1506236 0.97086179 0.37438741 0 58
-1.1461666 0.9671011 0.3876175 0 59
-1.1394875 0.96146554 0.40002307 0 60
-1.1435338 0.96487969 0.41623276 0 61
-1.142702 0.96417779 0.43078426 0 62
-1.1538812 0.97361052 0.45007801 0 63
-1.155461 0.95086968 -0.44609979 0 0
-1.1589526 0.95374316 -0.43245667 0 1
-1.1492552 0.94576275 -0.41405094 0 2
-1.1638573 0.95777935 -0.40441313 0 3
-1.1508057 0.94703877 -0.38521904 0 4
-1.1373996 0.93600631 -0.36631194 0 5
-1.1461716 0.94322515 -0.35467267 0 6
-1.1570129 0.95214695 -0.34349027 0 7
-1.1536045 0.94934195 -0.32804501 0 8
-1.146876 0.94380486 -0.31184033 0 9
-1.1521212 0.94812131 -0.29896516 0 10
-1.158482 0.95335585 -0.28628835 0 11
-1.1617894 0.95607764 -0.27278772 0 12
-1.1480519 0.94477248 -0.25546059 0 13
-1.1562165 0.95149153 -0.24312037 0 14
-1.1520797 0.94808716 -0.22818621 0 15
-1.1502817 0.94660753 -0.21382721 0 16
-1.1468083 0.94374907 -0.19925772 0 17
-1.1521592 0.9481526 -0.18623318 0 18
-1.1490378 0.94558388 -0.17184408 0 19
-1.1484661 0.94511342 -0.15791038 0 20
-1.1511314 0.94730675 -0.14442357 0 21
-1.1561432 0.9514311 -0.13116357 0 22
-1.1555935 0.95097882 -0.11724137 0 23
-1.1567258 0.95191061 -0.1035028 0 24
-1.1418951 0.93970585 -0.088517301 0 25
-1.1500275 0.94639832 -0.075407125 0 26
-1.1533782 0.94915581 -0.061859038 0 27
-1.147947 0.94468623 -0.047875214 0 28
-1.1480345 0.94475818 -0.034193397 0 29
-1.1483276 0.9449994 -0.020518962 0 30
-1.1645596 0.95835727 -0.0069359434 0 31
-1.1454884 0.94266295 0.0068223584 0 32
-1.1520523 0.94806457 0.020585516 0 33
-1.1601942 0.95476484 0.034555566 0 34
-1.1513318 0.94747174 0.048016377 0 35
-1.1585326 0.95339751 0.06213548 0 36
-1.1645721 0.95836759 0.076360814 0 37
-1.1615175 0.95585388 0.090038396 0 38
-1.1558878 0.95122099 0.10342782 0 39
-1.1559846 0.95130068 0.11728105 0 40
-1.1459489 0.94304192 0.13000704 0 41
-1.1551727 0.95063257 0.14493062 0 42
-1.1612273 0.9556151 0.159665 0 43
-1.1466885 0.94365054 0.17149273 0 44
-1.1596274 0.95429844 0.18744032 0 45
-1.1507916 0.94702721 0.19994985 0 46
-1.1517318 0.94780093 0.21409677 0 47
-1.1501944 0.94653571 0.22781281 0 48
-1.1579369 0.95290726 0.24348211 0 49
-1.1476836 0.94446945 0.25537866 0 50
-1.1461227 0.94318491 0.26910919 0 51
-1.1500025 0.94637775 0.28419286 0 52
-1.1590488 0.95382231 0.30076283 0 53
-1.1461447 0.94320309 0.31164151 0 54
-1.1436435 0.9411447 0.32521245 0 55
-1.147362 0.94420487 0.34062514 0 56
-1.1562856 0.95154834 0.35780239 0 57
-1.1562307 0.95150316 0.37237671 0 58
-1.1519319 0.9479655 0.38559601 0 59
-1.1556274 0.95100665 0.40155345 0 60
-1.1505489 0.94682747 0.41451707 0 61
-1.1572263 0.95232254 0.43181252 0 62
-1.146242 0.94328314 0.44254056 0 63
-1.1637402 0.93392253 -0.44482887 0 0
-1.1688707 0.9380399 -0.43182084 0 1
-1.1670239 0.93655783 -0.41627207 0 2
-1.160409 0.9312492 -0.39920577 0 3
-1.1610866 0.93179297 -0.38479599 0 4
-1.1711186 0.93984389 -0.37342134 0 5
-1.1600296 0.9309448 -0.3553918 0 6
-1.154894 0.92682326 -0.33945212 0 7
-1.1619908 0.9325186 -0.32714432 0 8
-1.155699 0.92746937 -0.31111488 0 9
-1.1552629 0.92711943 -0.29679972 0 10
-1.1632844 0.93355674 -0.28461677 0 11
-1.1660569 0.93578166 -0.27106744 0 12
-1.1673899 0.9368515 -0.25718081 0 13
-1.1624182 0.93286163 -0.2419941 0 14
-1.1704081 0.93927372 -0.2295115 0 15
-1.1614592 0.93209201 -0.21375826 0 16
-1.1760811 0.94382632 -0.20231208 0 17
-1.1592065 0.9302842 -0.18550925 0 18
-1.166952 0.93650007 -0.17278793 0 19
-1.1599512 0.9308818 -0.15790373 0 20
-1.1596453 0.93063629 -0.14404513 0 21
-1.15933 0.93038332 -0.13021736 0 22
-1.1654584 0.93530148 -0.11706654 0 23
-1.1570603 0.92856181 -0.10250331 0 24
-1.1680325 0.9373672 -0.089643151 0 25
-1.1596708 0.93065679 -0.075283371 0 26
-1.1451957 0.91904026 -0.060809482 0 27
-1.1575472 0.92895257 -0.047795586 0 28
-1.1633153 0.93358159 -0.034304019 0 29
-1.1639671 0.93410462 -0.020591618 0 30
-1.1661011 0.93581724 -0.0068760696 0 31
-1.1637977 0.93396872 0.0068624872 0 32
-1.1672949 0.93677521 0.020650491 0 33
-1.155731 0.927495 0.034080368 0 34
-1.1528605 0.9251914 0.047602072 0 35
-1.1425751 0.91693717 0.060670327 0 36
-1.1725379 0.94098288 0.076118678 0 37
-1.1587539 0.92992097 0.088931046 0 38
-1.1630865 0.93339795 0.10303716 0 39
-1.1635876 0.9338001 0.11687862 0 40
-1.1611568 0.9318493 0.13042255 0 41
-1.1677735 0.93715936 0.14505477 0 42
-1.1725715 0.94100994 0.15962175 0 43
-1.1574546 0.92887819 0.17138168 0 44
-1.1653212 0.93519139 0.18648779 0 45
-1.1544322 0.9264527 0.198588 0 46
-1.1778563 0.94525099 0.21677604 0 47
-1.1686832 0.93788934 0.22917321 0 48
-1.169525 0.93856502 0.24347362 0 49
-1.1540263 0.92612702 0.25423676 0 50
-1.1521173 0.92459494 0.26782697 0 51
-1.1435062 0.91768432 0.27977768 0 52
-1.1688358 0.93801183 0.30028671 0 53
-1.1633964 0.93364656 0.31318697 0 54
-1.158339 0.92958802 0.32611623 0 55
-1.1622146 0.93269825 0.34160385 0 56
-1.1679848 0.93732893 0.35782897 0 57
-1.1564475 0.92807007 0.36874333 0 58
-1.1607114 0.93149191 0.38467166 0 59
-1.1588027 0.92996013 0.39865318 0 60
-1.1529856 0.92529172 0.41126463 0 61
-1.1564887 0.92810309 0.42724648 0 62
-1.1584833 0.92970377 0.44281948 0 63
-1.1690341 0.91476899 -0.4425194 0 0
-1.175419 0.91976511 -0.43002924 0 1
-1.1760927 0.92029238 -0.41543898 0 2
-1.1690699 0.91479695 -0.39828539 0 3
-1.1743765 0.91894937 -0.38542637 0 4
-1.1773251 0.92125666 -0.37176013 0 5
-1.1776004 0.92147207 -0.35727647 0 6
-1.166289 0.91262084 -0.3394773 0 7
-1.1717402 0.91688645 -0.32669026 0 8
-1.1629378 0.9099986 -0.31002784 0 9
-1.1752752 0.91965258 -0.2990132 0 10
-1.1678685 0.91385692 -0.2829676 0 11
-1.1698304 0.91539204 -0.26930764 0 12
-1.1777726 0.92160684 -0.25695214 0 13
-1.1687316 0.91453218 -0.24094909 0 14
-1.1735482 0.91830122 -0.22789572 0 15
-1.1648018 0.91145718 -0.2122947 0 16
-1.1692346 0.91492587 -0.19918397 0 17
-1.164369 0.91111851 -0.18452853 0 18
-1.1684593 0.91431916 -0.17133346 0 19
-1.1664339 0.91273433 -0.1572465 0 20
-1.1719935 0.91708469 -0.1441673 0 21
-1.1656605 0.91212904 -0.12965882 0 22
-1.1636481 0.91055441 -0.11575129 0 23
-1.1699915 0.91551811 -0.10264381 0 24
-1.1722584 0.91729194 -0.089095078 0 25
-1.1727762 0.91769713 -0.07539589 0 26
-1.1675596 0.91361517 -0.061395824 0 27
-1.1592798 0.9071362 -0.047402963 0 28
-1.1711884 0.91645461 -0.034201287 0 29
-1.1635802 0.91050124 -0.020385167 0 30
-1.1694665 0.91510731 -0.0068290457 0 31
-1.1719412 0.91704375 0.0068434961 0 32
-1.1709991 0.91630656 0.020515142 0 33
-1.1569632 0.90532351 0.033785883 0 34
-1.1691198 0.91483605 0.047805324 0 35
-1.1649157 0.91154623 0.061256789 0 36
-1.1718067 0.91693854 0.075333558 0 37
-1.1739806 0.91863954 0.089225963 0 38
-1.1747659 0.91925406 0.10306267 0 39
-1.1671695 0.91330987 0.11610156 0 40
-1.1671416 0.913288 0.12982355 0 41
-1.1698281 0.91539019 0.14390093 0 42
-1.1767558 0.92081118 0.15863799 0 43
-1.171575 0.91675717 0.17179032 0 44
-1.1744231 0.91898584 0.18612191 0 45
-1.1659738 0.9123742 0.19862847 0 46
-1.1713389 0.91657239 0.21348614 0 47
-1.1682003 0.9141165 0.2268572 0 48
-1.1561972 0.90472406 0.23836498 0 49
-1.1721703 0.91722304 0.25572991 0 50
-1.1645716 0.91127706 0.26809701 0 51
-1.1763402 0.92048603 0.28502023 0 52
-1.1750635 0.91948694 0.29895934 0 53
-1.1683668 0.91424674 0.31147513 0 54
-1.1772547 0.92120153 0.32822773 0 55
-1.1717533 0.91689664 0.34106782 0 56
-1.163065 0.91009814 0.3528665 0 57
-1.1734712 0.91824096 0.37054321 0 58
-1.1767728 0.92082453 0.38621286 0 59
-1.1698793 0.91543031 0.39856115 0 60
-1.1741925 0.91880542 0.41476777 0 61
-1.1737019 0.91842151 0.42940104 0 62
-1.1748618 0.91932911 0.44472533 0 63
-1.1738728 0.89550418 -0.44014946 0 0
-1.1842061 0.90338707 -0.42914751 0 1
-1.1819427 0.90166044 -0.41355774 0 2
-1.1805079 0.9005658 -0.39837933 0 3
-1.1879728 0.90626055 -0.3862021 0 4
-1.1749614 0.89633465 -0.36750567 0 5
-1.1882197 0.9064489 -0.35708964 0 6
-1.1818986 0.90162677 -0.34076801 0 7
-1.1781834 0.89879256 -0.32538071 0 8
-1.178154 0.89877015 -0.31111452 0 9
-1.1777217 0.89844042 -0.29680249 0 10
-1.1685435 0.89143866 -0.28045401 0 11
-1.1715152 0.89370573 -0.26714543 0 12
-1.1818407 0.9015826 -0.2554017 0 13
-1.1875898 0.90596837 -0.24252193 0 14
-1.1673766 0.89054853 -0.22455373 0 15
-1.1765916 0.8975783 -0.21241584 0 16
-1.1807971 0.90078646 -0.1992517 0 17
-1.1776774 0.89840657 -0.18487291 0 18
-1.1785495 0.89907187 -0.171179 0 19
-1.1806217 0.90065277 -0.15765424 0 20
-1.18484 0.90387064 -0.14436945 0 21
-1.1797141 0.89996028 -0.12998126 0 22
-1.183044 0.90250051 -0.11656792 0 23
-1.1844094 0.90354216 -0.10292619 0 24
-1.1887599 0.90686101 -0.089494951 0 25
-1.170256 0.89274508 -0.074522503 0 26
-1.1744788 0.89596647 -0.0611757 0 27
-1.1826311 0.90218562 -0.047900561 0 28
-1.1814297 0.90126914 -0.034174144 0 29
-1.1781056 0.8987332 -0.020444486 0 30
-1.175174 0.89649683 -0.0067974874 0 31
-1.1825637 0.90213418 0.0068402314 0 32
-1.175805 0.8969782 0.020404562 0 33
-1.1816288 0.90142095 0.0341799 0 34
-1.1739839 0.89558899 0.047550321 0 35
-1.1753281 0.89661437 0.061219938 0 36
-1.1695725 0.8922236 0.074478969 0 37
-1.1671382 0.89036661 0.087867171 0 38
-1.176157 0.89724672 0.10220905 0 39
-1.1717271 0.89386731 0.11545285 0 40
-1.1773834 0.89818227 0.12972447 0 41
-1.1735911 0.8952893 0.1429988 0 42
-1.1696086 0.89225119 0.1561836 0 43
-1.1805125 0.90056944 0.17146412 0 44
-1.1720403 0.89410633 0.183988 0 45
-1.1798335 0.90005147 0.19908911 0 46
-1.1894827 0.90741241 0.21474312 0 47
-1.188568 0.90671468 0.22863005 0 48
-1.1826751 0.90221918 0.24151829 0 49
-1.1757408 0.89692932 0.25408348 0 50
-1.1716603 0.89381635 0.26717851 0 51
-1.1776066 0.89835256 0.28262916 0 52
-1.1885883 0.90673012 0.299541 0 53
-1.16873 0.891581 0.30862594 0 54
-1.1812522 0.90113366 0.32622823 0 55
-1.175482 0.89673185 0.33891797 0 56
-1.1760349 0.89715362 0.3534278 0 57
-1.1791298 0.89951462 0.36880946 0 58
-1.1681439 0.89113384 0.37975582 0 59
-1.1880254 0.90630066 0.40091622 0 60
-1.1769078 0.89781946 0.41179603 0 61
-1.1848633 0.90388846 0.42938569 0 62
-1.1746827 0.8961221 0.44045317 0 63
-1.1959215 0.88927686 -0.44428304 0 0
-1.1927863 0.88694555 -0.42827219 0 1
-1.1791872 0.87683332 -0.40879008 0 2
-1.1855812 0.88158792 -0.39640322 0 3
-1.195031 0.88861471 -0.38491535 0 4
-1.1773089 0.87543666 -0.36484531 0 5
-1.19077 0.88544625 -0.35455719 0 6
-1.1813647 0.87845254 -0.33747414 0 7
-1.1953428 0.88884652 -0.32707644 0 8
-1.1813284 0.87842554 -0.30907708 0 9
-1.1852701 0.88135648 -0.29595116 0 10
-1.1901302 0.88497049 -0.28300178 0 11
-1.186731 0.88244289 -0.2681205 0 12
-1.1820703 0.87897718 -0.25309643 0 13
-1.1881477 0.88349628 -0.24039912 0 14
-1.1897792 0.88470948 -0.22675326 0 15
-1.1875398 0.88304436 -0.21241601 0 16
-1.1765132 0.87484497 -0.19669868 0 17
-1.1936674 0.88760078 -0.18565567 0 18
-1.184815 0.88101822 -0.17050265 0 19
-1.2042631 0.89547956 -0.15932874 0 20
-1.1769464 0.87516707 -0.14208564 0 21
-1.1864482 0.88223261 -0.12951817 0 22
-1.1895343 0.88452744 -0.11612696 0 23
-1.1890221 0.88414651 -0.10237453 0 24
-1.1847326 0.88095689 -0.088369548 0 25
-1.1913292 0.88586211 -0.0751651 0 26
-1.1826937 0.87944078 -0.061035708 0 27
-1.1859035 0.88182753 -0.047590312 0 28
-1.1891383 0.88423294 -0.034080032 0 29
-1.1760627 0.87450999 -0.020220894 0 30
-1.1868428 0.88252604 -0.0068016984 0 31
-1.1842957 0.88063198 0.0067871008 0 32
-1.1835787 0.88009888 0.020350125 0 33
-1.185629 0.88162339 0.033979457 0 34
-1.1809692 0.87815845 0.047392298 0 35
-1.1839286 0.88035905 0.06109944 0 36
-1.1902807 0.88508236 0.075098947 0 37
-1.1798611 0.87733448 0.088006176 0 38
-1.1851486 0.88126624 0.10204102 0 39
-1.1784282 0.87626898 0.11504274 0 40
-1.1852742 0.8813597 0.12939002 0 41
-1.1873168 0.88287842 0.14333759 0 42
-1.1712892 0.87096047 0.15496618 0 43
-1.1891212 0.88422018 0.17112233 0 44
-1.1889985 0.88412893 0.18492949 0 45
-1.1760075 0.87446892 0.19661413 0 46
-1.1763555 0.87472767 0.21041544 0 47
-1.1880864 0.88345069 0.22643064 0 48
-1.1984863 0.89118403 0.24249096 0 49
-1.1722172 0.87165058 0.25098678 0 50
-1.1858776 0.88180828 0.26792768 0 51
-1.1903751 0.88515258 0.28306001 0 52
-1.1858698 0.8818025 0.29610091 0 53
-1.1856922 0.88167048 0.31021878 0 54
-1.1869875 0.88263369 0.32479024 0 55
-1.1913499 0.88587743 0.34032658 0 56
-1.1844064 0.8807143 0.35266238 0 57
-1.1899849 0.88486248 0.36877358 0 58
-1.1870494 0.88267958 0.38234445 0 59
-1.1837707 0.88024157 0.39579782 0 60
-1.1995294 0.89195961 0.41584215 0 61
-1.184975 0.88113713 0.42546752 0 62
-1.1779494 0.87591296 0.43760642 0 63
-1.1812989 0.85605037 -0.43490732 0 0
-1.1978379 0.86803579 -0.42622134 0 1
-1.203998 0.87249976 -0.41364068 0 2
-1.1928211 0.86440033 -0.39524016 0 3
-1.1834264 0.85759223 -0.37775233 0 4
-1.1999556 0.86957037 -0.36852196 0 5
-1.1971517 0.86753845 -0.35325432 0 6
-1.1823857 0.85683799 -0.33473071 0 7
-1.209857 0.87674558 -0.32807317 0 8
-1.1948076 0.86583984 -0.30979472 0 9
-1.1966953 0.86720771 -0.29611894 0 10
-1.1886536 0.86138016 -0.28011081 0 11
-1.1863395 0.85970324 -0.26562357 0 12
-1.2014318 0.8706401 -0.25493047 0 13
-1.1947067 0.86576664 -0.23955412 0 14
-1.2033069 0.87199903 -0.22727072 0 15
-1.1980956 0.86822248 -0.21237843 0 16
-1.1927274 0.86433238 -0.19761766 0 17
-1.1906452 0.86282349 -0.18352157 0 18
-1.1911564 0.86319387 -0.16987489 0 19
-1.1854132 0.85903198 -0.15542555 0 20
-1.1971153 0.86751217 -0.14322188 0 21
-1.1880261 0.86092544 -0.12852505 0 22
-1.1915643 0.86348951 -0.11527987 0 23
-1.194988 0.86597055 -0.10196366 0 24
-1.1910013 0.86308146 -0.088038854 0 25
-1.2001156 0.86968631 -0.075039066 0 26
-1.1956755 0.86646873 -0.061151192 0 27
-1.1916578 0.86355728 -0.047391519 0 28
-1.1904922 0.86271256 -0.033812251 0 29
-1.2052768 0.87342656 -0.020536982 0 30
-1.1902819 0.86256009 -0.0067601111 0 31
-1.1959784 0.86668819 0.0067924643 0 32
-1.1884847 0.86125779 0.020250855 0 33
-1.1971421 0.86753154 0.034001119 0 34
-1.1969402 0.86738527 0.047601599 0 35
-1.1932977 0.86474562 0.061029579 0 36
-1.193276 0.86472988 0.07461141 0 37
-1.1967357 0.86723703 0.088462748 0 38
-1.1892512 0.86181319 0.10147416 0 39
-1.1874229 0.86048836 0.1148792 0 40
-1.2019112 0.87098759 0.1300272 0 41
-1.2001476 0.86970955 0.14358467 0 42
-1.2011218 0.87041545 0.15748519 0 43
-1.1942991 0.8654713 0.17032309 0 44
-1.1922532 0.8639887 0.18376942 0 45
-1.1906911 0.86285669 0.19728027 0 46
-1.1945502 0.86565328 0.21174996 0 47
-1.1896724 0.86211842 0.22469553 0 48
-1.198131 0.86824816 0.24024074 0 49
-1.1872097 0.86033386 0.25191271 0 50
-1.1927691 0.86436254 0.26706314 0 51
-1.1856463 0.85920089 0.27940214 0 52
-1.1885909 0.86133474 0.29411355 0 53
-1.1909047 0.86301154 0.30878276 0 54
-1.203856 0.87239683 0.32644591 0 55
-1.1943277 0.86549199 0.33811146 0 56
-1.1873468 0.86043322 0.35036111 0 57
-1.2037258 0.87230259 0.3696799 0 58
-1.1917688 0.86363763 0.38041523 0 59
-1.1927569 0.86435372 0.39521888 0 60
-1.1928052 0.8643887 0.40979534 0 61
-1.1850408 0.85876209 0.42166775 0 62
-1.1868448 0.86006939 0.4369491 0 63
-1.2039993 0.85012043 -0.43938291 0 0
-1.204443 0.85043377 -0.42481849 0 1
-1.2091767 0.85377616 -0.41178194 0 2
-1.1976682 0.84565026 -0.39337096 0 3
-1.2061416 0.85163307 -0.38163149 0 4
-1.2094566 0.85397375 -0.36818707 0 5
-1.2003777 0.84756333 -0.35110438 0 6
-1.2071546 0.85234839 -0.33875003 0 7
-1.2071108 0.85231739 -0.324462 0 8
-1.2032332 0.84957957 -0.30924726 0 9
-1.2014625 0.84832931 -0.29469508 0 10
-1.2100606 0.85440022 -0.28265828 0 11
-1.2073559 0.85249048 -0.26796183 0 12
-1.1984918 0.8462317 -0.25207961 0 13
-1.2140013 0.85718268 -0.24129122 0 14
-1.2064108 0.85182321 -0.22586156 0 15
-1.2060864 0.85159415 -0.21192266 0 16
-1.2083833 0.85321599 -0.19845831 0 17
-1.2013718 0.84826523 -0.18355331 0 18
-1.1987925 0.84644401 -0.16946673 0 19
-1.2064775 0.85187036 -0.15680212 0 20
-1.1983705 0.84614605 -0.1421165 0 21
-1.2121481 0.85587412 -0.12998627 0 22
-1.2078654 0.8528502 -0.1158336 0 23
-1.2006166 0.84773201 -0.1015468 0 24
-1.2068479 0.85213184 -0.088429004 0 25
-1.2040993 0.85019106 -0.074628837 0 26
-1.2060997 0.85160357 -0.061144136 0 27
-1.2007067 0.84779567 -0.047333222 0 28
-1.2077181 0.85274625 -0.034001112 0 29
-1.2003924 0.8475737 -0.020274635 0 30
-1.2051595 0.85093975 -0.0067846682 0 31
-1.2106943 0.85484773 0.0068158275 0 32
-1.1986668 0.84635532 0.020245491 0 33
-1.2072641 0.85242563 0.033988331 0 34
-1.1987082 0.84638453 0.047254432 0 35
-1.2171198 0.85938466 0.06170281 0 36
-1.1898813 0.84015203 0.07374762 0 37
-1.2047046 0.85061848 0.088271961 0 38
-1.2112062 0.85520917 0.10244246 0 39
-1.2140902 0.8572455 0.11643056 0 40
-1.2062755 0.85172766 0.12935652 0 41
-1.2000891 0.84735954 0.14232032 0 42
-1.1917304 0.84145766 0.15488549 0 43
-1.2008088 0.84786767 0.16975176 0 44
-1.2046155 0.8505556 0.18404889 0 45
-1.2029923 0.84940952 0.19757293 0 46
-1.1989574 0.84656048 0.21067001 0 47
-1.1984673 0.84621441 0.22437438 0 48
-1.2005156 0.84766072 0.23861086 0 49
-1.200009 0.84730297 0.25239873 0 50
-1.2149291 0.8578378 0.26964262 0 51
-1.2076576 0.85270351 0.28209695 0 52
-1.1948324 0.8436479 0.29306883 0 53
-1.201687 0.84848779 0.30884984 0 54
-1.2112322 0.85522747 0.32556981 0 55
-1.2048078 0.85069132 0.33809146 0 56
-1.1966814 0.84495342 0.35002321 0 57
-1.2010086 0.84800881 0.36561531 0 58
-1.194643 0.8435142 0.37799329 0 59
-1.2019572 0.84867859 0.39477965 0 60
-1.2058126 0.85140079 0.41063631 0 61
-1.2037771 0.84996355 0.42458358 0 62
-1.2132101 0.85662401 0.44274428 0 63
-1.2125047 0.83397567 -0.43871132 0 0
-1.2100582 0.83229291 -0.4231573 0 1
-1.2135911 0.83472288 -0.40975887 0 2
-1.2057041 0.82929802 -0.39263129 0 3
-1.2126968 0.83410776 -0.38043162 0 4
-1.2116982 0.83342087 -0.36572203 0 5
-1.2082642 0.83105898 -0.35039565 0 6
-1.2086989 0.83135796 -0.33628926 0 7
-1.2181473 0.83785665 -0.3246347 0 8
-1.2134434 0.83462125 -0.30921033 0 9
-1.2061446 0.82960105 -0.29331917 0 10
-1.2090405 0.83159292 -0.28001022 0 11
-1.2011707 0.82617992 -0.26431438 0 12
-1.2196347 0.83887964 -0.25433776 0 13
-1.2072005 0.83032733 -0.23789223 0 14
-1.2108186 0.83281595 -0.22475256 0 15
-1.2037603 0.82796109 -0.20970917 0 16
-1.2031581 0.82754695 -0.1959141 0 17
-1.2170627 0.8371107 -0.18436402 0 18
-1.2021197 0.82683271 -0.16848709 0 19
-1.2220651 0.84055138 -0.15747277 0 20
-1.2097738 0.83209729 -0.14224468 0 21
-1.214818 0.83556676 -0.12916103 0 22
-1.2210705 0.83986729 -0.11610079 0 23
-1.2115755 0.83333647 -0.10159932 0 24
-1.1990453 0.82471806 -0.087107629 0 25
-1.2175057 0.8374154 -0.074815884 0 26
-1.2081228 0.83096176 -0.060724109 0 27
-1.2144754 0.83533114 -0.047467489 0 28
-1.2026358 0.8271876 -0.033569131 0 29
-1.2057444 0.8293258 -0.020191263 0 30
-1.2207168 0.83962399 -0.0068136123 0 31
-1.2092993 0.8317709 0.0067498838 0 32
-1.2034948 0.82777846 0.020153591 0 33
-1.207888 0.83080018 0.033715736 0 34
-1.2149012 0.83562398 0.047484133 0 35
-1.2159431 0.83634061 0.06111718 0 36
-1.2142962 0.83520782 0.07461866 0 37
-1.2165993 0.83679193 0.088382892 0 38
-1.1960874 0.82268357 0.10030053 0 39
-1.2182566 0.83793187 0.11583325 0 40
-1.1970159 0.82332224 0.12726828 0 41
-1.2219224 0.84045321 0.14367311 0 42
-1.2117758 0.83347422 0.1561469 0 43
-1.2050288 0.82883358 0.16889481 0 44
-1.2058468 0.82939625 0.18266499 0 45
-1.1960298 0.82264394 0.19475338 0 46
-1.21614 0.83647609 0.21186587 0 47
-1.2195505 0.83882177 0.22637336 0 48
-1.2160573 0.83641911 0.23963754 0 49
-1.2087846 0.83141685 0.25207514 0 50
-1.1972605 0.82349044 0.26345396 0 51
-1.2104036 0.83253038 0.28032589 0 52
-1.203793 0.82798368 0.29274732 0 53
-1.205541 0.8291859 0.30719665 0 54
-1.2095598 0.83195007 0.32234615 0 55
-1.2150652 0.83573675 0.33806053 0 56
-1.2186991 0.83823621 0.35342172 0 57
-1.2073661 0.83044124 0.36441451 0 58
-1.2157699 0.8362214 0.38139564 0 59
-1.221175 0.83993912 0.39766932 0 60
-1.2096653 0.83202267 0.40843335 0 61
-1.2123101 0.8338418 0.42394477 0 62
-1.2082012 0.83101559 0.43715417 0 63
-1.2257048 0.8210389 -0.43980125 0 0
-1.2228634 0.81913561 -0.42408085 0 1
-1.2277143 0.82238495 -0.41108197 0 2
-1.2108243 0.81107116 -0.39102134 0 3
-1.2248464 0.82046384 -0.38104928 0 4
-1.2223002 0.81875831 -0.3658556 0 5
-1.2250953 0.82063061 -0.35232362 0 6
-1.2162749 0.81472224 -0.3355844 0 7
-1.2198575 0.81712204 -0.32238838 0 8
-1.2244869 0.82022309 -0.30943096 0 9
-1.2244835 0.82022077 -0.29530388 0 10
-1.2217293 0.81837595 -0.28059709 0 11
-1.2161815 0.81465977 -0.26539311 0 12
-1.2124584 0.81216574 -0.25073969 0 13
-1.2122722 0.81204098 -0.23690602 0 14
-1.2335304 0.82628089 -0.22706519 0 15
-1.2250427 0.82059538 -0.21164294 0 16
-1.2164147 0.81481588 -0.19642638 0 17
-1.2153325 0.81409097 -0.18257169 0 18
-1.2074513 0.80881184 -0.16782773 0 19
-1.2247242 0.82038206 -0.15650369 0 20
-1.2254339 0.82085752 -0.1428884 0 21
-1.2062527 0.80800891 -0.12718436 0 22
-1.225581 0.82095599 -0.11556109 0 23
-1.2148873 0.81379282 -0.10103026 0 24
-1.2184252 0.81616265 -0.087779813 0 25
-1.2185704 0.81625986 -0.074258909 0 26
-1.2056509 0.8076058 -0.060096167 0 27
-1.2179657 0.81585491 -0.047208235 0 28
-1.2183799 0.81613225 -0.033725925 0 29
-1.2214389 0.8181814 -0.020284072 0 30
-1.2234366 0.81951952 -0.0067720339 0 31
-1.2139788 0.8131842 0.0067196819 0 32
-1.2130483 0.81256098 0.020144733 0 33
-1.2187755 0.81639725 0.033736873 0 34
-1.2168843 0.81513047 0.047166318 0 35
-1.2157211 0.81435132 0.06059812 0 36
-1.2284964 0.82290888 0.074863799 0 37
-1.2174547 0.81551254 0.087709896 0 38
-1.2066489 0.80827427 0.10034516 0 39
-1.2254443 0.82086438 0.11554819 0 40
-1.222378 0.81881046 0.12888458 0 41
-1.221984 0.81854653 0.14248613 0 42
-1.2278761 0.82249331 0.15690646 0 43
-1.2233 0.81942803 0.17003058 0 44
-1.2235771 0.8196137 0.18381025 0 45
-1.2040573 0.80653828 0.19443092 0 46
-1.2164958 0.81487018 0.21016634 0 47
-1.2187551 0.81638372 0.2243454 0 48
-1.2301461 0.82401389 0.240399 0 49
-1.2264019 0.82150584 0.25362325 0 50
-1.21083 0.81107497 0.26422527 0 51
-1.2119973 0.81185687 0.27836192 0 52
-1.2121892 0.81198543 0.29233894 0 53
-1.209692 0.81031269 0.30569226 0 54
-1.2166754 0.81499052 0.32154742 0 55
-1.2186464 0.81631082 0.33623871 0 56
-1.2125632 0.81223601 0.34871954 0 57
-1.2227193 0.81903911 0.36598107 0 58
-1.2239947 0.81989342 0.38078436 0 59
-1.208795 0.80971187 0.39036602 0 60
-1.2214558 0.81819272 0.40898642 0 61
-1.2232021 0.81936246 0.42419833 0 62
-1.2185795 0.81626606 0.43724459 0 63
-1.232722 0.80395919 -0.43873876 0 0
-1.2293735 0.80177534 -0.42288747 0 1
-1.2449428 0.81192935 -0.41347647 0 2
-1.2200571 0.79569942 -0.39081371 0 3
-1.2337919 0.80465704 -0.38072532 0 4
-1.2283508 0.8011083 -0.36469054 0 5
-1.2291648 0.80163932 -0.35063264 0 6
-1.2239928 0.79826617 -0.33498022 0 7
-1.2325517 0.80384815 -0.32310653 0 8
-1.2267764 0.80008155 -0.30750012 0 9
-1.2222872 0.79715377 -0.29238817 0 10
-1.2327522 0.80397892 -0.28083697 0 11
-1.2298366 0.80207735 -0.26620054 0 12
-1.2255186 0.79926121 -0.25138909 0 13
-1.2268727 0.80014437 -0.23781857 0 14
-1.2226381 0.79738265 -0.22323841 0 15
-1.2309929 0.80283153 -0.21094945 0 16
-1.2266122 0.7999745 -0.19646977 0 17
-1.214424 0.79202557 -0.18095849 0 18
-1.2194493 0.79530293 -0.16812336 0 19
-1.234028 0.80481088 -0.15641613 0 20
-1.235109 0.80551594 -0.14285077 0 21
-1.228551 0.80123901 -0.12848692 0 22
-1.2164004 0.79331452 -0.11376704 0 23
-1.228955 0.80150241 -0.10137288 0 24
-1.2215083 0.79664582 -0.087289602 0 25
-1.2311059 0.8029052 -0.074415542 0 26
-1.2193483 0.79523706 -0.060286943 0 27
-1.226832 0.80011791 -0.047166985 0 28
-1.2361102 0.80616891 -0.033939749 0 29
-1.2263905 0.7998299 -0.020201446 0 30
-1.2247841 0.79878229 -0.0067246165 0 31
-1.2227817 0.79747623 0.0067136213 0 32
-1.2332058 0.80427474 0.02031371 0 33
-1.224854 0.79882783 0.033630688 0 34
-1.2274808 0.80054098 0.047191925 0 35
-1.231593 0.80322284 0.060892344 0 36
-1.2218865 0.79689246 0.073858269 0 37
-1.2226944 0.79741937 0.087374359 0 38
-1.2145979 0.79213899 0.1001886 0 39
-1.2308993 0.8027705 0.11512309 0 40
-1.2150694 0.79244649 0.12707695 0 41
-1.2228638 0.79752988 0.14143452 0 42
-1.2265832 0.79995555 0.1554725 0 43
-1.2260219 0.79958951 0.16902953 0 44
-1.2222273 0.79711479 0.18212126 0 45
-1.2275476 0.80058461 0.19661961 0 46
-1.2278593 0.80078781 0.21041246 0 47
-1.2274264 0.80050552 0.22411269 0 48
-1.2209452 0.7962786 0.23666959 0 49
-1.2311546 0.80293691 0.25254521 0 50
-1.2284726 0.80118781 0.26590529 0 51
-1.237708 0.80721092 0.28196594 0 52
-1.2300761 0.80223358 0.29425138 0 53
-1.23563 0.80585575 0.30971938 0 54
-1.2340888 0.80485058 0.32350948 0 55
-1.2240915 0.79833055 0.33500725 0 56
-1.2218057 0.79683983 0.34853336 0 57
-1.2253721 0.79916573 0.36380622 0 58
-1.2195084 0.79534155 0.37631768 0 59
-1.2318079 0.80336303 0.39457777 0 60
-1.2218481 0.79686743 0.40580615 0 61
-1.2149541 0.79237133 0.41792744 0 62
-1.2267561 0.80006838 0.43661544 0 63
-1.2430583 0.78908706 -0.43893099 0 0
-1.236375 0.78484446 -0.42194429 0 1
-1.2443339 0.78989673 -0.41001731 0 2
-1.2337761 0.78319472 -0.39209372 0 3
-1.237299 0.78543097 -0.37879857 0 4
-1.2373722 0.78547752 -0.36447385 0 5
-1.2370621 0.78528064 -0.35010442 0 6
-1.2366861 0.78504199 -0.33578685 0 7
-1.2327217 0.78252536 -0.32060441 0 8
-1.2278039 0.77940357 -0.30533233 0 9
-1.2360656 0.78464806 -0.29335395 0 10
-1.2466848 0.79138905 -0.28177276 0 11
-1.2345121 0.7836619 -0.26510671 0 12
-1.2383279 0.78608412 -0.25201482 0 13
-1.2388774 0.78643298 -0.23825306 0 14
-1.2382549 0.7860378 -0.22430807 0 15
-1.2375336 0.78557992 -0.21039902 0 16
-1.2337015 0.78314734 -0.19604801 0 17
-1.2399091 0.78708792 -0.18329996 0 18
-1.2296921 0.78060216 -0.16819946 0 19
-1.2392324 0.78665835 -0.15583795 0 20
-1.2317261 0.78189331 -0.14133681 0 21
-1.2370592 0.78527886 -0.12835716 0 22
-1.2281862 0.77964628 -0.11396408 0 23
-1.2381804 0.78599054 -0.10132896 0 24
-1.2375913 0.78561652 -0.087741934 0 25
-1.2376974 0.78568393 -0.074224383 0 26
-1.2330934 0.78276134 -0.060486067 0 27
-1.2353215 0.78417575 -0.047119088 0 28
-1.2468233 0.79147702 -0.033964109 0 29
-1.2308304 0.7813248 -0.020114804 0 30
-1.2299764 0.7807827 -0.0066999043 0 31
-1.243076 0.7890982 0.0067712599 0 32
-1.2384859 0.78618449 0.020239914 0 33
-1.2334085 0.78296131 0.03359868 0 34
-1.2336022 0.78308427 0.047053505 0 35
-1.2286502 0.77994084 0.060268119 0 36
-1.2269032 0.77883184 0.073577061 0 37
-1.236801 0.78511494 0.087685913 0 38
-1.2390307 0.78653032 0.10139855 0 39
-1.2293985 0.78041577 0.11407656 0 40
-1.2351515 0.78406781 0.12815921 0 41
-1.228658 0.77994573 0.14098477 0 42
-1.227525 0.77922654 0.15436569 0 43
-1.2331315 0.78278553 0.16866991 0 44
-1.2421728 0.78852493 0.18363462 0 45
-1.2252107 0.77775741 0.19469872 0 46
-1.2390846 0.78656453 0.21066272 0 47
-1.2421705 0.78852338 0.22501737 0 48
-1.2335619 0.7830587 0.23723081 0 49
-1.2297288 0.78062552 0.25026479 0 50
-1.2435842 0.78942084 0.26705492 0 51
-1.2183273 0.77338791 0.27536348 0 52
-1.2263691 0.77849281 0.2910527 0 53
-1.2434696 0.78934807 0.30922812 0 54
-1.2425303 0.7887519 0.32315546 0 55
-1.2303028 0.78098989 0.33405367 0 56
-1.2453303 0.79052925 0.35244444 0 57
-1.2330279 0.78271973 0.36319423 0 58
-1.2402263 0.7872892 0.37969476 0 59
-1.2435579 0.78940415 0.39520237 0 60
-1.2351451 0.78406376 0.40698954 0 61
-1.2282864 0.77970988 0.41918385 0 62
-1.241709 0.78823042 0.43845451 0 63
-1.2351383 0.76291645 -0.43278909 0 0
-1.2480043 0.77086347 -0.42264619 0 1
-1.236255 0.76360631 -0.4042308 0 2
-1.243192 0.76789105 -0.39205566 0 3
-1.2547381 0.7750228 -0.38119113 0 4
-1.2369088 0.76401007 -0.36154279 0 5
-1.2529496 0.77391809 -0.35188091 0 6
-1.2441595 0.76848865 -0.3352249 0 7
-1.240074 0.76596516 -0.32004282 0 8
-1.239229 0.76544321 -0.3058098 0 9
-1.2356633 0.76324075 -0.2910091 0 10
-1.2467632 0.77009696 -0.27962911 0 11
-1.2347033 0.76264775 -0.26311401 0 12
-1.2462447 0.76977664 -0.25168061 0 13
-1.2451938 0.76912749 -0.23763101 0 14
-1.2425725 0.76750839 -0.22336371 0 15
-1.2419575 0.76712859 -0.20953159 0 16
-1.2551591 0.77528286 -0.19792795 0 17
-1.2447317 0.7688421 -0.18260148 0 18
-1.2517744 0.77319217 -0.16990662 0 19
-1.2440488 0.76842028 -0.15524366 0 20
-1.2489741 0.7714625 -0.14221671 0 21
-1.2442012 0.76851439 -0.12810798 0 22
-1.2383277 0.7648865 -0.11402376 0 23
-1.2401459 0.76600951 -0.10071135 0 24
-1.2425895 0.76751888 -0.087420575 0 25
-1.2277739 0.7583676 -0.073064521 0 26
-1.2308559 0.76027137 -0.059913214 0 27
-1.2413628 0.76676118 -0.046986338 0 28
-1.2365336 0.76377833 -0.03342545 0 29
-1.2465513 0.76996601 -0.020215465 0 30
-1.2403746 0.76615077 -0.0067047202 0 31
-1.25248 0.77362806 0.0067701559 0 32
-1.2425089 0.76746911 0.020149909 0 33
-1.2413588 0.76675868 0.03355588 0 34
-1.2463804 0.76986051 0.047176261 0 35
-1.2507353 0.77255034 0.060880862 0 36
-1.2392101 0.76543152 0.073745087 0 37
-1.2324553 0.7612592 0.086707592 0 38
-1.2461915 0.76974374 0.10120231 0 39
-1.2490503 0.77150959 0.11501108 0 40
-1.2437913 0.76826125 0.12806578 0 41
-1.2316492 0.76076132 0.14024398 0 42
-1.2482953 0.77104324 0.15577358 0 43
-1.2526174 0.77371281 0.17002103 0 44
-1.2481164 0.77093273 0.18309802 0 45
-1.2416017 0.76690876 0.19579007 0 46
-1.2417164 0.76697963 0.2094909 0 47
-1.2479115 0.77080613 0.22432342 0 48
-1.2377111 0.76450557 0.23620301 0 49
-1.2473097 0.77043438 0.25189567 0 50
-1.2453738 0.76923871 0.26538792 0 51
-1.2427802 0.76763666 0.27873576 0 52
-1.2453876 0.76924717 0.29329923 0 53
-1.2388974 0.7652384 0.30572796 0 54
-1.2531893 0.77406615 0.32342768 0 55
-1.2360697 0.76349169 0.33304515 0 56
-1.2321706 0.76108336 0.34604529 0 57
-1.2544537 0.77484709 0.36667106 0 58
-1.2419382 0.76711661 0.37730253 0 59
-1.2398473 0.76582509 0.39100087 0 60
-1.242064 0.76719427 0.40613016 0 61
-1.2542647 0.77473038 0.42476633 0 62
-1.2412227 0.7666747 0.43492109 0 63
-1.2489493 0.75039011 -0.43436241 0 0
-1.246507 0.74892277 -0.41898873 0 1
-1.254168 0.75352561 -0.40702751 0 2
-1.2477148 0.74964839 -0.39054543 0 3
-1.23568 0.74241769 -0.37259963 0 4
-1.2560457 0.75465375 -0.36439648 0 5
-1.2531105 0.75289023 -0.34929967 0 6
-1.2514168 0.75187266 -0.33466393 0 7
-1.2537264 0.75326025 -0.32115149 0 8
-1.2479312 0.74977851 -0.305659 0 9
-1.2397681 0.74487394 -0.2897968 0 10
-1.2531903 0.75293821 -0.27897295 0 11
-1.2525831 0.75257337 -0.26493216 0 12
-1.2519723 0.75220644 -0.2509504 0 13
-1.2410918 0.74566919 -0.2350806 0 14
-1.2587124 0.75625598 -0.22457638 0 15
-1.2602979 0.75720859 -0.21103898 0 16
-1.2471195 0.74929082 -0.19519252 0 17
-1.2452903 0.74819171 -0.18132006 0 18
-1.2517885 0.752096 -0.16864051 0 19
-1.2433774 0.74704248 -0.15400194 0 20
-1.25695 0.75519711 -0.14205676 0 21
-1.2444978 0.74771559 -0.12718223 0 22
-1.2610232 0.7576443 -0.11524697 0 23
-1.2557825 0.75449562 -0.10122011 0 24
-1.2542144 0.75355351 -0.087579906 0 25
-1.2456275 0.74839437 -0.073573776 0 26
-1.2554231 0.75427967 -0.060652986 0 27
-1.248289 0.74999344 -0.046895884 0 28
-1.2544309 0.75368357 -0.033656176 0 29
-1.2375836 0.74356145 -0.019920254 0 30
-1.2516814 0.75203162 -0.0067153457 0 31
-1.2422233 0.74634898 0.0066646016 0 32
-1.2548184 0.75391644 0.020197667 0 33
-1.2619845 0.75822186 0.033858839 0 34
-1.2537189 0.75325572 0.04709987 0 35
-1.2464364 0.74888033 0.060218815 0 36
-1.2579972 0.75582623 0.074304402 0 37
-1.2500607 0.7510578 0.087289855 0 38
-1.247149 0.74930841 0.10052422 0 39
-1.2622898 0.75840527 0.11536273 0 40
-1.2444613 0.74769366 0.12717851 0 41
-1.2488832 0.75035042 0.14114508 0 42
-1.2450875 0.74806988 0.15421373 0 43
-1.2450709 0.74805993 0.16773552 0 44
-1.2484965 0.75011808 0.18178691 0 45
-1.2483244 0.75001466 0.19538109 0 46
-1.2525471 0.75255173 0.20974109 0 47
-1.2501956 0.75113893 0.22305684 0 48
-1.2571414 0.75531203 0.23812062 0 49
-1.2536051 0.75318742 0.25127766 0 50
-1.2517238 0.75205708 0.26475039 0 51
-1.2387083 0.74423712 0.27574909 0 52
-1.2575192 0.75553912 0.29394618 0 53
-1.2487533 0.75027239 0.30586034 0 54
-1.2550619 0.75406265 0.3214936 0 55
-1.247219 0.74935055 0.3335413 0 56
-1.2466496 0.74900842 0.34749871 0 57
-1.2499272 0.75097764 0.36262143 0 58
-1.249375 0.75064594 0.37672916 0 59
-1.2473862 0.74945104 0.39044258 0 60
-1.2465858 0.74897009 0.40456676 0 61
-1.2551777 0.75413227 0.42190322 0 62
-1.2529337 0.75278407 0.43574816 0 63
-1.2645127 0.73873413 -0.43658289 0 0
-1.2473459 0.72870523 -0.41622734 0 1
-1.2559172 0.73371261 -0.40463656 0 2
-1.2659258 0.73955965 -0.39336941 0 3
-1.2630434 0.73787576 -0.37808618 0 4
-1.2473136 0.72868639 -0.35923654 0 5
-1.2640908 0.73848766 -0.3498027 0 6
-1.2547736 0.73304451 -0.33312589 0 7
-1.2600445 0.73612374 -0.32042703 0 8
-1.2638842 0.73836696 -0.30731934 0 9
-1.2536229 0.73237222 -0.29090831 0 10
-1.2549592 0.73315293 -0.27733889 0 11
-1.2498864 0.73018938 -0.26244286 0 12
-1.2684983 0.74106252 -0.2524173 0 13
-1.2670922 0.74024111 -0.23826332 0 14
-1.2650342 0.73903883 -0.224066 0 15
-1.2574192 0.73459005 -0.20902856 0 16
-1.2534901 0.73229468 -0.19476552 0 17
-1.2745916 0.74462223 -0.18423934 0 18
-1.2634964 0.7381404 -0.16898224 0 19
-1.2586801 0.73532671 -0.15476567 0 20
-1.2520151 0.73143297 -0.14047194 0 21
-1.2641509 0.73852271 -0.12825292 0 22
-1.2606422 0.7364729 -0.11437587 0 23
-1.2546638 0.73298037 -0.10039587 0 24
-1.261075 0.73672581 -0.087419778 0 25
-1.2663562 0.73981112 -0.074255191 0 26
-1.2514545 0.73110545 -0.060022384 0 27
-1.2632425 0.73799205 -0.047113176 0 28
-1.2581295 0.73500502 -0.033510387 0 29
-1.2681139 0.74083793 -0.020263508 0 30
-1.2635705 0.73818374 -0.0067299237 0 31
-1.266044 0.73962867 0.0067430972 0 32
-1.2521644 0.73152018 0.020008648 0 33
-1.2589829 0.73550361 0.033533119 0 34
-1.2667983 0.74006939 0.047245793 0 35
-1.2606865 0.73649883 0.060465168 0 36
-1.252414 0.73166603 0.073437661 0 37
-1.2389324 0.72378993 0.085884809 0 38
-1.2543283 0.73278433 0.10036901 0 39
-1.2507093 0.73067015 0.11347468 0 40
-1.2464682 0.72819245 0.12645896 0 41
-1.2546207 0.7329551 0.14076427 0 42
-1.2627676 0.73771459 0.15526825 0 43
-1.267001 0.74018776 0.16945094 0 44
-1.2530874 0.73205942 0.18113098 0 45
-1.2554655 0.73344868 0.19507244 0 46
-1.2536457 0.73238558 0.20840126 0 47
-1.2670069 0.74019122 0.22441541 0 48
-1.2562912 0.73393106 0.23623231 0 49
-1.2518382 0.73132962 0.24910212 0 50
-1.2612933 0.73685336 0.26483801 0 51
-1.2682165 0.74089789 0.28026867 0 52
-1.2578111 0.73481905 0.29188022 0 53
-1.2551727 0.73327768 0.30520111 0 54
-1.2523961 0.73165554 0.31848207 0 55
-1.2611973 0.73679727 0.33483133 0 56
-1.2704568 0.74220669 0.35156432 0 57
-1.265399 0.73925185 0.36444524 0 58
-1.2501242 0.73032832 0.37421888 0 59
-1.2589754 0.7354992 0.39120963 0 60
-1.2525588 0.73175061 0.40355453 0 61
-1.2524781 0.73170346 0.41793993 0 62
-1.2453316 0.72752845 0.42996049 0 63
-1.2719079 0.72222626 -0.43603703 0 0
-1.2814575 0.72764885 -0.42459229 0 1
-1.2567338 0.71360993 -0.40204212 0 2
-1.2553072 0.71279985 -0.38731694 0 3
-1.2758883 0.72448647 -0.3792358 0 4
-1.2672687 0.71959192 -0.36240792 0 5
-1.2563198 0.71337479 -0.34519878 0 6
-1.2766706 0.72493064 -0.33654723 0 7
-1.2617065 0.71643358 -0.31858537 0 8
-1.2532489 0.71163112 -0.30258271 0 9
-1.2723163 0.72245812 -0.29316255 0 10
-1.2817814 0.72783273 -0.28126734 0 11
-1.2659855 0.71886331 -0.26394722 0 12
-1.2724639 0.72254193 -0.25141945 0 13
-1.2661058 0.71893162 -0.23639762 0 14
-1.2642896 0.71790034 -0.22235373 0 15
-1.2680483 0.7200346 -0.20930783 0 16
-1.2727784 0.72272056 -0.19636682 0 17
-1.270389 0.72136372 -0.18233591 0 18
-1.2618564 0.7165187 -0.16757187 0 19
-1.2640898 0.71778691 -0.1543339 0 20
-1.2754914 0.72426105 -0.14209594 0 21
-1.2665149 0.71916395 -0.12758596 0 22
-1.284646 0.72945929 -0.11573114 0 23
-1.2795532 0.72656745 -0.10166489 0 24
-1.267307 0.71961373 -0.087231793 0 25
-1.2607375 0.71588337 -0.073404007 0 26
-1.2697653 0.72100961 -0.060470812 0 27
-1.2685761 0.72033435 -0.046978202 0 28
-1.2766509 0.72491944 -0.033763733 0 29
-1.2740042 0.72341657 -0.02021396 0 30
-1.2685089 0.7202962 -0.0067085447 0 31
-1.2673632 0.71964562 0.0067024855 0 32
-1.2805678 0.72714359 0.0203181 0 33
-1.2546886 0.71244866 0.033182893 0 34
-1.2687597 0.72043866 0.046985 0 35
-1.2680777 0.72005135 0.060390443 0 36
-1.268162 0.72009915 0.073836282 0 37
-1.2694227 0.720815 0.087377407 0 38
-1.2690248 0.72058916 0.10082837 0 39
-1.2647821 0.71818 0.11394163 0 40
-1.2680111 0.7200135 0.12773667 0 41
-1.2570909 0.71381277 0.14004605 0 42
-1.2742302 0.7235449 0.15557195 0 43
-1.2656475 0.71867138 0.16807532 0 44
-1.2795975 0.7265926 0.1836576 0 45
-1.262637 0.71696198 0.19480219 0 46
-1.2511216 0.71042317 0.20651387 0 47
-1.2677913 0.71988869 0.22296956 0 48
-1.27277 0.72271574 0.23764193 0 49
-1.2689378 0.72053969 0.25072274 0 50
-1.2693655 0.72078264 0.26465195 0 51
-1.2557014 0.71302372 0.27554449 0 52
-1.272622 0.72263169 0.29323298 0 53
-1.2577703 0.71419853 0.30367437 0 54
-1.2660366 0.71889234 0.31967872 0 55
-1.2815527 0.7277028 0.33783421 0 56
-1.270581 0.7214728 0.34911734 0 57
-1.274766 0.72384912 0.36455196 0 58
-1.2665714 0.71919602 0.37646651 0 59
-1.2661215 0.71894056 0.39065367 0 60
-1.2603569 0.71566725 0.40320122 0 61
-1.2656524 0.71867418 0.41935548 0 62
-1.2664249 0.71911281 0.43415731 0 63
-1.2720814 0.70178258 -0.43310538 0 0
-1.274554 0.70314664 -0.41940835 0 1
-1.2726256 0.70208281 -0.40433368 0 2
-1.2793881 0.70581353 -0.39203945 0 3
-1.2763172 0.70411938 -0.37676132 0 4
-1.2755814 0.70371348 -0.36228317 0 5
-1.2792103 0.70571548 -0.34907761 0 6
-1.2752664 0.70353973 -0.3338713 0 7
-1.2756238 0.70373684 -0.31989029 0 8
-1.2722659 0.70188439 -0.30506733 0 9
-1.280756 0.70656818 -0.2930831 0 10
-1.2850384 0.70893067 -0.28004795 0 11
-1.2788327 0.7055071 -0.264797 0 12
-1.2700614 0.70066816 -0.24922356 0 13
-1.2714055 0.70140964 -0.23575895 0 14
-1.2623068 0.69639009 -0.2204823 0 15
-1.2733107 0.70246071 -0.2087349 0 16
-1.2653311 0.69805861 -0.19387889 0 17
-1.2680012 0.69953161 -0.18074495 0 18
-1.28151 0.70698416 -0.16901459 0 19
-1.2766862 0.70432299 -0.15480272 0 20
-1.2630707 0.69681156 -0.13974711 0 21
-1.2626177 0.69656169 -0.12632097 0 22
-1.2841806 0.70845753 -0.11489572 0 23
-1.2732754 0.70244128 -0.10047221 0 24
-1.281515 0.70698696 -0.087604746 0 25
-1.273921 0.70279747 -0.07366287 0 26
-1.2790235 0.70561242 -0.060493939 0 27
-1.2779335 0.70501107 -0.047000133 0 28
-1.2854927 0.70918137 -0.033764388 0 29
-1.2705822 0.70095551 -0.020021394 0 30
-1.2736796 0.70266426 -0.0066896901 0 31
-1.2605193 0.69540399 0.0066205687 0 32
-1.2812253 0.7068271 0.020189105 0 33
-1.2827021 0.70764184 0.033691093 0 34
-1.2761343 0.70401847 0.04693396 0 35
-1.2918444 0.71268547 0.06110033 0 36
-1.2786665 0.70541543 0.073937267 0 37
-1.2774847 0.70476347 0.087329231 0 38
-1.2690363 0.70010263 0.10013771 0 39
-1.2702887 0.70079356 0.1136528 0 40
-1.2867044 0.70984983 0.12873076 0 41
-1.2842853 0.70851523 0.1420943 0 42
-1.2778265 0.70495206 0.15494099 0 43
-1.2812327 0.70683116 0.16897802 0 44
-1.2713109 0.70135754 0.18121673 0 45
-1.2669821 0.69896936 0.19413184 0 46
-1.2743527 0.70303559 0.20890571 0 47
