# .PCD v0.7 - Point Cloud Data file format
VERSION 0.7
FIELDS x y z intensity ring
SIZE 4 4 4 4 2
TYPE F F F F U
COUNT 1 1 1 1 1
WIDTH 1247
HEIGHT 1
VIEWPOINT 0 0 0 1 0 0 0
POINTS 1247
DATA ascii
0.0081850085 2.6615324 0.53328687 0 53
0.0081914803 2.6636367 0.55923903 0 54
0.0081902212 2.6632276 0.58477861 0 55
0.0082106581 2.669873 0.6120311 0 56
0.0081169605 2.639405 0.6306535 0 57
0.0081345886 2.6451371 0.65779859 0 58
0.0081625357 2.6542246 0.68604106 0 59
0.008160565 2.6535838 0.71197551 0 60
0.0081810039 2.6602299 0.74005359 0 61
0.0082024187 2.6671937 0.76848984 0 62
0.0081792427 2.6596575 0.7928831 0 63
-0.022950711 2.4890089 -0.74203825 0 0
-0.023594555 2.5588338 -0.7372964 0 1
-0.02449142 2.6560993 -0.73893237 0 2
-0.024583502 2.6660855 -0.71535677 0 3
-0.024446255 2.6512008 -0.68528533 0 4
-0.024542656 2.6616557 -0.66193146 0 5
-0.024577631 2.6654487 -0.63690037 0 6
-0.024571238 2.6647553 -0.61088109 0 7
-0.024612335 2.6692123 -0.58611488 0 8
-0.024435878 2.6500754 -0.55641288 0 9
-0.024480032 2.6548641 -0.5319708 0 10
-0.024673099 2.6758022 -0.51061255 0 11
-0.024577269 2.6654096 -0.48326403 0 12
-0.024437148 2.6502135 -0.45537207 0 13
-0.024702573 2.6789987 -0.4349885 0 14
-0.024580065 2.6657126 -0.40770245 0 15
-0.024540616 2.6614344 -0.38203013 0 16
-0.024538079 2.6611593 -0.35704121 0 17
-0.024619861 2.6700287 -0.3332603 0 18
-0.024440402 2.6505663 -0.30609906 0 19
-0.024496065 2.6566031 -0.28206047 0 20
-0.024552975 2.6627748 -0.25797093 0 21
-0.024573987 2.6650536 -0.23346975 0 22
-0.024684764 2.6770673 -0.20972885 0 23
-0.024542687 2.661659 -0.18390656 0 24
-0.024486654 2.6555822 -0.1589589 0 25
-0.024510099 2.6581249 -0.13458686 0 26
-0.024452819 2.6519129 -0.10982817 0 27
-0.024522601 2.6594806 -0.085646339 0 28
-0.024566855 2.6642802 -0.061275989 0 29
-0.024605453 2.6684661 -0.036819201 0 30
-0.024459165 2.652601 -0.012199412 0 31
-0.024443833 2.6509385 0.012191765 0 32
-0.024517987 2.6589804 0.03668832 0 33
-0.024540156 2.6613846 0.061209396 0 34
-0.024600593 2.6679389 0.085918739 0 35
-0.024518145 2.6589975 0.11012158 0 36
-0.024514742 2.6586285 0.13461235 0 37
-0.024467854 2.6535435 0.15883686 0 38
-0.024496656 2.656667 0.18356162 0 39
-0.024535527 2.6608825 0.20846088 0 40
-0.024520813 2.6592867 0.23296458 0 41
-0.024530528 2.6603405 0.25773507 0 42
-0.024529096 2.6601851 0.28244078 0 43
-0.024720665 2.6809609 0.30960917 0 44
-0.024536129 2.6609478 0.33212686 0 45
-0.024482278 2.6551077 0.35622928 0 46
-0.024454184 2.6520607 0.38068461 0 47
-0.024496088 2.6566052 0.40630955 0 48
-0.024544183 2.6618211 0.43219939 0 49
-0.024612261 2.6692042 0.45863518 0 50
-0.024517402 2.658917 0.48208684 0 51
-0.024499539 2.6569796 0.50702071 0 52
-0.024675937 2.67611 0.536228 0 53
-0.024585115 2.6662605 0.55981106 0 54
-0.024553251 2.6628046 0.58470786 0 55
-0.024430556 2.6494985 0.60738349 0 56
-0.024582513 2.6659782 0.63702697 0 57
-0.024517421 2.6589191 0.66125083 0 58
-0.024579523 2.6656539 0.68902117 0 59
-0.024461126 2.6528137 0.71179575 0 60
-0.024491958 2.6561575 0.73894858 0 61
-0.02466552 2.6749802 0.7707625 0 62
-0.02453983 2.6613493 0.79341739 0 63
-0.053334538 2.4784014 -0.73901552 0 0
-0.055376947 2.5733101 -0.74160767 0 1
-0.057162244 2.656271 -0.73911983 0 2
-0.05714808 2.6556127 -0.71268147 0 3
-0.057120401 2.6543264 -0.68622297 0 4
-0.057372291 2.6660316 -0.66314501 0 5
-0.057348467 2.6649246 -0.63689554 0 6
-0.05734947 2.6649711 -0.61104596 0 7
-0.057267163 2.6611464 -0.58445418 0 8
-0.057321705 2.663681 -0.55937523 0 9
-0.057421256 2.6683071 -0.53476554 0 10
-0.057308525 2.6630685 -0.50827867 0 11
-0.057265878 2.6610868 -0.48257145 0 12
-0.057274189 2.661473 -0.45739317 0 13
-0.057481721 2.6711166 -0.43379068 0 14
-0.057335339 2.6643145 -0.40756562 0 15
-0.057443574 2.6693439 -0.38323793 0 16
-0.05745979 2.6700976 -0.35830814 0 17
-0.057706639 2.6815684 -0.33476388 0 18
-0.057204001 2.6582115 -0.30703998 0 19
-0.057445388 2.6694283 -0.28347576 0 20
-0.057374801 2.6661482 -0.25834656 0 21
-0.057124089 2.6544979 -0.23258899 0 22
-0.057359666 2.6654449 -0.20885779 0 23
-0.057411987 2.6678762 -0.18437096 0 24
-0.057320554 2.6636274 -0.1594706 0 25
-0.057254732 2.6605687 -0.13473605 0 26
-0.057317529 2.663487 -0.11032835 0 27
-0.057431798 2.6687968 -0.085962601 0 28
-0.057417858 2.668149 -0.061376568 0 29
-0.057432376 2.6688237 -0.036831096 0 30
-0.057237189 2.6597536 -0.012234618 0 31
-0.057262994 2.6609528 0.012240134 0 32
-0.05753943 2.6737983 0.036899749 0 33
-0.057502527 2.6720836 0.061467074 0 34
-0.057274275 2.6614769 0.085726827 0 35
-0.057641476 2.6785405 0.1109519 0 36
-0.057160795 2.6562035 0.13451499 0 37
-0.057127554 2.6546588 0.15893365 0 38
-0.057218798 2.6588988 0.18375057 0 39
-0.057207234 2.6583617 0.20830275 0 40
-0.05724562 2.6601453 0.23308383 0 41
-0.057439748 2.6691663 0.25863901 0 42
-0.057162859 2.6562996 0.28208154 0 43
-0.057303552 2.6628375 0.3075743 0 44
-0.05725266 2.6604724 0.33213031 0 45
-0.057133041 2.6549139 0.35627061 0 46
-0.057463605 2.670275 0.38337156 0 47
-0.057293676 2.6623785 0.40726948 0 48
-0.057000015 2.6487324 0.43015546 0 49
-0.057199471 2.6580009 0.45679647 0 50
-0.057268649 2.6612155 0.48259479 0 51
-0.057262674 2.6609378 0.50787199 0 52
-0.057333983 2.6642513 0.53395271 0 53
-0.057282705 2.6618688 0.55899465 0 54
-0.057336502 2.6643684 0.58516181 0 55
-0.057358511 2.6653912 0.61114234 0 56
-0.057373937 2.6661081 0.63717842 0 57
-0.057560232 2.6747651 0.66531736 0 58
-0.057288095 2.6621192 0.68823755 0 59
-0.057445895 2.669452 0.71639544 0 60
-0.057384107 2.6665807 0.74198854 0 61
-0.057519034 2.6728506 0.77029443 0 62
-0.057682358 2.6804402 0.7992599 0 63
-0.083459377 2.467376 -0.73597836 0 0
-0.086201534 2.5484447 -0.73469156 0 1
-0.089335948 2.6411097 -0.73515123 0 2
-0.090230003 2.6675415 -0.71612632 0 3
-0.090391867 2.6723266 -0.69111162 0 4
-0.089944996 2.6591156 -0.66164982 0 5
-0.090121388 2.6643305 -0.63697022 0 6
-0.090154767 2.6653171 -0.61133331 0 7
-0.090142533 2.6649554 -0.58548987 0 8
-0.09026064 2.668447 -0.56056678 0 9
-0.090162426 2.6655436 -0.53439349 0 10
-0.090513177 2.6759131 -0.51090401 0 11
-0.089922987 2.6584649 -0.48226005 0 12
-0.090255208 2.6682866 -0.45872018 0 13
-0.090318404 2.6701548 -0.43378204 0 14
-0.090118296 2.6642389 -0.40769276 0 15
-0.090119988 2.664289 -0.38264233 0 16
-0.090001978 2.6608002 -0.357182 0 17
-0.090205394 2.6668139 -0.33303523 0 18
-0.090084463 2.6632388 -0.30772534 0 19
-0.090348393 2.6710415 -0.28374356 0 20
-0.089758597 2.653605 -0.25721863 0 21
-0.09049546 2.6753893 -0.23449929 0 22
-0.089704499 2.6520054 -0.20787542 0 23
-0.089964814 2.6597013 -0.18386857 0 24
-0.090272263 2.6687908 -0.1598341 0 25
-0.090285681 2.6691875 -0.13521852 0 26
-0.090399668 2.6725571 -0.11074174 0 27
-0.089993484 2.6605489 -0.085726105 0 28
-0.090174623 2.665904 -0.061345797 0 29
-0.090003051 2.6608317 -0.036733299 0 30
-0.090109915 2.6639912 -0.012258281 0 31
-0.089832127 2.6557786 0.012220492 0 32
-0.090292886 2.6694005 0.036851592 0 33
-0.090635411 2.6795268 0.061659269 0 34
-0.090328574 2.6704555 0.086045302 0 35
-0.090233847 2.6676552 0.11053861 0 36
-0.089878097 2.6571379 0.13460809 0 37
-0.089709602 2.6521564 0.15883787 0 38
-0.089560062 2.6477354 0.18304135 0 39
-0.090249553 2.6681194 0.2091385 0 40
-0.089835882 2.6558895 0.23279014 0 41
-0.090268165 2.6686697 0.25867888 0 42
-0.090046376 2.6621127 0.2827951 0 43
-0.090223216 2.6673408 0.30819932 0 44
-0.090321921 2.6702588 0.33346546 0 45
-0.090121299 2.6643276 0.35765553 0 46
-0.09053982 2.6767006 0.3844249 0 47
-0.090231404 2.6675828 0.40820444 0 48
-0.090545006 2.6768541 0.43487036 0 49
-0.090453781 2.6741571 0.45972943 0 50
-0.090330862 2.6705232 0.48444751 0 51
-0.08989004 2.6574907 0.50738668 0 52
-0.090057805 2.6624506 0.53377342 0 53
-0.09028133 2.6690588 0.56069529 0 54
-0.090287127 2.6692302 0.58642906 0 55
-0.09029451 2.6694486 0.61228091 0 56
-0.090037167 2.6618404 0.63637495 0 57
-0.090326928 2.6704068 0.66445935 0 58
-0.090546735 2.6769052 0.69229573 0 59
-0.090355352 2.6712472 0.71712118 0 60
-0.090126067 2.6644688 0.7416532 0 61
-0.090290166 2.6693201 0.76953876 0 62
-0.090297043 2.6695232 0.79627562 0 63
-0.11393507 2.4692903 -0.73691148 0 0
-0.11737707 2.5438881 -0.73373854 0 1
-0.12210511 2.6463578 -0.73697424 0 2
-0.12329551 2.672157 -0.71771818 0 3
-0.12265986 2.6583807 -0.68784302 0 4
-0.12319484 2.6699753 -0.66467863 0 5
-0.12270651 2.6593916 -0.63610214 0 6
-0.12368882 2.6806812 -0.61515963 0 7
-0.12339826 2.6743839 -0.58785027 0 8
-0.12355404 2.6777601 -0.56279981 0 9
-0.12350611 2.6767213 -0.53689831 0 10
-0.1232122 2.6703515 -0.51009285 0 11
-0.12336534 2.6736705 -0.48525694 0 12
-0.12352109 2.6770458 -0.46045235 0 13
-0.12310997 2.6681356 -0.43366715 0 14
-0.12314229 2.6688364 -0.40859708 0 15
-0.12266898 2.6585784 -0.38200992 0 16
-0.12316548 2.6693389 -0.35850441 0 17
-0.12273508 2.6600111 -0.33234903 0 18
-0.12311132 2.6681652 -0.30844617 0 19
-0.12390099 2.6852796 -0.28539637 0 20
-0.12309995 2.6679187 -0.25873324 0 21
-0.12292797 2.6641915 -0.23363262 0 22
-0.12295604 2.6647997 -0.20898101 0 23
-0.12350311 2.6766565 -0.18513168 0 24
-0.12332608 2.6728196 -0.1601541 0 25
-0.12318902 2.6698492 -0.13531855 0 26
-0.12358204 2.6783669 -0.11103705 0 27
-0.12292597 2.6641481 -0.085884281 0 28
-0.12339763 2.6743701 -0.061570872 0 29
-0.12263806 2.6579082 -0.036710985 0 30
-0.12285828 2.6626811 -0.012258277 0 31
-0.12327098 2.6716254 0.012299455 0 32
-0.12307428 2.6673622 0.036841564 0 33
-0.12296624 2.6650209 0.061355628 0 34
-0.12322292 2.670584 0.086091749 0 35
-0.12361065 2.6789868 0.11106275 0 36
-0.12378851 2.6828418 0.13597706 0 37
-0.12331999 2.6726878 0.16014621 0 38
-0.12366684 2.6802046 0.18537711 0 39
-0.12317618 2.6695707 0.20935516 0 40
-0.123437 2.6752236 0.23460007 0 41
-0.12317836 2.6696179 0.25889805 0 42
-0.12334514 2.6732328 0.284116 0 43
-0.12321196 2.6703463 0.30869833 0 44
-0.1229267 2.6641638 0.33286789 0 45
-0.12292075 2.6640351 0.35779208 0 46
-0.1232366 2.6708803 0.38377759 0 47
-0.12352724 2.6771793 0.40987441 0 48
-0.12354462 2.6775558 0.43519828 0 49
-0.12305859 2.6670222 0.45872828 0 50
-0.12308434 2.6675804 0.48415157 0 51
-0.12341649 2.6747789 0.51093864 0 52
-0.12317567 2.6695595 0.53546178 0 53
-0.12339485 2.67431 0.56207466 0 54
-0.12336757 2.6737187 0.58770406 0 55
-0.12343565 2.6751943 0.61390048 0 56
-0.12324835 2.6711349 0.63891101 0 57
-0.12276224 2.6605995 0.66234457 0 58
-0.12329441 2.672133 0.69140136 0 59
-0.12349999 2.6765888 0.71890849 0 60
-0.12295426 2.6647613 0.74209934 0 61
-0.12260372 2.6571641 0.76641101 0 62
-0.12302511 2.6662967 0.79570425 0 63
-0.14346868 2.4536948 -0.73272848 0 0
-0.14830203 2.5363581 -0.73203731 0 1
-0.15359885 2.6269476 -0.73203945 0 2
-0.15704098 2.6858172 -0.72185135 0 3
-0.15659901 2.6782584 -0.69343215 0 4
-0.15568919 2.6626983 -0.66329348 0 5
-0.15607327 2.6692669 -0.63887495 0 6
-0.15602466 2.6684356 -0.6127435 0 7
-0.15670438 2.6800606 -0.589477 0 8
-0.15571763 2.6631844 -0.56009644 0 9
-0.1561677 2.6708817 -0.53607166 0 10
-0.15653092 2.677094 -0.51170981 0 11
-0.15641972 2.6751921 -0.48584545 0 12
-0.15612273 2.6701128 -0.45955533 0 13
-0.155865 2.665705 -0.4335508 0 14
-0.15647767 2.6761832 -0.40998548 0 15
-0.15603711 2.6686485 -0.38370359 0 16
-0.15672928 2.6804864 -0.36023319 0 17
-0.15619868 2.6714115 -0.33398819 0 18
-0.15522256 2.6547174 -0.30708903 0 19
-0.1559971 2.667964 -0.28373846 0 20
-0.15600044 2.6680212 -0.25890967 0 21
-0.15658008 2.6779346 -0.2349889 0 22
-0.15689862 2.6833825 -0.2105737 0 23
-0.15614583 2.6705077 -0.18482524 0 24
-0.155901 2.6663206 -0.15986747 0 25
-0.15610895 2.6698771 -0.13540702 0 26
-0.156922 2.6837823 -0.11133313 0 27
-0.15655811 2.6775589 -0.086372137 0 28
-0.15613982 2.6704051 -0.061519139 0 29
-0.15637925 2.6745 -0.036963914 0 30
-0.15658355 2.677994 -0.012336706 0 31
-0.15621492 2.6716895 0.012307663 0 32
-0.15592828 2.6667871 0.036857318 0 33
-0.15588871 2.6661103 0.061420195 0 34
-0.15714183 2.6875422 0.086694174 0 35
-0.156666 2.679404 0.11115151 0 36
-0.15567362 2.6624317 0.13502942 0 37
-0.15533367 2.6566176 0.15928571 0 38
-0.15674746 2.6807971 0.18553737 0 39
-0.15633802 2.673795 0.20982133 0 40
-0.15654555 2.6773441 0.23493707 0 41
-0.1560965 2.6696641 0.25906909 0 42
-0.15625584 2.6723893 0.28420907 0 43
-0.15582356 2.6649961 0.30827805 0 44
-0.15655939 2.6775808 0.33475947 0 45
-0.15631159 2.6733427 0.35927317 0 46
-0.15503234 2.651464 0.38123277 0 47
-0.15612069 2.670078 0.40905017 0 48
-0.15692934 2.6839082 0.43651137 0 49
-0.15600644 2.668124 0.45921305 0 50
-0.15615937 2.6707394 0.48503679 0 51
-0.15610349 2.6697836 0.5103125 0 52
-0.15602134 2.6683786 0.53556925 0 53
-0.156146 2.6705108 0.56163728 0 54
-0.15667146 2.6794975 0.5893532 0 55
-0.15629256 2.6730173 0.61379558 0 56
-0.15639058 2.6746938 0.64017385 0 57
-0.15575679 2.6638541 0.66358143 0 58
-0.15683141 2.6822331 0.69446123 0 59
-0.15714507 2.6875975 0.72232974 0 60
-0.15654001 2.6772494 0.7460568 0 61
-0.15649924 2.6765518 0.77249974 0 62
-0.15620211 2.6714702 0.79776108 0 63
-0.17400151 2.4570291 -0.73430753 0 0
-0.18097425 2.5554891 -0.73814535 0 1
-0.18793419 2.6537685 -0.74010152 0 2
-0.18835483 2.6597085 -0.7154026 0 3
-0.1900751 2.6839998 -0.69547123 0 4
-0.18951435 2.6760817 -0.66715747 0 5
-0.18958795 2.6771209 -0.64126426 0 6
-0.18986857 2.6810834 -0.61613733 0 7
-0.18934141 2.6736395 -0.58853233 0 8
-0.18834458 2.6595638 -0.55977976 0 9
-0.18852189 2.6620674 -0.53472739 0 10
-0.18887065 2.6669922 -0.51018429 0 11
-0.18950707 2.6759789 -0.48637477 0 12
-0.18910676 2.6703262 -0.45995748 0 13
-0.18991315 2.6817131 -0.43650118 0 14
-0.18954875 2.6765673 -0.41037035 0 15
-0.18945201 2.6752014 -0.38495162 0 16
-0.18795012 2.6539936 -0.35695639 0 17
-0.18969136 2.6785812 -0.33515084 0 18
-0.19053926 2.6905541 -0.31148195 0 19
-0.19043212 2.6890411 -0.28620741 0 20
-0.18931518 2.6732693 -0.2596252 0 21
-0.18912487 2.6705818 -0.23453003 0 22
-0.19055615 2.6907928 -0.2113231 0 23
-0.1897535 2.6794586 -0.18559217 0 24
-0.18892211 2.6677189 -0.1600785 0 25
-0.18970796 2.6788156 -0.13596837 0 26
-0.18943058 2.6748986 -0.11105284 0 27
-0.18889517 2.6673384 -0.08611086 0 28
-0.18976542 2.6796269 -0.061780673 0 29
-0.19007407 2.6839852 -0.037124503 0 30
-0.18896616 2.6683409 -0.01230201 0 31
-0.18925722 2.6724508 0.012320959 0 32
-0.18922971 2.6720622 0.036959589 0 33
-0.1894566 2.675266 0.061680127 0 34
-0.18912219 2.6705439 0.086214349 0 35
-0.18984611 2.6807663 0.11129645 0 36
-0.1895756 2.6769464 0.13587351 0 37
-0.18966679 2.6782343 0.16070949 0 38
-0.18918271 2.6713986 0.18503392 0 39
-0.18905854 2.6696453 0.20966229 0 40
-0.18956888 2.6768515 0.23508063 0 41
-0.18998127 2.6826749 0.26053867 0 42
-0.18859518 2.6631021 0.28344661 0 43
-0.18894811 2.6680858 0.30888087 0 44
-0.18919261 2.6715386 0.33426964 0 45
-0.18962556 2.6776519 0.36013839 0 46
-0.18925709 2.6724489 0.38455558 0 47
-0.1895065 2.6759708 0.41027892 0 48
-0.19010665 2.6844454 0.43694592 0 49
-0.18927678 2.6727269 0.46037102 0 50
-0.18898411 2.6685944 0.48503259 0 51
-0.18884875 2.666683 0.5101251 0 52
-0.18916978 2.671216 0.53656507 0 53
-0.19024971 2.6864655 0.56544197 0 54
-0.18897215 2.6684253 0.58738452 0 55
-0.18911478 2.6704395 0.61369121 0 56
-0.18936469 2.6739683 0.64050913 0 57
-0.18904418 2.6694424 0.66550231 0 58
-0.18945752 2.6752791 0.6932115 0 59
-0.18882959 2.6664124 0.71720582 0 60
-0.19017757 2.685447 0.74893618 0 61
-0.18966362 2.6781893 0.77358693 0 62
-0.18902172 2.6691253 0.79769462 0 63
-0.2052803 2.4677041 -0.73819643 0 0
-0.21242617 2.5536053 -0.73829991 0 1
-0.21987295 2.6431243 -0.73783123 0 2
-0.22302927 2.6810668 -0.72183061 0 3
-0.22284868 2.678896 -0.69480622 0 4
-0.2233731 2.6852002 -0.67006487 0 5
-0.22356164 2.6874666 -0.6443522 0 6
-0.2237194 2.689363 -0.61862546 0 7
-0.2221012 2.6699102 -0.5882681 0 8
-0.22382069 2.6905806 -0.56684452 0 9
-0.2228594 2.6790249 -0.53864336 0 10
-0.2232376 2.6835713 -0.51384205 0 11
-0.22303571 2.6811442 -0.48777521 0 12
-0.22249329 2.6746237 -0.46113414 0 13
-0.22260097 2.6759181 -0.43597054 0 14
-0.22185741 2.6669798 -0.40928775 0 15
-0.2219474 2.6680617 -0.38428792 0 16
-0.22318994 2.6829982 -0.36119929 0 17
-0.22227593 2.6720109 -0.33464542 0 18
-0.2232891 2.6841903 -0.3110396 0 19
-0.22291587 2.6797037 -0.28548375 0 20
-0.22295506 2.6801748 -0.26054242 0 21
-0.22285669 2.6789923 -0.23549147 0 22
-0.22295901 2.6802223 -0.21069233 0 23
-0.2226055 2.6759727 -0.1855263 0 24
-0.22279347 2.6782322 -0.1608616 0 25
-0.22360577 2.6879971 -0.13656363 0 26
-0.22281125 2.6784461 -0.11130545 0 27
-0.22245117 2.6741176 -0.086411491 0 28
-0.22290429 2.6795645 -0.061837751 0 29
-0.22413714 2.6943846 -0.037303649 0 30
-0.22152123 2.6629386 -0.012288733 0 31
-0.22222035 2.6713428 0.012327516 0 32
-0.2237141 2.6892993 0.037233241 0 33
-0.22287241 2.6791811 0.061828904 0 34
-0.22350703 2.6868103 0.086821638 0 35
-0.22317934 2.6828709 0.11148933 0 36
-0.22251438 2.6748772 0.13589709 0 37
-0.22393225 2.6919217 0.16168381 0 38
-0.22323003 2.6834803 0.18604681 0 39
-0.22377706 2.6900561 0.21146537 0 40
-0.22265609 2.6765807 0.2352795 0 41
-0.2226465 2.6764657 0.26018184 0 42
-0.22285393 2.6789591 0.28540441 0 43
-0.22333023 2.6846848 0.31109688 0 44
-0.22302884 2.6810617 0.33577898 0 45
-0.22302328 2.6809947 0.36092958 0 46
-0.22303425 2.6811266 0.3861697 0 47
-0.22388285 2.6913278 0.41302431 0 48
-0.22335948 2.6850364 0.4374561 0 49
-0.22270218 2.6771348 0.46156707 0 50
-0.22401245 2.6928856 0.48991132 0 51
-0.22379158 2.6902306 0.51511717 0 52
-0.22191368 2.6676562 0.53635758 0 53
-0.22288857 2.6793754 0.56448388 0 54
-0.2228747 2.6792088 0.59031689 0 55
-0.22313984 2.6823959 0.61702281 0 56
-0.22287929 2.6792638 0.64238548 0 57
-0.22324041 2.683605 0.66966677 0 58
-0.2228543 2.6789637 0.69482374 0 59
-0.22241861 2.6737258 0.71985424 0 60
-0.22107288 2.6575489 0.74185789 0 61
-0.22268847 2.67697 0.77396715 0 62
-0.22246228 2.6742508 0.7999835 0 63
-0.23462906 2.4547668 -0.73513383 0 0
-0.2433973 2.5465028 -0.73705602 0 1
-0.25211579 2.6377187 -0.73713189 0 2
-0.2558879 2.6771836 -0.72157776 0 3
-0.25668064 2.6854775 -0.69727916 0 4
-0.25605127 2.6788929 -0.66922605 0 5
-0.25651228 2.6837163 -0.64416057 0 6
-0.25601864 2.6785517 -0.61681604 0 7
-0.25699124 2.6887274 -0.59306556 0 8
-0.25675642 2.6862702 -0.56655878 0 9
-0.25567126 2.6749172 -0.53840888 0 10
-0.25599399 2.6782937 -0.51339543 0 11
-0.25776169 2.6967878 -0.49116069 0 12
-0.25615001 2.6799259 -0.46255636 0 13
-0.2558099 2.6763678 -0.43652326 0 14
-0.25490791 2.6669309 -0.40973029 0 15
-0.25703818 2.6892183 -0.38776109 0 16
-0.25509173 2.668854 -0.35969019 0 17
-0.25652274 2.6838255 -0.33649471 0 18
-0.25593117 2.6776361 -0.31062132 0 19
-0.25468367 2.6645846 -0.28418517 0 20
-0.25597611 2.6781068 -0.26062766 0 21
-0.25599644 2.6783192 -0.23569122 0 22
-0.25644255 2.6829865 -0.21114154 0 23
-0.25714538 2.6903398 -0.18672748 0 24
-0.25733465 2.6923201 -0.16188556 0 25
-0.25599325 2.6782858 -0.13621989 0 26
-0.255941 2.6777391 -0.11139844 0 27
-0.25501201 2.6680198 -0.086309254 0 28
-0.25739056 2.6929052 -0.062213957 0 29
-0.25477174 2.6655061 -0.036944408 0 30
-0.25555295 2.6736794 -0.012351866 0 31
-0.25683761 2.68712 0.012413959 0 32
-0.25463313 2.6640558 0.036924306 0 33
-0.25645775 2.6831455 0.061988484 0 34
-0.25766647 2.6957917 0.08720766 0 35
-0.25533476 2.6713967 0.11113457 0 36
-0.25581974 2.6764705 0.13612755 0 37
-0.25662217 2.6848657 0.16143733 0 38
-0.25708315 2.6896887 0.18668228 0 39
-0.25693613 2.6881506 0.21154794 0 40
-0.25505096 2.6684272 0.23482072 0 41
-0.25479469 2.6657462 0.25942475 0 42
-0.25535744 2.671634 0.28493699 0 43
-0.25515273 2.669492 0.30967653 0 44
-0.25600982 2.6784592 0.3358219 0 45
-0.25758192 2.6949069 0.36320144 0 46
-0.25620198 2.6804698 0.38649964 0 47
-0.25660223 2.6846571 0.41245362 0 48
-0.25657824 2.684406 0.43783435 0 49
-0.25605148 2.6788952 0.46237847 0 50
-0.25574476 2.6756861 0.4873175 0 51
-0.25646469 2.6832182 0.51433939 0 52
-0.25618401 2.6802816 0.53948861 0 53
-0.25595447 2.67788 0.56478924 0 54
-0.25669587 2.6856368 0.59238386 0 55
-0.25694415 2.6882346 0.61904579 0 56
-0.25641364 2.6826839 0.64391279 0 57
-0.25713187 2.6901987 0.67205036 0 58
-0.25546134 2.6727207 0.69396687 0 59
-0.25679046 2.6866267 0.72412288 0 60
-0.25660008 2.6846349 0.75024301 0 61
-0.25610355 2.6794398 0.77553314 0 62
-0.25647265 2.6833014 0.80357355 0 63
-0.26509297 2.4544642 -0.73596376 0 0
-0.27403453 2.5372531 -0.73529851 0 1
-0.28264886 2.617012 -0.73226124 0 2
-0.29032567 2.6880908 -0.72542489 0 3
-0.29045963 2.6893313 -0.69915426 0 4
-0.28940094 2.6795287 -0.67022318 0 5
-0.28923133 2.6779585 -0.6435836 0 6
-0.28967267 2.6820447 -0.61839396 0 7
-0.28913462 2.6770632 -0.59123224 0 8
-0.29069665 2.6915257 -0.56837809 0 9
-0.29081818 2.692651 -0.54265708 0 10
-0.29031304 2.6879737 -0.51589626 0 11
-0.28985497 2.6837325 -0.48939514 0 12
-0.29190624 2.7027252 -0.46707577 0 13
-0.28950837 2.6805236 -0.43774861 0 14
-0.28925267 2.6781561 -0.41197017 0 15
-0.28920156 2.6776826 -0.3865813 0 16
-0.29004923 2.6855311 -0.36239111 0 17
-0.28918117 2.677494 -0.33612132 0 18
-0.2897355 2.6826265 -0.31158996 0 19
-0.29080147 2.6924963 -0.28752166 0 20
-0.28912854 2.6770067 -0.26084688 0 21
-0.28904989 2.6762786 -0.23580658 0 22
-0.29017434 2.6866896 -0.21169776 0 23
-0.29008797 2.68589 -0.18665209 0 24
-0.29057246 2.690376 -0.16197126 0 25
-0.28812677 2.6677315 -0.13585301 0 26
-0.29024485 2.6873424 -0.11193796 0 27
-0.28934383 2.6790001 -0.086773001 0 28
-0.28898364 2.6756651 -0.061893079 0 29
-0.28974584 2.6827223 -0.037229594 0 30
-0.28840819 2.6703372 -0.012351877 0 31
-0.28841913 2.6704383 0.012352345 0 32
-0.29098526 2.6941979 0.03738885 0 33
-0.28969473 2.6822488 0.062045373 0 34
-0.28939682 2.6794906 0.086788885 0 35
-0.29128623 2.6969845 0.11233959 0 36
-0.28989974 2.6841471 0.13668896 0 37
-0.2885485 2.6716363 0.16084304 0 38
-0.28998744 2.6849592 0.18658742 0 39
-0.29057819 2.6904287 0.2119924 0 40
-0.2901358 2.6863329 0.23669246 0 41
-0.2890234 2.6760333 0.26075202 0 42
-0.28973135 2.6825881 0.28646359 0 43
-0.28992116 2.6843455 0.31178963 0 44
-0.29002512 2.685308 0.33710223 0 45
-0.28974974 2.6827583 0.36201695 0 46
-0.29003805 2.6854277 0.38769946 0 47
-0.28989467 2.6841004 0.41288453 0 48
-0.29045203 2.6892607 0.43917549 0 49
-0.28856489 2.671788 0.46172929 0 50
-0.28960106 2.6813817 0.48896641 0 51
-0.29049349 2.6896446 0.51621699 0 52
-0.28905648 2.6763396 0.53936982 0 53
-0.29102999 2.694612 0.56902987 0 54
-0.29026988 2.6875744 0.59355366 0 55
-0.28986225 2.6838002 0.61879867 0 56
-0.28905392 2.676316 0.64318877 0 57
-0.28964508 2.6817894 0.67078865 0 58
-0.28949177 2.6803699 0.69682455 0 59
-0.2895816 2.6812015 0.7235657 0 60
-0.29009134 2.6859212 0.75154251 0 61
-0.28986824 2.6838555 0.77778405 0 62
-0.29052338 2.6899216 0.80656493 0 63
-0.29475445 2.4468896 -0.73472381 0 0
-0.30659083 2.5451488 -0.73862344 0 1
-0.31588349 2.6222913 -0.7347697 0 2
-0.32435361 2.6926057 -0.72766465 0 3
-0.32298872 2.6812751 -0.69803965 0 4
-0.32430327 2.6921878 -0.67433608 0 5
-0.32258478 2.6779218 -0.64447927 0 6
-0.32327905 2.6836855 -0.61964196 0 7
-0.32244268 2.6767423 -0.59199226 0 8
-0.32376286 2.6877017 -0.56836832 0 9
-0.32209826 2.673883 -0.53963214 0 10
-0.32382566 2.6882231 -0.51666927 0 11
-0.32194984 2.6726508 -0.48805934 0 12
-0.32346368 2.6852179 -0.46470246 0 13
-0.32431248 2.6922641 -0.44028392 0 14
-0.32116196 2.6661103 -0.41069362 0 15
-0.32238898 2.6762962 -0.38692421 0 16
-0.32312781 2.6824298 -0.36248139 0 17
-0.32427767 2.6919751 -0.33841419 0 18
-0.32445291 2.6934299 -0.31328452 0 19
-0.32476473 2.6960185 -0.28830245 0 20
-0.3229619 2.6810524 -0.26160827 0 21
-0.32326776 2.6835916 -0.23678327 0 22
-0.3240661 2.6902189 -0.21227379 0 23
-0.32212412 2.6740978 -0.18609382 0 24
-0.32199079 2.672991 -0.1611508 0 25
-0.32540861 2.7013638 -0.13775907 0 26
-0.32298851 2.6812735 -0.11184214 0 27
-0.32323036 2.6832809 -0.087033816 0 28
-0.3242594 2.6918235 -0.062354371 0 29
-0.32290313 2.6805646 -0.037251938 0 30
-0.32400095 2.6896782 -0.012458826 0 31
-0.32338336 2.6845512 0.012435078 0 32
-0.32291386 2.6806536 0.037253171 0 33
-0.3249855 2.6978514 0.062494002 0 34
-0.32319346 2.6829746 0.087023877 0 35
-0.32185173 2.6718364 0.1114485 0 36
-0.3233116 2.6839554 0.13687131 0 37
-0.32199678 2.6730404 0.16115378 0 38
-0.32259083 2.6779721 0.18636343 0 39
-0.32333165 2.6841221 0.21179272 0 40
-0.32344997 2.6851044 0.23691674 0 41
-0.32419059 2.6912525 0.26260358 0 42
-0.32399234 2.6896067 0.28761679 0 43
-0.32363263 2.6866205 0.31249246 0 44
-0.32272971 2.6791248 0.33679876 0 45
-0.3239789 2.6894951 0.36343613 0 46
-0.32470942 2.6955593 0.38970917 0 47
-0.32334724 2.6842515 0.41348815 0 48
-0.32322323 2.6832218 0.43880519 0 49
-0.32301694 2.6815095 0.46406066 0 50
-0.3243632 2.6926854 0.49171788 0 51
-0.32319364 2.6829762 0.51566088 0 52
-0.32397112 2.6894305 0.54276991 0 53
-0.32335189 2.6842899 0.56764686 0 54
-0.3241064 2.6905537 0.59504682 0 55
-0.32432437 2.692363 0.62164551 0 56
-0.32432905 2.6924019 0.64796412 0 57
-0.3242386 2.6916509 0.67420155 0 58
-0.32132357 2.6674521 0.69444096 0 59
-0.32330579 2.683907 0.7253139 0 60
-0.32422531 2.6915405 0.7541734 0 61
-0.32481962 2.6964743 0.78253937 0 62
-0.32228318 2.6754181 0.80334371 0 63
-0.32554871 2.4485765 -0.73637664 0 0
-0.33602712 2.5273886 -0.73461282 0 1
-0.34772205 2.6153507 -0.73396748 0 2
-0.3571507 2.6862671 -0.72708356 0 3
-0.35687771 2.6842139 -0.69989425 0 4
-0.35701546 2.68525 -0.67364699 0 5
-0.35803926 2.6929502 -0.64910662 0 6
-0.35800907 2.6927235 -0.62269813 0 7
-0.35748571 2.688787 -0.59558326 0 8
-0.35702091 2.6852911 -0.56874388 0 9
-0.35771281 2.690495 -0.54383135 0 10
-0.35524893 2.6719632 -0.51434487 0 11
-0.35771212 2.6904898 -0.49208298 0 12
-0.35748744 2.6887999 -0.46604785 0 13
-0.35703024 2.6853611 -0.43983972 0 14
-0.35709572 2.6858537 -0.41438001 0 15
-0.35693559 2.6846492 -0.38873702 0 16
-0.35811135 2.6934927 -0.3645438 0 17
-0.35682282 2.6838009 -0.33791265 0 18
-0.35632181 2.680033 -0.31221226 0 19
-0.35751918 2.6890388 -0.2880044 0 20
-0.35510641 2.6708913 -0.26102313 0 21
-0.35788828 2.6918149 -0.23787914 0 22
-0.35775518 2.6908138 -0.21265176 0 23
-0.35856992 2.6969419 -0.18797618 0 24
-0.35703292 2.6853812 -0.16215022 0 25
-0.35704857 2.685499 -0.13716355 0 26
-0.3582764 2.6947339 -0.11257886 0 27
-0.35796615 2.6924005 -0.087465771 0 28
-0.35916385 2.7014089 -0.062673971 0 29
-0.3577649 2.690887 -0.037453692 0 30
-0.3557384 2.6756446 -0.012413146 0 31
-0.35926333 2.702157 0.012536146 0 32
-0.35806051 2.6931102 0.037484635 0 33
-0.35871443 2.6980286 0.062595546 0 34
-0.35885853 2.6991124 0.087683812 0 35
-0.35711288 2.6859827 0.11221326 0 36
-0.35640341 2.6806467 0.13691571 0 37
-0.35925573 2.7021 0.16315973 0 38
-0.35682657 2.6838293 0.18706225 0 39
-0.35817778 2.6939924 0.21290296 0 40
-0.35836035 2.6953654 0.23819292 0 41
-0.35674 2.6831782 0.26222393 0 42
-0.35551977 2.6740003 0.28639373 0 43
-0.35717282 2.6864336 0.31295788 0 44
-0.35653955 2.6816704 0.33764437 0 45
-0.3582432 2.6944842 0.36467803 0 46
-0.35727373 2.6871927 0.38910529 0 47
-0.35690105 2.6843896 0.41415414 0 48
-0.35736078 2.6878474 0.44024694 0 49
-0.35635459 2.6802793 0.464571 0 50
-0.35832709 2.6951153 0.49292898 0 51
-0.35825345 2.6945612 0.51869494 0 52
-0.35822895 2.6943769 0.54461598 0 53
-0.35782847 2.691365 0.57003039 0 54
-0.35902825 2.7003889 0.59815317 0 55
-0.35786885 2.6916687 0.62245423 0 56
-0.35828975 2.6948342 0.64956075 0 57
-0.3580634 2.6931319 0.67562431 0 58
-0.35724103 2.6869466 0.70060676 0 59
-0.35681194 2.6837192 0.72639388 0 60
-0.35605994 2.6780632 0.75156701 0 61
-0.35928214 2.7022986 0.78545231 0 62
-0.35776231 2.6908672 0.80924231 0 63
-0.35536578 2.4425678 -0.73582816 0 0
-0.36998674 2.5430634 -0.7404353 0 1
-0.38009658 2.6125524 -0.7344383 0 2
-0.3908641 2.6865618 -0.72840911 0 3
-0.39221966 2.695879 -0.70414019 0 4
-0.38946447 2.6769416 -0.67271316 0 5
-0.39104289 2.6877906 -0.64897287 0 6
-0.39187628 2.6935186 -0.62394917 0 7
-0.39101866 2.6876242 -0.59634566 0 8
-0.39138943 2.6901724 -0.57075399 0 9
-0.39160684 2.6916668 -0.54500031 0 10
-0.38983276 2.6794729 -0.51667416 0 11
-0.39030853 2.6827431 -0.49150676 0 12
-0.39038277 2.6832533 -0.46588326 0 13
-0.39298218 2.7011201 -0.44317892 0 14
-0.39304194 2.7015309 -0.41751283 0 15
-0.38967302 2.678375 -0.38849294 0 16
-0.39139339 2.6901996 -0.36472192 0 17
-0.39235502 2.6968093 -0.34013224 0 18
-0.39301267 2.7013297 -0.3152324 0 19
-0.39118651 2.6887779 -0.28846982 0 20
-0.39310464 2.7019618 -0.26451203 0 21
-0.39225581 2.6961277 -0.23866847 0 22
-0.39210188 2.6950696 -0.21335299 0 23
-0.39186347 2.6934307 -0.1880531 0 24
-0.39031291 2.6827731 -0.16227026 0 25
-0.39190623 2.6937246 -0.13781939 0 26
-0.39142621 2.6904254 -0.11259143 0 27
-0.39364955 2.7057073 -0.088048644 0 28
-0.38865665 2.6713891 -0.062083684 0 29
-0.39125374 2.68924 -0.037494894 0 30
-0.39238489 2.6970146 -0.012533724 0 31
-0.39120156 2.6888812 0.012495927 0 32
-0.39155963 2.6913424 0.037524208 0 33
-0.39241388 2.6972141 0.062683865 0 34
-0.3904368 2.6836247 0.087330043 0 35
-0.38956773 2.6776514 0.11205685 0 36
-0.39232886 2.6966295 0.13796803 0 37
-0.38980454 2.6792791 0.16205892 0 38
-0.39153081 2.6911445 0.18789347 0 39
-0.39002439 2.6807902 0.21222259 0 40
-0.39262331 2.6986535 0.23889208 0 41
-0.38998133 2.6804941 0.2624104 0 42
-0.39053062 2.6842697 0.28798616 0 43
-0.3911325 2.6884065 0.31372431 0 44
-0.3892923 2.6757581 0.33747718 0 45
-0.38908803 2.6743541 0.36257368 0 46
-0.39261717 2.698611 0.39142814 0 47
-0.38869536 2.6716552 0.41289565 0 48
-0.39040756 2.6834238 0.44027543 0 49
-0.39044219 2.6836617 0.46595418 0 50
-0.3897852 2.6791461 0.49084774 0 51
-0.39222994 2.6959496 0.51985133 0 52
-0.39256108 2.6982257 0.54632837 0 53
-0.39039701 2.6833513 0.56930679 0 54
-0.39301008 2.7013118 0.59938276 0 55
-0.38974282 2.6788547 0.6205523 0 56
-0.39077386 2.6859415 0.64852637 0 57
-0.38928238 2.6756899 0.67239863 0 58
-0.3912558 2.689254 0.7024098 0 59
-0.39347631 2.7045164 0.7332772 0 60
-0.39148673 2.6908414 0.75644684 0 61
-0.39036533 2.6831334 0.78121793 0 62
-0.39049357 2.684015 0.80856454 0 63
-0.38458657 2.4330473 -0.73432922 0 0
-0.39957529 2.5278718 -0.73738694 0 1
-0.41312093 2.6135669 -0.73609596 0 2
-0.42552221 2.6920226 -0.73125309 0 3
-0.42597052 2.6948586 -0.70518845 0 4
-0.42588556 2.6943212 -0.67834538 0 5
-0.4267084 2.6995268 -0.65302414 0 6
-0.42410237 2.6830401 -0.62268281 0 7
-0.42628512 2.6968489 -0.59951025 0 8
-0.42566282 2.6929121 -0.57240242 0 9
-0.4272978 2.7032557 -0.54836917 0 10
-0.42382231 2.6812682 -0.51798612 0 11
-0.42516807 2.6897819 -0.4937169 0 12
-0.42575127 2.6934717 -0.46853098 0 13
-0.42646956 2.6980159 -0.44349647 0 14
-0.42531535 2.6907139 -0.41661787 0 15
-0.42527586 2.690464 -0.39097539 0 16
-0.42542031 2.6913779 -0.36556324 0 17
-0.42558658 2.6924298 -0.34021416 0 18
-0.42747387 2.7043695 -0.31617662 0 19
-0.42577153 2.6935997 -0.28952697 0 20
-0.42371723 2.6806035 -0.26291132 0 21
-0.42545727 2.6916118 -0.23871379 0 22
-0.42627186 2.6967652 -0.21388602 0 23
-0.42417341 2.6834896 -0.18770899 0 24
-0.42452416 2.6857083 -0.16275124 0 25
-0.42671135 2.6995454 -0.13837521 0 26
-0.4250659 2.6891356 -0.11274767 0 27
-0.42360008 2.6798623 -0.0873705 0 28
-0.42735741 2.7036326 -0.062950402 0 29
-0.42563403 2.6927297 -0.037613682 0 30
-0.42547494 2.6917233 -0.012532501 0 31
-0.42457145 2.6860075 0.012505889 0 32
-0.42576617 2.6935658 0.037625361 0 33
-0.42611989 2.6958036 0.062768117 0 34
-0.42525142 2.6903093 0.087711103 0 35
-0.42731401 2.7033582 0.11334398 0 36
-0.42518872 2.6899126 0.13788144 0 37
-0.42679721 2.7000885 0.16362268 0 38
-0.42479798 2.6874406 0.18798538 0 39
-0.42694458 2.701021 0.21422356 0 40
-0.42654344 2.6984832 0.23932321 0 41
-0.42498538 2.6886263 0.26369819 0 42
-0.42693901 2.7009857 0.29032084 0 43
-0.42697555 2.7012169 0.31580803 0 44
-0.42603663 2.6952767 0.34057394 0 45
-0.42443508 2.6851449 0.36471665 0 46
-0.42820308 2.7089827 0.39366651 0 47
-0.42814443 2.7086117 0.4193891 0 48
-0.42492309 2.6882322 0.44188824 0 49
-0.42378354 2.6810229 0.46636555 0 50
-0.42513013 2.6895418 0.49367282 0 51
-0.42574403 2.6934259 0.52033484 0 52
-0.42603305 2.6952543 0.54674608 0 53
-0.42520562 2.6900196 0.57178766 0 54
-0.42338893 2.6785266 0.59543717 0 55
-0.42655376 2.6985483 0.62628198 0 56
-0.42590594 2.6944501 0.6517961 0 57
-0.42684087 2.7003648 0.67986703 0 58
-0.42451638 2.6856592 0.70278114 0 59
-0.42669234 2.6994252 0.73326391 0 60
-0.42508537 2.6892588 0.7574141 0 61
-0.42457041 2.6860011 0.78351367 0 62
-0.42483142 2.6876523 0.81117266 0 63
-0.41559044 2.4346802 -0.73630875 0 0
-0.42945921 2.5159287 -0.73538792 0 1
-0.44673234 2.617121 -0.73858821 0 2
-0.45964122 2.6927457 -0.73292941 0 3
-0.45935172 2.6910498 -0.70561653 0 4
-0.45907021 2.6894007 -0.67847651 0 5
-0.46149871 2.7036276 -0.65533936 0 6
-0.45767784 2.6812437 -0.62352484 0 7
-0.45659423 2.6748955 -0.59583306 0 8
-0.45922962 2.6903346 -0.57301152 0 9
-0.46189082 2.7059247 -0.55002117 0 10
-0.46253434 2.7096949 -0.52453685 0 11
-0.45986885 2.6940794 -0.49550617 0 12
-0.45842603 2.6856267 -0.46811157 0 13
-0.46011758 2.6955366 -0.44398537 0 14
-0.46183851 2.7056184 -0.41977319 0 15
-0.46003196 2.6950347 -0.39243197 0 16
-0.45966828 2.6929045 -0.36651063 0 17
-0.46220177 2.7077465 -0.34284183 0 18
-0.46053863 2.6980033 -0.3160705 0 19
-0.46150312 2.7036536 -0.29119557 0 20
-0.46004009 2.6950827 -0.2648662 0 21
-0.46186829 2.7057927 -0.240457 0 22
-0.46033362 2.6968021 -0.21432169 0 23
-0.46210846 2.7072001 -0.18975066 0 24
-0.45987928 2.6941404 -0.16359255 0 25
-0.46042949 2.6973639 -0.13854311 0 26
-0.46107531 2.7011473 -0.11348041 0 27
-0.46113768 2.7015126 -0.088254564 0 28
-0.46035284 2.6969147 -0.062921032 0 29
-0.45962614 2.6926575 -0.037688769 0 30
-0.46077719 2.6994007 -0.012593674 0 31
-0.46015993 2.6957846 0.012576804 0 32
-0.46168414 2.7047141 0.037857525 0 33
-0.45827976 2.6847699 0.062637679 0 34
-0.46262303 2.7102144 0.088538833 0 35
-0.46163335 2.7044165 0.11361776 0 36
-0.4599618 2.6946239 0.13840239 0 37
-0.46109033 2.7012353 0.16402334 0 38
-0.4605509 2.6980751 0.18911108 0 39
-0.46010447 2.6954598 0.21421501 0 40
-0.46102142 2.7008317 0.24001612 0 41
-0.45905384 2.6893048 0.26429838 0 42
-0.46095872 2.7004642 0.29085207 0 43
-0.46040055 2.6971943 0.31597576 0 44
-0.45978373 2.6935809 0.34104824 0 45
-0.45934841 2.6910305 0.36625558 0 46
-0.45858485 2.6865573 0.39119753 0 47
-0.4613322 2.7026522 0.41931298 0 48
-0.46167058 2.7046344 0.44548392 0 49
-0.45983717 2.6938939 0.46955252 0 50
-0.46064129 2.6986046 0.49633849 0 51
-0.45916185 2.6899374 0.52071232 0 52
-0.45908979 2.6895154 0.5466857 0 53
-0.45883045 2.6879961 0.57251352 0 54
-0.45881885 2.6879282 0.59873611 0 55
-0.45860928 2.6867006 0.62479383 0 56
-0.46065202 2.6986675 0.65413707 0 57
-0.46029162 2.6965561 0.68028164 0 58
-0.46029052 2.6965497 0.70705861 0 59
-0.45932475 2.6908917 0.7324248 0 60
-0.46021706 2.6961193 0.76088268 0 61
-0.4623358 2.7085316 0.79168439 0 62
-0.46027318 2.6964481 0.81547397 0 63
-0.44498956 2.4266315 -0.73547381 0 0
-0.46031931 2.5102284 -0.73532063 0 1
-0.47395766 2.5846014 -0.73100019 0 2
-0.49286389 2.6877015 -0.73315054 0 3
-0.49437782 2.6959572 -0.70844364 0 4
-0.49535537 2.701288 -0.68296045 0 5
-0.49322197 2.6896541 -0.65337294 0 6
-0.49258739 2.6861937 -0.62603724 0 7
-0.49374342 2.6924977 -0.60106087 0 8
-0.49707857 2.710685 -0.5786041 0 9
-0.49786493 2.7149732 -0.55306298 0 10
-0.49388137 2.6932499 -0.52248961 0 11
-0.49550223 2.7020888 -0.49806231 0 12
-0.4952561 2.7007468 -0.47177282 0 13
-0.49059901 2.6753504 -0.44162074 0 14
-0.49548897 2.7020166 -0.42012787 0 15
-0.4945851 2.6970875 -0.3935867 0 16
-0.4968816 2.7096109 -0.36958805 0 17
-0.49503615 2.6995473 -0.34254852 0 18
-0.49494994 2.6990771 -0.31688535 0 19
-0.49413353 2.6946251 -0.29085562 0 20
-0.49749675 2.7129655 -0.2672047 0 21
-0.49439955 2.6960757 -0.24011557 0 22
-0.49547932 2.7019639 -0.21519984 0 23
-0.49511987 2.7000036 -0.18965866 0 24
-0.49755695 2.7132938 -0.16511458 0 25
-0.49784446 2.7148616 -0.13974571 0 26
-0.49577197 2.7035599 -0.11382928 0 27
-0.4930073 2.6884835 -0.08802031 0 28
-0.49596018 2.7045863 -0.063237518 0 29
-0.49503073 2.6995177 -0.037867133 0 30
-0.49477676 2.6981325 -0.012615189 0 31
-0.49643785 2.707191 0.012657542 0 32
-0.49334657 2.6903336 0.037738301 0 33
-0.49802542 2.7158484 0.063500844 0 34
-0.49595606 2.7045639 0.088546775 0 35
-0.49486735 2.6986268 0.11362158 0 36
-0.4945361 2.6968203 0.13881704 0 37
-0.49488455 2.6987205 0.16422774 0 38
-0.4955357 2.7022715 0.18981795 0 39
-0.4959242 2.70439 0.21539307 0 40
-0.49635917 2.7067618 0.24106729 0 41
-0.49115124 2.6783619 0.26379654 0 42
-0.49599025 2.7047501 0.2919485 0 43
-0.49466839 2.6975417 0.31670508 0 44
-0.49545649 2.7018394 0.34283936 0 45
-0.49610162 2.7053576 0.36900789 0 46
-0.49653557 2.7077239 0.39513886 0 47
-0.49800906 2.7157593 0.4222647 0 48
-0.49594155 2.7044845 0.44642991 0 49
-0.49469802 2.6977034 0.47124118 0 50
-0.49361089 2.6917748 0.49616116 0 51
-0.49704665 2.710511 0.52583826 0 52
-0.49681786 2.7092633 0.55189985 0 53
-0.49474609 2.6979654 0.57588905 0 54
-0.4924852 2.6856363 0.59952915 0 55
-0.49680623 2.7091999 0.63139904 0 56
-0.49332604 2.6902215 0.65351081 0 57
-0.49626786 2.706264 0.68421853 0 58
-0.49334255 2.6903117 0.70696014 0 59
-0.49472651 2.6978586 0.73592126 0 60
-0.49666351 2.7084217 0.76602018 0 61
-0.49513334 2.7000773 0.79093307 0 62
-0.49544045 2.7017519 0.8188585 0 63
-0.47474951 2.4207566 -0.73540694 0 0
-0.49481744 2.5230834 -0.7408126 0 1
-0.50924325 2.5966408 -0.73612076 0 2
-0.52644783 2.6843672 -0.73395145 0 3
-0.53199458 2.7126503 -0.7144953 0 4
-0.52974737 2.7011919 -0.68453133 0 5
-0.5302425 2.7037165 -0.65832311 0 6
-0.52969426 2.7009208 -0.63093978 0 7
-0.52949494 2.6999044 -0.60412216 0 8
-0.52718592 2.6881309 -0.57513011 0 9
-0.52912188 2.6980023 -0.55088961 0 10
-0.52950537 2.6999578 -0.5250144 0 11
-0.53044099 2.7047286 -0.49971336 0 12
-0.52915114 2.6981516 -0.47242036 0 13
-0.52926296 2.6987219 -0.4465192 0 14
-0.5307771 2.7064424 -0.42179897 0 15
-0.52966803 2.7007873 -0.39504719 0 16
-0.52913994 2.6980946 -0.36887681 0 17
-0.52818292 2.6932144 -0.34254318 0 18
-0.52963781 2.700633 -0.31780863 0 19
-0.53104842 2.7078259 -0.29296321 0 20
-0.52986676 2.7018003 -0.26672658 0 21
-0.53008169 2.7028964 -0.24128529 0 22
-0.52987784 2.7018569 -0.21569395 0 23
-0.52919257 2.6983626 -0.18998611 0 24
-0.52698863 2.687125 -0.16390406 0 25
-0.53139347 2.7095852 -0.13979989 0 26
-0.53184849 2.7119055 -0.11444736 0 27
-0.52981925 2.7015584 -0.088654973 0 28
-0.52976727 2.7012935 -0.063308053 0 29
-0.52766931 2.6905959 -0.037830137 0 30
-0.53084421 2.7067845 -0.012685202 0 31
-0.53035897 2.7043104 0.012673607 0 32
-0.53040761 2.7045581 0.038026448 0 33
-0.52996695 2.7023115 0.063331909 0 34
-0.52927619 2.6987891 0.08856409 0 35
-0.5308969 2.7070532 0.11424259 0 36
-0.5292331 2.6985693 0.13923153 0 37
-0.53112239 2.7082031 0.16518974 0 38
-0.53077865 2.7064502 0.19055553 0 39
-0.52983189 2.7016227 0.21567526 0 40
-0.53142035 2.709722 0.24189463 0 41
-0.5278123 2.6913249 0.26569244 0 42
-0.52673972 2.6858559 0.2905862 0 43
-0.53065991 2.7058446 0.31842193 0 44
-0.52907622 2.6977696 0.34312254 0 45
-0.5312345 2.7087746 0.37033698 0 46
-0.52946818 2.6997683 0.39489815 0 47
-0.52873212 2.6960151 0.42017388 0 48
-0.5317595 2.7114515 0.44862542 0 49
-0.52963674 2.7006278 0.47285393 0 50
-0.53090644 2.7071018 0.50015181 0 51
-0.5327121 2.7163091 0.52819395 0 52
-0.53010297 2.7030051 0.55191112 0 53
-0.5262562 2.6833901 0.57411581 0 54
-0.52991515 2.7020473 0.60460162 0 55
-0.53036505 2.7043412 0.63173878 0 56
-0.53040528 2.7045465 0.65852523 0 57
-0.5319078 2.7122078 0.68732291 0 58
-0.52870709 2.6958873 0.71008003 0 59
-0.5270201 2.6872852 0.73474926 0 60
-0.5297398 2.7011533 0.76574892 0 61
-0.52807021 2.6926398 0.79059672 0 62
-0.52965814 2.7007368 0.8204627 0 63
-0.49940699 2.3904629 -0.72801447 0 0
-0.52299953 2.5033908 -0.73686314 0 1
-0.54203051 2.5944846 -0.73734319 0 2
-0.56089151 2.6847646 -0.73589021 0 3
-0.56480831 2.7035127 -0.71386385 0 4
-0.56656516 2.7119224 -0.68896401 0 5
-0.56574124 2.7079785 -0.66100478 0 6
-0.56379169 2.6986468 -0.6319803 0 7
-0.56464124 2.702713 -0.60625833 0 8
-0.56527185 2.7057316 -0.58033907 0 9
-0.56582242 2.7083671 -0.55438465 0 10
-0.56433147 2.7012303 -0.52657139 0 11
-0.56358206 2.6976435 -0.49964693 0 12
-0.56543326 2.7065043 -0.47506434 0 13
-0.56128567 2.6866515 -0.44563037 0 14
-0.56668687 2.7125046 -0.42379776 0 15
-0.56448412 2.701961 -0.3962042 0 16
-0.56379026 2.6986399 -0.36987123 0 17
-0.56408447 2.7000482 -0.34426853 0 18
-0.56247079 2.6923242 -0.31762075 0 19
-0.5653128 2.7059276 -0.2934877 0 20
-0.56377316 2.6985581 -0.26707071 0 21
-0.56620151 2.7101817 -0.24253882 0 22
-0.56843895 2.7208912 -0.21775505 0 23
-0.56404454 2.699857 -0.19056526 0 24
-0.56233448 2.6916716 -0.1645907 0 25
-0.56576204 2.7080781 -0.14007048 0 26
-0.56163973 2.6883461 -0.11373597 0 27
-0.56268656 2.693357 -0.088606186 0 28
-0.56344819 2.6970026 -0.063365079 0 29
-0.56530291 2.7058804 -0.038139891 0 30
-0.56542999 2.7064886 -0.012715437 0 31
-0.56439739 2.7015462 0.012692218 0 32
-0.56340766 2.6968086 0.038012024 0 33
-0.56148964 2.6876278 0.063144818 0 34
-0.565817 2.7083411 0.089099139 0 35
-0.5644685 2.7018864 0.11430882 0 36
-0.56345344 2.6970277 0.1394989 0 37
-0.56420612 2.7006304 0.16513853 0 38
-0.56394154 2.6993639 0.19053043 0 39
-0.56526864 2.7057161 0.21654058 0 40
-0.56615263 2.7099478 0.24251789 0 41
-0.565952 2.7089872 0.26810285 0 42
-0.5669347 2.7136912 0.29432973 0 43
-0.56677437 2.7129235 0.3200509 0 44
-0.56394494 2.6993802 0.34418336 0 45
-0.56773311 2.7175126 0.37245792 0 46
-0.56812626 2.7193944 0.39876059 0 47
-0.56253117 2.6926131 0.42068991 0 48
-0.5639149 2.6992366 0.44771782 0 49
-0.56592047 2.7088363 0.47547367 0 50
-0.56372488 2.6983271 0.49977353 0 51
-0.56620836 2.7102144 0.52832276 0 52
-0.5676654 2.7171886 0.55619037 0 53
-0.56563956 2.7074919 0.58071661 0 54
-0.56601524 2.7092898 0.60773361 0 55
-0.56641799 2.7112179 0.63492423 0 56
-0.56522638 2.705514 0.66040319 0 57
-0.56497502 2.7043109 0.68703032 0 58
-0.56343347 2.6969321 0.71212626 0 59
-0.56476724 2.7033165 0.7409752 0 60
-0.56367415 2.6980841 0.7667858 0 61
-0.56541389 2.7064116 0.79662144 0 62
-0.5666225 2.7121966 0.82599831 0 63
-0.53622681 2.417803 -0.73829323 0 0
-0.54973847 2.4787261 -0.73153758 0 1
-0.57188469 2.5785816 -0.73476654 0 2
-0.59244466 2.6712849 -0.7341367 0 3
-0.59924263 2.7019362 -0.71533918 0 4
-0.60171038 2.7130632 -0.69108129 0 5
-0.60343146 2.7208233 -0.66590095 0 6
-0.60001451 2.7054167 -0.6352455 0 7
-0.59864098 2.6992235 -0.60708088 0 8
-0.60083336 2.7091088 -0.58260399 0 9
-0.60041314 2.7072139 -0.55561787 0 10
-0.59936941 2.7025077 -0.5282172 0 11
-0.60083562 2.7091191 -0.50310278 0 12
-0.59979731 2.7044375 -0.47596014 0 13
-0.59942293 2.7027493 -0.44948909 0 14
-0.60110623 2.7103391 -0.42458215 0 15
-0.60224622 2.7154791 -0.39924219 0 16
-0.59846097 2.6984119 -0.37082055 0 17
-0.59932017 2.7022858 -0.34546739 0 18
-0.60077757 2.7088571 -0.32041848 0 19
-0.6004715 2.7074771 -0.29443434 0 20
-0.60245842 2.7164359 -0.26955283 0 21
-0.60094303 2.7096033 -0.24312998 0 22
-0.60079026 2.7089145 -0.21737134 0 23
-0.60027957 2.7066116 -0.19154853 0 24
-0.60052049 2.7076981 -0.16600968 0 25
-0.6004861 2.7075431 -0.1404141 0 26
-0.60259265 2.7170415 -0.11525475 0 27
-0.60313952 2.7195072 -0.089703687 0 28
-0.60190052 2.7139206 -0.063931614 0 29
-0.60078168 2.7088757 -0.038283344 0 30
-0.6013003 2.7112141 -0.012771411 0 31
-0.6012547 2.7110085 0.012770442 0 32
-0.60274541 2.71773 0.038408481 0 33
-0.59819382 2.6972072 0.063537903 0 34
-0.59783411 2.6955855 0.088914618 0 35
-0.5979178 2.6959627 0.11436061 0 36
-0.60145766 2.7119238 0.14064129 0 37
-0.59953207 2.7032413 0.16573644 0 38
-0.59991866 2.7049844 0.19143337 0 39
-0.6016559 2.7128177 0.21768454 0 40
-0.6028893 2.7183788 0.24391741 0 41
-0.60017025 2.7061188 0.26852903 0 42
-0.60043728 2.7073228 0.29441756 0 43
-0.59857076 2.6989069 0.31924152 0 44
-0.60074508 2.7087107 0.34628874 0 45
-0.59877819 2.6998422 0.37101713 0 46
-0.60174805 2.713233 0.39891195 0 47
-0.60255378 2.716866 0.42560458 0 48
-0.60073233 2.7086532 0.45047092 0 49
-0.6012944 2.7111874 0.47714809 0 50
-0.60212904 2.7149508 0.5041858 0 51
-0.60043323 2.7073045 0.52915478 0 52
-0.59640867 2.6891582 0.55191219 0 53
-0.60392433 2.7230458 0.58560121 0 54
-0.6005941 2.70803 0.60906154 0 55
-0.60046464 2.7074463 0.63572204 0 56
-0.60104263 2.7100525 0.66326487 0 57
-0.60171479 2.713083 0.69108635 0 58
-0.60499465 2.7278719 0.72220564 0 59
-0.59904146 2.7010293 0.74231124 0 60
-0.60132176 2.7113111 0.77258784 0 61
-0.60002089 2.7054455 0.7984485 0 62
-0.60019505 2.7062306 0.8263666 0 63
-0.5660696 2.4116879 -0.73849559 0 0
-0.58443457 2.4899304 -0.73690951 0 1
-0.60003382 2.5563893 -0.73049015 0 2
-0.62565452 2.665544 -0.73461783 0 3
-0.63474679 2.7042809 -0.7179721 0 4
-0.6353364 2.7067931 -0.69142187 0 5
-0.63737875 2.7154942 -0.66646451 0 6
-0.63383299 2.7003877 -0.63584667 0 7
-0.6346885 2.7040324 -0.60987163 0 8
-0.63874847 2.7213297 -0.58687693 0 9
-0.6357215 2.7084336 -0.55743045 0 10
-0.63606882 2.7099135 -0.53115326 0 11
-0.63580102 2.7087724 -0.50445217 0 12
-0.6331805 2.697608 -0.47609246 0 13
-0.63642728 2.7114403 -0.45220178 0 14
-0.63502985 2.7054868 -0.42501312 0 15
-0.63963264 2.7250967 -0.40178221 0 16
-0.63741428 2.7156456 -0.37423766 0 17
-0.63788015 2.7176304 -0.34840548 0 18
-0.63547003 2.7073624 -0.32114166 0 19
-0.63743246 2.715723 -0.29616106 0 20
-0.63580036 2.7087696 -0.26954752 0 21
-0.63341153 2.6985922 -0.24282248 0 22
-0.63452655 2.7033427 -0.21753389 0 23
-0.64033842 2.7281034 -0.19361213 0 24
-0.63675737 2.7128468 -0.1667928 0 25
-0.63371295 2.6998763 -0.14041001 0 26
-0.6404072 2.7283964 -0.11606169 0 27
-0.63510585 2.7058105 -0.089502737 0 28
-0.63605762 2.7098656 -0.064015493 0 29
-0.63464659 2.7038541 -0.03831977 0 30
-0.63478577 2.704447 -0.012775337 0 31
-0.63808215 2.7184911 0.012841678 0 32
-0.63675094 2.7128193 0.038446829 0 33
-0.63583285 2.7089078 0.063992873 0 34
-0.63397157 2.7009783 0.089342892 0 35
-0.63505358 2.7055879 0.11509145 0 36
-0.637438 2.7157464 0.14123535 0 37
-0.63476771 2.7043703 0.16627163 0 38
-0.6372683 2.7150235 0.19268385 0 39
-0.63802063 2.7182288 0.21873175 0 40
-0.63608652 2.7099886 0.24384795 0 41
-0.63477421 2.7043977 0.26911247 0 42
-0.63447344 2.7031164 0.29478627 0 43
-0.6362561 2.7107112 0.32153893 0 44
-0.63447225 2.7031112 0.34654409 0 45
-0.63452709 2.7033448 0.37254253 0 46
-0.63929087 2.7236404 0.40156752 0 47
-0.63811547 2.7186329 0.42707828 0 48
-0.63692874 2.713577 0.4525581 0 49
-0.6359033 2.709208 0.47813973 0 50
-0.63414204 2.7017045 0.50313586 0 51
-0.63580346 2.7087829 0.53093165 0 52
-0.63391781 2.7007492 0.5558489 0 53
-0.63745487 2.7158184 0.58568835 0 54
-0.6366626 2.7124431 0.6117686 0 55
-0.63685107 2.7132461 0.63887435 0 56
-0.63613415 2.7101915 0.66516304 0 57
-0.63517535 2.7061067 0.69124657 0 58
-0.63499051 2.7053194 0.71824777 0 59
-0.63512623 2.7058976 0.7457391 0 60
-0.63478607 2.7044482 0.77279806 0 61
-0.63656217 2.7120152 0.80263674 0 62
-0.63882071 2.7216377 0.83340687 0 63
-0.59874672 2.4169257 -0.74229783 0 0
-0.61360401 2.4768991 -0.73523027 0 1
-0.63631332 2.5685685 -0.7361505 0 2
-0.66256088 2.6745205 -0.73928112 0 3
-0.66795254 2.6962845 -0.71797544 0 4
-0.67201054 2.7126653 -0.69498014 0 5
-0.67105234 2.7087975 -0.66679567 0 6
-0.67144501 2.7103825 -0.64009571 0 7
-0.67350531 2.7186992 -0.61500102 0 8
-0.67137277 2.7100909 -0.58618921 0 9
-0.66997689 2.7044563 -0.55826521 0 10
-0.67113233 2.7091203 -0.53257501 0 11
-0.67296386 2.7165134 -0.50739646 0 12
-0.67102158 2.7086732 -0.47946531 0 13
-0.67496639 2.724597 -0.45574573 0 14
-0.67183298 2.7119486 -0.42729372 0 15
-0.67260635 2.7150705 -0.40149301 0 16
-0.67241108 2.7142823 -0.37516084 0 17
-0.67338717 2.7182224 -0.34951648 0 18
-0.66938412 2.7020636 -0.32146519 0 19
