# .PCD v0.7 - Point Cloud Data file format
VERSION 0.7
FIELDS x y z intensity ring
SIZE 4 4 4 4 2
TYPE F F F F U
COUNT 1 1 1 1 1
WIDTH 1253
HEIGHT 1
VIEWPOINT 0 0 0 1 0 0 0
POINTS 1253
DATA ascii
-0.86551857 1.6275423 -0.28191894 0 15
-0.87336743 1.6423014 -0.26699105 0 16
-0.86859053 1.6333189 -0.2481878 0 17
-0.86806577 1.6323321 -0.23074812 0 18
-0.8703348 1.6365988 -0.21405609 0 19
-0.87674236 1.6486478 -0.19824645 0 20
-0.86794692 1.6321086 -0.17908011 0 21
-0.86794335 1.632102 -0.16193248 0 22
-0.86557597 1.6276501 -0.14441821 0 23
-0.8826254 1.6597104 -0.12987904 0 24
-0.86285758 1.6225384 -0.10999731 0 25
-0.87987339 1.6545354 -0.094877951 0 26
-0.86876059 1.6336386 -0.076625347 0 27
-0.86850876 1.6331651 -0.05956677 0 28
-0.86505884 1.6266779 -0.042371515 0 29
-0.86877352 1.6336629 -0.025529196 0 30
-0.86929196 1.6346378 -0.0085143298 0 31
-0.8662203 1.6288618 0.0084842443 0 32
-0.86905181 1.6341864 0.025537375 0 33
-0.8706705 1.63723 0.042646375 0 34
-0.87451929 1.6444675 0.059979003 0 35
-0.87404662 1.6435786 0.077091582 0 36
-0.86980963 1.6356113 0.093792766 0 37
-0.87463075 1.644677 0.11149816 0 38
-0.8677997 1.6318318 0.12769742 0 39
-0.87406683 1.6436167 0.14583488 0 40
-0.87744266 1.6499646 0.16370477 0 41
-0.86809081 1.6323792 0.1791098 0 42
-0.87022102 1.6363848 0.19677186 0 43
-0.87230229 1.6402986 0.21453997 0 44
-0.87067628 1.637241 0.23144203 0 45
-0.86555755 1.6276157 0.24732117 0 46
-0.87470663 1.6448197 0.26740044 0 47
-0.87031096 1.636554 0.28347993 0 48
-0.87753028 1.6501294 0.30344871 0 49
-0.86869681 1.6335188 0.31788617 0 50
-0.87278831 1.6412126 0.33701351 0 51
-0.87085998 1.6375865 0.35391885 0 52
-0.87300169 1.6416137 0.3725448 0 53
-0.87133777 1.6384848 0.38962188 0 54
-0.87197411 1.6396815 0.40777546 0 55
-0.87331933 1.6422111 0.42637357 0 56
-0.86934215 1.6347322 0.44239461 0 57
-0.86882228 1.6337547 0.46016118 0 58
-0.87011957 1.6361941 0.47898909 0 59
-0.86892581 1.6339493 0.49653426 0 60
-0.88050991 1.6557324 0.52169001 0 61
-0.86846238 1.633078 0.53292847 0 62
-0.8712135 1.6382512 0.55314922 0 63
-0.8821215 1.610673 -0.54745859 0 0
-0.882572 1.6114955 -0.52938694 0 1
-0.88163835 1.6097907 -0.51059186 0 2
-0.8779344 1.6030277 -0.49038112 0 3
-0.88262135 1.6115856 -0.47492635 0 4
-0.87769639 1.6025931 -0.45438972 0 5
-0.87731725 1.6019008 -0.43639615 0 6
-0.87999165 1.606784 -0.4199532 0 7
-0.88469005 1.6153629 -0.40440246 0 8
-0.8787328 1.6044855 -0.38407746 0 9
-0.87900406 1.6049807 -0.36665654 0 10
-0.87934244 1.6055987 -0.34931606 0 11
-0.88362318 1.6134149 -0.33351138 0 12
-0.87534434 1.5982984 -0.3131032 0 13
-0.878115 1.6033574 -0.29681081 0 14
-0.88025481 1.6072645 -0.28026021 0 15
-0.8846212 1.6152371 -0.2643396 0 16
-0.88354546 1.6132729 -0.24677399 0 17
-0.88181609 1.6101153 -0.22912301 0 18
-0.87625587 1.5999628 -0.2106577 0 19
-0.88055336 1.6078097 -0.19462305 0 20
-0.87823319 1.6035732 -0.17712064 0 21
-0.88345718 1.6131117 -0.16111399 0 22
-0.88241285 1.6112049 -0.14391091 0 23
-0.87419838 1.5962061 -0.12574126 0 24
-0.88416523 1.6144046 -0.11017462 0 25
-0.87736404 1.6019862 -0.092476226 0 26
-0.87614018 1.5997516 -0.075535499 0 27
-0.8825466 1.6114491 -0.059166059 0 28
-0.88207442 1.610587 -0.042231716 0 29
-0.88344157 1.6130832 -0.025375439 0 30
-0.87354267 1.5950087 -0.0083632311 0 31
-0.87470561 1.5971322 0.008374365 0 32
-0.88140321 1.6093614 0.02531689 0 33
-0.87862611 1.6042907 0.042066615 0 34
-0.87947088 1.6058332 0.058959864 0 35
-0.87628835 1.6000222 0.075548276 0 36
-0.88166142 1.6098329 0.092929184 0 37
-0.87695199 1.6012338 0.10927578 0 38
-0.88593161 1.6176299 0.12742892 0 39
-0.87978208 1.6064014 0.14348187 0 40
-0.87999249 1.6067855 0.16048214 0 41
-0.8783673 1.6038181 0.17714769 0 42
-0.87825429 1.6036118 0.19411491 0 43
-0.88784766 1.6211284 0.21344444 0 44
-0.87936383 1.6056377 0.22848584 0 45
-0.88408864 1.6142648 0.24692571 0 46
-0.87807202 1.603279 0.2623826 0 47
-0.87424409 1.5962895 0.27834648 0 48
-0.87902778 1.6050241 0.29711932 0 49
-0.87919283 1.6053255 0.31447977 0 50
-0.87964094 1.6061437 0.33200833 0 51
-0.88056183 1.6078252 0.34980047 0 52
-0.87619293 1.5998479 0.36548397 0 53
-0.87554902 1.5986722 0.38268587 0 54
-0.87778467 1.6027542 0.40124592 0 55
-0.87889946 1.6047897 0.41943198 0 56
-0.87285769 1.5937581 0.43417788 0 57
-0.8815574 1.609643 0.45638859 0 58
-0.87828714 1.6036718 0.4725942 0 59
-0.8810696 1.6087523 0.49213231 0 60
-0.8803125 1.6073698 0.50982404 0 61
-0.88197839 1.6104116 0.52903086 0 62
-0.88168949 1.6098841 0.54719049 0 63
-0.88426727 1.5685012 -0.53677988 0 0
-0.88972211 1.5781769 -0.52199608 0 1
-0.88714439 1.5736046 -0.50253648 0 2
-0.88922381 1.577293 -0.48581684 0 3
-0.89284599 1.5837181 -0.46991381 0 4
-0.8871513 1.5736169 -0.44923303 0 5
-0.88877189 1.5764915 -0.43241858 0 6
-0.90032452 1.5969833 -0.4202534 0 7
-0.88970369 1.5781443 -0.39779365 0 8
-0.88472569 1.5693144 -0.37823385 0 9
-0.88323873 1.5666769 -0.36035994 0 10
-0.8835488 1.5672268 -0.34330559 0 11
-0.88809407 1.5752891 -0.32786295 0 12
-0.89107263 1.5805725 -0.3117536 0 13
-0.88721591 1.5737314 -0.29332387 0 14
-0.88650149 1.5724642 -0.27607197 0 15
-0.88627326 1.5720594 -0.25903732 0 16
-0.89245206 1.5830193 -0.24380645 0 17
-0.88833189 1.575711 -0.22576454 0 18
-0.88997155 1.5786194 -0.20927256 0 19
-0.89398521 1.5857388 -0.19326746 0 20
-0.88943106 1.5776607 -0.17545326 0 21
-0.89226097 1.5826802 -0.15915835 0 22
-0.88931912 1.5774622 -0.14186308 0 23
-0.87994945 1.5608423 -0.12379849 0 24
-0.88818902 1.5754576 -0.10825384 0 25
-0.88281524 1.5659257 -0.091014363 0 26
-0.88790327 1.5749507 -0.074874334 0 27
-0.88821292 1.5754999 -0.058242753 0 28
-0.8964377 1.590089 -0.041980091 0 29
-0.89524198 1.587968 -0.02515162 0 30
-0.88510215 1.5699822 -0.0082884477 0 31
-0.88870913 1.5763801 0.008322225 0 32
-0.89159054 1.5814911 0.025049035 0 33
-0.88928366 1.5773991 0.041645069 0 34
-0.89270437 1.5834668 0.058537271 0 35
-0.88730121 1.5738828 0.074823566 0 36
-0.89464897 1.5869161 0.092234358 0 37
-0.88497233 1.5697519 0.10786179 0 38
-0.88961411 1.5779853 0.12515819 0 39
-0.89470601 1.5870173 0.14272238 0 40
-0.88772547 1.5746353 0.15834934 0 41
-0.88861781 1.5762181 0.17529283 0 42
-0.88684571 1.5730748 0.191724 0 43
-0.8906281 1.579784 0.20942695 0 44
-0.88967842 1.5780994 0.22610676 0 45
-0.89083368 1.5801486 0.24336433 0 46
-0.89161384 1.5815325 0.26059824 0 47
-0.88841885 1.5758653 0.27666906 0 48
-0.89519173 1.5878789 0.29596078 0 49
-0.88826925 1.5755999 0.31077281 0 50
-0.89311874 1.5842018 0.3297179 0 51
-0.88017666 1.5612453 0.34199533 0 52
-0.88949376 1.5777719 0.36291197 0 53
-0.88621891 1.5719631 0.37887225 0 54
-0.88508159 1.5699456 0.39572707 0 55
-0.89240783 1.5829408 0.41655806 0 56
-0.88683814 1.5730613 0.43147776 0 57
-0.8839916 1.5680122 0.44763303 0 58
-0.89034009 1.5792731 0.46859494 0 59
-0.88885623 1.5766411 0.485616 0 60
-0.89168513 1.5816588 0.50510859 0 61
-0.88950539 1.5777925 0.52186894 0 62
-0.88759178 1.5743982 0.53879797 0 63
-0.89338797 1.5401021 -0.53078043 0 0
-0.90211564 1.5551478 -0.51800889 0 1
-0.89137357 1.5366296 -0.49419132 0 2
-0.8968966 1.5461507 -0.47958544 0 3
-0.89887303 1.5495578 -0.46302256 0 4
-0.89346075 1.5402277 -0.44280407 0 5
-0.90198851 1.5549285 -0.42951384 0 6
-0.89766842 1.5474813 -0.41010043 0 7
-0.8930214 1.5394703 -0.3907837 0 8
-0.89506322 1.5429902 -0.3745136 0 9
-0.90030873 1.5520328 -0.35951084 0 10
-0.8933984 1.5401202 -0.33974856 0 11
-0.90096617 1.5531662 -0.32553971 0 12
-0.89394003 1.541054 -0.30610391 0 13
-0.90233886 1.5555326 -0.29197785 0 14
-0.89893663 1.5496675 -0.27398956 0 15
-0.90133733 1.5538059 -0.25783634 0 16
-0.89755934 1.5472932 -0.23998584 0 17
-0.89884287 1.5495058 -0.22357662 0 18
-0.90067768 1.5526689 -0.20728493 0 19
-0.89428443 1.5416476 -0.18921964 0 20
-0.90361834 1.5577383 -0.17446017 0 21
-0.90004933 1.5515857 -0.15713249 0 22
-0.89481086 1.5425551 -0.1397028 0 23
-0.89994985 1.5514141 -0.12391904 0 24
-0.90581268 1.5615211 -0.10805341 0 25
-0.89574271 1.5441616 -0.09038274 0 26
-0.89373726 1.5407044 -0.073763125 0 27
-0.90035444 1.5521116 -0.057783049 0 28
-0.89988726 1.5513062 -0.041245211 0 29
-0.89562422 1.5439574 -0.024627114 0 30
-0.89558142 1.5438834 -0.0082081826 0 31
-0.89892524 1.5496478 0.0082388287 0 32
-0.89851558 1.5489417 0.024706617 0 33
-0.89606023 1.544709 0.041069802 0 34
-0.89776522 1.5476481 0.057616878 0 35
-0.8970387 1.5463957 0.0740356 0 36
-0.89139599 1.5366683 0.089944147 0 37
-0.8922416 1.538126 0.10643452 0 38
-0.90034658 1.552098 0.12397367 0 39
-0.8958078 1.5442737 0.13985844 0 40
-0.89070714 1.5354809 0.15550151 0 41
-0.89597541 1.5445627 0.17298457 0 42
-0.89611852 1.5448093 0.18960771 0 43
-0.8924666 1.5385139 0.20539519 0 44
-0.89459932 1.5421904 0.2225211 0 45
-0.8906793 1.5354328 0.23814628 0 46
-0.89538944 1.5435525 0.2561349 0 47
-0.90161943 1.5542923 0.27480727 0 48
-0.89919531 1.5501134 0.29096067 0 49
-0.90076852 1.5528255 0.30844215 0 50
-0.89606804 1.5447223 0.3237699 0 51
-0.8921572 1.5379804 0.33927652 0 52
-0.89474964 1.5424496 0.35729095 0 53
-0.90298516 1.5566467 0.3778283 0 54
-0.89820695 1.5484096 0.39305288 0 55
-0.89797711 1.5480133 0.41024145 0 56
-0.892995 1.5394248 0.42523128 0 57
-0.90294152 1.5565715 0.44750279 0 58
-0.89691734 1.5461864 0.46201515 0 59
-0.8983928 1.54873 0.48038548 0 60
-0.88981932 1.5339503 0.49332964 0 61
-0.90204841 1.5550319 0.51797026 0 62
-0.90437943 1.5590503 0.53731072 0 63
-0.91282827 1.5299588 -0.53111291 0 0
-0.89405358 1.4984913 -0.50276089 0 1
-0.90414065 1.5153978 -0.49090147 0 2
-0.90833044 1.5224202 -0.47565323 0 3
-0.90571135 1.5180304 -0.45689517 0 4
-0.90747654 1.5209891 -0.44044784 0 5
-0.90969187 1.5247021 -0.42422226 0 6
-0.91909111 1.5404558 -0.41120258 0 7
-0.90725863 1.5206238 -0.38880214 0 8
-0.91138035 1.5275321 -0.3734535 0 9
-0.89854717 1.5060228 -0.35138592 0 10
-0.9035722 1.5144451 -0.33651024 0 11
-0.91298044 1.530214 -0.32305759 0 12
-0.89883173 1.5064998 -0.30141294 0 13
-0.90705484 1.5202823 -0.28743309 0 14
-0.91040337 1.5258946 -0.27174515 0 15
-0.90523481 1.5172318 -0.2535952 0 16
-0.90498769 1.5168176 -0.2369671 0 17
-0.90684086 1.5199236 -0.22090049 0 18
-0.90927523 1.5240037 -0.20493524 0 19
-0.90899819 1.5235394 -0.18835473 0 20
-0.89908856 1.5069302 -0.16999523 0 21
-0.90703297 1.5202456 -0.15507641 0 22
-0.90648341 1.5193244 -0.13859791 0 23
-0.90871155 1.523059 -0.12253743 0 24
-0.90401858 1.5151932 -0.10560887 0 25
-0.90056765 1.5094093 -0.08899007 0 26
-0.90480947 1.5165188 -0.073132358 0 27
-0.9104262 1.5259328 -0.057220899 0 28
-0.89692736 1.5033079 -0.040259246 0 29
-0.8985464 1.5060215 -0.024196422 0 30
-0.91049016 1.5260401 -0.0081722224 0 31
-0.91380143 1.53159 0.0082019428 0 32
-0.90915704 1.5238057 0.02448215 0 33
-0.90338606 1.5141331 0.040549152 0 34
-0.90760326 1.5212015 0.057043474 0 35
-0.91278434 1.5298853 0.073776938 0 36
-0.90742069 1.5208954 0.089667253 0 37
-0.908925 1.5234168 0.10618204 0 38
-0.90535343 1.5174305 0.1220846 0 39
-0.90698481 1.5201648 0.13867457 0 40
-0.90778965 1.5215138 0.15520577 0 41
-0.90620953 1.5188655 0.17134163 0 42
-0.91218978 1.5288888 0.18901607 0 43
-0.90379429 1.5148174 0.20369993 0 44
-0.90666008 1.5196205 0.22085644 0 45
-0.90675288 1.5197761 0.23742931 0 46
-0.90790159 1.5217015 0.25434229 0 47
-0.89672542 1.5029695 0.26766244 0 48
-0.90403485 1.5152205 0.28647611 0 49
-0.90788031 1.5216658 0.30444726 0 50
-0.91157794 1.5278631 0.32256129 0 51
-0.90158981 1.5111225 0.33577195 0 52
-0.9043507 1.5157499 0.35365546 0 53
-0.9051953 1.5171655 0.37091908 0 54
-0.90912706 1.5237553 0.38960284 0 55
-0.89697921 1.5033948 0.4013097 0 56
-0.90458947 1.5161501 0.42184281 0 57
-0.90707254 1.520312 0.44025177 0 58
-0.91153735 1.5277952 0.45983416 0 59
-0.9090426 1.5236138 0.47602615 0 60
-0.9033457 1.5140655 0.4904699 0 61
-0.90425628 1.5155916 0.50849825 0 62
-0.90911275 1.5237315 0.52895111 0 63
-0.92275035 1.5042404 -0.52608407 0 0
-0.92013735 1.4999808 -0.50701845 0 1
-0.90531343 1.4758153 -0.4816488 0 2
-0.91505909 1.4917023 -0.46953598 0 3
-0.91268384 1.4878303 -0.45114928 0 4
-0.91183305 1.4864434 -0.43365818 0 5
-0.91586858 1.493022 -0.41850963 0 6
-0.91287619 1.4881439 -0.40020481 0 7
-0.91297054 1.4882977 -0.38337827 0 8
-0.92367864 1.5057538 -0.37087786 0 9
-0.91288215 1.4881536 -0.34980929 0 10
-0.91420084 1.4903033 -0.33361855 0 11
-0.91444975 1.4907091 -0.3170673 0 12
-0.91372174 1.4895222 -0.30024141 0 13
-0.91598058 1.4932046 -0.28442165 0 14
-0.9105382 1.4843326 -0.26631722 0 15
-0.91132629 1.4856173 -0.25016516 0 16
-0.91434354 1.490536 -0.23459998 0 17
-0.91450655 1.4908017 -0.21828584 0 18
-0.91492337 1.4914811 -0.20205945 0 19
-0.91062969 1.4844817 -0.18489641 0 20
-0.91624999 1.4936438 -0.16975453 0 21
-0.91168338 1.4861994 -0.15273544 0 22
-0.91266012 1.4877917 -0.1367348 0 23
-0.91944444 1.4988513 -0.12149023 0 24
-0.91895586 1.4980547 -0.10519397 0 25
-0.91106713 1.4851948 -0.088216275 0 26
-0.91418576 1.4902787 -0.07240358 0 27
-0.90966994 1.4829172 -0.056023072 0 28
-0.91457558 1.4909142 -0.040225472 0 29
-0.91533059 1.4921449 -0.024152482 0 30
-0.91714293 1.4950994 -0.0080663124 0 31
-0.91808087 1.4966283 0.0080745621 0 32
-0.91531998 1.4921277 0.024152203 0 33
-0.91745692 1.4956112 0.040352199 0 34
-0.91884404 1.4978725 0.056588069 0 35
-0.92029327 1.500235 0.072887294 0 36
-0.91610193 1.4934024 0.088703781 0 37
-0.91342485 1.4890382 0.10456082 0 38
-0.91444212 1.4906967 0.12082925 0 39
-0.91224843 1.4871205 0.13667312 0 40
-0.91689074 1.4946883 0.15360785 0 41
-0.90263778 1.4714535 0.16723259 0 42
-0.91779202 1.4961575 0.18635066 0 43
-0.90983111 1.4831798 0.20093483 0 44
-0.91015095 1.4837013 0.21724619 0 45
-0.9150005 1.491607 0.23476854 0 46
-0.9122985 1.4872022 0.25043204 0 47
-0.90780634 1.4798791 0.26551819 0 48
-0.90938693 1.4824558 0.28237423 0 49
-0.90948743 1.4826196 0.29885006 0 50
-0.90956128 1.48274 0.31537232 0 51
-0.91605663 1.4933286 0.33429578 0 52
-0.91703165 1.494918 0.35139933 0 53
-0.91515768 1.4918631 0.36745653 0 54
-0.91048801 1.4842507 0.38233575 0 55
-0.91031021 1.4839609 0.39907986 0 56
-0.90965378 1.4828908 0.41566977 0 57
-0.9165296 1.4940995 0.43589181 0 58
-0.9192341 1.4985083 0.45438716 0 59
-0.91793549 1.4963914 0.47101191 0 60
-0.91185343 1.4864767 0.48512822 0 61
-0.91580456 1.4929177 0.50463098 0 62
-0.90806431 1.4802997 0.51771116 0 63
-0.92025858 1.4596043 -0.51439196 0 0
-0.92214006 1.4625884 -0.49817434 0 1
-0.92057472 1.4601057 -0.48017982 0 2
-0.91906792 1.4577157 -0.46236047 0 3
-0.92301649 1.4639785 -0.44732454 0 4
-0.91580117 1.4525344 -0.42701858 0 5
-0.92645311 1.4694293 -0.41505828 0 6
-0.92049211 1.4599746 -0.39564332 0 7
-0.91814041 1.4562446 -0.37800118 0 8
-0.92336839 1.4645367 -0.36349496 0 9
-0.91684169 1.4541848 -0.34444854 0 10
-0.92677027 1.4699323 -0.33158436 0 11
-0.91965735 1.4586506 -0.31263024 0 12
-0.92302698 1.4639951 -0.29736125 0 13
-0.92393714 1.4654387 -0.28127566 0 14
-0.91820765 1.4563513 -0.26330271 0 15
-0.92065501 1.460233 -0.24777827 0 16
-0.92266625 1.463423 -0.23210074 0 17
-0.91775113 1.4556272 -0.21477169 0 18
-0.92831403 1.4723809 -0.20100307 0 19
-0.91848814 1.4567962 -0.18284099 0 20
-0.92016661 1.4594584 -0.16714263 0 21
-0.91577935 1.4524997 -0.15041806 0 22
-0.91345972 1.4488207 -0.13417535 0 23
-0.92504746 1.4671998 -0.11983764 0 24
-0.92350835 1.4647586 -0.10364548 0 25
-0.92143261 1.4614663 -0.087473251 0 26
-0.92822933 1.4722464 -0.072076589 0 27
-0.92602187 1.4687452 -0.055913627 0 28
-0.92114627 1.4610121 -0.039721303 0 29
-0.9280538 1.4719681 -0.024008792 0 30
-0.92277342 1.4635929 -0.0079569472 0 31
-0.92066318 1.460246 0.007938751 0 32
-0.92601699 1.4687376 0.0239561 0 33
-0.92658257 1.4696347 0.039955724 0 34
-0.92807269 1.4719981 0.05603746 0 35
-0.91710335 1.4545999 0.071212664 0 36
-0.9177708 1.4556584 0.087125629 0 37
-0.91826069 1.4564354 0.10305654 0 38
-0.92574102 1.4682999 0.11992749 0 39
-0.92020196 1.4595144 0.13516569 0 40
-0.92204618 1.4624395 0.1514474 0 41
-0.91865224 1.4570564 0.16686755 0 42
-0.92442048 1.4662054 0.18402193 0 43
-0.92711097 1.4704727 0.20074257 0 44
-0.91573095 1.452423 0.21429892 0 45
-0.92998385 1.4750292 0.23394153 0 46
-0.91722798 1.4547975 0.24685594 0 47
-0.92423058 1.4659041 0.26502985 0 48
-0.92612064 1.4689019 0.28194037 0 49
-0.92161399 1.461754 0.29690605 0 50
-0.92166257 1.4618311 0.3133119 0 51
-0.9175384 1.4552898 0.32828131 0 52
-0.92073131 1.460354 0.3459098 0 53
-0.9292174 1.4738137 0.36579749 0 54
-0.92401177 1.4655571 0.38041845 0 55
-0.92477518 1.4667679 0.39748427 0 56
-0.9373163 1.4866592 0.41992509 0 57
-0.92312187 1.4641457 0.43043208 0 58
-0.92511874 1.4673128 0.44834337 0 59
-0.92622614 1.4690692 0.46596158 0 60
-0.91961652 1.4585859 0.47968 0 61
-0.92346829 1.4646951 0.49889189 0 62
-0.92095274 1.4607052 0.51477993 0 63
-0.92252988 1.4240885 -0.50583512 0 0
-0.93302429 1.4402885 -0.49444917 0 1
-0.92361033 1.4257565 -0.47258276 0 2
-0.92489326 1.4277369 -0.4564245 0 3
-0.93048692 1.4363717 -0.44235179 0 4
-0.93196315 1.4386505 -0.4262737 0 5
-0.93866467 1.4489955 -0.41251558 0 6
-0.92869633 1.4336076 -0.39156309 0 7
-0.92521816 1.4282384 -0.37365642 0 8
-0.92726177 1.4313931 -0.35807168 0 9
-0.92889065 1.4339075 -0.34232515 0 10
-0.93415856 1.4420395 -0.32785875 0 11
-0.93306011 1.4403439 -0.31114215 0 12
-0.9344871 1.4425466 -0.29531637 0 13
-0.92611438 1.4296218 -0.27656588 0 14
-0.92761654 1.4319407 -0.26093188 0 15
-0.92841274 1.4331698 -0.24510469 0 16
-0.93459213 1.4427087 -0.2306207 0 17
-0.93312436 1.4404429 -0.21420808 0 18
-0.92641294 1.4300828 -0.19676898 0 19
-0.92716455 1.4312431 -0.18105106 0 20
-0.9263863 1.4300417 -0.16506581 0 21
-0.93534982 1.4438784 -0.15070494 0 22
-0.92125344 1.4221182 -0.1327415 0 23
-0.92902452 1.4341141 -0.11805941 0 24
-0.92270821 1.4243639 -0.10158233 0 25
-0.92314887 1.4250441 -0.085966192 0 26
-0.93003929 1.4356806 -0.070840962 0 27
-0.93195873 1.4386436 -0.05519978 0 28
-0.93556184 1.4442058 -0.039574154 0 29
-0.93286586 1.4400439 -0.023673397 0 30
-0.92752141 1.4317939 -0.0078454809 0 31
-0.93348444 1.4409989 0.0078959195 0 32
-0.92593873 1.4293507 0.023497608 0 33
-0.93651164 1.4456718 0.039614327 0 34
-0.9298563 1.4353982 0.055075254 0 35
-0.92287219 1.4246169 0.070295043 0 36
-0.92732322 1.4314879 0.086354919 0 37
-0.93276918 1.4398948 0.10268996 0 38
-0.92936343 1.4346373 0.11810248 0 39
-0.9351179 1.4435204 0.13473919 0 40
-0.92947638 1.4348117 0.14975859 0 41
-0.92857194 1.4334155 0.16545525 0 42
-0.92816949 1.4327943 0.18124729 0 43
-0.93080199 1.4368579 0.1977012 0 44
-0.92766398 1.432014 0.2129546 0 45
-0.93609518 1.445029 0.23099157 0 46
-0.93390065 1.4416413 0.24655353 0 47
-0.93799293 1.4479586 0.26385069 0 48
-0.92792839 1.4324222 0.2771076 0 49
-0.92981571 1.4353355 0.29384014 0 50
-0.93247992 1.4394482 0.31094867 0 51
-0.92734921 1.4315281 0.3254689 0 52
-0.92799664 1.4325274 0.34199569 0 53
-0.92441297 1.4269955 0.35697159 0 54
-0.93254894 1.4395547 0.37661698 0 55
-0.92827767 1.4329612 0.39138654 0 56
-0.93446231 1.4425083 0.41066876 0 57
-0.93000472 1.4356273 0.42537796 0 58
-0.93190455 1.4385601 0.44302574 0 59
-0.93550277 1.4441146 0.46166018 0 60
-0.93354428 1.4410912 0.47766566 0 61
-0.9320451 1.438777 0.49393025 0 62
-0.93068087 1.436671 0.51030439 0 63
-0.94296169 1.4171339 -0.50744504 0 0
-0.9393006 1.4116318 -0.48853952 0 1
-0.93892694 1.4110702 -0.47150609 0 2
-0.93906486 1.4112774 -0.45481977 0 3
-0.9418717 1.4154958 -0.43945625 0 4
-0.94242513 1.4163275 -0.4230611 0 5
-0.93745673 1.4088607 -0.40434077 0 6
-0.94006532 1.412781 -0.38900253 0 7
-0.93793714 1.4095827 -0.37176496 0 8
-0.93462992 1.4046124 -0.35422051 0 9
-0.93804634 1.4097468 -0.33928519 0 10
-0.94284099 1.4169525 -0.32476637 0 11
-0.94148421 1.4149134 -0.30812621 0 12
-0.93909252 1.411319 -0.29126549 0 13
-0.93882424 1.4109159 -0.2751596 0 14
-0.92804074 1.3947098 -0.25620767 0 15
-0.93662876 1.4076164 -0.24268584 0 16
-0.93669647 1.4077182 -0.22685139 0 17
-0.939762 1.4123251 -0.21172914 0 18
-0.93407553 1.4037793 -0.19471546 0 19
-0.94156015 1.4150276 -0.18045077 0 20
-0.93916017 1.4114207 -0.16423702 0 21
-0.9333117 1.4026314 -0.14758646 0 22
-0.93624693 1.4070426 -0.1323989 0 23
-0.94069308 1.4137244 -0.11732426 0 24
-0.93550307 1.4059247 -0.10108004 0 25
-0.93735772 1.4087119 -0.085669793 0 26
-0.93399107 1.4036523 -0.069822006 0 27
-0.93243551 1.4013146 -0.05420332 0 28
-0.93575168 1.4062982 -0.038847774 0 29
-0.93363863 1.4031227 -0.023253407 0 30
-0.94268912 1.4167242 -0.0078258328 0 31
-0.94021398 1.4130044 0.0078052846 0 32
-0.93727142 1.4085822 0.023343887 0 33
-0.94427264 1.4191041 0.039201524 0 34
-0.93129665 1.399603 0.054137118 0 35
-0.94208914 1.4158225 0.070427388 0 36
-0.93997002 1.4126378 0.085908547 0 37
-0.94370478 1.4182506 0.10196622 0 38
-0.93975943 1.4123213 0.11720782 0 39
-0.9467774 1.4228683 0.13388807 0 40
-0.94224215 1.4160525 0.14899865 0 41
-0.93839002 1.4102633 0.16410235 0 42
-0.93768781 1.4092081 0.17970863 0 43
-0.94062418 1.4136209 0.19608058 0 44
-0.94453168 1.4194933 0.21280375 0 45
-0.93442398 1.404303 0.22630103 0 46
-0.94366425 1.4181896 0.24450877 0 47
-0.93706787 1.4082763 0.25869983 0 48
-0.94096655 1.4141355 0.27578747 0 49
-0.94119912 1.414485 0.29191887 0 50
-0.94333142 1.4176896 0.30873078 0 51
-0.93786937 1.4094808 0.32305387 0 52
-0.93817252 1.4099364 0.33933085 0 53
-0.94101077 1.4142019 0.35663882 0 54
-0.9433527 1.4177215 0.3739115 0 55
-0.94112986 1.4143809 0.38944307 0 56
-0.93703979 1.4082341 0.40416095 0 57
-0.93357211 1.4030228 0.41908693 0 58
-0.94052076 1.4134655 0.43882596 0 59
-0.9325192 1.4014403 0.45164949 0 60
-0.93125182 1.3995357 0.46765184 0 61
-0.93341035 1.4027796 0.48547596 0 62
-0.9424755 1.4164032 0.50718337 0 63
-0.93631512 1.3703086 -0.4947632 0 0
-0.94732708 1.3864248 -0.48381069 0 1
-0.94302082 1.3801225 -0.46500456 0 2
-0.94474238 1.382642 -0.44930115 0 3
-0.94744962 1.3866041 -0.43407068 0 4
-0.94839591 1.387989 -0.41804814 0 5
-0.94557279 1.3838574 -0.40047157 0 6
-0.94930154 1.3893144 -0.38572609 0 7
-0.94639319 1.385058 -0.36833817 0 8
-0.95230049 1.3937035 -0.35439569 0 9
-0.93964428 1.375181 -0.33372176 0 10
-0.93881649 1.3739694 -0.31753653 0 11
-0.93898356 1.3742139 -0.30175468 0 12
-0.9461205 1.3846589 -0.28814262 0 13
-0.94485301 1.3828039 -0.27192241 0 14
-0.95055085 1.3911427 -0.25768009 0 15
-0.94353259 1.3808714 -0.24005693 0 16
-0.94762003 1.3868536 -0.22534981 0 17
-0.9436022 1.3809733 -0.20875271 0 18
-0.94906831 1.3889731 -0.19426578 0 19
-0.95044094 1.3909819 -0.17886123 0 20
-0.94736362 1.3864782 -0.16267788 0 21
-0.94117415 1.3774198 -0.14614037 0 22
-0.95482063 1.3973917 -0.13258554 0 23
-0.94063216 1.3766266 -0.11519672 0 24
-0.93293905 1.3653678 -0.098981462 0 25
-0.94879508 1.3885732 -0.085148141 0 26
-0.94549292 1.3837404 -0.069404602 0 27
-0.94997835 1.3903049 -0.054225206 0 28
-0.94343787 1.3807329 -0.038459115 0 29
-0.95087123 1.3916117 -0.023254655 0 30
-0.94523394 1.3833615 -0.0077051618 0 31
-0.95261282 1.3941605 0.0077653113 0 32
-0.95056069 1.3911572 0.023247061 0 33
-0.94906801 1.3889726 0.038688626 0 34
-0.94815511 1.3876367 0.054121133 0 35
-0.94599903 1.3844812 0.069441751 0 36
-0.93791288 1.3726469 0.084171541 0 37
-0.94265091 1.3795811 0.10001186 0 38
-0.94243729 1.3792685 0.11541779 0 39
-0.94475067 1.3826542 0.13118725 0 40
-0.94881457 1.3886018 0.14732674 0 41
-0.94592047 1.3843662 0.16243006 0 42
-0.94452494 1.3823239 0.17774792 0 43
-0.94821894 1.38773 0.19409193 0 44
-0.94848233 1.3881155 0.20983233 0 45
-0.95386374 1.3959912 0.22683461 0 46
-0.94549763 1.3837473 0.2405569 0 47
-0.94607365 1.3845904 0.25646639 0 48
-0.94355923 1.3809104 0.27155009 0 49
-0.94478112 1.3826988 0.28773472 0 50
-0.94810385 1.3875616 0.30468559 0 51
-0.94121581 1.3774809 0.31834805 0 52
-0.94283074 1.3798443 0.33485347 0 53
-0.94766426 1.3869182 0.35267034 0 54
-0.94797641 1.3873751 0.36895436 0 55
-0.94431514 1.3820168 0.38369998 0 56
-0.94638121 1.3850405 0.40081397 0 57
-0.94147265 1.3778567 0.41499642 0 58
-0.9509275 1.3916939 0.43566406 0 59
-0.94420058 1.3818491 0.44904348 0 60
-0.95214552 1.3934766 0.46950394 0 61
-0.95270967 1.3943022 0.48655966 0 62
-0.94410777 1.3817133 0.49888098 0 63
-0.95083296 1.3554707 -0.49358997 0 0
-0.9519105 1.3570068 -0.47759345 0 1
-0.94643575 1.3492023 -0.45847306 0 2
-0.95157278 1.3565254 -0.44458306 0 3
-0.95164454 1.3566277 -0.42831752 0 4
-0.9553827 1.3619566 -0.41371453 0 5
-0.95079851 1.3554215 -0.39559606 0 6
-0.953197 1.3588408 -0.38049087 0 7
-0.94952422 1.353605 -0.36305124 0 8
-0.95166147 1.3566518 -0.34792343 0 9
-0.95980662 1.3682631 -0.33488178 0 10
-0.95104915 1.3557788 -0.31601137 0 11
-0.95672572 1.3638711 -0.302044 0 12
-0.95601857 1.3628631 -0.28603166 0 13
-0.95513296 1.3616006 -0.27004203 0 14
-0.94958878 1.3536971 -0.25288776 0 15
-0.95901746 1.3671381 -0.23970142 0 16
-0.95236832 1.3576593 -0.22249213 0 17
-0.95573646 1.3624609 -0.20771509 0 18
-0.95114613 1.3559171 -0.19126382 0 19
-0.94711614 1.350172 -0.17509794 0 20
-0.9608463 1.3697454 -0.1620886 0 21
-0.96072894 1.369578 -0.14655069 0 22
-0.94537556 1.3476908 -0.12896311 0 23
-0.95364881 1.3594848 -0.11473489 0 24
-0.94959521 1.3537062 -0.098975085 0 25
-0.95500672 1.3614206 -0.084196866 0 26
-0.94801164 1.3514487 -0.068364464 0 27
-0.9552086 1.3617084 -0.053563934 0 28
-0.94952554 1.3536069 -0.038025886 0 29
-0.95154792 1.3564899 -0.022861548 0 30
-0.95312971 1.3587449 -0.0076327529 0 31
-0.95868951 1.3666706 0.0076772762 0 32
-0.95626593 1.3632157 0.022974899 0 33
-0.95013684 1.3544782 0.038050365 0 34
-0.9590981 1.3672531 0.053782038 0 35
-0.94124615 1.3418041 0.067876577 0 36
-0.95310462 1.3587091 0.084029168 0 37
-0.95130897 1.3561492 0.099153697 0 38
-0.9563666 1.3633592 0.11506187 0 39
-0.9637894 1.3739409 0.13147503 0 40
-0.95697623 1.3642284 0.14597824 0 41
-0.95491606 1.3612914 0.16108821 0 42
-0.95122266 1.3560262 0.17585714 0 43
-0.95154351 1.3564836 0.19134372 0 44
-0.95538443 1.3619591 0.20763859 0 45
-0.94373029 1.3453454 0.22047412 0 46
-0.94331831 1.344758 0.2357775 0 47
-0.95486891 1.3612242 0.25429392 0 48
-0.95803475 1.3657373 0.27086246 0 49
-0.94796973 1.3513889 0.28362352 0 50
-0.95198065 1.3571068 0.30054596 0 51
-0.95014137 1.3544848 0.31570971 0 52
-0.9483906 1.3519889 0.33089867 0 53
-0.95166951 1.3566632 0.34792635 0 54
-0.95099753 1.3557053 0.36361456 0 55
-0.95135087 1.356209 0.37975395 0 56
-0.95352894 1.359314 0.39673209 0 57
-0.95994955 1.368467 0.41569212 0 58
-0.95327449 1.3589512 0.42905113 0 59
-0.9514578 1.3563614 0.44452932 0 60
-0.94465578 1.3466647 0.45761079 0 61
-0.95595998 1.3627796 0.4796252 0 62
-0.96271384 1.3724076 0.4997575 0 63
-0.95908678 1.3320929 -0.48933455 0 0
-0.96589643 1.3415508 -0.47629791 0 1
-0.95583773 1.3275802 -0.45508519 0 2
-0.96212161 1.336308 -0.44180104 0 3
-0.96537679 1.3408291 -0.42704517 0 4
-0.9611938 1.3350194 -0.40909126 0 5
-0.95702988 1.329236 -0.39135855 0 6
-0.95942432 1.3325617 -0.37640741 0 7
-0.95694077 1.3291122 -0.35961086 0 8
-0.96377951 1.3386108 -0.34630978 0 9
-0.96188426 1.3359783 -0.32984999 0 10
-0.96370322 1.3385047 -0.31472331 0 11
-0.96183616 1.3359115 -0.29844874 0 12
-0.961366 1.3352585 -0.2826978 0 13
-0.96644616 1.3423145 -0.26855364 0 14
-0.96045512 1.3339933 -0.25139415 0 15
-0.9659822 1.34167 -0.23730074 0 16
-0.95516616 1.3266474 -0.21931812 0 17
-0.96669751 1.3426635 -0.2064935 0 18
-0.96380645 1.3386481 -0.19048522 0 19
-0.95840532 1.3311464 -0.17414577 0 20
-0.96784979 1.344264 -0.16046947 0 21
-0.96401244 1.3389342 -0.14452915 0 22
-0.95758653 1.3300091 -0.12838818 0 23
-0.95670629 1.3287865 -0.11312837 0 24
-0.96325284 1.3378792 -0.098676451 0 25
-0.95594215 1.3277253 -0.082833685 0 26
-0.95517397 1.3266582 -0.06769944 0 27
-0.96185076 1.3359318 -0.05301122 0 28
-0.96257067 1.3369317 -0.037887085 0 29
-0.97077978 1.3483335 -0.022923533 0 30
-0.95552284 1.3271428 -0.0075206631 0 31
-0.96328253 1.3379204 0.0075817374 0 32
-0.96178591 1.3358418 0.022711156 0 33
-0.95975024 1.3330144 0.037776072 0 34
-0.96048713 1.3340378 0.052936066 0 35
-0.96874684 1.3455099 0.068661444 0 36
-0.96401536 1.3389384 0.083533242 0 37
-0.9517082 1.3218446 0.097493805 0 38
-0.96062273 1.3342261 0.11359148 0 39
-0.96409482 1.3390486 0.12926078 0 40
-0.95952278 1.3326985 0.14385605 0 41
-0.9584536 1.3312135 0.15891157 0 42
-0.96070004 1.3343335 0.17456272 0 43
-0.96614903 1.3419018 0.19094822 0 44
-0.95711672 1.3293567 0.20444697 0 45
-0.97330993 1.3518476 0.22348416 0 46
-0.96877861 1.345554 0.23798771 0 47
-0.96250921 1.3368464 0.25193182 0 48
-0.96041483 1.3339374 0.26687768 0 49
-0.96424937 1.3392632 0.28354567 0 50
-0.96643227 1.3422952 0.29987487 0 51
-0.96430087 1.3393348 0.31491849 0 52
-0.96161073 1.3355985 0.3297562 0 53
-0.96133399 1.335214 0.34543103 0 54
-0.96115422 1.3349644 0.36119425 0 55
-0.96974844 1.3469009 0.38045782 0 56
-0.95325768 1.3239967 0.38981599 0 57
-0.96886826 1.3456784 0.41235757 0 58
-0.96056342 1.3341438 0.42491591 0 59
-0.9635064 1.3382313 0.44243693 0 60
-0.96548301 1.3409767 0.45967743 0 61
-0.95295215 1.3235724 0.46991491 0 62
-0.96951169 1.3465722 0.4946534 0 63
-0.97321242 1.3172481 -0.48824054 0 0
-0.96709508 1.3089683 -0.46891654 0 1
-0.96692866 1.308743 -0.45266947 0 2
-0.97484559 1.3194586 -0.44016027 0 3
-0.97283679 1.3167398 -0.42315081 0 4
-0.97166586 1.3151548 -0.40663469 0 5
-0.96799105 1.310181 -0.38922337 0 6
-0.96751398 1.3095353 -0.37323549 0 7
-0.97363937 1.317826 -0.35976928 0 8
-0.96705955 1.3089201 -0.34167916 0 9
-0.96096873 1.3006762 -0.32402697 0 10
-0.96549112 1.3067974 -0.310036 0 11
-0.96567184 1.3070419 -0.29462963 0 12
-0.9745748 1.3190922 -0.28179097 0 13
-0.96667695 1.3084023 -0.26412711 0 14
-0.95852029 1.2973622 -0.24669346 0 15
-0.97394067 1.3182338 -0.235256 0 16
-0.96569824 1.3070776 -0.2180295 0 17
-0.97579223 1.32074 -0.20495163 0 18
-0.96730661 1.3092545 -0.18798095 0 19
-0.9763602 1.3215086 -0.17444237 0 20
-0.96651173 1.3081787 -0.15756865 0 21
-0.97340286 1.317506 -0.14349729 0 22
-0.96793175 1.3101007 -0.12760568 0 23
-0.97397548 1.3182809 -0.11324503 0 24
-0.96972907 1.3125334 -0.097679153 0 25
-0.9698379 1.3126807 -0.082632855 0 26
-0.97224373 1.3159369 -0.067757286 0 27
-0.97645342 1.3216349 -0.052916348 0 28
-0.97673583 1.3220171 -0.037801925 0 29
-0.9710204 1.3142812 -0.022545891 0 30
-0.97248906 1.316269 -0.0075262394 0 31
-0.96170735 1.301676 0.0074427985 0 32
-0.96415371 1.3049871 0.022386454 0 33
-0.97454613 1.3190533 0.037717178 0 34
-0.96281648 1.3031771 0.052177332 0 35
-0.97012526 1.3130697 0.067609645 0 36
-0.97359562 1.3177668 0.082953021 0 37
-0.97011101 1.3130504 0.09771762 0 38
-0.97050923 1.3135893 0.11284201 0 39
-0.96903038 1.3115877 0.1277505 0 40
-0.96037877 1.2998778 0.1415773 0 41
-0.96762526 1.3096858 0.15775017 0 42
-0.97110021 1.3143892 0.17350259 0 43
-0.96379882 1.3045068 0.18729928 0 44
-0.97310412 1.3171016 0.20438702 0 45
-0.97068286 1.3138244 0.21915491 0 46
-0.97188067 1.3154457 0.23475841 0 47
-0.97368693 1.3178904 0.25059691 0 48
-0.96641147 1.308043 0.26405457 0 49
-0.96218455 1.3023218 0.2782084 0 50
-0.97374821 1.3179733 0.29709378 0 51
-0.96265984 1.3029652 0.30912682 0 52
-0.97370917 1.3179204 0.32832289 0 53
-0.96886355 1.3113619 0.34231654 0 54
-0.96863127 1.3110476 0.35791877 0 55
-0.96991277 1.312782 0.37416086 0 56
-0.9777627 1.3234069 0.39315248 0 57
-0.96362072 1.3042657 0.40326789 0 58
-0.97762626 1.3232223 0.42523405 0 59
-0.96229011 1.3024647 0.43449125 0 60
-0.97193283 1.3155162 0.45501217 0 61
-0.96080756 1.3004581 0.46586791 0 62
-0.96622044 1.3077844 0.48473284 0 63
-0.97691607 1.2887986 -0.48211172 0 0
-0.97910619 1.2916878 -0.46700376 0 1
-0.97015065 1.2798733 -0.44677633 0 2
-0.97632903 1.2880241 -0.43364608 0 3
-0.97786164 1.290046 -0.41840494 0 4
-0.98273498 1.2964752 -0.40456483 0 5
-0.97614795 1.2877852 -0.38610679 0 6
-0.97927558 1.2919114 -0.37161636 0 7
-0.9741264 1.2851182 -0.35408333 0 8
-0.9728896 1.2834866 -0.3381373 0 9
-0.98224664 1.2958308 -0.3258042 0 10
-0.96886057 1.2781713 -0.30604786 0 11
-0.98091984 1.2940805 -0.29440463 0 12
-0.9686591 1.2779055 -0.27551615 0 13
-0.97529262 1.2866567 -0.26213849 0 14
-0.97298729 1.2836155 -0.24633591 0 15
-0.97671831 1.2885376 -0.23208216 0 16
-0.9852066 1.2997358 -0.21880908 0 17
-0.97855312 1.2909582 -0.20218207 0 18
-0.97634387 1.2880436 -0.18664515 0 19
-0.98153198 1.294888 -0.17250854 0 20
-0.97616583 1.2878088 -0.15654907 0 21
-0.97440791 1.2854896 -0.14130452 0 22
-0.97662401 1.2884132 -0.1266534 0 23
-0.97631454 1.288005 -0.11166707 0 24
-0.9774552 1.2895098 -0.096852876 0 25
-0.97278702 1.2833512 -0.081533402 0 26
-0.97578269 1.2873033 -0.066895694 0 27
-0.98015428 1.2930706 -0.052251287 0 28
-0.97651124 1.2882645 -0.037177335 0 29
-0.97878569 1.291265 -0.022355834 0 30
-0.97149074 1.2816411 -0.0073959879 0 31
-0.96312189 1.2706006 0.0073322756 0 32
-0.97557366 1.2870276 0.02228247 0 33
-0.9700914 1.2797951 0.036932923 0 34
-0.97753882 1.28962 0.052111857 0 35
-0.97289997 1.2835002 0.066698067 0 36
-0.97292376 1.2835317 0.081544869 0 37
-0.97759587 1.2896954 0.096866816 0 38
-0.96381491 1.2715148 0.11023741 0 39
-0.97749031 1.2895561 0.12676574 0 40
-0.97854948 1.2909534 0.14190511 0 41
-0.97199112 1.2823012 0.15587956 0 42
-0.97539312 1.2867893 0.1714296 0 43
-0.98173094 1.2951505 0.18767498 0 44
-0.96963936 1.2791988 0.20034036 0 45
-0.97682464 1.2886779 0.2169475 0 46
-0.98128217 1.2945585 0.23316659 0 47
-0.97956485 1.292293 0.24800119 0 48
-0.97939241 1.2920654 0.26324043 0 49
-0.97411829 1.2851075 0.27706891 0 50
-0.97589177 1.2874472 0.29289553 0 51
-0.97912556 1.2917134 0.30929041 0 52
-0.9804979 1.2935238 0.32522413 0 53
-0.98231405 1.2959198 0.34141284 0 54
-0.97664946 1.2884468 0.35500044 0 55
-0.96844423 1.277622 0.36750606 0 56
-0.98317158 1.2970511 0.3888849 0 57
-0.97235346 1.2827792 0.40029103 0 58
-0.97700882 1.2889209 0.41804004 0 59
-0.97272146 1.2832648 0.43204373 0 60
-0.97359937 1.284423 0.44836456 0 61
-0.97998846 1.2928517 0.46742457 0 62
-0.98310453 1.2969626 0.48516572 0 63
-0.98380238 1.2652607 -0.47779593 0 0
-0.98214543 1.2631297 -0.46101022 0 1
-0.98749316 1.2700074 -0.4475373 0 2
-0.98065072 1.2612075 -0.42864498 0 3
-0.98333144 1.2646551 -0.41406021 0 4
-0.98306638 1.2643142 -0.39827105 0 5
-0.97669011 1.2561136 -0.38018304 0 6
-0.98220164 1.2632021 -0.36680454 0 7
-0.98670632 1.2689955 -0.35295737 0 8
-0.98551714 1.2674661 -0.33708379 0 9
-0.98711503 1.2695211 -0.32221669 0 10
-0.99044126 1.2737991 -0.30789381 0 11
-0.98603308 1.2681296 -0.29123715 0 12
-0.98402828 1.2655513 -0.27544054 0 13
-0.98162228 1.2624569 -0.25964767 0 14
-0.98883057 1.2717274 -0.2463693 0 15
-0.98501092 1.2668151 -0.23033379 0 16
-0.97900563 1.2590917 -0.21397714 0 17
-0.97626102 1.2555618 -0.19850358 0 18
-0.98276323 1.2639242 -0.18488726 0 19
-0.98097259 1.2616214 -0.16967082 0 20
-0.98600072 1.268088 -0.15561385 0 21
-0.98005223 1.2604377 -0.13986488 0 22
-0.98737067 1.2698499 -0.12601256 0 23
-0.98202616 1.2629764 -0.1105357 0 24
-0.98041546 1.2609049 -0.095602661 0 25
-0.99012256 1.2733891 -0.081667818 0 26
-0.9873181 1.2697823 -0.066611059 0 27
-0.98485547 1.2666152 -0.051667713 0 28
-0.98566365 1.2676545 -0.03692954 0 29
-0.98083287 1.2614417 -0.022046642 0 30
-0.98570997 1.267714 -0.0073850057 0 31
-0.98676151 1.2690665 0.0073928838 0 32
-0.97913665 1.2592602 0.022008516 0 33
-0.98480386 1.2665488 0.036897328 0 34
-0.98121756 1.2619364 0.051476859 0 35
-0.98456126 1.2662368 0.066425063 0 36
-0.97878611 1.2588094 0.080732763 0 37
-0.98659706 1.268855 0.096205443 0 38
-0.98845053 1.2712387 0.11125882 0 39
-0.98618114 1.26832 0.12586075 0 40
-0.97909796 1.2592105 0.1397287 0 41
-0.99255621 1.2765191 0.15664847 0 42
-0.98729181 1.2697484 0.17076382 0 43
-0.98126781 1.262001 0.18460593 0 44
-0.97882706 1.258862 0.19902533 0 45
-0.98143625 1.2622178 0.2145084 0 46
-0.97750682 1.2571641 0.22857903 0 47
-0.97781384 1.2575589 0.24362448 0 48
-0.98071134 1.2612854 0.25940672 0 49
-0.98463398 1.2663302 0.27561009 0 50
-0.9901194 1.273385 0.29244408 0 51
-0.98270148 1.2638448 0.30548778 0 52
-0.97881097 1.2588414 0.31950608 0 53
-0.98234987 1.2633927 0.33600044 0 54
-0.97778088 1.2575165 0.34976465 0 55
-0.98437685 1.2659996 0.36761689 0 56
-0.99440175 1.2788925 0.38707742 0 57
-0.98033077 1.260796 0.39716277 0 58
-0.98223907 1.2632502 0.41360024 0 59
-0.97957283 1.2598212 0.42817384 0 60
-0.98200202 1.2629454 0.44504872 0 61
-0.98178041 1.2626604 0.46083891 0 62
-0.97904718 1.2591451 0.47548655 0 63
-0.98200721 1.2314029 -0.46953475 0 0
-0.98736507 1.2381214 -0.45627952 0 1
-0.99018377 1.2416561 -0.44180378 0 2
-0.99015778 1.2416234 -0.42609483 0 3
-0.98943383 1.2407156 -0.41017464 0 4
-0.9972893 1.2505661 -0.39777321 0 5
-0.98710233 1.237792 -0.37828282 0 6
-0.99108028 1.2427802 -0.36438572 0 7
-0.98451757 1.2345508 -0.34671792 0 8
-0.98592681 1.2363179 -0.33199903 0 9
-0.98867208 1.2397604 -0.31772473 0 10
-0.98716617 1.237872 -0.30212104 0 11
-0.98482138 1.2349317 -0.28637242 0 12
-0.98349267 1.2332655 -0.27102533 0 13
-0.98943138 1.2407125 -0.2576583 0 14
-0.98896092 1.2401226 -0.24258409 0 15
-0.99061042 1.242191 -0.22805414 0 16
-0.98778737 1.238651 -0.21255149 0 17
-0.97688198 1.2249761 -0.19555232 0 18
-0.99412513 1.2465984 -0.18412705 0 19
-0.98734748 1.2380995 -0.16812752 0 20
-0.98758626 1.2383988 -0.15344918 0 21
-0.98595268 1.2363503 -0.13852686 0 22
-0.9936021 1.2459425 -0.12484312 0 23
-0.98966742 1.2410085 -0.10966985 0 24
-0.98550045 1.2357832 -0.094609581 0 25
-0.98719698 1.2379106 -0.080164902 0 26
-0.98741144 1.2381796 -0.065585203 0 27
-0.98545867 1.2357309 -0.05089834 0 28
-0.98981762 1.2411969 -0.03651059 0 29
-0.99224281 1.244238 -0.02195755 0 30
-0.98005146 1.2289505 -0.0072288471 0 31
-0.99132156 1.2430828 0.0073119751 0 32
-0.99394488 1.2463723 0.021995215 0 33
-0.99209136 1.2440481 0.036594458 0 34
-0.98980415 1.2411799 0.051122781 0 35
-0.99221385 1.2442017 0.065904185 0 36
-0.99135882 1.2431295 0.08050286 0 37
-0.99374539 1.2461221 0.095401108 0 38
-0.99094343 1.2426085 0.10981125 0 39
-0.99493629 1.2476155 0.12501076 0 40
-0.98600549 1.2364166 0.13853428 0 41
-0.98314154 1.2328253 0.15275857 0 42
-0.98591709 1.2363057 0.16788395 0 43
-0.98838133 1.2393957 0.18306321 0 44
-0.98718315 1.2378933 0.1976144 0 45
-0.98540074 1.2356583 0.21203794 0 46
-0.98159105 1.230881 0.22597773 0 47
-0.98364931 1.233462 0.2412812 0 48
-0.98897487 1.2401401 0.25753942 0 49
-0.98967946 1.2410237 0.27273026 0 50
-0.99040079 1.2419281 0.28799483 0 51
-0.98388195 1.2337538 0.3011159 0 52
-0.9885416 1.2395967 0.3176828 0 53
-0.98772138 1.2385682 0.33260334 0 54
-0.99144316 1.2432352 0.34915692 0 55
-0.98688471 1.237519 0.36284316 0 56
-0.98662585 1.2371945 0.37810022 0 57
-0.98818666 1.2391517 0.39414257 0 58
-0.99087006 1.2425166 0.41077003 0 59
-0.9899053 1.2413068 0.42598617 0 60
-0.98635757 1.236858 0.44009659 0 61
-0.99002361 1.2414552 0.45750809 0 62
-0.97800547 1.2263849 0.46762136 0 63
-0.99443251 1.2160058 -0.46829095 0 0
-0.99198556 1.2130136 -0.45148775 0 1
-0.99497479 1.2166688 -0.43723318 0 2
-0.9924109 1.2135336 -0.42061114 0 3
-0.99535006 1.2171277 -0.40639213 0 4
-0.99641353 1.2184281 -0.39141852 0 5
-1.010713 1.2359136 -0.38147813 0 6
-0.99575639 1.2176247 -0.36057287 0 7
-0.99202049 1.2130563 -0.34408113 0 8
-1.0045272 1.2283497 -0.3331511 0 9
-0.9959994 1.2179217 -0.31524283 0 10
-0.99470639 1.2163407 -0.29982856 0 11
-0.99989307 1.222683 -0.28636155 0 12
-1.0034542 1.2270377 -0.27234772 0 13
-0.99107766 1.2119033 -0.25418714 0 14
-1.0007548 1.2237368 -0.2417677 0 15
-1.0001774 1.2230307 -0.22677726 0 16
-0.99540436 1.2171942 -0.21095394 0 17
-0.99651122 1.2185477 -0.19646738 0 18
-0.99615282 1.2181094 -0.18171464 0 19
-1.0021111 1.2253952 -0.16806297 0 20
-1.008132 1.2327576 -0.15427455 0 21
-0.99821913 1.220636 -0.13813102 0 22
-0.99360543 1.2149944 -0.12295705 0 23
-1.000948 1.2239729 -0.10924383 0 24
-0.99288797 1.2141171 -0.093878455 0 25
-0.99177974 1.2127619 -0.079320066 0 26
-0.98619622 1.2059343 -0.064514659 0 27
-0.99160999 1.2125543 -0.050442141 0 28
-0.99274439 1.2139415 -0.03606521 0 29
-0.99986285 1.222646 -0.021791833 0 30
-0.99248147 1.2136201 -0.0072099124 0 31
-1.0081822 1.2328191 0.0073239706 0 32
-0.99469846 1.216331 0.021679275 0 33
-0.99307317 1.2143435 0.036077157 0 34
-1.0007592 1.2237421 0.050907549 0 35
-0.98922467 1.2096375 0.064712778 0 36
-0.99562371 1.2174624 0.079627506 0 37
-0.99907476 1.2216823 0.094463423 0 38
-0.99770081 1.2200023 0.10888943 0 39
-0.99303734 1.2142997 0.12288675 0 40
-0.98919612 1.2096026 0.13688244 0 41
-0.99431109 1.2158573 0.15215954 0 42
-0.99352032 1.2148904 0.16662224 0 43
-0.99478906 1.2164418 0.18146586 0 44
-0.98701638 1.2069372 0.19459543 0 45
-0.99932921 1.2219936 0.21178572 0 46
-0.99493027 1.2166144 0.22558753 0 47
-0.99429607 1.2158389 0.24020736 0 48
-0.9953838 1.2171689 0.25529155 0 49
-0.99955803 1.2222732 0.27129024 0 50
-0.99222738 1.2133093 0.28416616 0 51
-0.99310809 1.2143862 0.2993468 0 52
-0.99567407 1.2175239 0.31513986 0 53
-0.99789357 1.220238 0.33095106 0 54
-0.99488258 1.2165561 0.34507385 0 55
-0.99726194 1.2194656 0.36111802 0 56
-0.99777478 1.2200928 0.37659481 0 57
-0.99107897 1.211905 0.38932294 0 58
-0.99893802 1.2215152 0.40785706 0 59
-0.99600029 1.2179229 0.42213243 0 60
-0.99437302 1.215933 0.43696871 0 61
-0.99415654 1.2156683 0.45247585 0 62
-0.99193078 1.2129465 0.46711287 0 63
-0.99666941 1.1886133 -0.46242666 0 0
-0.99339628 1.1847097 -0.44546583 0 1
-1.0056503 1.1993237 -0.43541086 0 2
-1.0006404 1.193349 -0.4178482 0 3
-1.0075521 1.2015917 -0.40531084 0 4
-1.0073907 1.2013993 -0.38989797 0 5
-1.0040992 1.1974739 -0.37339604 0 6
-1.0100335 1.2045511 -0.36035204 0 7
-1.0064079 1.200227 -0.34392637 0 8
-1.0104382 1.2050337 -0.33017224 0 9
-1.0029402 1.1960917 -0.31276092 0 10
-0.99472064 1.1862891 -0.29541358 0 11
-1.0033259 1.1965517 -0.28310949 0 12
-1.0028006 1.1959252 -0.26815876 0 13
-0.99840468 1.1906826 -0.25229216 0 14
-1.0031732 1.1963695 -0.23877992 0 15
-1.0102158 1.2047684 -0.22567728 0 16
-0.99510843 1.1867516 -0.20778286 0 17
-0.99865997 1.1909871 -0.19398902 0 18
-1.0019251 1.1948811 -0.18007378 0 19
-0.99684584 1.1888237 -0.16471587 0 20
-1.0037669 1.1970776 -0.15134256 0 21
-0.99364448 1.1850058 -0.1354714 0 22
-1.0097094 1.2041644 -0.12310824 0 23
-0.99734092 1.189414 -0.1072458 0 24
-1.0021316 1.1951274 -0.093355887 0 25
-1.0102212 1.2047749 -0.079604134 0 26
-1.0017098 1.1946243 -0.064563684 0 27
-1.0040205 1.1973799 -0.05032067 0 28
-1.0027335 1.1958451 -0.035891186 0 29
-0.99577588 1.1875476 -0.021382879 0 30
-1.0011317 1.1939348 -0.0071655582 0 31
-1.0004057 1.193069 0.0071603619 0 32
-1.0109097 1.2055959 0.021707855 0 33
-1.0062784 1.2000726 0.03601807 0 34
-1.008418 1.2026243 0.050541066 0 35
-0.99533457 1.1870213 0.064152777 0 36
-0.99566281 1.1874127 0.078456946 0 37
-0.99101663 1.1818718 0.09232045 0 38
-0.99857134 1.1908814 0.10737811 0 39
-1.0003192 1.192966 0.12196336 0 40
-1.0037841 1.197098 0.1368538 0 41
-1.0027583 1.1958747 0.15119047 0 42
-1.004729 1.198225 0.16601846 0 43
-1.0011811 1.1939938 0.17994006 0 44
-1.0089674 1.2032795 0.19599123 0 45
-1.0035759 1.1968498 0.2095509 0 46
-0.99776721 1.1899225 0.22289635 0 47
-1.0013288 1.1941699 0.23834088 0 48
-1.0035535 1.196823 0.25359324 0 49
-1.0060886 1.1998464 0.26903799 0 50
-1.0098609 1.2043451 0.28495347 0 51
-0.99736112 1.1894382 0.29619777 0 52
-1.0004822 1.1931603 0.31199437 0 53
-1.006279 1.2000735 0.32881317 0 54
-1.0090939 1.2034304 0.34484428 0 55
-1.0020144 1.1949875 0.35749105 0 56
-1.0094326 1.2038343 0.37537935 0 57
-1.0157704 1.2113928 0.39314121 0 58
-1.0003707 1.1930274 0.40242195 0 59
-1.004178 1.1975679 0.41932544 0 60
-1.0056521 1.1993258 0.43541163 0 61
-0.99790454 1.1900862 0.44748747 0 62
-1.0057569 1.1994509 0.46664298 0 63
-1.0099975 1.1748598 -0.46187273 0 0
-1.0109107 1.1759222 -0.4468019 0 1
-1.0050013 1.1690482 -0.42887354 0 2
-1.0108056 1.1757998 -0.41602409 0 3
-1.0067368 1.1710669 -0.39915994 0 4
-1.0144374 1.1800245 -0.38698006 0 5
-1.0131927 1.1785765 -0.37136024 0 6
-1.00904 1.1737461 -0.3548215 0 7
-1.015686 1.181477 -0.34210646 0 8
-1.0124199 1.1776778 -0.32606325 0 9
-1.0195655 1.1859896 -0.31337392 0 10
-1.0103968 1.1753243 -0.2957547 0 11
-0.99990815 1.1631236 -0.27808836 0 12
-1.0054252 1.1695411 -0.26499489 0 13
-1.0080429 1.1725863 -0.25106519 0 14
-1.0154074 1.1811528 -0.23821686 0 15
-1.0031784 1.1669276 -0.22088295 0 16
-1.0102955 1.1752065 -0.20792088 0 17
-1.0060186 1.1702316 -0.1926087 0 18
-1.0078518 1.172364 -0.17853454 0 19
-1.0104271 1.1753596 -0.16455942 0 20
-1.0074723 1.1719224 -0.14971717 0 21
-1.0052855 1.1693786 -0.13508786 0 22
-1.0078977 1.1724174 -0.12112048 0 23
-1.0122021 1.1774243 -0.10727888 0 24
-1.0140789 1.1796074 -0.093110576 0 25
-1.002236 1.1658314 -0.077839397 0 26
-1.0082657 1.1728454 -0.064051852 0 27
-1.0063932 1.1706672 -0.04971436 0 28
-1.0094713 1.1742479 -0.035612844 0 29
-1.0082351 1.1728098 -0.021339132 0 30
-1.0062026 1.1704456 -0.0070983041 0 31
-1.005312 1.1694095 0.0070920209 0 32
-1.0014633 1.1649326 0.021195807 0 33
-1.0154263 1.1811748 0.035822924 0 34
-1.0149995 1.1806784 0.050139502 0 35
-1.0207858 1.1874092 0.064847216 0 36
-1.009329 1.1740822 0.078390278 0 37
-1.0084769 1.1730911 0.092596211 0 38
-1.0034925 1.167293 0.10635577 0 39
-1.0119821 1.1771684 0.12161129 0 40
-1.0132802 1.1786784 0.13616218 0 41
-1.0114961 1.1766031 0.15031514 0 42
-1.0039846 1.1678654 0.16351017 0 43
-1.0132275 1.1786171 0.1794868 0 44
-0.99808943 1.161008 0.1910906 0 45
-1.0141857 1.1797317 0.20872147 0 46
-1.0112013 1.17626 0.22264946 0 47
-1.0157576 1.1815602 0.23829903 0 48
-1.0049522 1.168991 0.2502954 0 49
-1.0111243 1.1761705 0.26649696 0 50
-1.0146699 1.180295 0.28219384 0 51
-1.0015734 1.1650608 0.293172 0 52
-1.0076505 1.1721298 0.30971175 0 53
-1.0104109 1.1753408 0.32541621 0 54
-1.0135546 1.1789975 0.34138855 0 55
-1.0080402 1.1725831 0.3544699 0 56
-1.0075657 1.1720312 0.36929786 0 57
-1.010517 1.1754642 0.38548455 0 58
-1.00489 1.1689186 0.39842772 0 59
-1.0086511 1.1732937 0.41513735 0 60
-1.0178145 1.1839528 0.43434143 0 61
-1.0138339 1.1793225 0.44809389 0 62
-1.0181683 1.1843643 0.46560925 0 63
-1.019271 1.1565706 -0.45957518 0 0
-1.0218912 1.1595436 -0.4453195 0 1
-1.0176951 1.1547823 -0.42819852 0 2
-1.0156183 1.1524258 -0.41214138 0 3
-1.0204053 1.1578577 -0.39890417 0 4
-1.0133556 1.1498582 -0.38114485 0 5
-1.0152913 1.1520547 -0.36690944 0 6
-1.0166194 1.1535617 -0.35247213 0 7
-1.0180742 1.1552124 -0.3381007 0 8
-1.0076585 1.1433938 -0.31997743 0 9
-1.0141064 1.1507101 -0.30732372 0 10
-1.0129731 1.1494242 -0.29234955 0 11
-1.0210488 1.1585878 -0.27998456 0 12
-1.0197616 1.1571271 -0.26500326 0 13
-1.0148212 1.1515213 -0.24920793 0 14
-1.0278597 1.1663162 -0.23775567 0 15
-1.0106177 1.1467516 -0.21939959 0 16
-1.0067291 1.1423392 -0.20428061 0 17
-1.0229968 1.1607981 -0.19311187 0 18
-1.004972 1.1403453 -0.17552717 0 19
-1.0113194 1.1475477 -0.16239436 0 20
-1.01819 1.1553439 -0.14918742 0 21
-1.0208424 1.1583536 -0.1352541 0 22
-1.0181744 1.1553262 -0.12063911 0 23
-1.0178065 1.1549088 -0.10635969 0 24
-1.0070757 1.1427324 -0.091170482 0 25
-1.0146459 1.1513224 -0.077697814 0 26
-1.0158505 1.1526892 -0.06362845 0 27
-1.0076486 1.1433824 -0.049078144 0 28
-1.0106933 1.1468374 -0.035155792 0 29
-1.0188911 1.1561395 -0.021262167 0 30
-1.0203887 1.1578388 -0.0070974058 0 31
-1.009657 1.1456615 0.0070227613 0 32
-1.0196335 1.1569818 0.021277659 0 33
-1.0089831 1.1448969 0.035096306 0 34
-1.007291 1.1429768 0.049060728 0 35
-1.0208436 1.158355 0.063941196 0 36
-1.0099179 1.1459575 0.07733576 0 37
-1.007809 1.1435645 0.091236867 0 38
-1.0192655 1.1565642 0.10651215 0 39
-1.0206769 1.1581657 0.12093561 0 40
-1.0199417 1.1573316 0.13513477 0 41
-1.009662 1.1456672 0.14793788 0 42
-1.013335 1.1498349 0.16271803 0 43
-1.0168357 1.1538072 0.17759928 0 44
-1.0149821 1.1517038 0.19159892 0 45
-1.0209571 1.1584836 0.20716767 0 46
-1.0187999 1.1560359 0.22117589 0 47
-1.0108401 1.1470038 0.23381881 0 48
-1.0195984 1.156942 0.25038105 0 49
-1.0186573 1.1558741 0.2647163 0 50
-1.0193965 1.1567129 0.27953148 0 51
