# .PCD v0.7 - Point Cloud Data file format
VERSION 0.7
FIELDS x y z intensity ring
SIZE 4 4 4 4 2
TYPE F F F F U
COUNT 1 1 1 1 1
WIDTH 1295
HEIGHT 1
VIEWPOINT 0 0 0 1 0 0 0
POINTS 1295
DATA ascii
2.341676 0.79121357 -0.23945254 0 21
2.3480792 0.79337716 -0.21711698 0 22
2.3415725 0.79117858 -0.19362563 0 23
2.3514855 0.79452801 -0.17149182 0 24
2.350565 0.79421699 -0.14850931 0 25
2.3369362 0.78961205 -0.1248908 0 26
2.3427351 0.79157138 -0.10240803 0 27
2.3462234 0.79275006 -0.079751283 0 28
2.3457816 0.79260075 -0.056944832 0 29
2.3564799 0.79621553 -0.034318853 0 30
2.3366406 0.78951222 -0.011342668 0 31
2.3385873 0.79016995 0.011352117 0 32
2.3287854 0.78685808 0.033915523 0 33
2.3462777 0.79276848 0.056956884 0 34
2.3429472 0.79164308 0.079639919 0 35
2.3411303 0.79102921 0.10233788 0 36
2.3358862 0.78925729 0.12483469 0 37
2.3313932 0.78773922 0.14729804 0 38
2.3387108 0.79021168 0.17056017 0 39
2.3443205 0.79210716 0.19385287 0 40
2.3471537 0.79306436 0.21703139 0 41
2.3375545 0.78982097 0.23903109 0 42
2.3447204 0.79224223 0.26276225 0 43
2.3407919 0.79091489 0.28532675 0 44
2.3530347 0.79505146 0.3099933 0 45
2.3446217 0.79220885 0.3320294 0 46
2.3372507 0.78971839 0.35411432 0 47
2.3379538 0.78995591 0.37741768 0 48
2.3479526 0.79333436 0.40239349 0 49
2.351743 0.79461503 0.42651248 0 50
2.3522885 0.79479933 0.45016053 0 51
2.3513997 0.7944991 0.47360936 0 52
2.3412528 0.79107058 0.49516529 0 53
2.3430686 0.79168415 0.51925451 0 54
2.3524561 0.79485595 0.54522711 0 55
2.3497798 0.79395169 0.56856853 0 56
2.3456995 0.79257309 0.59160239 0 57
2.3481531 0.79340208 0.61637336 0 58
2.3433716 0.79178655 0.63933188 0 59
2.351258 0.79445118 0.66589421 0 60
2.3450582 0.79235631 0.68860531 0 61
2.3384628 0.79012793 0.71119195 0 62
2.350915 0.79433525 0.73976386 0 63
2.2899227 0.8052305 -0.7236324 0 0
2.2861974 0.80392051 -0.69825017 0 1
2.2951491 0.80706829 -0.67681289 0 2
2.3078632 0.81153917 -0.65638107 0 3
2.2990785 0.80845004 -0.62991208 0 4
2.2991414 0.80847222 -0.60607189 0 5
2.3162534 0.81448948 -0.58665746 0 6
2.2943103 0.80677336 -0.55750507 0 7
2.2935138 0.80649322 -0.53382421 0 8
2.3131022 0.81338137 -0.51479119 0 9
2.3014061 0.80926853 -0.48880553 0 10
2.3094878 0.81211042 -0.46714368 0 11
2.2935612 0.80650997 -0.44078639 0 12
2.2923961 0.80610019 -0.4175154 0 13
2.3139594 0.81368279 -0.39825234 0 14
2.2936594 0.80654448 -0.37184012 0 15
2.2941532 0.80671811 -0.34906119 0 16
2.3189321 0.81543136 -0.32978645 0 17
2.2981379 0.8081193 -0.30404723 0 18
2.2948301 0.80695617 -0.28091261 0 19
2.3161914 0.81446767 -0.26066777 0 20
2.3033259 0.80994362 -0.23653153 0 21
2.3008735 0.80908132 -0.21365586 0 22
2.3016531 0.80935544 -0.19113319 0 23
2.3084507 0.81174576 -0.1690685 0 24
2.2977977 0.80799967 -0.14579216 0 25
2.3023002 0.80958289 -0.12356245 0 26
2.2981873 0.8081367 -0.10088747 0 27
2.307483 0.81140542 -0.078767635 0 28
2.3005223 0.80895776 -0.056083385 0 29
2.2876399 0.80442774 -0.033457823 0 30
2.291445 0.80576581 -0.011170529 0 31
2.3063245 0.81099808 0.011243064 0 32
2.3077874 0.81151247 0.03375249 0 33
2.3025856 0.80968332 0.056133684 0 34
2.3115413 0.81283247 0.078906171 0 35
2.2965434 0.80755866 0.1008153 0 36
2.3013673 0.80925494 0.12351239 0 37
2.2993672 0.80855155 0.14589176 0 38
2.3047814 0.8104555 0.16879977 0 39
2.3040013 0.81018108 0.19132817 0 40
2.2969 0.80768406 0.21328688 0 41
2.3005128 0.80895442 0.23624264 0 42
2.2997878 0.80869949 0.2588217 0 43
2.3034871 0.8100003 0.28197229 0 44
2.3026505 0.80970615 0.30464426 0 45
2.3092487 0.81202626 0.32840931 0 46
2.2968535 0.80766773 0.34947208 0 47
2.3048353 0.81047446 0.37365192 0 48
2.2999029 0.80873996 0.3958331 0 49
2.3024831 0.80964726 0.41935259 0 50
2.2947211 0.80691791 0.44100931 0 51
2.3039827 0.81017464 0.46603018 0 52
2.3079128 0.81155658 0.49018753 0 53
2.3043897 0.8103177 0.51285213 0 54
2.3099353 0.81226778 0.53764641 0 55
2.3116584 0.81287366 0.56172055 0 56
2.2969346 0.80769616 0.5817644 0 57
2.2955289 0.80720186 0.60511959 0 58
2.2974248 0.80786854 0.62945896 0 59
2.298682 0.80831063 0.65376979 0 60
2.2905395 0.80544734 0.67545354 0 61
2.304493 0.81035405 0.70383805 0 62
2.3031344 0.80987632 0.7278074 0 63
2.2499757 0.82240629 -0.71415049 0 0
2.2652473 0.82798839 -0.69490868 0 1
2.2554357 0.82440203 -0.66804075 0 2
2.2523322 0.82326764 -0.64341789 0 3
2.2596774 0.82595247 -0.62185246 0 4
2.2566469 0.82484472 -0.59749854 0 5
2.264024 0.82754123 -0.57596266 0 6
2.2535214 0.82370234 -0.55001318 0 7
2.2535779 0.82372302 -0.52684677 0 8
2.2546892 0.82412916 -0.50400829 0 9
2.2555535 0.82444507 -0.4811835 0 10
2.2588978 0.82566744 -0.45892966 0 11
2.259722 0.82596874 -0.43620196 0 12
2.2584097 0.8254891 -0.41314298 0 13
2.2406752 0.81900686 -0.38734353 0 14
2.2653308 0.8280189 -0.36887032 0 15
2.2602646 0.82616705 -0.34542456 0 16
2.271219 0.83017111 -0.32442817 0 17
2.2604802 0.82624584 -0.30038652 0 18
2.2501166 0.82245779 -0.27665621 0 19
2.2623253 0.82692033 -0.25573063 0 20
2.2680807 0.82902402 -0.2339413 0 21
2.2584527 0.82550478 -0.21064337 0 22
2.2568955 0.82493562 -0.18824455 0 23
2.250622 0.82264256 -0.16556153 0 24
2.247071 0.82134461 -0.14320362 0 25
2.2639797 0.82752502 -0.12204272 0 26
2.2516422 0.82301545 -0.099280953 0 27
2.2476709 0.82156384 -0.077064931 0 28
2.2516689 0.82302523 -0.055134963 0 29
2.2708387 0.83003211 -0.03335885 0 30
2.2643116 0.82764637 -0.01108703 0 31
2.247788 0.82160664 0.011006123 0 32
2.2568669 0.82492518 0.033153605 0 33
2.2494771 0.82222408 0.055081293 0 34
2.2552907 0.82434905 0.077326186 0 35
2.2520437 0.8231622 0.099298663 0 36
2.2536888 0.82376355 0.12148798 0 37
2.2579534 0.82532227 0.14389713 0 38
2.2386577 0.81826937 0.1646814 0 39
2.2528543 0.82345849 0.18790749 0 40
2.2462962 0.82106137 0.20950954 0 41
2.2637506 0.82744128 0.23349467 0 42
2.2600601 0.82609236 0.25547457 0 43
2.2481627 0.82174361 0.276416 0 44
2.2519956 0.82314467 0.29925904 0 45
2.2600918 0.82610393 0.32283872 0 46
2.2617168 0.82669795 0.3456465 0 47
2.2602756 0.82617116 0.36804718 0 48
2.2655153 0.82808638 0.39163762 0 49
2.2614429 0.82659781 0.41369784 0 50
2.2690196 0.82936722 0.43799675 0 51
2.2486024 0.8219043 0.45683798 0 52
2.2499697 0.82240415 0.47999236 0 53
2.2484217 0.82183826 0.50260729 0 54
2.2538097 0.82380766 0.52690089 0 55
2.2633157 0.82728231 0.55240363 0 56
2.2586355 0.82557166 0.57459188 0 57
2.2580218 0.8253473 0.59786254 0 58
2.2608685 0.82638782 0.62218022 0 59
2.2510359 0.82279378 0.64304763 0 60
2.2633877 0.82730865 0.67039609 0 61
2.2597599 0.82598263 0.69322526 0 62
2.2564728 0.82478118 0.71621275 0 63
2.2169654 0.84138304 -0.7069034 0 0
2.2121015 0.83953702 -0.6817205 0 1
2.2278552 0.84551591 -0.66290098 0 2
2.2199945 0.84253263 -0.63709158 0 3
2.2270234 0.84520018 -0.6156798 0 4
2.2115333 0.83932137 -0.58824182 0 5
2.2276893 0.8454529 -0.56932092 0 6
2.2309365 0.84668523 -0.54700059 0 7
2.232317 0.84720922 -0.52427214 0 8
2.2310407 0.84672481 -0.50101149 0 9
2.2180452 0.84179282 -0.47535411 0 10
2.2215407 0.84311938 -0.45341203 0 11
2.2186351 0.84201664 -0.43023691 0 12
2.2217026 0.84318084 -0.40829378 0 13
2.2191715 0.84222025 -0.38538736 0 14
2.2093408 0.83848929 -0.36140487 0 15
2.2218661 0.84324294 -0.34111518 0 16
2.2331057 0.84750855 -0.32044834 0 17
2.2161057 0.8410567 -0.29584172 0 18
2.2122848 0.83960658 -0.27325344 0 19
2.223038 0.84368759 -0.25244322 0 20
2.2315252 0.84690869 -0.23122746 0 21
2.2166698 0.8412708 -0.20769547 0 22
2.233835 0.84778535 -0.18717648 0 23
2.2153659 0.84077597 -0.16371615 0 24
2.2158937 0.84097624 -0.14186502 0 25
2.2180808 0.84180629 -0.12011739 0 26
2.2229996 0.84367305 -0.098468006 0 27
2.223644 0.84391761 -0.076591134 0 28
2.2158856 0.8409732 -0.054507855 0 29
2.1980531 0.83420539 -0.032437857 0 30
2.2114422 0.8392868 -0.010877869 0 31
2.221148 0.84297037 0.010925611 0 32
2.2144952 0.84044546 0.0326805 0 33
2.2155459 0.84084421 0.054499496 0 34
2.2068338 0.83753783 0.076012127 0 35
2.2140725 0.84028506 0.098072581 0 36
2.2177763 0.84169072 0.1201009 0 37
2.2178972 0.84173656 0.14199327 0 38
2.2284498 0.84574151 0.16468306 0 39
2.2079961 0.83797896 0.1850114 0 40
2.2085054 0.8381722 0.20693047 0 41
2.2208037 0.84283972 0.23011652 0 42
2.2131615 0.83993936 0.2513217 0 43
2.2156987 0.84090227 0.27367514 0 44
2.2074718 0.83778 0.29468915 0 45
2.2204962 0.84272295 0.31863889 0 46
2.2179337 0.84175044 0.34051141 0 47
2.227596 0.8454175 0.36439106 0 48
2.2141869 0.84032845 0.38452166 0 49
2.2081602 0.83804119 0.40580502 0 50
2.2162285 0.84110332 0.42977023 0 51
2.2148621 0.84058475 0.45204896 0 52
2.2145081 0.84045041 0.47459605 0 53
2.2222636 0.84339368 0.49904048 0 54
2.2124422 0.83966637 0.51960444 0 55
2.2252452 0.84452528 0.54560518 0 56
2.2191775 0.84222251 0.56714559 0 57
2.2165134 0.84121144 0.58956647 0 58
2.2144189 0.84041655 0.61219519 0 59
2.2241399 0.8441059 0.63828123 0 60
2.2160881 0.84104997 0.65939963 0 61
2.2159488 0.84099716 0.68290615 0 62
2.2075677 0.8378163 0.70390677 0 63
2.1779902 0.85737383 -0.6977846 0 0
2.1752577 0.85629815 -0.67356002 0 1
2.1784234 0.85754442 -0.65128088 0 2
2.1862733 0.86063457 -0.63040364 0 3
2.1893761 0.86185598 -0.60815573 0 4
2.176374 0.85673761 -0.58164805 0 5
2.1791165 0.85781723 -0.55956078 0 6
2.184191 0.85981482 -0.53809077 0 7
2.1934958 0.86347765 -0.51760924 0 8
2.182426 0.85911995 -0.49242949 0 9
2.1751089 0.85623956 -0.4683733 0 10
2.1868765 0.86087197 -0.44846377 0 11
2.181721 0.85884249 -0.42509434 0 12
2.1739154 0.85576981 -0.40141517 0 13
2.1884344 0.86148518 -0.3818602 0 14
2.1736312 0.85565794 -0.3572576 0 15
2.1821425 0.85900843 -0.33661276 0 16
2.1910448 0.86251289 -0.31591073 0 17
2.1720314 0.85502815 -0.29133949 0 18
2.1885192 0.86151862 -0.27160597 0 19
2.1863194 0.86065263 -0.24945647 0 20
2.181524 0.85876501 -0.22712344 0 21
2.1670976 0.85308594 -0.20401815 0 22
2.1756201 0.85644078 -0.18316713 0 23
2.1723061 0.85513622 -0.1612989 0 24
2.1747668 0.85610491 -0.13989538 0 25
2.1629453 0.85145134 -0.11768968 0 26
2.1708527 0.85456413 -0.096616313 0 27
2.1822793 0.85906231 -0.075524516 0 28
2.1841185 0.85978633 -0.053982411 0 29
2.1897643 0.86200875 -0.032469504 0 30
2.1829906 0.85934228 -0.01078908 0 31
2.1811104 0.85860211 0.010779787 0 32
2.1598499 0.85023284 0.032025937 0 33
2.1799912 0.85816157 0.053880397 0 34
2.186717 0.86080915 0.075678088 0 35
2.191124 0.862544 0.097518511 0 36
2.1788251 0.85770249 0.11855374 0 37
2.1706209 0.85447294 0.13962871 0 38
2.1864808 0.86071616 0.1623514 0 39
2.1817133 0.85883945 0.18368013 0 40
2.1902096 0.86218411 0.206194 0 41
2.184906 0.86009634 0.22747554 0 42
2.1848249 0.86006433 0.24928595 0 43
2.1674926 0.85324144 0.26899648 0 44
2.1815267 0.85876596 0.29261312 0 45
2.1796417 0.85802394 0.31426656 0 46
2.1760869 0.8566246 0.33567864 0 47
2.1815221 0.85876417 0.35855451 0 48
2.192682 0.86315733 0.38260141 0 49
2.1711762 0.85469151 0.40090939 0 50
2.1689084 0.85379875 0.42259791 0 51
2.1876063 0.86115927 0.44861344 0 52
2.182337 0.85908496 0.46992975 0 53
2.1720757 0.85504556 0.49009413 0 54
2.1781514 0.85743731 0.51398838 0 55
2.1755106 0.85639781 0.53595233 0 56
2.1845269 0.85994703 0.56095004 0 57
2.1900303 0.86211354 0.58529782 0 58
2.1801994 0.85824353 0.60560668 0 59
2.1770325 0.85699677 0.62773901 0 60
2.1706283 0.85447586 0.6489504 0 61
2.1734815 0.85559893 0.67301005 0 62
2.1913342 0.86262679 0.70205981 0 63
2.1349428 0.87089598 -0.68737209 0 0
2.1360886 0.87136334 -0.66469902 0 1
2.1399863 0.87295336 -0.64295 0 2
2.135978 0.87131822 -0.61894375 0 3
2.14255 0.87399912 -0.59808868 0 4
2.1458893 0.87536132 -0.576334 0 5
2.1354215 0.87109125 -0.55104947 0 6
2.140954 0.87334806 -0.53004462 0 7
2.1452661 0.87510711 -0.5087291 0 8
2.1423092 0.87390089 -0.4857657 0 9
2.1248348 0.86677265 -0.45980796 0 10
2.1399515 0.87293917 -0.44100875 0 11
2.137553 0.8719607 -0.41854596 0 12
2.1291113 0.86851716 -0.39508423 0 13
2.1387382 0.87244421 -0.37503231 0 14
2.1423774 0.87392867 -0.3538602 0 15
2.121238 0.86530536 -0.32883421 0 16
2.155844 0.87942207 -0.3123709 0 17
2.1454134 0.87516719 -0.28919077 0 18
2.1485512 0.8764472 -0.26796299 0 19
2.1424842 0.87397224 -0.24566256 0 20
2.1429143 0.87414771 -0.22420582 0 21
2.1409562 0.87334889 -0.2025528 0 22
2.1408932 0.87332332 -0.18113388 0 23
2.1252322 0.86693478 -0.15858312 0 24
2.1422753 0.87388706 -0.13848609 0 25
2.1276169 0.86790758 -0.1163393 0 26
2.1403072 0.87308419 -0.095727421 0 27
2.1271265 0.86770749 -0.073979445 0 28
2.1477649 0.87612641 -0.053346135 0 29
2.1421866 0.87385094 -0.031920947 0 30
2.1445205 0.87480295 -0.010651307 0 31
2.1449881 0.87499368 0.01065363 0 32
2.1315956 0.86953056 0.031763129 0 33
2.1352167 0.87100768 0.053034462 0 34
2.1304338 0.86905664 0.074094467 0 35
2.1442924 0.8747099 0.095905669 0 36
2.133229 0.87019682 0.11664617 0 37
2.130517 0.8690905 0.13772596 0 38
2.1288733 0.86842012 0.15885483 0 39
2.1541281 0.87872207 0.18225363 0 40
2.142415 0.8739441 0.20269084 0 41
2.139538 0.87277049 0.22385259 0 42
2.1266315 0.86750561 0.24384485 0 43
2.138968 0.87253791 0.26676777 0 44
2.1479626 0.87620705 0.28953436 0 45
2.1376469 0.87199903 0.30973423 0 46
2.1392417 0.87264961 0.33162516 0 47
2.1530766 0.87829322 0.35562742 0 48
2.146138 0.87546271 0.37632987 0 49
2.1484232 0.87639493 0.39866778 0 50
2.1424525 0.87395936 0.41950536 0 51
2.1337991 0.8704294 0.43974081 0 52
2.1296909 0.86875361 0.46085882 0 53
2.1363854 0.87148446 0.4844225 0 54
2.1527593 0.87816375 0.51050603 0 55
2.1463733 0.87555873 0.53138632 0 56
2.1549377 0.8790524 0.55608565 0 57
2.1372187 0.87182438 0.57400531 0 58
2.1390684 0.87257886 0.59711677 0 59
2.1552629 0.87918508 0.62453198 0 60
2.142766 0.87408721 0.64378512 0 61
2.1401954 0.87303859 0.66597694 0 62
2.1278367 0.86799723 0.68508416 0 63
2.1074023 0.89003962 -0.68197715 0 0
2.1038175 0.88852555 -0.65800709 0 1
2.1048129 0.888946 -0.63561839 0 2
2.1197443 0.89525211 -0.61738294 0 3
2.0988841 0.88644195 -0.58889759 0 4
2.0978224 0.8859936 -0.5663076 0 5
2.1038711 0.8885482 -0.54568607 0 6
2.0946589 0.8846575 -0.5212369 0 7
2.0974827 0.88585013 -0.49994302 0 8
2.0997717 0.88681692 -0.47855684 0 9
2.1088607 0.89065552 -0.4586865 0 10
2.1137211 0.89270824 -0.43783218 0 11
2.1126196 0.89224309 -0.41578072 0 12
2.0982912 0.88619155 -0.39135763 0 13
2.1099515 0.8911162 -0.37187782 0 14
2.1030066 0.88818312 -0.3491348 0 15
2.0994449 0.88667881 -0.32712132 0 16
2.0999925 0.8869102 -0.3058354 0 17
2.1014955 0.88754487 -0.28472042 0 18
2.1000831 0.88694841 -0.26325846 0 19
2.0949585 0.88478404 -0.24144238 0 20
2.1088176 0.89063734 -0.22176749 0 21
2.1124244 0.89216053 -0.20087615 0 22
2.1048882 0.88897777 -0.17899892 0 23
2.1074402 0.89005566 -0.15806022 0 24
2.088659 0.88212359 -0.13571104 0 25
2.1062117 0.88953674 -0.1157582 0 26
2.1110468 0.89157879 -0.09490189 0 27
2.1048048 0.8889426 -0.073577724 0 28
2.0935614 0.88419408 -0.052265931 0 29
2.1035399 0.88840836 -0.031505473 0 30
2.1029034 0.88813949 -0.010498053 0 31
2.0996974 0.88678551 0.01048205 0 32
2.0978866 0.88602066 0.031420797 0 33
2.1157553 0.89356732 0.052819997 0 34
2.1046057 0.8888585 0.073570766 0 35
2.1063204 0.88958269 0.094689421 0 36
2.0909183 0.88307774 0.11491767 0 37
2.101943 0.88773388 0.13657416 0 38
2.0935628 0.88419467 0.15701939 0 39
2.0985084 0.88628328 0.17845638 0 40
2.1003773 0.88707262 0.19973056 0 41
2.0993204 0.88662624 0.22076872 0 42
2.0891333 0.88232386 0.24077104 0 43
2.0944808 0.88458228 0.26255617 0 44
2.1052217 0.88911867 0.28522527 0 45
2.110189 0.89121652 0.30732036 0 46
2.101022 0.88734496 0.32736707 0 47
2.1017382 0.88764745 0.34892425 0 48
2.1056178 0.88928592 0.37111399 0 49
2.1078188 0.89021558 0.39313468 0 50
2.1026857 0.88804758 0.41382563 0 51
2.1036878 0.88847077 0.43575388 0 52
2.1150162 0.89325523 0.46002534 0 53
2.0999501 0.8868922 0.47859749 0 54
2.100636 0.88718188 0.50069463 0 55
2.0995314 0.88671541 0.52244937 0 56
2.0998955 0.88686919 0.54465491 0 57
2.103662 0.88845986 0.56788397 0 58
2.1046832 0.88889116 0.59052467 0 59
2.1156232 0.89351159 0.61618268 0 60
2.1078432 0.89022583 0.6365335 0 61
2.1018169 0.88768059 0.65738136 0 62
2.0931714 0.88402933 0.67737192 0 63
2.059696 0.89989167 -0.6700691 0 0
2.0775139 0.90767646 -0.65322173 0 1
2.0646744 0.90206677 -0.62679946 0 2
2.063792 0.90168124 -0.60427022 0 3
2.074522 0.90636921 -0.585145 0 4
2.0609717 0.9004491 -0.55930644 0 5
2.0725882 0.90552437 -0.54041934 0 6
2.0639062 0.90173113 -0.51630449 0 7
2.0654523 0.90240675 -0.49491596 0 8
2.0594907 0.89980203 -0.47186244 0 9
2.0403922 0.8914578 -0.44614479 0 10
2.0692742 0.90407646 -0.43089569 0 11
2.0672541 0.90319383 -0.40900725 0 12
2.0654054 0.90238613 -0.38726431 0 13
2.0640981 0.90181506 -0.36572301 0 14
2.0648179 0.90212947 -0.34461039 0 15
2.0705605 0.90463847 -0.32432947 0 16
2.0556438 0.89812124 -0.30096221 0 17
2.0745242 0.90637022 -0.28255486 0 18
2.0745337 0.90637439 -0.26143304 0 19
2.069931 0.90436339 -0.23982148 0 20
2.0559502 0.89825511 -0.21735294 0 21
2.0689931 0.90395367 -0.19778821 0 22
2.0633273 0.90147823 -0.17639394 0 23
2.0532908 0.8970933 -0.1548146 0 24
2.0727787 0.90560764 -0.13539253 0 25
2.0821896 0.90971923 -0.11504405 0 26
2.0568683 0.89865631 -0.092956044 0 27
2.0632637 0.9014504 -0.072507568 0 28
2.0661986 0.90273273 -0.051856015 0 29
2.0586476 0.89943373 -0.030996408 0 30
2.0518222 0.89645159 -0.010297298 0 31
2.0605457 0.90026289 0.010341078 0 32
2.0689845 0.90394992 0.031152047 0 33
2.0728171 0.90562439 0.052022122 0 34
2.0623209 0.90103859 0.072474442 0 35
2.0694735 0.90416354 0.093525708 0 36
2.0707448 0.904719 0.11441171 0 37
2.0684569 0.90371937 0.13511021 0 38
2.0745618 0.90638667 0.15641838 0 39
2.059633 0.89986414 0.17607811 0 40
2.0617423 0.90078574 0.19709507 0 41
2.0581961 0.89923638 0.21759039 0 42
2.0504053 0.89583254 0.23755924 0 43
2.0679336 0.90349072 0.26060128 0 44
2.0549972 0.89783877 0.27989525 0 45
2.0614626 0.90066355 0.30181414 0 46
2.0700829 0.90442979 0.32425466 0 47
2.0672758 0.90320331 0.34502059 0 48
2.0672445 0.90318972 0.3662805 0 49
2.0646787 0.90206867 0.38712806 0 50
2.0673151 0.90322047 0.40901932 0 51
2.0721471 0.90533167 0.43149394 0 52
2.0606303 0.90029997 0.45057002 0 53
2.0800335 0.90877736 0.47656915 0 54
2.0680039 0.90352148 0.49552733 0 55
2.075 0.90657812 0.51907974 0 56
2.0716579 0.90511793 0.54017675 0 57
2.0594118 0.89976752 0.55888313 0 58
2.0566814 0.89857459 0.58011281 0 59
2.0610909 0.90050119 0.60347939 0 60
2.0657518 0.90253752 0.62712657 0 61
2.0664995 0.90286416 0.64975846 0 62
2.0640442 0.90179145 0.67148376 0 63
2.0228672 0.91358334 -0.6616925 0 0
2.0268054 0.91536188 -0.64076829 0 1
2.0273767 0.91561991 -0.61884779 0 2
2.0409293 0.92174065 -0.60084933 0 3
2.0330305 0.91817331 -0.57658279 0 4
2.0348041 0.91897428 -0.55522972 0 5
2.0285425 0.91614646 -0.5318318 0 6
2.0284815 0.91611886 -0.5102222 0 7
2.0358131 0.91942996 -0.49048582 0 8
2.0398588 0.9212572 -0.46992442 0 9
2.0242555 0.91421032 -0.44504082 0 10
2.0367615 0.91985834 -0.42644855 0 11
2.0265884 0.91526389 -0.40315777 0 12
2.0307775 0.91715574 -0.3828572 0 13
2.0156374 0.91031814 -0.35909277 0 14
2.0277622 0.91579401 -0.34027964 0 15
2.0340476 0.91863269 -0.32035533 0 16
2.0167446 0.91081816 -0.29688439 0 17
2.0243232 0.91424084 -0.27722761 0 18
2.0286491 0.91619462 -0.25705099 0 19
2.0418015 0.92213446 -0.23785815 0 20
2.0438588 0.92306364 -0.21725819 0 21
2.0347638 0.91895616 -0.19558147 0 22
2.0188518 0.91176975 -0.17353708 0 23
2.0280328 0.91591614 -0.15374772 0 24
2.0268986 0.91540396 -0.13312085 0 25
2.0317535 0.91759664 -0.11287227 0 26
2.0310307 0.91727012 -0.092291124 0 27
2.0263608 0.91516101 -0.071600772 0 28
2.0360262 0.91952622 -0.051378656 0 29
2.0270953 0.91549277 -0.030688511 0 30
2.0250347 0.91456217 -0.010218528 0 31
2.0435863 0.92294061 0.010312142 0 32
2.0268893 0.91539979 0.030685395 0 33
2.0300794 0.91684049 0.051228594 0 34
2.0260861 0.91503698 0.071591064 0 35
2.0428965 0.92262906 0.092830315 0 36
2.0223241 0.91333801 0.11234842 0 37
2.0319071 0.9176659 0.13344978 0 38
2.0306528 0.91709942 0.15394635 0 39
2.0228453 0.91357338 0.17388035 0 40
2.0272648 0.91556937 0.19486065 0 41
2.0211265 0.91279715 0.2148418 0 42
2.0338097 0.91852522 0.23692717 0 43
2.043185 0.92275935 0.25889283 0 44
2.0224094 0.91337657 0.27696553 0 45
2.0398474 0.92125195 0.30028531 0 46
2.0290403 0.91637123 0.31956667 0 47
2.0235853 0.91390759 0.33957872 0 48
2.0283091 0.91604096 0.36135027 0 49
2.0297334 0.91668421 0.38266039 0 50
2.0331388 0.91822219 0.40446085 0 51
2.0278461 0.91583186 0.42458186 0 52
2.0244873 0.91431493 0.44509175 0 53
2.0157046 0.91034842 0.46435997 0 54
2.0208349 0.91266549 0.4868772 0 55
2.033597 0.91842914 0.51150888 0 56
2.0351191 0.91911656 0.53355598 0 57
2.0297079 0.91667271 0.55383915 0 58
2.0207016 0.91260529 0.57308626 0 59
2.0161021 0.91052794 0.59354013 0 60
2.0267439 0.91533411 0.61865461 0 61
2.0229249 0.91360933 0.63954151 0 62
2.023798 0.91400367 0.66199696 0 63
1.9853315 0.92618722 -0.6530903 0 0
1.9980289 0.93211073 -0.63524628 0 1
1.9939903 0.93022668 -0.61210203 0 2
2.007062 0.93632478 -0.59422344 0 3
2.0123119 0.93877399 -0.57393736 0 4
1.9996898 0.93288559 -0.54873687 0 5
2.0043483 0.93505883 -0.52846318 0 6
1.9965838 0.9314366 -0.50504166 0 7
1.9857985 0.92640501 -0.48114404 0 8
1.9891108 0.92795032 -0.46082735 0 9
1.9915314 0.92907953 -0.44032469 0 10
1.9971429 0.93169737 -0.42052031 0 11
1.9932445 0.92987877 -0.39876905 0 12
1.9821172 0.92468768 -0.37579864 0 13
1.9897779 0.92826152 -0.35649237 0 14
1.9931446 0.92983216 -0.33636373 0 15
2.010402 0.93788302 -0.31842351 0 16
1.9896598 0.92820638 -0.29455516 0 17
1.9999007 0.93298393 -0.27543327 0 18
1.9945668 0.93049562 -0.25416297 0 19
2.0007048 0.93335903 -0.2343899 0 20
1.9995075 0.93280053 -0.21374683 0 21
1.9851305 0.92609346 -0.19189079 0 22
1.9927858 0.92966473 -0.17226611 0 23
1.9948982 0.93065017 -0.15209182 0 24
1.990878 0.92877471 -0.13149525 0 25
1.9812856 0.92429972 -0.1106916 0 26
2.0077138 0.93662888 -0.091748007 0 27
1.9953614 0.93086636 -0.070904516 0 28
2.00635 0.9359926 -0.050916374 0 29
1.9796768 0.92354918 -0.030140284 0 30
2.0012879 0.93363106 -0.010155863 0 31
1.9944365 0.93043482 0.010121095 0 32
2.0036111 0.93471485 0.030504679 0 33
2.0039978 0.93489534 0.050856683 0 34
1.996842 0.93155706 0.070957132 0 35
1.9900482 0.92838758 0.090940729 0 36
1.9871751 0.92704725 0.11102064 0 37
2.0001774 0.93311304 0.13210946 0 38
2.0016987 0.93382275 0.15261029 0 39
1.9877566 0.92731857 0.17183137 0 40
1.9889714 0.92788523 0.19226205 0 41
1.9976357 0.93192732 0.21354674 0 42
2.0013592 0.93366432 0.23446658 0 43
1.9996262 0.93285584 0.25480765 0 44
2.000278 0.93315995 0.27548525 0 45
2.0099866 0.93768913 0.29756439 0 46
1.9882261 0.92753756 0.3149111 0 47
2.0033495 0.9345929 0.33808592 0 48
1.9987158 0.93243116 0.35809368 0 49
1.9817592 0.92452067 0.37573078 0 50
1.9953766 0.93087333 0.39919558 0 51
2.0069578 0.9362762 0.42258695 0 52
1.9977313 0.93197191 0.44169548 0 53
1.9910548 0.92885715 0.46127769 0 54
2.0069802 0.93628657 0.48627621 0 55
2.0033135 0.93457609 0.50674397 0 56
2.0047047 0.93522507 0.52855718 0 57
2.0040865 0.93493664 0.54994333 0 58
1.9963275 0.93131703 0.56937838 0 59
1.9923011 0.92943865 0.58985323 0 60
2.0004761 0.93325233 0.61409295 0 61
1.9997022 0.93289137 0.63577831 0 62
1.9983681 0.93226898 0.65737879 0 63
1.9680507 0.94776237 -0.65119016 0 0
1.9650948 0.94633889 -0.62842751 0 1
1.9687178 0.94808358 -0.60787678 0 2
1.9593993 0.94359607 -0.58350325 0 3
1.9631226 0.94538915 -0.56318092 0 4
1.9604148 0.94408506 -0.54110402 0 5
1.9644668 0.94603646 -0.52097583 0 6
1.9688444 0.94814456 -0.50093615 0 7
1.985677 0.95625073 -0.48392704 0 8
1.9598808 0.94382799 -0.45670974 0 9
1.9543942 0.94118571 -0.43463969 0 10
1.9642727 0.945943 -0.41601688 0 11
1.9690239 0.94823104 -0.3962262 0 12
1.964293 0.94595271 -0.3745963 0 13
1.9619536 0.94482613 -0.35356209 0 14
1.9390641 0.9338032 -0.32914999 0 15
1.9546177 0.94129336 -0.31139767 0 16
1.96803 0.94775236 -0.29305613 0 17
1.9652393 0.94640845 -0.27224177 0 18
1.9675876 0.94753933 -0.25219071 0 19
1.9586122 0.94321704 -0.23079994 0 20
1.9612451 0.94448489 -0.21088216 0 21
1.9664221 0.94697803 -0.19119351 0 22
1.9719921 0.94966042 -0.1714651 0 23
1.9629858 0.94532323 -0.15053366 0 24
1.9716412 0.94949144 -0.13098593 0 25
1.9634874 0.94556475 -0.11033849 0 26
1.9676173 0.94755363 -0.090441301 0 27
1.9601024 0.94393468 -0.070058756 0 28
1.9614487 0.944583 -0.050067864 0 29
1.9630609 0.94535941 -0.030062018 0 30
1.9630684 0.94536299 -0.010020145 0 31
1.9499756 0.93905783 0.0099533163 0 32
1.9518251 0.93994856 0.029889956 0 33
1.967942 0.94770998 0.050233614 0 34
1.9644951 0.94605005 0.070215754 0 35
1.9677465 0.94761586 0.09044724 0 36
1.9556051 0.94176888 0.10989555 0 37
1.9527292 0.94038391 0.12972951 0 38
1.9714005 0.94937551 0.15117894 0 39
1.9682075 0.94783783 0.17113602 0 40
1.948593 0.93839204 0.18945999 0 41
1.9665624 0.94704562 0.2114539 0 42
1.9557061 0.94181752 0.2304575 0 43
1.9700637 0.94873178 0.25250807 0 44
1.9646033 0.94610214 0.27215365 0 45
1.9621723 0.94493145 0.29218391 0 46
1.9714915 0.94941932 0.3140859 0 47
1.9591278 0.94346529 0.33255571 0 48
1.9703263 0.9488582 0.35507092 0 49
1.9647437 0.94616979 0.37468228 0 50
1.9504921 0.93930662 0.39249706 0 51
1.9599435 0.94385815 0.41509998 0 52
1.9555337 0.94173449 0.4348931 0 53
1.9532423 0.94063103 0.45516276 0 54
1.9721659 0.94974411 0.48063427 0 55
1.9547834 0.94137317 0.49735862 0 56
1.9680344 0.94775444 0.52192193 0 57
1.9682329 0.94785005 0.54326195 0 58
1.9599698 0.94387078 0.56227642 0 59
1.9620023 0.94484961 0.5842784 0 60
1.9656917 0.94662631 0.60694242 0 61
1.966314 0.94692594 0.62881738 0 62
1.9616508 0.94468039 0.64907253 0 63
1.9264127 0.95706606 -0.64125842 0 0
1.9257327 0.95672828 -0.61955512 0 1
1.9343001 0.96098459 -0.60085285 0 2
1.9432476 0.96542984 -0.58218455 0 3
1.9315891 0.95963776 -0.55747765 0 4
1.9399995 0.96381611 -0.53869957 0 5
1.9270023 0.95735896 -0.51412332 0 6
1.9346133 0.96114028 -0.49519631 0 7
1.914238 0.9510175 -0.4693312 0 8
1.9233571 0.95554805 -0.45090261 0 9
1.9366119 0.96213311 -0.43328336 0 10
1.9263831 0.95705134 -0.41045356 0 11
1.930989 0.95933962 -0.39091671 0 12
1.9311264 0.95940787 -0.37049308 0 13
1.9307568 0.95922422 -0.35003924 0 14
1.9318788 0.95978171 -0.3299087 0 15
1.9223268 0.95503616 -0.30810091 0 16
1.9311365 0.95941287 -0.28929725 0 17
1.9243349 0.95603377 -0.26818359 0 18
1.9415373 0.96458018 -0.2503531 0 19
1.9256721 0.95669812 -0.22828732 0 20
1.9141146 0.95095623 -0.20705615 0 21
1.942752 0.96518368 -0.19003166 0 22
1.9296087 0.95865387 -0.16879207 0 23
1.9333739 0.96052444 -0.1491573 0 24
1.9333401 0.96050769 -0.12921628 0 25
1.9211744 0.9544636 -0.10861203 0 26
1.9400339 0.96383327 -0.089711413 0 27
1.9314504 0.9595688 -0.069451146 0 28
1.921517 0.95463383 -0.04934448 0 29
1.9291309 0.95841652 -0.029720649 0 30
1.9305737 0.95913327 -0.0099137332 0 31
1.9305562 0.95912457 0.0099136429 0 32
1.9293387 0.9585197 0.029723849 0 33
1.9331397 0.96040815 0.04964295 0 34
1.926078 0.95689976 0.069257967 0 35
1.9258182 0.95677072 0.089054048 0 36
1.9312748 0.9594816 0.10918304 0 37
1.9283645 0.95803571 0.12888373 0 38
1.9428519 0.96523327 0.14988852 0 39
1.9288366 0.95827031 0.16872454 0 40
1.9309502 0.95932037 0.18887727 0 41
1.9363995 0.96202761 0.20946679 0 42
1.9284611 0.95808375 0.22861797 0 43
1.9240918 0.95591301 0.24810357 0 44
1.9234825 0.95561028 0.2680648 0 45
1.9279757 0.95784259 0.28882375 0 46
1.9320929 0.95988804 0.30966616 0 47
1.9415692 0.96459603 0.33156353 0 48
1.9168094 0.95229501 0.34751064 0 49
1.920561 0.95415884 0.36846611 0 50
1.9323921 0.96003675 0.39120075 0 51
1.9323245 0.96000314 0.4117195 0 52
1.9327632 0.96022105 0.43242228 0 53
1.9355203 0.96159083 0.4537541 0 54
1.9124941 0.95015109 0.46890363 0 55
1.9313672 0.95952749 0.49436539 0 56
1.935203 0.96143317 0.51631129 0 57
1.9358251 0.96174228 0.53754044 0 58
1.9291904 0.95844609 0.55678535 0 59
1.9306637 0.95917803 0.5784145 0 60
1.920738 0.95424682 0.59664011 0 61
1.9380647 0.96285492 0.62352258 0 62
1.9243679 0.95605022 0.64057773 0 63
1.8850826 0.96561158 -0.63140529 0 0
1.8954121 0.97090274 -0.61359477 0 1
1.9002351 0.97337323 -0.59394431 0 2
1.8898408 0.96804887 -0.56970739 0 3
1.8998516 0.97317678 -0.55172986 0 4
1.8959404 0.97117341 -0.52974129 0 5
1.9005864 0.97355318 -0.51023096 0 6
1.8944731 0.97042173 -0.48793924 0 7
1.8908305 0.96855587 -0.46647698 0 8
1.8978006 0.97212619 -0.44767979 0 9
1.8975496 0.97199762 -0.42718565 0 10
1.89851 0.9724896 -0.4070318 0 11
1.9157637 0.98132765 -0.39024779 0 12
1.8985744 0.97252256 -0.36651447 0 13
1.8982295 0.97234595 -0.34628364 0 14
1.89296 0.96964663 -0.32527402 0 15
1.8915762 0.96893781 -0.30505887 0 16
1.8934216 0.96988314 -0.28541237 0 17
1.9004073 0.97346145 -0.26649699 0 18
1.905237 0.9759354 -0.24720106 0 19
1.9067131 0.9766916 -0.22744632 0 20
1.8885075 0.96736598 -0.20555735 0 21
1.8996266 0.97306156 -0.18696958 0 22
1.8924457 0.96938324 -0.16657135 0 23
1.8950189 0.97070134 -0.14710802 0 24
1.904917 0.97577155 -0.12810886 0 25
1.8948712 0.9706257 -0.10779161 0 26
1.9099748 0.97836226 -0.08887101 0 27
1.9053788 0.97600806 -0.068940006 0 28
1.890752 0.96851563 -0.048856571 0 29
1.895573 0.97098517 -0.029385371 0 30
1.9168116 0.98186439 -0.0099043129 0 31
1.9024738 0.97452003 0.009830229 0 32
1.8936806 0.97001576 0.029356036 0 33
1.8999281 0.973216 0.049093679 0 34
1.8936167 0.96998304 0.068514429 0 35
1.8975822 0.97201437 0.088294379 0 36
1.8933952 0.96986961 0.10770764 0 37
1.9061626 0.97640955 0.12819262 0 38
1.9026519 0.97461122 0.14770055 0 39
1.8960775 0.97124356 0.16689101 0 40
1.8836895 0.96489799 0.18540098 0 41
1.8965044 0.97146231 0.20642778 0 42
1.8951045 0.97074521 0.22606157 0 43
1.8960699 0.97123969 0.24601164 0 44
1.8955085 0.97095215 0.26581004 0 45
1.9059985 0.97632551 0.28730819 0 46
1.895205 0.9707967 0.30564412 0 47
1.901857 0.97420412 0.32680285 0 48
1.9019772 0.97426564 0.34696731 0 49
1.8985968 0.97253406 0.3665188 0 50
1.8851541 0.96564823 0.38401252 0 51
1.9056097 0.97612637 0.40855396 0 52
1.8983747 0.97242028 0.42737138 0 53
1.8924334 0.96937698 0.44641373 0 54
1.8956668 0.97103322 0.46767011 0 55
1.8979613 0.9722085 0.48883763 0 56
1.8990761 0.97277963 0.50982553 0 57
1.9015691 0.9740566 0.53131402 0 58
1.881752 0.96390551 0.54647362 0 59
1.9044875 0.97555149 0.57412273 0 60
1.9157293 0.98130995 0.59878725 0 61
1.8786048 0.96229339 0.60815376 0 62
1.9001735 0.97334176 0.63646001 0 63
1.8694314 0.98679739 -0.63017958 0 0
1.8601016 0.98187256 -0.60602653 0 1
1.8719188 0.98811042 -0.58884692 0 2
1.8634373 0.98363334 -0.56535131 0 3
1.8652037 0.98456579 -0.54514253 0 4
1.8702484 0.98722869 -0.52591485 0 5
1.8566864 0.98006976 -0.50164294 0 6
1.8575563 0.98052907 -0.4815 0 7
1.8700633 0.98713094 -0.46431303 0 8
1.8624005 0.98308611 -0.44214731 0 9
1.8588089 0.9811902 -0.42114848 0 10
1.8647178 0.98430932 -0.40235147 0 11
1.8621328 0.98294473 -0.38175622 0 12
1.8522494 0.97772771 -0.35986531 0 13
1.8687017 0.98641223 -0.3430838 0 14
1.8584473 0.98099929 -0.32139209 0 15
1.880031 0.99239254 -0.3051419 0 16
1.859798 0.98171228 -0.28214228 0 17
1.8604096 0.98203516 -0.26256159 0 18
1.8704432 0.98733151 -0.2442434 0 19
1.8626812 0.98323423 -0.22361918 0 20
1.8685763 0.98634601 -0.20469259 0 21
1.853219 0.97823954 -0.18357199 0 22
1.8626686 0.98322761 -0.16500209 0 23
1.8731909 0.98878187 -0.1463463 0 24
1.8725787 0.98845875 -0.12674187 0 25
1.8610976 0.98239833 -0.10654949 0 26
1.8659258 0.98494697 -0.087378345 0 27
1.862661 0.98322356 -0.067826711 0 28
1.8652505 0.98459047 -0.048506793 0 29
1.8556439 0.97951949 -0.028950915 0 30
1.8487446 0.9758777 -0.0096138837 0 31
1.8659073 0.98493719 0.0097031333 0 32
1.8607483 0.98221391 0.029030552 0 33
1.8736526 0.98902559 0.048725296 0 34
1.8687145 0.98641896 0.068047144 0 35
1.8692192 0.98668534 0.087532572 0 36
1.8680211 0.98605299 0.10694587 0 37
1.8563021 0.97986698 0.12564023 0 38
1.8648069 0.98435634 0.14569131 0 39
1.8692198 0.98668569 0.16558242 0 40
1.8613577 0.9825356 0.18437818 0 41
1.8674793 0.98576701 0.20457242 0 42
1.8693578 0.98675853 0.22442073 0 43
1.8610737 0.98238569 0.24301992 0 44
1.8703277 0.98727053 0.26396134 0 45
1.8623561 0.98306262 0.28253037 0 46
1.8668882 0.98545492 0.30300871 0 47
1.8579373 0.98073018 0.3213039 0 48
1.8736203 0.98900855 0.34398684 0 49
1.8542802 0.9787997 0.36025986 0 50
1.8679845 0.98603368 0.38295591 0 51
1.856323 0.97987801 0.40054011 0 52
1.8789867 0.99184126 0.42572016 0 53
1.8640192 0.98394054 0.44253159 0 54
1.8623713 0.98307067 0.46240321 0 55
1.8614877 0.98260427 0.48251906 0 56
1.8647503 0.98432642 0.50382167 0 57
1.8576734 0.98059082 0.52237874 0 58
1.8687876 0.98645759 0.54618996 0 59
1.8586313 0.98109645 0.5638932 0 60
1.8536062 0.97844392 0.58308631 0 61
1.8477685 0.97536248 0.6020084 0 62
1.8515871 0.97737807 0.62416434 0 63
1.831774 0.9959082 -0.62156659 0 0
1.8295689 0.99470925 -0.60001856 0 1
1.83489 0.99760234 -0.58101368 0 2
1.8270462 0.99333775 -0.55797416 0 3
1.827921 0.99381334 -0.53777689 0 4
1.8291132 0.99446154 -0.51774704 0 5
1.8408673 1.0008521 -0.50065619 0 6
1.8330619 0.99660838 -0.47829115 0 7
1.8392189 0.99995583 -0.45967293 0 8
1.8337119 0.99696177 -0.43821368 0 9
1.8341628 0.99720699 -0.41831106 0 10
1.8236883 0.99151206 -0.39609921 0 11
1.819217 0.98908114 -0.37542304 0 12
1.8372248 0.99887174 -0.35930541 0 13
1.8343762 0.99732298 -0.33900774 0 14
1.8392036 0.99994755 -0.32016635 0 15
1.8410605 1.0009571 -0.30079168 0 16
1.832677 0.9963991 -0.27986544 0 17
1.8294722 0.99465668 -0.25990185 0 18
1.8399777 1.0003685 -0.24185319 0 19
1.845382 1.0033066 -0.22300662 0 20
1.8272429 0.99344468 -0.20148768 0 21
1.8255726 0.99253654 -0.18202864 0 22
1.8349371 0.99762791 -0.16361985 0 23
1.8384887 0.99955893 -0.14458448 0 24
1.8494439 1.005515 -0.12600337 0 25
1.8282155 0.99397349 -0.10535873 0 26
1.8308421 0.99540156 -0.086302087 0 27
1.8350291 0.99767792 -0.067262165 0 28
1.8346601 0.99747729 -0.04802661 0 29
1.8205886 0.98982686 -0.02859173 0 30
1.8280802 0.99389994 -0.0095692547 0 31
1.8408167 1.0008246 0.0096359244 0 32
1.8357867 0.99808985 0.028830411 0 33
1.8273394 0.99349719 0.047834978 0 34
1.8367161 0.99859512 0.067323998 0 35
1.8247333 0.99208027 0.086014129 0 36
1.8260237 0.99278182 0.10523242 0 37
1.8353332 0.99784327 0.12504201 0 38
1.8342153 0.99723548 0.1442484 0 39
1.8192538 0.98910117 0.16222139 0 40
1.8333482 0.996764 0.18280394 0 41
1.8367338 0.99860477 0.20253423 0 42
1.8282677 0.99400187 0.22093844 0 43
1.8324567 0.99627942 0.2408646 0 44
1.8249249 0.99218446 0.25925586 0 45
1.8356556 0.9980185 0.28032032 0 46
1.8284565 0.9941045 0.29873243 0 47
1.8391299 0.99990749 0.32015353 0 48
1.8408494 1.0008423 0.34020403 0 49
1.8443164 1.0027273 0.36069229 0 50
1.8332344 0.99670219 0.37831575 0 51
1.8373415 0.99893522 0.39906469 0 52
1.8274435 0.99355376 0.41677859 0 53
1.8334281 0.99680752 0.43814588 0 54
1.8243623 0.99187857 0.45595986 0 55
1.8420154 1.0014763 0.48062736 0 56
1.8443311 1.0027354 0.50159824 0 57
1.8298681 0.99487197 0.51796073 0 58
1.8276814 0.99368316 0.53770643 0 59
1.8345798 0.99743366 0.5602749 0 60
1.8324035 0.99625045 0.58022636 0 61
1.8430109 1.0020175 0.60442698 0 62
1.8323009 0.99619466 0.62174535 0 63
1.8074298 1.0116609 -0.61748046 0 0
1.8128701 1.014706 -0.59858888 0 1
1.8169847 1.0170091 -0.57926011 0 2
1.799647 1.0073048 -0.55334741 0 3
1.8102603 1.0132452 -0.53620613 0 4
1.7953738 1.004913 -0.51165587 0 5
1.8015273 1.0083572 -0.49329188 0 6
1.8139853 1.0153303 -0.47653526 0 7
1.7999252 1.0074605 -0.45291427 0 8
1.81594 1.0164243 -0.4369204 0 9
1.8137944 1.0152234 -0.41648132 0 10
1.8117727 1.0140918 -0.39618966 0 11
1.7892147 1.0014656 -0.37174481 0 12
1.800384 1.0077173 -0.35449705 0 13
1.8025861 1.0089499 -0.3354001 0 14
1.8067731 1.0112934 -0.31666169 0 15
1.805115 1.0103652 -0.29692629 0 16
1.8150004 1.0158985 -0.27905262 0 17
1.814972 1.0158825 -0.25959691 0 18
1.7951237 1.0047729 -0.23756346 0 19
1.7970235 1.0058364 -0.21864082 0 20
1.8172369 1.0171503 -0.20174825 0 21
1.801809 1.0085149 -0.18088202 0 22
1.8172811 1.0171751 -0.16314845 0 23
1.8016354 1.0084177 -0.1426506 0 24
1.8037218 1.0095855 -0.12372474 0 25
1.7924961 1.0033022 -0.10400337 0 26
1.8054568 1.0105566 -0.085684739 0 27
1.7992961 1.0071083 -0.066401295 0 28
1.8087366 1.0123924 -0.047670279 0 29
1.7951356 1.0047797 -0.028383888 0 30
1.811588 1.0139884 -0.0095474701 0 31
1.7971787 1.0059233 0.0094715301 0 32
1.8135284 1.0150745 0.028674707 0 33
1.7943357 1.0043319 0.047290739 0 34
1.793804 1.0040343 0.066198617 0 35
1.79096 1.0024424 0.084996745 0 36
1.7961923 1.0053711 0.10421783 0 37
1.8021954 1.0087312 0.12362005 0 38
1.7962437 1.0053998 0.1422237 0 39
1.7798001 0.99619597 0.15978353 0 40
1.8098254 1.0130019 0.18168677 0 41
1.8072771 1.0115756 0.20064253 0 42
1.7993389 1.0071323 0.21892253 0 43
1.8098135 1.0129951 0.23950748 0 44
1.8058897 1.0107989 0.25829786 0 45
1.8136021 1.0151157 0.27883762 0 46
1.8050218 1.0103132 0.29691094 0 47
1.8120235 1.0142322 0.31758189 0 48
1.8081845 1.0120834 0.33644179 0 49
1.8105814 1.0134251 0.35650492 0 50
1.8015804 1.008387 0.37431401 0 51
1.8107725 1.013532 0.39597094 0 52
1.7967535 1.0056852 0.41256842 0 53
1.8012139 1.0081818 0.43337727 0 54
1.8017995 1.0085095 0.45338589 0 55
1.8161883 1.0165633 0.47711396 0 56
1.8075594 1.0117335 0.49494359 0 57
1.8040485 1.0097684 0.51412803 0 58
1.7981467 1.0064651 0.53261805 0 59
1.789812 1.0017999 0.55032343 0 60
1.7951924 1.0048114 0.57231265 0 61
1.8031306 1.0092546 0.59537297 0 62
1.8127794 1.0146554 0.61930805 0 63
1.7834992 1.0272676 -0.61357403 0 0
1.7734977 1.0215068 -0.58969146 0 1
1.7593385 1.0133513 -0.56481206 0 2
1.7673866 1.0179869 -0.54723561 0 3
1.7690578 1.0189495 -0.52767318 0 4
1.7746828 1.0221894 -0.50930279 0 5
1.7729505 1.0211917 -0.48886845 0 6
1.7677327 1.0181862 -0.46763834 0 7
1.7685794 1.0186739 -0.44814476 0 8
1.7684044 1.0185732 -0.42846435 0 9
1.7725224 1.0209451 -0.40985617 0 10
1.7849488 1.0281024 -0.39305869 0 11
1.7690796 1.018962 -0.37013662 0 12
1.7644715 1.0163078 -0.34986007 0 13
1.7678411 1.0182487 -0.33123994 0 14
1.7806388 1.02562 -0.31426787 0 15
1.7656567 1.0169905 -0.29247066 0 16
1.7691089 1.018979 -0.27390262 0 17
1.773267 1.021374 -0.25540885 0 18
1.7699809 1.0194812 -0.23587728 0 19
1.7736031 1.0215675 -0.21730322 0 20
1.770746 1.0199219 -0.19796424 0 21
1.7745565 1.0221167 -0.17939433 0 22
1.7706308 1.0198555 -0.16007411 0 23
1.7691081 1.0189785 -0.14105657 0 24
1.7625883 1.0152231 -0.12175032 0 25
1.7671388 1.0178442 -0.10325048 0 26
1.76466 1.0164164 -0.084335357 0 27
1.7730843 1.0212687 -0.065892436 0 28
1.7691654 1.0190115 -0.046954051 0 29
1.7675269 1.0180677 -0.028143164 0 30
1.7792408 1.0248148 -0.0094426936 0 31
1.7733757 1.0214366 0.009411566 0 32
1.7716624 1.0204496 0.028209008 0 33
1.7724886 1.0209255 0.047042247 0 34
1.7578595 1.0124995 0.065326639 0 35
1.7713515 1.0202706 0.084655151 0 36
1.7782209 1.0242273 0.10389799 0 37
1.7648654 1.0165348 0.12190762 0 38
1.7746683 1.022181 0.14149991 0 39
1.7757767 1.0228195 0.16053933 0 40
1.7676946 1.0181643 0.17870064 0 41
1.7773179 1.0237072 0.19869895 0 42
1.7739457 1.0217649 0.21734521 0 43
1.7736738 1.0216082 0.2363694 0 44
1.7724448 1.0209004 0.25529045 0 45
1.7757648 1.0228126 0.27493313 0 46
1.7857264 1.0285504 0.29579508 0 47
1.768001 1.0183408 0.31203741 0 48
1.7785318 1.0244064 0.33324304 0 49
1.7695974 1.0192603 0.35087642 0 50
1.7673926 1.0179904 0.36978367 0 51
1.7884785 1.0301355 0.39383599 0 52
1.7628983 1.0154017 0.4076308 0 53
1.7766649 1.023331 0.43046576 0 54
1.7707669 1.0199339 0.44869909 0 55
1.767224 1.0178932 0.46750373 0 56
1.7770424 1.0235485 0.4899967 0 57
1.7741148 1.0218623 0.50913978 0 58
1.7650076 1.0166167 0.52646512 0 59
1.7792811 1.024838 0.55091858 0 60
1.7720577 1.0206773 0.5688954 0 61
1.7856714 1.0285187 0.59373921 0 62
1.7676375 1.0181314 0.6081171 0 63
1.7409794 1.0314903 -0.60326391 0 0
1.7491555 1.0363344 -0.58579046 0 1
1.7537774 1.0390728 -0.56708574 0 2
1.7502317 1.036972 -0.54583085 0 3
1.7421465 1.0321817 -0.52339238 0 4
1.7410947 1.0315586 -0.5032658 0 5
1.7361276 1.0286157 -0.48216614 0 6
1.744082 1.0333284 -0.46470791 0 7
1.741225 1.0316358 -0.4443942 0 8
1.7369516 1.0291039 -0.42387766 0 9
1.7324094 1.0264127 -0.40346879 0 10
1.7470114 1.0350641 -0.38747805 0 11
1.7463759 1.0346875 -0.36802059 0 12
1.7352682 1.0281066 -0.34655011 0 13
1.7502642 1.0369912 -0.33031079 0 14
1.7567874 1.0408561 -0.31229359 0 15
1.7381675 1.0298243 -0.2899929 0 16
1.7274531 1.0234762 -0.2693814 0 17
1.7350934 1.0280029 -0.25171226 0 18
1.7400826 1.0309589 -0.23356463 0 19
1.7461179 1.0345348 -0.21547805 0 20
1.7428081 1.0325737 -0.19624552 0 21
1.7426612 1.0324867 -0.17744 0 22
1.7419055 1.0320389 -0.15861247 0 23
1.7437546 1.0331346 -0.1400374 0 24
1.7544066 1.0394455 -0.12205883 0 25
1.7376083 1.029493 -0.10225699 0 26
1.7474437 1.0353203 -0.084114634 0 27
1.7419084 1.0320407 -0.065200537 0 28
1.7502486 1.0369821 -0.046786875 0 29
1.7411134 1.0315697 -0.027922457 0 30
1.7446208 1.0336478 -0.0093257092 0 31
1.7528343 1.038514 0.0093696136 0 32
1.7485743 1.03599 0.028042108 0 33
1.7500764 1.03688 0.046782274 0 34
1.7440946 1.0333359 0.065282367 0 35
1.7460775 1.0345109 0.084048875 0 36
1.7451154 1.0339408 0.10269877 0 37
1.726445 1.022879 0.12011346 0 38
1.7448276 1.0337703 0.14012358 0 39
1.739624 1.0306873 0.15840474 0 40
1.7391568 1.0304104 0.17708318 0 41
1.7313796 1.0258026 0.19495864 0 42
1.751182 1.0375351 0.21610296 0 43
1.7469651 1.0350367 0.23448844 0 44
1.743008 1.0326922 0.25286046 0 45
1.7473969 1.0352925 0.27249148 0 46
1.7523965 1.0382546 0.29236683 0 47
1.7410192 1.0315139 0.30949059 0 48
1.7416857 1.0319088 0.32869187 0 49
1.748809 1.0361291 0.34925431 0 50
1.7349726 1.0279313 0.36561751 0 51
1.7432528 1.0328373 0.38664439 0 52
1.7522 1.0381382 0.4080779 0 53
1.7457925 1.0343419 0.42603514 0 54
1.7479632 1.0356281 0.44611391 0 55
1.734736 1.0277911 0.46221772 0 56
1.7359529 1.0285121 0.48211762 0 57
1.7470503 1.0350871 0.50498724 0 58
1.7484872 1.0359385 0.52529728 0 59
1.7390548 1.03035 0.54234517 0 60
1.7329919 1.0267578 0.56036478 0 61
1.7399282 1.0308675 0.58270025 0 62
1.7394792 1.0306014 0.60274404 0 63
1.7128861 1.0435104 -0.59793037 0 0
1.7123975 1.0432128 -0.57773256 0 1
1.7170393 1.0460407 -0.55932337 0 2
1.7143731 1.0444163 -0.53861231 0 3
1.7125578 1.0433105 -0.51831806 0 4
1.7180278 1.0466429 -0.50028056 0 5
1.7009572 1.0362432 -0.47590128 0 6
1.6992285 1.0351901 -0.45611399 0 7
1.7127408 1.043422 -0.44036576 0 8
1.7263563 1.0517167 -0.42441589 0 9
1.7144259 1.0444486 -0.4022412 0 10
1.7176142 1.0463909 -0.38378268 0 11
1.7252275 1.051029 -0.36625972 0 12
1.7121528 1.0430638 -0.34446916 0 13
1.7082361 1.0406775 -0.32476965 0 14
1.7203705 1.0480701 -0.30808762 0 15
1.7298709 1.0538578 -0.29074875 0 16
1.7203267 1.0480434 -0.27025932 0 17
1.7002594 1.0358181 -0.24848783 0 18
1.7205852 1.0482008 -0.23266006 0 19
1.7111121 1.0424298 -0.21272393 0 20
1.7262427 1.0516474 -0.19582154 0 21
1.7166308 1.0457919 -0.17608562 0 22
1.7151073 1.0448637 -0.15733033 0 23
1.7096939 1.0415658 -0.13832015 0 24
1.7125738 1.0433202 -0.12003189 0 25
1.7083569 1.0407512 -0.10128103 0 26
1.7113981 1.042604 -0.082990393 0 27
1.7116592 1.042763 -0.064543359 0 28
1.7238779 1.0502068 -0.046423644 0 29
1.7083887 1.0407705 -0.027600801 0 30
1.7117424 1.0428137 -0.009217808 0 31
1.7105342 1.0420777 0.0092113018 0 32
1.7074188 1.0401797 0.02758513 0 33
1.7141398 1.0442742 0.046161398 0 34
1.7210946 1.0485113 0.064899154 0 35
1.7085611 1.0408757 0.082852818 0 36
1.7103993 1.0419955 0.10140212 0 37
1.7130649 1.0436194 0.12006632 0 38
1.7111976 1.0424818 0.1384418 0 39
1.7166164 1.045783 0.15746877 0 40
1.71377 1.044049 0.17579217 0 41
1.7116991 1.0427873 0.19417174 0 42
1.7140576 1.0442241 0.21309009 0 43
1.7002519 1.0358136 0.22991055 0 44
1.708869 1.0410632 0.24974608 0 45
1.7103028 1.0419368 0.2686846 0 46
1.7158695 1.045328 0.28839543 0 47
1.7283136 1.052909 0.30951008 0 48
1.7143239 1.0443864 0.32592708 0 49
1.7174062 1.0462642 0.3455261 0 50
1.7227124 1.0494968 0.36572579 0 51
1.7185812 1.04698 0.38399875 0 52
1.7041708 1.038201 0.39983511 0 53
1.7031357 1.0375704 0.41870722 0 54
1.7157687 1.0452666 0.44114426 0 55
1.7184395 1.0468936 0.46127066 0 56
1.7215505 1.0487889 0.48166296 0 57
1.7065283 1.0396372 0.49693194 0 58
1.7037642 1.0379534 0.51565665 0 59
1.7110469 1.04239 0.53756726 0 60
1.7102858 1.0419264 0.55712342 0 61
1.7122566 1.0431269 0.57768506 0 62
1.7164533 1.0456836 0.59917563 0 63
1.6814469 1.0529208 -0.59143054 0 0
1.6916047 1.0592816 -0.57506853 0 1
1.6820868 1.0533215 -0.55211502 0 2
1.6821471 1.0533593 -0.53251684 0 3
1.6942461 1.0609356 -0.51668525 0 4
1.6809272 1.0525954 -0.49320874 0 5
1.6943558 1.0610044 -0.47766846 0 6
1.6885328 1.057358 -0.45669848 0 7
1.6830221 1.0539072 -0.43602377 0 8
1.6836773 1.0543175 -0.41707921 0 9
1.6874974 1.0567095 -0.39894164 0 10
1.6865036 1.0560874 -0.3797043 0 11
1.6904314 1.0585468 -0.36160862 0 12
1.6815861 1.053008 -0.34089875 0 13
1.681569 1.0529972 -0.32213706 0 14
1.6850352 1.0551678 -0.30406028 0 15
1.7048945 1.0676037 -0.28873545 0 16
1.6939355 1.0607412 -0.26814213 0 17
1.6898913 1.0582087 -0.24885546 0 18
1.6937418 1.0606198 -0.23077634 0 19
1.6836745 1.0543157 -0.21090867 0 20
1.6850799 1.0551958 -0.19260943 0 21
1.680027 1.0520316 -0.17364477 0 22
1.6731457 1.0477226 -0.15465122 0 23
1.6891569 1.0577488 -0.1377005 0 24
1.6866789 1.056197 -0.11911823 0 25
1.6887835 1.057515 -0.10088392 0 26
1.6924559 1.0598146 -0.082697541 0 27
1.6892412 1.0578016 -0.064183645 0 28
1.679637 1.0517874 -0.04557709 0 29
1.6825416 1.0536063 -0.027390454 0 30
1.6825129 1.0535884 -0.0091294814 0 31
1.6956501 1.0618148 0.0092007648 0 32
1.6931717 1.0602628 0.027563505 0 33
1.6861765 1.0558825 0.045754541 0 34
1.6830076 1.0538981 0.063946791 0 35
1.6777817 1.0506257 0.081980519 0 36
1.688375 1.0572592 0.10085952 0 37
1.6883693 1.0572555 0.1192376 0 38
1.6885717 1.0573823 0.13765278 0 39
1.672001 1.0470058 0.15454543 0 40
1.6824723 1.053563 0.17389752 0 41
1.6915886 1.0592716 0.19335338 0 42
1.6899594 1.0582513 0.21169595 0 43
1.6927611 1.0600057 0.23064271 0 44
1.6822104 1.053399 0.24772435 0 45
1.6764381 1.0497843 0.2653724 0 46
1.669252 1.0452844 0.28269914 0 47
1.6830572 1.0539292 0.30370337 0 48
1.6779085 1.0507051 0.32143584 0 49
1.6920751 1.0595762 0.34302512 0 50
1.6692913 1.0453089 0.35708645 0 51
1.6922126 1.0596622 0.38098961 0 52
1.6796225 1.0517784 0.39707994 0 53
1.689558 1.058 0.41853595 0 54
1.692293 1.0597126 0.4384256 0 55
1.6910573 1.0589389 0.45738128 0 56
1.6939915 1.0607762 0.47756574 0 57
1.6835878 1.0542614 0.49398941 0 58
1.6810287 1.0526589 0.51265436 0 59
1.6928393 1.0600547 0.53590167 0 60
1.6855012 1.0554596 0.55323571 0 61
1.6923407 1.0597426 0.57531881 0 62
1.6886489 1.0574307 0.59396374 0 63
1.6510983 1.0623997 -0.58530653 0 0
1.6541057 1.0643348 -0.56672692 0 1
1.6566387 1.0659647 -0.54802305 0 2
1.6558686 1.0654691 -0.52830547 0 3
1.6524378 1.0632616 -0.50788397 0 4
1.6574888 1.0665116 -0.49014246 0 5
1.6557809 1.0654128 -0.4704513 0 6
1.6542161 1.0644059 -0.45092276 0 7
1.6587942 1.0673516 -0.43311447 0 8
1.651612 1.0627303 -0.41234198 0 9
1.6580594 1.0668788 -0.39505377 0 10
1.6533769 1.0638659 -0.37516296 0 11
1.6556557 1.0653322 -0.35694486 0 12
1.6540831 1.0643203 -0.3379508 0 13
1.6522619 1.0631485 -0.31900299 0 14
1.6658052 1.0718629 -0.3029457 0 15
1.6667168 1.0724494 -0.28448164 0 16
1.6662548 1.0721521 -0.26582721 0 17
1.6595095 1.067812 -0.24629636 0 18
1.6486892 1.0608495 -0.22639807 0 19
1.6576729 1.0666301 -0.20927867 0 20
1.6481587 1.0605081 -0.18986544 0 21
1.6632704 1.0702319 -0.17325994 0 22
1.6620215 1.0694283 -0.15482679 0 23
1.6565849 1.06593 -0.13610342 0 24
1.667312 1.0728325 -0.11867318 0 25
1.6598685 1.0680429 -0.099933602 0 26
1.6556766 1.0653456 -0.081534348 0 27
1.662257 1.0695798 -0.063653275 0 28
1.6581419 1.0669318 -0.04534639 0 29
1.6490384 1.0610743 -0.027055407 0 30
1.6486552 1.0608277 -0.0090158647 0 31
1.6553068 1.0651077 0.0090522403 0 32
1.648892 1.0609801 0.027053006 0 33
1.6568235 1.0660837 0.045310337 0 34
1.6565371 1.0658994 0.063434243 0 35
