# .PCD v0.7 - Point Cloud Data file format
VERSION 0.7
FIELDS x y z intensity ring
SIZE 4 4 4 4 2
TYPE F F F F U
COUNT 1 1 1 1 1
WIDTH 1420
HEIGHT 1
VIEWPOINT 0 0 0 1 0 0 0
POINTS 1420
DATA ascii
2.5177925 -0.74847013 -0.73071891 0 2
2.6393368 -0.78460193 -0.73877716 0 3
2.7350333 -0.81304979 -0.737499 0 4
2.8401732 -0.84430504 -0.73684472 0 5
2.9610975 -0.88025248 -0.73811477 0 6
3.087491 -0.91782576 -0.73837167 0 7
3.211071 -0.95456272 -0.73556238 0 8
3.3689992 -1.0015104 -0.73792094 0 9
3.4874699 -1.0367284 -0.72899741 0 10
3.682673 -1.094757 -0.73311251 0 11
3.8821728 -1.1540627 -0.73428619 0 12
4.1028075 -1.2196512 -0.73542207 0 13
4.3513718 -1.2935425 -0.73705763 0 14
4.6059403 -1.3692188 -0.73488319 0 15
4.8773084 -1.4498889 -0.73035169 0 16
5.2363782 -1.5566306 -0.73290634 0 17
5.6422467 -1.677284 -0.73466557 0 18
6.1180878 -1.8187383 -0.7370705 0 19
6.6925216 -1.9895017 -0.74126816 0 20
7.2254858 -2.1479373 -0.73025298 0 21
8.0322418 -2.3877635 -0.73405981 0 22
8.712307 -2.5899282 -0.71203613 0 23
8.714941 -2.5907111 -0.62817293 0 24
8.7262325 -2.5940678 -0.54490632 0 25
8.7144814 -2.5905747 -0.4602977 0 26
8.7185621 -2.5917876 -0.37667722 0 27
8.7080917 -2.588675 -0.29255328 0 28
8.7166042 -2.5912056 -0.20913549 0 29
8.7280731 -2.594615 -0.12563223 0 30
8.7190647 -2.5919371 -0.041831829 0 31
8.7280016 -2.5945938 0.041874703 0 32
8.7169428 -2.5913062 0.12547202 0 33
8.7033768 -2.5872734 0.20881814 0 34
8.7119064 -2.5898089 0.29268143 0 35
8.7242804 -2.5934875 0.37692425 0 36
8.7197628 -2.5921445 0.46057662 0 37
8.7135725 -2.5903041 0.54411578 0 38
8.7063847 -2.5881677 0.6275562 0 39
8.7247162 -2.593617 0.71305031 0 40
8.7115097 -2.5896909 0.79613757 0 41
8.7159624 -2.5910149 0.88088995 0 42
8.7169418 -2.591306 0.96549428 0 43
8.7243357 -2.593504 1.0510557 0 44
8.7200317 -2.5922244 1.1354178 0 45
8.7298126 -2.5951321 1.2218627 0 46
8.7129812 -2.5901287 1.3047239 0 47
8.7065992 -2.5882313 1.389148 0 48
8.7183895 -2.5917363 1.4767655 0 49
8.7182617 -2.5916984 1.5627353 0 50
8.7105217 -2.5893974 1.6475352 0 51
8.7139759 -2.5904243 1.7346978 0 52
0 0 0 0 53
0 0 0 0 54
0 0 0 0 55
0 0 0 0 56
0 0 0 0 57
0 0 0 0 58
0 0 0 0 59
0 0 0 0 60
0 0 0 0 61
0 0 0 0 62
0 0 0 0 63
2.3746941 -0.67426586 -0.73591173 0 0
2.4486775 -0.69527256 -0.73341501 0 1
2.5658338 -0.72853768 -0.74200547 0 2
2.6339979 -0.74789202 -0.734653 0 3
2.7231829 -0.77321512 -0.73168445 0 4
2.8271856 -0.8027454 -0.7308591 0 5
2.9559715 -0.83931261 -0.73420894 0 6
3.0833387 -0.87547702 -0.7347486 0 7
3.2132163 -0.91235417 -0.73342848 0 8
3.361335 -0.95441073 -0.73361623 0 9
3.5297124 -1.0022194 -0.73519588 0 10
3.7068052 -1.0525029 -0.73528457 0 11
3.9176042 -1.1123567 -0.73834491 0 12
4.1028614 -1.1649582 -0.73280865 0 13
4.3575406 -1.2372713 -0.73546988 0 14
4.6055913 -1.3077023 -0.73220646 0 15
4.9228673 -1.397789 -0.73454458 0 16
5.2971573 -1.5040642 -0.73876876 0 17
5.6487451 -1.6038933 -0.73288834 0 18
6.1197081 -1.7376176 -0.73463607 0 19
6.6777382 -1.8960636 -0.7369926 0 20
7.2276239 -2.052197 -0.72786367 0 21
8.0476465 -2.2850325 -0.73284447 0 22
8.7606459 -2.4874802 -0.71343303 0 23
8.7636528 -2.4883339 -0.62943101 0 24
8.7565718 -2.4863234 -0.54485053 0 25
8.7554893 -2.486016 -0.46081421 0 26
8.754199 -2.4856498 -0.37686786 0 27
8.7596579 -2.4871995 -0.29323602 0 28
8.7558117 -2.4861076 -0.20932691 0 29
8.7494373 -2.4842978 -0.12549055 0 30
8.7493095 -2.4842615 -0.041827213 0 31
8.7594233 -2.487133 0.041875564 0 32
8.7620583 -2.4878812 0.12567157 0 33
8.7509937 -2.4847395 0.20921172 0 34
8.7581291 -2.4867656 0.29318485 0 35
8.7595978 -2.4871826 0.37710026 0 36
8.7570019 -2.4864454 0.46089381 0 37
8.75457 -2.485755 0.54472595 0 38
8.7599392 -2.4872797 0.62916428 0 39
8.7519388 -2.485008 0.71272391 0 40
8.7608204 -2.4875298 0.79778832 0 41
8.7576885 -2.4866405 0.88195002 0 42
8.75735 -2.4865444 0.9665103 0 43
8.765255 -2.4887888 1.0522189 0 44
8.7723646 -2.4908075 1.1381578 0 45
8.7557573 -2.4860921 1.2211229 0 46
8.7519655 -2.4850156 1.3058872 0 47
8.7655401 -2.4888699 1.3935639 0 48
8.758399 -2.4868422 1.478251 0 49
8.7523117 -2.4851139 1.5632432 0 50
8.7437363 -2.4826789 1.6479186 0 51
8.7641363 -2.4884713 1.7384604 0 52
0 0 0 0 53
0 0 0 0 54
0 0 0 0 55
0 0 0 0 56
0 0 0 0 57
0 0 0 0 58
0 0 0 0 59
0 0 0 0 60
0 0 0 0 61
0 0 0 0 62
0 0 0 0 63
2.3718088 -0.64204013 -0.73251563 0 0
2.4645774 -0.66715223 -0.73566455 0 1
2.5587087 -0.69263321 -0.73742628 0 2
2.6472671 -0.71660566 -0.73584056 0 3
2.7636211 -0.74810225 -0.74002206 0 4
2.8540823 -0.7725898 -0.73530072 0 5
2.9743059 -0.80513388 -0.73624814 0 6
3.1033092 -0.84005463 -0.73699021 0 7
3.2328618 -0.87512404 -0.7354008 0 8
3.363229 -0.91041398 -0.73153096 0 9
3.5444655 -0.95947409 -0.73575574 0 10
3.7169545 -1.0061662 -0.73478806 0 11
3.911778 -1.0589042 -0.73473722 0 12
4.1366801 -1.1197844 -0.73633397 0 13
4.3763394 -1.1846594 -0.73612851 0 14
4.6250191 -1.251976 -0.7327922 0 15
4.9364719 -1.3362852 -0.73406732 0 16
5.3017058 -1.4351528 -0.73688626 0 17
5.7100372 -1.5456865 -0.7383188 0 18
6.1186352 -1.6562926 -0.73200703 0 19
6.6789427 -1.8079658 -0.73461646 0 20
7.3780227 -1.9972042 -0.74048054 0 21
8.0393267 -2.1762168 -0.72959483 0 22
8.8051453 -2.3835211 -0.71461606 0 23
8.7970123 -2.3813198 -0.62967628 0 24
8.8083429 -2.3843868 -0.54620624 0 25
8.8119926 -2.3853748 -0.46220937 0 26
8.788352 -2.3789754 -0.37705031 0 27
8.8128405 -2.3856041 -0.29401213 0 28
8.7884388 -2.3789988 -0.20939174 0 29
8.8086157 -2.3844607 -0.12590927 0 30
8.7957125 -2.3809676 -0.041905914 0 31
8.7991791 -2.381906 0.041922428 0 32
8.7876148 -2.3787756 0.12560908 0 33
8.7984581 -2.381711 0.20963046 0 34
8.8121672 -2.385422 0.29398969 0 35
8.7867937 -2.3785534 0.37698343 0 36
8.7898026 -2.3793681 0.46104544 0 37
8.8025503 -2.3828185 0.545847 0 38
8.7999859 -2.3821244 0.62988913 0 39
8.8139172 -2.3858957 0.71532798 0 40
8.7969866 -2.3813126 0.79835492 0 41
8.8151569 -2.3862312 0.88471568 0 42
8.7960081 -2.3810477 0.96747231 0 43
8.7965555 -2.381196 1.0523819 0 44
8.796484 -2.3811767 1.1374024 0 45
8.7910147 -2.3796961 1.2218667 0 46
8.8158646 -2.3864226 1.3109438 0 47
8.8022289 -2.3827317 1.3946333 0 48
8.7943268 -2.3805926 1.4792625 0 49
8.8004866 -2.3822601 1.566497 0 50
8.8058271 -2.3837056 1.6539716 0 51
8.8073101 -2.3841071 1.7410777 0 52
0 0 0 0 53
0 0 0 0 54
0 0 0 0 55
0 0 0 0 56
0 0 0 0 57
0 0 0 0 58
0 0 0 0 59
0 0 0 0 60
0 0 0 0 61
0 0 0 0 62
0 0 0 0 63
2.3927453 -0.616234 -0.73658574 0 0
2.4587202 -0.63322538 -0.73153669 0 1
2.5615034 -0.65969646 -0.73583823 0 2
2.6529057 -0.68323642 -0.73501706 0 3
2.7530756 -0.70903444 -0.73480815 0 4
2.8537018 -0.73494995 -0.73281896 0 5
2.9622967 -0.76291782 -0.73089796 0 6
3.1027527 -0.79909122 -0.734469 0 7
3.2477934 -0.83644539 -0.73640203 0 8
3.4015908 -0.87605476 -0.73747617 0 9
3.5614128 -0.91721576 -0.73687673 0 10
3.7500031 -0.9657858 -0.73891777 0 11
3.9249001 -1.0108292 -0.73481178 0 12
4.1451979 -1.0675654 -0.7354579 0 13
4.3814969 -1.1284224 -0.7346065 0 14
4.6688137 -1.2024187 -0.73733276 0 15
4.9452286 -1.2736074 -0.7329852 0 16
5.3007445 -1.3651679 -0.73436391 0 17
5.7154865 -1.4719816 -0.73662734 0 18
6.1211667 -1.5764616 -0.72993559 0 19
6.6864247 -1.7220397 -0.73305494 0 20
7.3551569 -1.8942667 -0.73579228 0 21
8.2007675 -2.1120477 -0.74183315 0 22
8.8390217 -2.2764254 -0.71503955 0 23
8.8446598 -2.2778771 -0.6310342 0 24
8.8532352 -2.280086 -0.5472101 0 25
8.8448133 -2.2779169 -0.46242669 0 26
8.8678579 -2.2838516 -0.37922782 0 27
8.8429728 -2.2774427 -0.29406089 0 28
8.8465471 -2.2783632 -0.21009283 0 29
8.8391724 -2.2764642 -0.1259364 0 30
8.8397865 -2.2766223 -0.04197935 0 31
8.8547878 -2.2804856 0.042050589 0 32
8.8409376 -2.2769186 0.12596156 0 33
8.8342896 -2.2752066 0.20980173 0 34
8.8510094 -2.2795126 0.29432815 0 35
8.8308907 -2.2743311 0.37764695 0 36
8.8334646 -2.2749941 0.46183339 0 37
8.8413715 -2.2770305 0.54647678 0 38
8.8648796 -2.2830846 0.63247681 0 39
8.8369274 -2.2758861 0.71487015 0 40
8.8394871 -2.276545 0.79961103 0 41
8.8516674 -2.2796819 0.8854996 0 42
8.8406649 -2.2768486 0.96923143 0 43
8.8402481 -2.276741 1.05418 0 44
8.8508101 -2.2794614 1.1407163 0 45
8.8437033 -2.2776308 1.2252046 0 46
8.8560543 -2.2808118 1.3126504 0 47
8.8416214 -2.2770948 1.3963326 0 48
8.8462048 -2.2782753 1.4831643 0 49
8.8292494 -2.2739086 1.5665214 0 50
8.8341312 -2.2751658 1.653908 0 51
8.8213625 -2.2718771 1.7382015 0 52
0 0 0 0 53
0 0 0 0 54
0 0 0 0 55
0 0 0 0 56
0 0 0 0 57
0 0 0 0 58
0 0 0 0 59
0 0 0 0 60
0 0 0 0 61
0 0 0 0 62
0 0 0 0 63
2.3910372 -0.58454162 -0.73379177 0 0
2.4773552 -0.60564399 -0.73480982 0 1
2.5716352 -0.62869275 -0.73647231 0 2
2.6671014 -0.6520316 -0.73667306 0 3
2.770113 -0.67721504 -0.73707718 0 4
2.8875234 -0.70591861 -0.73921931 0 5
2.9943225 -0.73202801 -0.73652315 0 6
3.1146407 -0.76144236 -0.7350111 0 7
3.2599964 -0.79697782 -0.73689121 0 8
3.3912237 -0.82905918 -0.73296291 0 9
3.5718362 -0.87321389 -0.73675609 0 10
3.743005 -0.91505986 -0.73526609 0 11
3.9538925 -0.96661597 -0.73795861 0 12
4.1403208 -1.0121925 -0.73232889 0 13
4.3912272 -1.0735321 -0.73396921 0 14
4.6639309 -1.1402005 -0.73429191 0 15
4.996336 -1.2214642 -0.73827833 0 16
5.2971482 -1.2950044 -0.73160422 0 17
5.7353663 -1.4021364 -0.73691171 0 18
6.2019711 -1.5162082 -0.73729235 0 19
6.677228 -1.6323951 -0.72979087 0 20
7.3550467 -1.7981029 -0.73351395 0 21
8.1885586 -2.0018733 -0.73844612 0 22
8.8820333 -2.1714084 -0.7163049 0 23
8.8927889 -2.1740377 -0.63251293 0 24
8.8917446 -2.1737826 -0.54789674 0 25
8.8730774 -2.169219 -0.46247491 0 26
8.8887358 -2.1730471 -0.37894931 0 27
8.8784351 -2.1705287 -0.29433033 0 28
8.8671608 -2.1677723 -0.20993346 0 29
8.8768549 -2.1701424 -0.12608355 0 30
8.8896179 -2.1732626 -0.042085905 0 31
8.8902702 -2.1734221 0.042088997 0 32
8.879817 -2.1708665 0.12612563 0 33
8.8800316 -2.1709192 0.21023819 0 34
8.8843012 -2.1719627 0.29452482 0 35
8.8789816 -2.1706624 0.37853348 0 36
8.8851213 -2.1721632 0.46310264 0 37
8.8873138 -2.1726995 0.54762375 0 38
8.8806944 -2.1710811 0.63165271 0 39
8.8887634 -2.1730537 0.71684766 0 40
8.8867874 -2.1725705 0.80141252 0 41
8.8910999 -2.1736248 0.88670355 0 42
8.889204 -2.1731613 0.97154981 0 43
8.8779612 -2.1704128 1.0554148 0 44
8.8912029 -2.17365 1.1423911 0 45
8.8847446 -2.1720712 1.2270975 0 46
8.8702431 -2.1685259 1.3107022 0 47
8.882061 -2.1714153 1.3983967 0 48
8.8897772 -2.1733015 1.4858767 0 49
8.8874798 -2.17274 1.5719937 0 50
8.8891373 -2.1731451 1.6590778 0 51
8.8778849 -2.1703942 1.7439485 0 52
0 0 0 0 53
0 0 0 0 54
0 0 0 0 55
0 0 0 0 56
0 0 0 0 57
0 0 0 0 58
0 0 0 0 59
0 0 0 0 60
0 0 0 0 61
0 0 0 0 62
0 0 0 0 63
2.3974965 -0.55497164 -0.73362428 0 0
2.4796917 -0.57399821 -0.73335385 0 1
2.5672197 -0.59425914 -0.73305964 0 2
2.6570153 -0.61504495 -0.73174298 0 3
2.7640195 -0.63981426 -0.73330694 0 4
2.8740082 -0.66527444 -0.73360968 0 5
3.0058734 -0.69579858 -0.73720413 0 6
3.1199963 -0.72221571 -0.73412377 0 7
3.2712672 -0.75723183 -0.7372784 0 8
3.4155798 -0.79063725 -0.73607022 0 9
3.5542197 -0.82272953 -0.73098034 0 10
3.7447503 -0.86683351 -0.73345965 0 11
3.9356258 -0.9110173 -0.7324031 0 12
4.1768904 -0.96686512 -0.73663867 0 13
4.3861389 -1.0153019 -0.7309767 0 14
4.6725507 -1.0816004 -0.73349959 0 15
4.9777074 -1.152238 -0.73337668 0 16
5.3707261 -1.2432139 -0.73959905 0 17
5.7364864 -1.3278799 -0.73490208 0 18
6.213203 -1.43823 -0.73646945 0 19
6.7841988 -1.5704041 -0.73931587 0 20
7.374207 -1.7069789 -0.73327607 0 21
8.184989 -1.8946584 -0.73596758 0 22
8.9410572 -2.0696728 -0.7189582 0 23
8.9348793 -2.0682428 -0.63364983 0 24
8.9364033 -2.0685954 -0.54903966 0 25
8.9240217 -2.0657294 -0.46377116 0 26
8.9415903 -2.0697961 -0.38008884 0 27
8.9305639 -2.0672438 -0.29519346 0 28
8.9387779 -2.0691454 -0.21101071 0 29
8.9370947 -2.0687556 -0.12656829 0 30
8.9249811 -2.0659516 -0.042129871 0 31
8.9340382 -2.0680482 0.042172626 0 32
8.9231749 -2.0655334 0.12637116 0 33
8.9441643 -2.0703921 0.21113785 0 34
8.9303551 -2.0671954 0.29518655 0 35
8.9339104 -2.0680187 0.37976241 0 36
8.9248486 -2.0659208 0.46381414 0 37
8.9417171 -2.0698254 0.54936612 0 38
8.9299641 -2.0671051 0.63330126 0 39
8.9291029 -2.0669055 0.7179969 0 40
8.9353991 -2.0683632 0.803442 0 41
8.9338255 -2.0679989 0.88836139 0 42
8.9264221 -2.0662851 0.97276706 0 43
8.9463367 -2.070895 1.060436 0 44
8.9257221 -2.0661232 1.1434757 0 45
8.9370975 -2.0687563 1.2307216 0 46
8.9197502 -2.0647407 1.3141665 0 47
8.9389811 -2.0691922 1.4032462 0 48
8.9171362 -2.0641356 1.4860948 0 49
8.927803 -2.0666049 1.5745121 0 50
8.9391308 -2.069227 1.663534 0 51
8.9385195 -2.0690856 1.7507292 0 52
0 0 0 0 53
0 0 0 0 54
0 0 0 0 55
0 0 0 0 56
0 0 0 0 57
0 0 0 0 58
0 0 0 0 59
0 0 0 0 60
0 0 0 0 61
0 0 0 0 62
0 0 0 0 63
2.4243038 -0.52985841 -0.73977757 0 0
2.5037928 -0.54723161 -0.73843569 0 1
2.5894785 -0.56595922 -0.73737264 0 2
2.6948323 -0.5889855 -0.7401073 0 3
2.7854455 -0.60878992 -0.73694956 0 4
2.8976183 -0.63330656 -0.7375927 0 5
2.9836307 -0.65210551 -0.72972721 0 6
3.1364934 -0.6855154 -0.73596644 0 7
3.2703309 -0.71476704 -0.73503089 0 8
3.4248233 -0.74853307 -0.73602301 0 9
3.5851805 -0.78358096 -0.73531067 0 10
3.7774606 -0.82560581 -0.73782218 0 11
3.9524803 -0.86385834 -0.73350745 0 12
4.1712289 -0.9116683 -0.73360765 0 13
4.4478636 -0.97212988 -0.73921543 0 14
4.675139 -1.0218034 -0.73187816 0 15
4.9901414 -1.0906507 -0.73317724 0 16
5.3530717 -1.1699731 -0.73513114 0 17
5.7239175 -1.2510256 -0.7312659 0 18
6.2161698 -1.3586128 -0.73478538 0 19
6.7865868 -1.4832838 -0.73753268 0 20
7.3672795 -1.6102006 -0.73056316 0 21
8.2012157 -1.7924666 -0.73538923 0 22
8.9678431 -1.9600215 -0.71911973 0 23
8.9764948 -1.9619124 -0.63484234 0 24
8.973753 -1.9613132 -0.54981112 0 25
8.9687939 -1.9602292 -0.4648101 0 26
8.9618549 -1.9587126 -0.37989771 0 27
8.9622622 -1.9588016 -0.29542273 0 28
8.9738741 -1.9613396 -0.2112539 0 29
8.9753933 -1.9616716 -0.12675948 0 30
8.9647379 -1.9593427 -0.042200621 0 31
8.9570169 -1.9576553 0.042164277 0 32
8.9644585 -1.9592817 0.12660506 0 33
8.9738808 -1.961341 0.21125403 0 34
8.9623833 -1.9588281 0.29542673 0 35
8.9673891 -1.9599222 0.38013232 0 36
8.9672251 -1.9598863 0.46472883 0 37
8.9654722 -1.9595033 0.54930377 0 38
8.9714985 -1.9608204 0.634489 0 39
8.9726448 -1.9610709 0.71950477 0 40
8.9619045 -1.9587235 0.80359888 0 41
8.9762878 -1.9618672 0.89011759 0 42
8.9653854 -1.9594845 0.9743138 0 43
8.9774618 -1.9621238 1.0611852 0 44
8.9764099 -1.9618937 1.1467918 0 45
8.9734907 -1.9612559 1.2323191 0 46
8.9808712 -1.9628689 1.3195159 0 47
8.9774523 -1.9621216 1.4053917 0 48
8.9670792 -1.9598546 1.4902893 0 49
8.9768343 -1.9619867 1.5787853 0 50
8.9724884 -1.9610368 1.6651285 0 51
8.9586658 -1.9580157 1.749827 0 52
0 0 0 0 53
0 0 0 0 54
0 0 0 0 55
0 0 0 0 56
0 0 0 0 57
0 0 0 0 58
0 0 0 0 59
0 0 0 0 60
0 0 0 0 61
0 0 0 0 62
0 0 0 0 63
2.4099646 -0.49575803 -0.73348629 0 0
2.4985967 -0.5139907 -0.73498368 0 1
2.5918298 -0.53316981 -0.73611963 0 2
2.6795108 -0.55120689 -0.73398244 0 3
2.7925587 -0.57446212 -0.73690695 0 4
2.897115 -0.59597063 -0.73554355 0 5
3.0160782 -0.62044275 -0.73574162 0 6
3.1571834 -0.64946973 -0.73889148 0 7
3.2580299 -0.67021507 -0.73035866 0 8
3.4271681 -0.70500875 -0.73460835 0 9
3.5915608 -0.73882627 -0.73470044 0 10
3.7677784 -0.77507627 -0.73401403 0 11
3.9824009 -0.81922662 -0.73713493 0 12
4.169961 -0.85780996 -0.73147422 0 13
4.4230733 -0.90987813 -0.73318052 0 14
4.7160554 -0.97014797 -0.73636031 0 15
4.9950533 -1.0275412 -0.73198718 0 16
5.370008 -1.1046737 -0.73553592 0 17
5.7749972 -1.1879847 -0.73586971 0 18
6.1971955 -1.2748359 -0.73063433 0 19
6.7898588 -1.3967538 -0.73596615 0 20
7.4769597 -1.5380985 -0.73950797 0 21
8.1961737 -1.6860492 -0.73302263 0 22
9.011735 -1.8538197 -0.72075689 0 23
9.011241 -1.8537182 -0.63563955 0 24
9.0204172 -1.8556058 -0.55123049 0 25
9.0278397 -1.8571327 -0.46665144 0 26
9.0180435 -1.8551174 -0.38128376 0 27
9.0173235 -1.8549695 -0.29646346 0 28
9.0164194 -1.8547835 -0.21170254 0 29
9.0085583 -1.8531663 -0.12689646 0 30
9.0163136 -1.8547617 -0.042332847 0 31
9.0187073 -1.8552542 0.042344086 0 32
9.0220356 -1.8559387 0.1270863 0 33
9.0205841 -1.8556401 0.21180031 0 34
9.0198689 -1.8554929 0.29654711 0 35
8.9983978 -1.8510761 0.38045314 0 36
9.0039072 -1.8522094 0.46541435 0 37
9.0174723 -1.8549999 0.55105048 0 38
9.013752 -1.8542347 0.63581669 0 39
9.0216894 -1.8558675 0.72155303 0 40
9.0144749 -1.8543833 0.80620712 0 41
9.0146284 -1.8544149 0.89159095 0 42
9.0140581 -1.8542976 0.97705144 0 43
9.0177174 -1.8550504 1.063167 0 44
9.0136137 -1.8542062 1.1485453 0 45
9.0070505 -1.8528562 1.2337058 0 46
9.0056095 -1.8525598 1.3197038 0 47
9.0171633 -1.8549365 1.4079312 0 48
9.0205059 -1.8556241 1.4952633 0 49
9.012928 -1.8540653 1.581004 0 50
9.011507 -1.8537729 1.6680131 0 51
9.025053 -1.8565594 1.758202 0 52
0 0 0 0 53
0 0 0 0 54
0 0 0 0 55
0 0 0 0 56
0 0 0 0 57
0 0 0 0 58
0 0 0 0 59
0 0 0 0 60
0 0 0 0 61
0 0 0 0 62
0 0 0 0 63
2.3997309 -0.46297351 -0.72858387 0 0
2.5121212 -0.48465666 -0.73715323 0 1
2.5747607 -0.49674153 -0.72948176 0 2
2.6737177 -0.51583308 -0.73060286 0 3
2.7853007 -0.53736049 -0.73319262 0 4
2.8997903 -0.5594486 -0.73442072 0 5
3.0032897 -0.57941651 -0.73082876 0 6
3.1403646 -0.60586196 -0.73315632 0 7
3.3067317 -0.63795871 -0.73946178 0 8
3.448596 -0.6653282 -0.73739201 0 9
3.6082127 -0.69612259 -0.73630005 0 10
3.7866857 -0.73055488 -0.7358917 0 11
3.9833493 -0.76849669 -0.73550576 0 12
4.2138691 -0.81297028 -0.73736715 0 13
4.4398651 -0.85657108 -0.73416257 0 14
4.7232585 -0.91124529 -0.73567981 0 15
5.0426588 -0.97286642 -0.73715466 0 16
5.3583164 -1.0337653 -0.73213804 0 17
5.8051624 -1.1199741 -0.73790288 0 18
6.2119431 -1.1984532 -0.73058033 0 19
6.789381 -1.3098567 -0.73411298 0 20
7.4983659 -1.4466392 -0.73980987 0 21
8.2040453 -1.5827841 -0.73193067 0 22
9.0489416 -1.7457876 -0.7219612 0 23
9.0427055 -1.7445843 -0.63629764 0 24
9.0513849 -1.7462589 -0.55176896 0 25
9.0472717 -1.7454654 -0.46651119 0 26
9.0454855 -1.7451208 -0.3815079 0 27
9.0581865 -1.7475711 -0.29707795 0 28
9.041398 -1.7443322 -0.2117694 0 29
9.0687408 -1.7496073 -0.12743151 0 30
9.043129 -1.7446662 -0.042354822 0 31
9.0601463 -1.7479492 0.042434525 0 32
9.0421925 -1.7444855 0.12705848 0 33
9.0567923 -1.7473022 0.21212997 0 34
9.0563555 -1.747218 0.2970179 0 35
9.0577593 -1.7474887 0.3820256 0 36
9.0551949 -1.7469939 0.46691972 0 37
9.0471144 -1.745435 0.55150867 0 38
9.0501413 -1.7460191 0.63682091 0 39
9.0582495 -1.7475834 0.72270381 0 40
9.0543251 -1.7468262 0.80778909 0 41
9.0633469 -1.7485666 0.89421523 0 42
9.0546703 -1.7468927 0.97905111 0 43
9.0695171 -1.7497571 1.0666567 0 44
9.0538273 -1.7467302 1.1508455 0 45
9.0601826 -1.7479562 1.2379457 0 46
9.0520735 -1.7463917 1.3232658 0 47
9.0578642 -1.7475089 1.4108243 0 48
9.0563955 -1.7472256 1.497538 0 49
9.04286 -1.7446142 1.5823717 0 50
9.0642366 -1.7487383 1.6736665 0 51
9.0527334 -1.7465192 1.7592777 0 52
0 0 0 0 53
0 0 0 0 54
0 0 0 0 55
0 0 0 0 56
0 0 0 0 57
0 0 0 0 58
0 0 0 0 59
0 0 0 0 60
0 0 0 0 61
0 0 0 0 62
0 0 0 0 63
2.4270606 -0.43736428 -0.73519301 0 0
2.5151103 -0.45323116 -0.73633933 0 1
2.5908632 -0.46688208 -0.73236203 0 2
2.6958046 -0.48579285 -0.7349503 0 3
2.8036282 -0.50522304 -0.73632604 0 4
2.9076259 -0.52396381 -0.73471791 0 5
3.0323551 -0.54644036 -0.73621082 0 6
3.1522765 -0.56805056 -0.73425102 0 7
3.2852511 -0.59201306 -0.73297495 0 8
3.4301665 -0.61812729 -0.73177081 0 9
3.6060846 -0.64982831 -0.73417968 0 10
3.7799139 -0.68115294 -0.73289257 0 11
3.9890938 -0.71884781 -0.73487878 0 12
4.2286782 -0.76202172 -0.73826301 0 13
4.4349957 -0.79920083 -0.731677 0 14
4.7332358 -0.85294467 -0.73554468 0 15
5.0551553 -0.91095561 -0.73728818 0 16
5.368206 -0.96736842 -0.73180872 0 17
5.7956796 -1.0444006 -0.73500955 0 18
6.3048449 -1.1361538 -0.73980743 0 19
6.7665153 -1.2193483 -0.7299642 0 20
7.4961891 -1.3508379 -0.73790044 0 21
8.2025127 -1.4781197 -0.73011714 0 22
9.0985279 -1.6395848 -0.72425413 0 23
9.1055975 -1.6408587 -0.63925505 0 24
9.1045656 -1.6406727 -0.55373919 0 25
9.0980139 -1.639492 -0.46805274 0 26
9.0933838 -1.6386577 -0.38264933 0 27
9.1141157 -1.6423936 -0.29822734 0 28
9.1061172 -1.6409523 -0.21279657 0 29
9.0958052 -1.639094 -0.12751897 0 30
9.1196365 -1.6433886 -0.042615287 0 31
9.1045752 -1.6406745 0.042544909 0 32
9.1033049 -1.6404455 0.12762411 0 33
9.0952835 -1.6390001 0.2125434 0 34
9.0936508 -1.6387058 0.29755771 0 35
9.0970678 -1.6393216 0.38280433 0 36
9.0955744 -1.6390524 0.46792722 0 37
9.1062822 -1.640982 0.55384356 0 38
9.0984077 -1.639563 0.63875026 0 39
9.076108 -1.6355445 0.72246939 0 40
9.0956974 -1.6390746 0.80962074 0 41
9.1034489 -1.6404715 0.89611387 0 42
9.1148615 -1.6425281 0.98330122 0 43
9.0991278 -1.6396928 1.0676872 0 44
9.1102934 -1.6417049 1.1553696 0 45
9.108654 -1.6414094 1.241717 0 46
9.1029215 -1.6403764 1.32765 0 47
9.0999899 -1.6398482 1.4141382 0 48
9.0933905 -1.6386589 1.5002099 0 49
9.0868473 -1.6374799 1.5864257 0 50
9.1119595 -1.6420051 1.6786232 0 51
0 0 0 0 52
0 0 0 0 53
0 0 0 0 54
0 0 0 0 55
0 0 0 0 56
0 0 0 0 57
0 0 0 0 58
0 0 0 0 59
0 0 0 0 60
0 0 0 0 61
0 0 0 0 62
0 0 0 0 63
2.4241705 -0.40613484 -0.73274946 0 0
2.5246305 -0.42296544 -0.73754805 0 1
2.5981152 -0.43527672 -0.73284358 0 2
2.6982188 -0.45204768 -0.73403758 0 3
2.7993324 -0.46898779 -0.7336278 0 4
2.9154539 -0.48844227 -0.73512268 0 5
3.0465388 -0.51040369 -0.7380749 0 6
3.1742771 -0.53180438 -0.7377966 0 7
3.2885942 -0.55095655 -0.73215395 0 8
3.4469376 -0.57748473 -0.73377824 0 9
3.6292284 -0.6080249 -0.73731375 0 10
3.8190136 -0.63982064 -0.73889238 0 11
3.9895778 -0.66839623 -0.73339838 0 12
4.2317986 -0.70897686 -0.73723006 0 13
4.4587312 -0.74699616 -0.73402196 0 14
4.7304788 -0.7925235 -0.73354638 0 15
5.0524225 -0.84646058 -0.73531598 0 16
5.4326 -0.91015381 -0.73900551 0 17
5.7988496 -0.97151369 -0.733841 0 18
6.3044901 -1.0562264 -0.738186 0 19
6.7898731 -1.1375453 -0.73091984 0 20
7.4884162 -1.2545762 -0.73556113 0 21
8.1925907 -1.3725505 -0.72767669 0 22
9.138401 -1.5310074 -0.7258746 0 23
9.1315517 -1.5298598 -0.6397081 0 24
9.1326637 -1.5300461 -0.55426192 0 25
9.1364155 -1.5306748 -0.46902457 0 26
9.1408262 -1.5314137 -0.38382426 0 27
9.1507177 -1.5330708 -0.29878557 0 28
9.1359634 -1.530599 -0.21303812 0 29
9.1388988 -1.5310907 -0.1278495 0 30
9.1353712 -1.5304997 -0.042597648 0 31
9.1318007 -1.5299015 0.042580999 0 32
9.1300783 -1.529613 0.12772612 0 33
9.1477175 -1.5325681 0.21331218 0 34
9.1356688 -1.5305495 0.29829419 0 35
9.1429558 -1.5317703 0.38391367 0 36
9.1391029 -1.5311251 0.46916255 0 37
9.1451893 -1.5321445 0.55502206 0 38
9.1454782 -1.5321929 0.64068371 0 39
9.1447296 -1.5320677 0.72637731 0 40
9.1341543 -1.530296 0.81130767 0 41
9.1422081 -1.5316453 0.89800739 0 42
9.1332388 -1.5301424 0.98317957 0 43
9.1552925 -1.5338373 1.0719833 0 44
9.1390553 -1.5311168 1.1565421 0 45
9.1348572 -1.5304136 1.2426296 0 46
9.1408911 -1.5314246 1.3303407 0 47
9.1462021 -1.5323143 1.4182842 0 48
9.1455221 -1.5322005 1.5055885 0 49
9.1425838 -1.5317081 1.5927477 0 50
9.130579 -1.5296969 1.6784613 0 51
9.1396122 -1.5312103 1.7683073 0 52
0 0 0 0 53
0 0 0 0 54
0 0 0 0 55
0 0 0 0 56
0 0 0 0 57
0 0 0 0 58
0 0 0 0 59
0 0 0 0 60
0 0 0 0 61
0 0 0 0 62
0 0 0 0 63
2.438868 -0.37782934 -0.73573208 0 0
2.5261102 -0.3913449 -0.73651886 0 1
2.6184995 -0.40565786 -0.73713064 0 2
2.7089508 -0.41967055 -0.73549765 0 3
2.8050277 -0.43455479 -0.73366457 0 4
2.9056716 -0.45014656 -0.73120511 0 5
3.0348916 -0.47016531 -0.73379701 0 6
3.1724193 -0.49147108 -0.73590451 0 7
3.3168867 -0.51385194 -0.73699033 0 8
3.4494491 -0.53438854 -0.73285866 0 9
3.6240158 -0.56143242 -0.7347967 0 10
3.8128474 -0.5906862 -0.73623842 0 11
4.0229392 -0.62323362 -0.73806661 0 12
4.2176065 -0.65339148 -0.73330247 0 13
4.4736676 -0.69306046 -0.73502237 0 14
4.7696967 -0.73892123 -0.73816305 0 15
5.0468864 -0.78186351 -0.73305565 0 16
5.4246387 -0.84038484 -0.73646116 0 17
5.798718 -0.89833719 -0.73237109 0 18
6.3019648 -0.97630018 -0.73642898 0 19
6.773798 -1.0493965 -0.72774523 0 20
7.4952445 -1.1611631 -0.73477381 0 21
8.3476486 -1.2932175 -0.73998082 0 22
9.188221 -1.4234389 -0.72838646 0 23
9.1797094 -1.4221203 -0.64180827 0 24
9.186202 -1.4231261 -0.55640703 0 25
9.193162 -1.4242043 -0.47100303 0 26
9.170104 -1.4206321 -0.38429108 0 27
9.1885414 -1.4234885 -0.29942641 0 28
9.1899137 -1.423701 -0.21387175 0 29
9.1837692 -1.4227492 -0.12822279 0 30
9.1792641 -1.4220513 -0.042717554 0 31
9.1929321 -1.4241687 0.042781159 0 32
9.1824465 -1.4225444 0.12820432 0 33
9.1894217 -1.4236249 0.21386029 0 34
9.1935825 -1.4242694 0.29959068 0 35
9.1821327 -1.4224956 0.38479516 0 36
9.182436 -1.4225427 0.4704535 0 37
9.202136 -1.4255946 0.55737221 0 38
9.1848307 -1.4229136 0.64216626 0 39
9.1828308 -1.4226038 0.72795916 0 40
9.1891212 -1.4235783 0.81457341 0 41
9.1997108 -1.4252189 0.90186608 0 42
9.1895151 -1.4236394 0.98727864 0 43
9.1864958 -1.4231716 1.0735067 0 44
9.1727037 -1.4210349 1.1585014 0 45
9.182744 -1.4225904 1.24667 0 46
9.1731176 -1.4210991 1.332387 0 47
9.1904469 -1.4237837 1.4223228 0 48
9.1723652 -1.4209825 1.507017 0 49
9.1878729 -1.4233849 1.5974675 0 50
9.1814795 -1.4223945 1.6844757 0 51
0 0 0 0 52
0 0 0 0 53
0 0 0 0 54
0 0 0 0 55
0 0 0 0 56
0 0 0 0 57
0 0 0 0 58
0 0 0 0 59
0 0 0 0 60
0 0 0 0 61
0 0 0 0 62
0 0 0 0 63
2.4226611 -0.3448714 -0.72950852 0 0
2.5291996 -0.36003742 -0.73607314 0 1
2.6050525 -0.37083524 -0.73200619 0 2
2.7123489 -0.38610917 -0.73507571 0 3
2.8290555 -0.40272263 -0.73859805 0 4
2.9098709 -0.41422686 -0.73092484 0 5
3.0291083 -0.43120059 -0.7310614 0 6
3.1752236 -0.45200044 -0.73521012 0 7
3.326349 -0.47351348 -0.73774332 0 8
3.4700701 -0.49397251 -0.73589361 0 9
3.6196899 -0.51527125 -0.73257953 0 10
3.8134637 -0.54285538 -0.73501289 0 11
4.0193014 -0.57215685 -0.73605275 0 12
4.2170496 -0.60030681 -0.7318669 0 13
4.4744396 -0.63694686 -0.73380691 0 14
4.7721105 -0.67932093 -0.7371881 0 15
5.0543575 -0.71949947 -0.7328003 0 16
5.4377756 -0.77407992 -0.73689669 0 17
5.7927232 -0.82460755 -0.73027807 0 18
6.3041072 -0.89740425 -0.73533422 0 19
6.9034414 -0.98272091 -0.74031931 0 20
7.4847536 -1.065472 -0.73240566 0 21
8.3535862 -1.1891524 -0.73915505 0 22
9.2328863 -1.3143227 -0.73059082 0 23
9.2296677 -1.3138646 -0.64412284 0 24
9.2271681 -1.3135087 -0.55786788 0 25
9.2386751 -1.3151468 -0.47247058 0 26
9.2250357 -1.3132051 -0.38588721 0 27
9.2213402 -1.3126791 -0.29994655 0 28
9.2322903 -1.314238 -0.21446565 0 29
9.232337 -1.3142445 -0.12866552 0 30
9.2295485 -1.3138477 -0.04287314 0 31
9.2250814 -1.3132117 0.042852387 0 32
9.2350159 -1.3146259 0.12870285 0 33
9.2376032 -1.3149942 0.21458907 0 34
9.2309227 -1.3140433 0.30025825 0 35
9.2314606 -1.3141198 0.38615596 0 36
9.2446928 -1.3160034 0.47277838 0 37
9.230279 -1.3139516 0.558056 0 38
9.2183027 -1.3122468 0.64332968 0 39
9.2304726 -1.3139791 0.73039985 0 40
9.2270994 -1.313499 0.81644654 0 41
9.2167749 -1.3120292 0.90188915 0 42
9.2270737 -1.3134953 0.98950368 0 43
9.2359858 -1.3147639 1.0773193 0 44
9.2369452 -1.3149006 1.164485 0 45
9.2232447 -1.3129501 1.2498821 0 46
9.2266455 -1.3134344 1.3377149 0 47
9.225008 -1.3132013 1.4250648 0 48
9.2209959 -1.3126302 1.5122409 0 49
9.2225294 -1.3128484 1.6005656 0 50
9.2209234 -1.3126199 1.6886234 0 51
0 0 0 0 52
0 0 0 0 53
0 0 0 0 54
0 0 0 0 55
0 0 0 0 56
0 0 0 0 57
0 0 0 0 58
0 0 0 0 59
0 0 0 0 60
0 0 0 0 61
0 0 0 0 62
0 0 0 0 63
2.4344902 -0.31606644 -0.73184484 0 0
2.5308633 -0.32857841 -0.73532587 0 1
2.613678 -0.33933011 -0.73320198 0 2
2.7073779 -0.35149506 -0.73250175 0 3
2.8400207 -0.36871588 -0.74022114 0 4
2.9351799 -0.38107029 -0.73604953 0 5
3.0530188 -0.39636913 -0.73560023 0 6
3.1620276 -0.4105216 -0.73093057 0 7
3.3085356 -0.42954251 -0.7325657 0 8
3.4741549 -0.45104465 -0.73552811 0 9
3.6489449 -0.47373736 -0.73726565 0 10
3.8040173 -0.4938702 -0.73196638 0 11
4.0284162 -0.52300358 -0.73648852 0 12
4.2455621 -0.55119532 -0.73558336 0 13
4.4933352 -0.58336335 -0.73567373 0 14
4.775219 -0.61995989 -0.736435 0 15
5.0441871 -0.65487969 -0.73010308 0 16
5.4282975 -0.70474821 -0.73438239 0 17
5.8552365 -0.76017714 -0.73692495 0 18
6.2963729 -0.81744921 -0.73320419 0 19
6.8896208 -0.89446974 -0.73760188 0 20
7.4903703 -0.9724642 -0.73172981 0 21
8.3358517 -1.0822319 -0.73635262 0 22
8.840004 -1.1476853 -0.69833291 0 23
8.8277216 -1.1460906 -0.61504167 0 24
8.8432388 -1.1481051 -0.53376192 0 25
8.8433743 -1.1481228 -0.4514986 0 26
8.8323956 -1.1466974 -0.36884519 0 27
8.8332901 -1.1468136 -0.2868439 0 28
8.8390198 -1.1475575 -0.20498671 0 29
8.8353682 -1.1470834 -0.12292734 0 30
8.8380899 -1.1474367 -0.040986091 0 31
8.8368244 -1.1472725 0.040980224 0 32
8.8440561 -1.1482114 0.12304822 0 33
8.8236809 -1.145566 0.20463097 0 34
8.8420839 -1.1479553 0.28712949 0 35
8.8381424 -1.1474435 0.36908519 0 36
8.8401346 -1.1477021 0.45133317 0 37
8.8381662 -1.1474466 0.53345573 0 38
8.8402367 -1.1477154 0.61591369 0 39
8.8346214 -1.1469865 0.69790769 0 40
8.8348055 -1.1470103 0.78042805 0 41
8.8397436 -1.1476514 0.86354929 0 42
8.8248587 -1.1457189 0.94478828 0 43
8.8415613 -1.1478875 1.029588 0 44
8.8293705 -1.1463047 1.1112417 0 45
8.822402 -1.1454 1.1935633 0 46
8.8441582 -1.1482246 1.2801164 0 47
8.843111 -1.1480886 1.363786 0 48
8.8274317 -1.146053 1.445276 0 49
8.8304653 -1.1464468 1.5299608 0 50
8.8366899 -1.1472549 1.6155533 0 51
8.8283291 -1.1461695 1.6987408 0 52
0 0 0 0 53
0 0 0 0 54
0 0 0 0 55
0 0 0 0 56
0 0 0 0 57
0 0 0 0 58
0 0 0 0 59
0 0 0 0 60
0 0 0 0 61
0 0 0 0 62
0 0 0 0 63
2.4488902 -0.28736448 -0.73505586 0 0
2.5214393 -0.29587775 -0.73147547 0 1
2.6178424 -0.30719015 -0.73325515 0 2
2.7012091 -0.31697279 -0.72972304 0 3
2.8241608 -0.33140054 -0.73496974 0 4
2.9395151 -0.34493679 -0.73601735 0 5
3.061331 -0.35923123 -0.73648298 0 6
3.1863909 -0.37390634 -0.73544395 0 7
3.3210721 -0.38971049 -0.73422492 0 8
3.4644268 -0.40653241 -0.73235476 0 9
3.6521974 -0.42856631 -0.73680234 0 10
3.8039489 -0.44637358 -0.73084182 0 11
4.0240827 -0.4722051 -0.73457915 0 12
4.2552581 -0.49933234 -0.73614383 0 13
4.4801149 -0.52571815 -0.73239547 0 14
4.7683477 -0.55954075 -0.73425871 0 15
5.1051912 -0.59906757 -0.73781091 0 16
5.430017 -0.6371842 -0.73349959 0 17
5.8743868 -0.68932867 -0.73821253 0 18
6.2819986 -0.73715979 -0.73041958 0 19
6.905139 -0.81028205 -0.73814076 0 20
7.4924431 -0.87919915 -0.73082089 0 21
8.3562212 -0.98055899 -0.73703116 0 22
8.4713888 -0.99407333 -0.66819727 0 23
8.4575272 -0.99244666 -0.58835489 0 24
8.4735937 -0.99433202 -0.51067424 0 25
8.4702539 -0.99394011 -0.43179229 0 26
8.4636154 -0.9931612 -0.3529081 0 27
8.4698076 -0.99388772 -0.27462289 0 28
8.4673634 -0.9936009 -0.1960694 0 29
8.4674082 -0.99360627 -0.11762901 0 30
8.4717779 -0.99411893 -0.039227687 0 31
8.4646873 -0.99328697 0.039194856 0 32
8.4713469 -0.99406838 0.11768372 0 33
8.4780426 -0.99485409 0.1963167 0 34
8.4694052 -0.99384052 0.27460983 0 35
8.470932 -0.99401969 0.35321319 0 36
8.4642801 -0.9932391 0.43148777 0 37
8.4801521 -0.99510163 0.51106948 0 38
8.4708824 -0.99401385 0.58928394 0 39
8.4610157 -0.99285603 0.66737908 0 40
8.479845 -0.99506563 0.747935 0 41
8.4731712 -0.99428248 0.82648224 0 42
8.4685831 -0.99374408 0.90526879 0 43
8.4639606 -0.99320161 0.98412025 0 44
8.4677629 -0.99364787 1.0641125 0 45
8.4604425 -0.99278873 1.1428566 0 46
8.4710693 -0.99403584 1.2242534 0 47
8.4619837 -0.99296969 1.3030269 0 48
8.4878845 -0.99600899 1.3875734 0 49
8.4634314 -0.99313956 1.4641422 0 50
8.465806 -0.99341822 1.5453969 0 51
8.4628487 -0.9930712 1.6259428 0 52
8.4576387 -0.99245983 1.7062627 0 53
0 0 0 0 54
0 0 0 0 55
0 0 0 0 56
0 0 0 0 57
0 0 0 0 58
0 0 0 0 59
0 0 0 0 60
0 0 0 0 61
0 0 0 0 62
0 0 0 0 63
2.4437995 -0.25634712 -0.73252636 0 0
2.5522687 -0.26772523 -0.7394082 0 1
2.6361387 -0.27652293 -0.7373718 0 2
2.7358937 -0.28698692 -0.73808384 0 3
2.8306522 -0.2969268 -0.73565328 0 4
2.9313838 -0.30749324 -0.73297924 0 5
3.0681434 -0.32183889 -0.73711401 0 6
3.1991973 -0.33558607 -0.73739159 0 7
3.3331869 -0.34964114 -0.73589712 0 8
3.4768939 -0.36471558 -0.73398674 0 9
3.6613545 -0.38406494 -0.73764122 0 10
3.8439653 -0.40322027 -0.73752165 0 11
4.0190082 -0.42158172 -0.73265111 0 12
4.2675552 -0.44765353 -0.73726314 0 13
4.4880996 -0.47078797 -0.73269898 0 14
4.7840819 -0.50183558 -0.73567569 0 15
5.1012878 -0.53510952 -0.73624015 0 16
5.4302716 -0.56961894 -0.73253244 0 17
5.8645616 -0.61517465 -0.73597157 0 18
6.3054042 -0.66141766 -0.73213995 0 19
6.9050016 -0.72431368 -0.7371183 0 20
7.4873667 -0.785402 -0.72932863 0 21
8.1404028 -0.85390353 -0.71701539 0 22
8.1324368 -0.85306787 -0.64058596 0 23
8.1243773 -0.85222238 -0.56440735 0 24
8.1348515 -0.85332114 -0.48958999 0 25
8.1231718 -0.85209596 -0.41353351 0 26
8.1415377 -0.85402256 -0.33901489 0 27
8.145174 -0.85440397 -0.26373646 0 28
8.1312742 -0.85294592 -0.18802989 0 29
8.1304693 -0.85286152 -0.11279404 0 30
8.1270161 -0.85249931 -0.037579928 0 31
8.1281929 -0.85262263 0.037585363 0 32
8.1245584 -0.8522414 0.11271203 0 33
8.1449804 -0.85438365 0.18834683 0 34
8.1285114 -0.85265613 0.26319695 0 35
8.1197662 -0.85173875 0.3381083 0 36
8.1302671 -0.85284024 0.41389474 0 37
8.1339798 -0.8532297 0.48953757 0 38
8.1314344 -0.85296273 0.56489772 0 39
8.1170721 -0.85145617 0.63937575 0 40
8.1305075 -0.85286552 0.71614379 0 41
8.1165543 -0.85140187 0.79061651 0 42
8.1268139 -0.85247809 0.86754847 0 43
8.1264544 -0.8524403 0.94358766 0 44
8.1195488 -0.85171592 1.0189606 0 45
8.1321354 -0.85303622 1.0970082 0 46
8.1349859 -0.85333526 1.1740768 0 47
8.1228333 -0.8520605 1.2490947 0 48
8.1224957 -0.85202503 1.3260276 0 49
8.1410618 -0.85397261 1.4064505 0 50
8.1184149 -0.85159701 1.4799588 0 51
8.1204739 -0.85181302 1.5580332 0 52
8.1354256 -0.85338134 1.6390177 0 53
8.1236372 -0.85214478 1.7149335 0 54
0 0 0 0 55
0 0 0 0 56
0 0 0 0 57
0 0 0 0 58
0 0 0 0 59
0 0 0 0 60
0 0 0 0 61
0 0 0 0 62
0 0 0 0 63
2.4346099 -0.22515564 -0.72888678 0 0
2.5389214 -0.23480248 -0.73464936 0 1
2.639565 -0.24411014 -0.7374348 0 2
2.7418258 -0.25356734 -0.73878717 0 3
2.846029 -0.26320419 -0.73875254 0 4
2.9373286 -0.27164766 -0.73357499 0 5
3.0485346 -0.28193212 -0.73151493 0 6
3.1976216 -0.29571989 -0.73613465 0 7
3.3530788 -0.31009674 -0.73939109 0 8
3.4837565 -0.32218197 -0.73454362 0 9
3.6466124 -0.33724308 -0.73378021 0 10
3.8508177 -0.35612825 -0.73794043 0 11
4.0089636 -0.37075374 -0.7299338 0 12
4.2495508 -0.39300355 -0.73326242 0 13
4.5232544 -0.41831595 -0.73754263 0 14
4.7739182 -0.44149768 -0.73322254 0 15
5.1150413 -0.47304514 -0.7373299 0 16
5.4328618 -0.50243753 -0.73199308 0 17
5.8705969 -0.54291981 -0.73583549 0 18
6.2775507 -0.58055538 -0.72802186 0 19
6.8971815 -0.63785964 -0.7353906 0 20
7.5011659 -0.69371676 -0.72978663 0 21
7.7627482 -0.71790826 -0.68292195 0 22
7.7747216 -0.71901554 -0.61166632 0 23
7.7691736 -0.71850246 -0.53907657 0 24
7.7685652 -0.7184462 -0.46697837 0 25
7.789187 -0.72035336 -0.39605021 0 26
7.7741079 -0.7189588 -0.32332247 0 27
7.7698946 -0.71856916 -0.25128001 0 28
7.7824593 -0.71973115 -0.17974555 0 29
7.7717299 -0.71873885 -0.1076865 0 30
7.7617474 -0.71781564 -0.03584737 0 31
7.785068 -0.71997243 0.035955075 0 32
7.7709231 -0.71866429 0.10767531 0 33
7.7774138 -0.71926451 0.17962901 0 34
7.7750826 -0.71904898 0.2514478 0 35
7.7715864 -0.71872562 0.3232176 0 36
7.7787375 -0.71938694 0.39551887 0 37
7.778492 -0.71936423 0.46757507 0 38
7.7585039 -0.71751571 0.53833622 0 39
7.765101 -0.71812582 0.61090946 0 40
7.773325 -0.71888638 0.68385243 0 41
7.7746582 -0.7190097 0.75639468 0 42
7.7760139 -0.71913511 0.8290934 0 43
7.7733293 -0.71888679 0.90149069 0 44
7.7708707 -0.71865946 0.97402072 0 45
7.7762547 -0.71915734 1.0477285 0 46
7.7659817 -0.7182073 1.1194612 0 47
7.7905917 -0.72048324 1.1965512 0 48
7.7805133 -0.71955121 1.2686574 0 49
7.7780647 -0.71932471 1.3421094 0 50
7.7726645 -0.71882534 1.4152113 0 51
7.7909842 -0.72051954 1.4930029 0 52
7.7924366 -0.72065383 1.568013 0 53
7.7790565 -0.71941644 1.6401995 0 54
7.7801518 -0.71951777 1.7156099 0 55
0 0 0 0 56
0 0 0 0 57
0 0 0 0 58
0 0 0 0 59
0 0 0 0 60
0 0 0 0 61
0 0 0 0 62
0 0 0 0 63
2.4627695 -0.19725218 -0.73653555 0 0
2.5349541 -0.20303372 -0.73272359 0 1
2.6287863 -0.21054907 -0.73364472 0 2
2.7385316 -0.21933898 -0.73711711 0 3
2.8395481 -0.22742975 -0.73628867 0 4
2.9522018 -0.23645261 -0.73650765 0 5
3.0572555 -0.24486674 -0.73282963 0 6
3.1892707 -0.25544032 -0.7334336 0 7
3.3414872 -0.26763189 -0.73605365 0 8
3.4760497 -0.27840948 -0.73214144 0 9
3.6442063 -0.29187775 -0.73251843 0 10
3.8336959 -0.30705467 -0.73388028 0 11
4.0201926 -0.32199186 -0.73120213 0 12
4.2689819 -0.34191832 -0.73583418 0 13
4.5138078 -0.36152732 -0.73522186 0 14
4.7815137 -0.38296887 -0.73361039 0 15
5.1003218 -0.40850335 -0.73442847 0 16
5.4366002 -0.43543714 -0.73172003 0 17
5.8766685 -0.47068378 -0.73581547 0 18
6.3853087 -0.51142263 -0.73973358 0 19
6.9036913 -0.5529418 -0.73530412 0 20
7.4757981 -0.59876388 -0.72654742 0 21
7.4929342 -0.6001364 -0.65848625 0 22
7.4756703 -0.59875369 -0.58751523 0 23
7.5103292 -0.60152966 -0.52056366 0 24
7.4861913 -0.59959632 -0.44952732 0 25
7.4870734 -0.59966701 -0.3802852 0 26
7.4797087 -0.59907711 -0.31074864 0 27
7.4817948 -0.59924418 -0.24170624 0 28
7.4891768 -0.59983546 -0.17278841 0 29
7.4954119 -0.60033488 -0.10374766 0 30
7.4907684 -0.59996295 -0.034559179 0 31
7.4894218 -0.59985507 0.034552965 0 32
7.4838414 -0.59940809 0.1035875 0 33
7.4826417 -0.59931207 0.17263764 0 34
7.5004406 -0.60073763 0.24230862 0 35
7.4834566 -0.59937733 0.31090435 0 36
7.49475 -0.60028183 0.38067511 0 37
7.4935236 -0.60018361 0.44996762 0 38
7.4873991 -0.59969306 0.5189743 0 39
7.4952273 -0.60032004 0.5890522 0 40
7.4797349 -0.59907925 0.65732628 0 41
7.493485 -0.60018051 0.7282663 0 42
7.4932113 -0.60015857 0.79809326 0 43
7.4869032 -0.59965336 0.86735255 0 44
7.4858632 -0.59957004 0.93730217 0 45
7.4884953 -0.59978086 1.0078876 0 46
7.4903626 -0.59993041 1.078586 0 47
7.5042214 -0.60104042 1.1513456 0 48
7.4870963 -0.5996688 1.2195196 0 49
7.4918323 -0.60004812 1.2913492 0 50
7.4899192 -0.59989494 1.3622843 0 51
7.4887223 -0.59979904 1.4335581 0 52
7.5000544 -0.60070664 1.5075788 0 53
7.5001044 -0.60071069 1.5797062 0 54
7.499536 -0.60066515 1.6519774 0 55
7.4776244 -0.59891015 1.7196221 0 56
0 0 0 0 57
0 0 0 0 58
0 0 0 0 59
0 0 0 0 60
0 0 0 0 61
0 0 0 0 62
0 0 0 0 63
2.4559321 -0.16634142 -0.73382348 0 0
2.5445867 -0.17234604 -0.73483974 0 1
2.6153138 -0.17713642 -0.72922176 0 2
2.7332144 -0.18512188 -0.7350176 0 3
2.8453591 -0.19271749 -0.73712528 0 4
2.9551115 -0.20015107 -0.73656386 0 5
3.0599179 -0.20724967 -0.73280156 0 6
3.1936491 -0.21630734 -0.73377329 0 7
3.3479369 -0.22675732 -0.73680449 0 8
3.4977524 -0.23690441 -0.73604333 0 9
3.6656246 -0.24827446 -0.73615444 0 10
3.8532562 -0.26098284 -0.73695469 0 11
4.0629334 -0.27518439 -0.73830473 0 12
4.2618098 -0.28865439 -0.73393065 0 13
4.516192 -0.3058838 -0.73494202 0 14
4.7778769 -0.32360783 -0.73238653 0 15
5.101243 -0.34550959 -0.73389387 0 16
5.4239545 -0.367367 -0.72935492 0 17
5.8691702 -0.39752164 -0.73420906 0 18
6.37779 -0.43197072 -0.73819137 0 19
6.9044867 -0.4676441 -0.73472083 0 20
7.21627 -0.48876134 -0.70068771 0 21
7.2387958 -0.49028701 -0.63557446 0 22
7.2280521 -0.48955935 -0.5675388 0 23
7.2479839 -0.49090934 -0.50192338 0 24
7.2327533 -0.48987776 -0.43391448 0 25
7.2161007 -0.48874986 -0.36618894 0 26
7.2293515 -0.48964736 -0.30007461 0 27
7.2291932 -0.48963663 -0.23333356 0 28
7.2223763 -0.4891749 -0.16648148 0 29
7.2152715 -0.48869368 -0.099779375 0 30
7.2252331 -0.48936841 -0.033303834 0 31
7.2127042 -0.48851985 0.033246081 0 32
7.2425804 -0.49054337 0.10015703 0 33
7.2272611 -0.48950577 0.16659409 0 34
7.2195692 -0.48898482 0.23302294 0 35
7.2392421 -0.49031723 0.30048513 0 36
7.2261057 -0.48942751 0.36669666 0 37
7.2369261 -0.49016038 0.43416482 0 38
7.2288599 -0.48961404 0.50059903 0 39
7.2248387 -0.48934168 0.56728649 0 40
7.2351718 -0.49004155 0.63525623 0 41
7.2230806 -0.48922262 0.70134896 0 42
7.2268209 -0.48947597 0.76902109 0 43
7.2223892 -0.4891758 0.83594871 0 44
7.2401242 -0.49037701 0.9057098 0 45
7.2228928 -0.48920989 0.97125673 0 46
7.2314405 -0.48978886 1.0403563 0 47
7.2251191 -0.48936069 1.107517 0 48
7.2247844 -0.48933801 1.1757245 0 49
7.2243519 -0.48930874 1.2441131 0 50
7.2389593 -0.49029809 1.315443 0 51
7.2274675 -0.48951975 1.3822895 0 52
7.2406468 -0.49041238 1.4541135 0 53
7.2199464 -0.48901036 1.5193167 0 54
7.2387304 -0.4902826 1.5930793 0 55
7.2198372 -0.48900294 1.658831 0 56
7.2230549 -0.48922089 1.7298065 0 57
0 0 0 0 58
0 0 0 0 59
0 0 0 0 60
0 0 0 0 61
0 0 0 0 62
0 0 0 0 63
2.4528725 -0.13585937 -0.73235476 0 0
2.5475695 -0.14110443 -0.7351445 0 1
2.6243567 -0.14535752 -0.73118955 0 2
2.7376919 -0.15163492 -0.73566467 0 3
2.8473608 -0.15770924 -0.73708576 0 4
2.9422081 -0.16296263 -0.73279279 0 5
3.0800278 -0.17059617 -0.73705947 0 6
3.1977811 -0.17711827 -0.7341668 0 7
3.3373992 -0.18485142 -0.73392969 0 8
3.513037 -0.19457962 -0.73870039 0 9
3.6378641 -0.20149353 -0.7300266 0 10
3.8498585 -0.21323545 -0.73574769 0 11
4.0585155 -0.22479253 -0.7369439 0 12
4.2583437 -0.23586059 -0.73277891 0 13
4.5253429 -0.25064909 -0.735874 0 14
4.7631016 -0.26381806 -0.72956926 0 15
5.1056023 -0.28278843 -0.73396528 0 16
5.5086346 -0.30511153 -0.74018127 0 17
5.8721118 -0.32524374 -0.73402125 0 18
6.3751688 -0.35310701 -0.73732972 0 19
6.9093332 -0.38269323 -0.73468029 0 20
6.9200544 -0.38328707 -0.6714173 0 21
6.9353504 -0.38413426 -0.60847092 0 22
6.9484448 -0.38485953 -0.54517156 0 23
6.9293518 -0.383802 -0.47949499 0 24
6.9460096 -0.38472465 -0.41639656 0 25
6.9578953 -0.38538298 -0.35281888 0 26
6.9510746 -0.38500518 -0.28830561 0 27
6.9506135 -0.38497967 -0.22417222 0 28
6.947433 -0.38480347 -0.16002266 0 29
6.9554434 -0.38524717 -0.096113458 0 30
6.949573 -0.38492203 -0.032008976 0 31
6.9513092 -0.3850182 0.03201697 0 32
6.9412398 -0.38446045 0.095917188 0 33
6.9558077 -0.38526735 0.16021556 0 34
6.9379745 -0.38427961 0.2237646 0 35
6.942668 -0.38453957 0.28795695 0 36
6.9417839 -0.38449061 0.35200194 0 37
6.9523292 -0.38507468 0.41677544 0 38
6.9349184 -0.38411033 0.47988018 0 39
6.9454951 -0.38469616 0.54494011 0 40
6.9484229 -0.38485831 0.60961783 0 41
6.9473267 -0.3847976 0.67406338 0 42
6.9412432 -0.38446066 0.73807335 0 43
6.9486613 -0.38487151 0.80365777 0 44
6.9522638 -0.38507107 0.86904162 0 45
6.9615645 -0.38558623 0.93540788 0 46
6.9401083 -0.38439777 0.99768806 0 47
6.9348531 -0.38410673 1.0622187 0 48
6.9312015 -0.38390446 1.1270949 0 49
6.9444723 -0.3846395 1.1950098 0 50
6.9390273 -0.3843379 1.2599862 0 51
6.9386678 -0.38431802 1.3260511 0 52
6.9463029 -0.38474092 1.3939461 0 53
6.9375491 -0.38425606 1.4587864 0 54
6.9330239 -0.3840054 1.5246459 0 55
6.956748 -0.38531941 1.5971742 0 56
6.9518528 -0.3850483 1.6635983 0 57
6.9418368 -0.38449353 1.7289491 0 58
0 0 0 0 59
0 0 0 0 60
0 0 0 0 61
0 0 0 0 62
0 0 0 0 63
2.4894183 -0.1071995 -0.74281651 0 0
2.5287323 -0.10889244 -0.72926718 0 1
2.6373863 -0.11357131 -0.73437518 0 2
2.7330756 -0.11769188 -0.73397982 0 3
2.8431895 -0.12243362 -0.7355606 0 4
2.9502635 -0.12704445 -0.73435456 0 5
3.0738149 -0.13236482 -0.73512763 0 6
3.1996956 -0.13778551 -0.73416185 0 7
3.3505769 -0.14428277 -0.73638177 0 8
3.4825344 -0.14996514 -0.73184341 0 9
3.642673 -0.15686104 -0.7305494 0 10
3.8386919 -0.16530201 -0.73316979 0 11
4.0599427 -0.17482953 -0.73675698 0 12
4.2647867 -0.18365054 -0.73344356 0 13
4.5415978 -0.19557059 -0.73807037 0 14
4.7805634 -0.20586094 -0.73180079 0 15
5.0953937 -0.2194182 -0.73205453 0 16
5.4992771 -0.23681024 -0.73847681 0 17
5.8800087 -0.25320533 -0.73456365 0 18
6.4114161 -0.27608883 -0.74107325 0 19
6.7274232 -0.28969675 -0.71490473 0 20
6.7189617 -0.28933239 -0.65151185 0 21
6.7233667 -0.28952208 -0.58951569 0 22
6.721436 -0.28943893 -0.52704149 0 23
6.7134943 -0.28909695 -0.46427706 0 24
6.7053127 -0.28874463 -0.40172419 0 25
6.7035303 -0.28866786 -0.33971494 0 26
6.7170167 -0.28924862 -0.27842918 0 27
6.7149396 -0.28915918 -0.21644019 0 28
6.6938896 -0.28825271 -0.15408942 0 29
6.7034745 -0.28866547 -0.092575587 0 30
6.713192 -0.28908393 -0.03090152 0 31
6.7061987 -0.28878278 0.030869329 0 32
6.7089252 -0.2889002 0.092650868 0 33
6.7259111 -0.28963163 0.15482654 0 34
6.7089272 -0.28890029 0.2162464 0 35
6.7293553 -0.28977993 0.27894062 0 36
6.7132931 -0.28908828 0.34020969 0 37
6.7310424 -0.28985259 0.40326566 0 38
6.7150722 -0.28916487 0.46438617 0 39
6.7164621 -0.28922474 0.52665144 0 40
6.7193761 -0.28935021 0.58916575 0 41
6.7197781 -0.28936756 0.651591 0 42
6.7202821 -0.28938925 0.71414584 0 43
6.7233477 -0.28952125 0.77712828 0 44
6.7088456 -0.28889677 0.83810663 0 45
6.7128439 -0.28906894 0.90144211 0 46
6.7191343 -0.28933981 0.9653371 0 47
6.7219543 -0.28946126 1.0289859 0 48
6.7232828 -0.28951845 1.0926234 0 49
6.7151365 -0.28916764 1.1548463 0 50
6.7201877 -0.28938517 1.219511 0 51
6.7186146 -0.28931743 1.2832197 0 52
6.7121987 -0.28904116 1.3461522 0 53
6.7111869 -0.28899756 1.4103343 0 54
6.7101684 -0.28895372 1.4747447 0 55
6.7117591 -0.28902224 1.5399958 0 56
6.7092805 -0.28891549 1.6045785 0 57
6.7070465 -0.28881928 1.669461 0 58
6.7174783 -0.28926849 1.7378765 0 59
0 0 0 0 60
0 0 0 0 61
0 0 0 0 62
0 0 0 0 63
2.4790606 -0.076229416 -0.73939031 0 0
2.5630186 -0.078811064 -0.73881984 0 1
2.6474502 -0.081407279 -0.73684299 0 2
2.720202 -0.083644345 -0.73019111 0 3
2.8438265 -0.087445714 -0.73539162 0 4
2.940439 -0.090416476 -0.73157704 0 5
3.0835512 -0.094817087 -0.73712158 0 6
3.1809387 -0.097811684 -0.729527 0 7
3.3332632 -0.10249556 -0.73224425 0 8
3.5159991 -0.10811456 -0.73854071 0 9
3.6637115 -0.11265662 -0.73443532 0 10
3.8476813 -0.11831357 -0.73455334 0 11
4.0638542 -0.12496072 -0.73713219 0 12
4.2460499 -0.13056313 -0.72988999 0 13
4.5140371 -0.13880354 -0.73325861 0 14
4.8012791 -0.14763604 -0.73463851 0 15
5.1000848 -0.15682411 -0.73239607 0 16
5.4907532 -0.16883689 -0.73699772 0 17
5.8719969 -0.18055987 -0.73322999 0 18
6.3855796 -0.19635218 -0.73775202 0 19
6.5028229 -0.19995734 -0.69072354 0 20
6.4975109 -0.19979399 -0.62975276 0 21
6.5223589 -0.20055805 -0.57163149 0 22
6.4880486 -0.19950305 -0.50851029 0 23
6.4959159 -0.19974495 -0.44902647 0 24
6.5045109 -0.20000926 -0.38951707 0 25
6.5076327 -0.20010525 -0.32963783 0 26
6.5063577 -0.20006604 -0.26957473 0 27
6.5101194 -0.20018171 -0.20974311 0 28
6.4969645 -0.19977719 -0.14948846 0 29
6.4936476 -0.19967522 -0.089637175 0 30
6.503634 -0.19998229 -0.029923322 0 31
6.4930868 -0.19965796 0.029874792 0 32
6.492887 -0.19965182 0.089626677 0 33
6.4911194 -0.19959746 0.14935398 0 34
6.5000105 -0.19987085 0.20941742 0 35
6.5022702 -0.19994034 0.26940536 0 36
6.5000539 -0.1998722 0.32925394 0 37
6.5057607 -0.20004767 0.3895919 0 38
6.4848399 -0.19940439 0.44826084 0 39
6.4908915 -0.19959046 0.50873309 0 40
6.5120401 -0.20024076 0.57072717 0 41
6.5076427 -0.20010555 0.63073474 0 42
6.5179472 -0.20042241 0.69233 0 43
6.4975615 -0.19979556 0.75068974 0 44
6.5055833 -0.20004222 0.81234527 0 45
6.4943738 -0.19969754 0.87170899 0 46
6.4991345 -0.19984393 0.93330616 0 47
6.4975963 -0.19979663 0.99419016 0 48
6.5032358 -0.19997005 1.0563834 0 49
6.5072184 -0.20009249 1.1185817 0 50
6.4839683 -0.19937758 1.1761106 0 51
6.5077944 -0.20011021 1.2423903 0 52
6.4869151 -0.19946818 1.3003807 0 53
6.5021963 -0.19993807 1.3657959 0 54
6.5008507 -0.19989671 1.4280932 0 55
6.5018387 -0.19992709 1.4911532 0 56
6.497118 -0.19978192 1.5531332 0 57
6.4906449 -0.19958289 1.6148633 0 58
6.5149918 -0.20033152 1.6847266 0 59
6.4993329 -0.19985002 1.7446333 0 60
0 0 0 0 61
0 0 0 0 62
0 0 0 0 63
2.4677589 -0.045519959 -0.73579699 0 0
2.5615673 -0.047250334 -0.73817813 0 1
2.6420739 -0.048735347 -0.73512429 0 2
2.725821 -0.050280139 -0.73147821 0 3
2.8364186 -0.052320205 -0.73325419 0 4
2.9523234 -0.054458171 -0.73431176 0 5
3.08318 -0.056871936 -0.73680997 0 6
3.1941755 -0.05891934 -0.73234129 0 7
3.3339074 -0.061496817 -0.73216432 0 8
3.5013602 -0.064585626 -0.73524338 0 9
3.685637 -0.067984775 -0.73860711 0 10
3.8438406 -0.070902973 -0.73359817 0 11
4.0556879 -0.074810684 -0.73542845 0 12
4.260427 -0.078587271 -0.73213989 0 13
