# .PCD v0.7 - Point Cloud Data file format
VERSION 0.7
FIELDS x y z intensity ring
SIZE 4 4 4 4 2
TYPE F F F F U
COUNT 1 1 1 1 1
WIDTH 1473
HEIGHT 1
VIEWPOINT 0 0 0 1 0 0 0
POINTS 1473
DATA ascii
6.9464202 -6.7154112 1.5687106 0 49
6.9371333 -6.7064333 1.657838 0 50
6.9415073 -6.7106619 1.7504544 0 51
0 0 0 0 52
0 0 0 0 53
0 0 0 0 54
0 0 0 0 55
0 0 0 0 56
0 0 0 0 57
0 0 0 0 58
0 0 0 0 59
0 0 0 0 60
0 0 0 0 61
0 0 0 0 62
0 0 0 0 63
1.7962947 -1.694328 -0.73613 0 0
1.8598888 -1.7543122 -0.73665488 0 1
1.9283568 -1.8188936 -0.73743689 0 2
1.9992473 -1.8857599 -0.73738146 0 3
2.0687077 -1.9512775 -0.73502994 0 4
2.1587152 -2.0361757 -0.73796129 0 5
2.2293422 -2.1027935 -0.73224264 0 6
2.3350408 -2.202492 -0.73581874 0 7
2.4365449 -2.2982342 -0.73544651 0 8
2.5386758 -2.3945677 -0.73269498 0 9
2.6653569 -2.5140579 -0.73413843 0 10
2.7902441 -2.631856 -0.73190844 0 11
2.958267 -2.7903409 -0.73728424 0 12
3.1064274 -2.9300911 -0.73370898 0 13
3.2971885 -3.1100235 -0.73591244 0 14
3.5079696 -3.3088396 -0.73750144 0 15
3.7114136 -3.500735 -0.7323156 0 16
3.9861929 -3.7599165 -0.73516166 0 17
4.3012462 -4.057086 -0.73797053 0 18
4.6200409 -4.3577843 -0.73340899 0 19
5.0511522 -4.7644234 -0.73719621 0 20
5.4998479 -5.1876488 -0.73242652 0 21
6.1140504 -5.7669864 -0.73625934 0 22
6.7878394 -6.4025278 -0.73098344 0 23
6.9789071 -6.5827489 -0.66284084 0 24
6.9909987 -6.5941544 -0.57522982 0 25
6.9819856 -6.5856528 -0.48594069 0 26
6.9836326 -6.5872064 -0.39756939 0 27
6.9762368 -6.5802302 -0.30882344 0 28
6.9773479 -6.5812788 -0.22058597 0 29
6.9717784 -6.5760255 -0.13223103 0 30
6.9677706 -6.5722451 -0.044049185 0 31
6.9847975 -6.588305 0.044156823 0 32
6.9774537 -6.5813785 0.13233866 0 33
6.9685669 -6.5729961 0.22030836 0 34
6.9705758 -6.5748906 0.30857286 0 35
6.9797564 -6.58355 0.3973487 0 36
6.9717121 -6.5759625 0.48522568 0 37
6.9834995 -6.587081 0.5746128 0 38
6.9778242 -6.5817275 0.66273797 0 39
6.9808602 -6.5845914 0.75176984 0 40
6.9673848 -6.5718808 0.83901858 0 41
6.9719968 -6.5762315 0.92847574 0 42
6.9744072 -6.578505 1.0178879 0 43
6.9745717 -6.57866 1.1071793 0 44
6.9714093 -6.5756769 1.1960939 0 45
6.9672427 -6.5717468 1.2849478 0 46
6.9765592 -6.5805349 1.3765761 0 47
6.9766879 -6.5806561 1.4667509 0 48
6.989202 -6.5924597 1.5599474 0 49
6.9752555 -6.5793047 1.6474898 0 50
6.9717498 -6.5759983 1.7375582 0 51
0 0 0 0 52
0 0 0 0 53
0 0 0 0 54
0 0 0 0 55
0 0 0 0 56
0 0 0 0 57
0 0 0 0 58
0 0 0 0 59
0 0 0 0 60
0 0 0 0 61
0 0 0 0 62
0 0 0 0 63
1.8099877 -1.665668 -0.73329246 0 0
1.8768034 -1.7271563 -0.73488694 0 1
1.9456301 -1.7904949 -0.73556733 0 2
2.0126164 -1.8521402 -0.73385692 0 3
2.0870934 -1.9206786 -0.73311555 0 4
2.1778655 -2.0042131 -0.7360273 0 5
2.2665255 -2.0858037 -0.73597586 0 6
2.3583181 -2.1702771 -0.73468882 0 7
2.4616148 -2.2653377 -0.73455018 0 8
2.5789821 -2.3733466 -0.7358495 0 9
2.6986849 -2.483505 -0.7348513 0 10
2.8380268 -2.6117363 -0.73596257 0 11
2.9742284 -2.737078 -0.73281878 0 12
3.1455851 -2.8947713 -0.73449475 0 13
3.3540964 -3.086657 -0.74008662 0 14
3.5457084 -3.262991 -0.73694444 0 15
3.7732091 -3.4723516 -0.73602819 0 16
4.0290151 -3.7077608 -0.73459524 0 17
4.3435025 -3.9971724 -0.73673183 0 18
4.6715536 -4.2990665 -0.73313916 0 19
5.1142225 -4.706439 -0.73789901 0 20
5.5760818 -5.1314721 -0.73412025 0 21
6.2076368 -5.7126698 -0.73901415 0 22
6.8941526 -6.3444462 -0.73397541 0 23
7.0127201 -6.4535594 -0.6584655 0 24
7.0058351 -6.4472237 -0.56988436 0 25
7.0168982 -6.4574051 -0.4828077 0 26
7.008635 -6.4498005 -0.39444792 0 27
7.0203886 -6.4606166 -0.30723795 0 28
7.0115428 -6.4524765 -0.21914208 0 29
7.0154991 -6.4561172 -0.1315446 0 30
7.010036 -6.4510899 -0.043811582 0 31
7.0174212 -6.4578862 0.043857738 0 32
7.0146055 -6.4552946 0.13152784 0 33
7.0139785 -6.4547176 0.21921819 0 34
7.0139956 -6.4547338 0.3069582 0 35
7.009953 -6.4510131 0.3945221 0 36
7.0179443 -6.4583673 0.48287967 0 37
7.0146422 -6.4553285 0.57060075 0 38
7.0066648 -6.4479871 0.65789694 0 39
7.0138102 -6.4545627 0.74671459 0 40
7.0271173 -6.4668088 0.83657265 0 41
7.0166636 -6.4571891 0.92378032 0 42
7.0168276 -6.4573398 1.012414 0 43
7.0086794 -6.449841 1.0999204 0 44
7.0232244 -6.4632263 1.1912583 0 45
7.0064073 -6.4477506 1.277452 0 46
7.0195742 -6.459867 1.3692865 0 47
7.0104337 -6.4514556 1.4570572 0 48
7.0006919 -6.4424906 1.5447137 0 49
7.0163436 -6.4568944 1.6383177 0 50
7.0125265 -6.4533815 1.7278131 0 51
0 0 0 0 52
0 0 0 0 53
0 0 0 0 54
0 0 0 0 55
0 0 0 0 56
0 0 0 0 57
0 0 0 0 58
0 0 0 0 59
0 0 0 0 60
0 0 0 0 61
0 0 0 0 62
0 0 0 0 63
1.8239249 -1.6375358 -0.73072588 0 0
1.8991059 -1.705034 -0.73535472 0 1
1.958717 -1.7585533 -0.73228443 0 2
2.0424924 -1.8337675 -0.7364729 0 3
2.1121788 -1.8963326 -0.73368084 0 4
2.1909235 -1.9670303 -0.73221064 0 5
2.3001328 -2.0650792 -0.7385872 0 6
2.3852632 -2.1415102 -0.734824 0 7
2.4862106 -2.2321417 -0.73364377 0 8
2.5925863 -2.3276465 -0.73150927 0 9
2.7359293 -2.4563413 -0.73671257 0 10
2.8518729 -2.5604365 -0.73133332 0 11
3.0120816 -2.7042732 -0.73389673 0 12
3.1734626 -2.8491626 -0.73276818 0 13
3.3593435 -3.0160482 -0.73300576 0 14
3.5552924 -3.1919727 -0.73072338 0 15
3.8131039 -3.4234381 -0.73554319 0 16
4.0570412 -3.6424472 -0.73148358 0 17
4.3917561 -3.9429569 -0.73663706 0 18
4.7215819 -4.2390776 -0.73275465 0 19
5.1665473 -4.6385717 -0.73716325 0 20
5.6358585 -5.0599232 -0.73374319 0 21
6.1998997 -5.5663242 -0.72988939 0 22
7.0078497 -6.2917089 -0.7377876 0 23
7.0469356 -6.3268003 -0.65432388 0 24
7.0402231 -6.3207741 -0.56631649 0 25
7.042274 -6.3226156 -0.47916806 0 26
7.0346394 -6.3157606 -0.39151102 0 27
7.0446725 -6.3247685 -0.30487406 0 28
7.0489063 -6.3285694 -0.21786119 0 29
7.0452042 -6.3252459 -0.13063332 0 30
7.0508876 -6.3303485 -0.043577109 0 31
7.0511117 -6.3305497 0.043578494 0 32
7.0466533 -6.3265471 0.13066019 0 33
7.0437021 -6.3238974 0.21770035 0 34
7.0397768 -6.3203731 0.3046622 0 35
7.0537524 -6.3329206 0.39257476 0 36
7.0469875 -6.3268471 0.47948879 0 37
7.048584 -6.3282804 0.566989 0 38
7.0416632 -6.3220668 0.65383428 0 39
7.0438533 -6.3240333 0.7415781 0 40
7.0458708 -6.3258448 0.8294822 0 41
7.0486689 -6.3283567 0.91767967 0 42
7.0455532 -6.3255591 1.0052599 0 43
7.0485959 -6.3282909 1.09389 0 44
7.0464835 -6.3263946 1.1819191 0 45
7.0502958 -6.3298173 1.2711667 0 46
7.0523276 -6.3316417 1.3603855 0 47
7.0550632 -6.3340974 1.4500353 0 48
7.0555253 -6.3345122 1.5395093 0 49
7.0423317 -6.3226671 1.6261092 0 50
7.0507789 -6.3302512 1.7179294 0 51
0 0 0 0 52
0 0 0 0 53
0 0 0 0 54
0 0 0 0 55
0 0 0 0 56
0 0 0 0 57
0 0 0 0 58
0 0 0 0 59
0 0 0 0 60
0 0 0 0 61
0 0 0 0 62
0 0 0 0 63
1.8538862 -1.6237135 -0.73467487 0 0
1.9234873 -1.684673 -0.73671848 0 1
1.9933465 -1.7458587 -0.73714924 0 2
2.060344 -1.804538 -0.73485327 0 3
2.1294515 -1.8650655 -0.73165917 0 4
2.2271497 -1.9506338 -0.73624575 0 5
2.3024051 -2.0165455 -0.73129934 0 6
2.4065163 -2.1077309 -0.73333156 0 7
2.5234754 -2.2101684 -0.73656476 0 8
2.6279547 -2.301676 -0.73344755 0 9
2.7644253 -2.4212029 -0.73631328 0 10
2.8979068 -2.5381117 -0.73507917 0 11
3.0684214 -2.6874557 -0.73951626 0 12
3.219312 -2.819612 -0.73529369 0 13
3.3844192 -2.96422 -0.73046875 0 14
3.6161702 -3.1671977 -0.73517561 0 15
3.8342805 -3.358228 -0.7316072 0 16
4.1321921 -3.6191516 -0.73695368 0 17
4.4372678 -3.8863504 -0.73619956 0 18
4.7680802 -4.1760902 -0.73194617 0 19
5.2356482 -4.5856061 -0.7389214 0 20
5.7177663 -5.0078664 -0.73633415 0 21
6.299921 -5.5177422 -0.73362154 0 22
7.0040174 -6.1344199 -0.72938752 0 23
7.0774856 -6.1987667 -0.65003389 0 24
7.0875416 -6.2075744 -0.56394005 0 25
7.0787783 -6.1998987 -0.47642857 0 26
7.085063 -6.2054033 -0.39004114 0 27
7.0878386 -6.2078342 -0.30341569 0 28
7.0687041 -6.1910758 -0.21610385 0 29
7.0849347 -6.2052908 -0.12994535 0 30
7.0870628 -6.2071552 -0.043325689 0 31
7.086597 -6.2067471 0.043322839 0 32
7.0863261 -6.2065101 0.12997088 0 33
7.0720716 -6.194025 0.21620679 0 34
7.0757518 -6.1972485 0.30289829 0 35
7.0757203 -6.1972208 0.38952684 0 36
7.0734491 -6.1952314 0.4760699 0 37
7.0792079 -6.2002754 0.56327701 0 38
7.0683751 -6.1907873 0.64919716 0 39
7.0758858 -6.1973653 0.73687178 0 40
7.0713549 -6.1933975 0.82345444 0 41
7.0735817 -6.1953473 0.91093612 0 42
7.0831571 -6.2037339 0.99966544 0 43
7.0853314 -6.2056384 1.0876665 0 44
7.0848117 -6.205183 1.1754609 0 45
7.0777493 -6.198998 1.2622776 0 46
7.0787916 -6.1999106 1.3506823 0 47
7.0761256 -6.1975756 1.4385924 0 48
7.0810947 -6.2019281 1.5283327 0 49
7.0792041 -6.2002721 1.6168964 0 50
7.0822806 -6.2029662 1.7068913 0 51
0 0 0 0 52
0 0 0 0 53
0 0 0 0 54
0 0 0 0 55
0 0 0 0 56
0 0 0 0 57
0 0 0 0 58
0 0 0 0 59
0 0 0 0 60
0 0 0 0 61
0 0 0 0 62
0 0 0 0 63
1.8718752 -1.5992281 -0.7339552 0 0
1.9503347 -1.6662596 -0.73909789 0 1
2.0057213 -1.7135791 -0.73387796 0 2
2.0762279 -1.7738159 -0.7326836 0 3
2.1646709 -1.8493769 -0.73589104 0 4
2.2593362 -1.9302539 -0.73898369 0 5
2.3350437 -1.9949342 -0.73381919 0 6
2.4398086 -2.0844395 -0.73561043 0 7
2.5341301 -2.1650226 -0.73184878 0 8
2.6556144 -2.2688122 -0.73332542 0 9
2.7843134 -2.3787656 -0.73376411 0 10
2.9388955 -2.5108321 -0.737589 0 11
3.0810857 -2.6323116 -0.73471195 0 12
3.2391503 -2.7673535 -0.73199725 0 13
3.4566426 -2.9531672 -0.73816353 0 14
3.6509993 -3.1192148 -0.73440319 0 15
3.8850639 -3.3191869 -0.73345393 0 16
4.1868467 -3.5770137 -0.73880082 0 17
4.4841089 -3.8309782 -0.73609966 0 18
4.8223891 -4.1199865 -0.73245072 0 19
5.2449794 -4.4810243 -0.73240644 0 20
5.8021183 -4.9570136 -0.73929149 0 21
6.3868041 -5.4565372 -0.73587006 0 22
7.1207027 -6.0835404 -0.7336933 0 23
7.1168299 -6.0802317 -0.64673173 0 24
7.1075988 -6.0723448 -0.55955243 0 25
7.1081705 -6.0728335 -0.4733451 0 26
7.113626 -6.0774946 -0.38747025 0 27
7.1264577 -6.0884571 -0.3018412 0 28
7.1105242 -6.0748444 -0.21508241 0 29
7.1092539 -6.0737591 -0.12901182 0 30
7.1133814 -6.0772853 -0.043026485 0 31
7.1178722 -6.0811224 0.043053649 0 32
7.1091022 -6.0736294 0.12900908 0 33
7.1233082 -6.0857663 0.21546909 0 34
7.1143532 -6.0781155 0.30132851 0 35
7.0983491 -6.0644426 0.3866381 0 36
7.1095634 -6.0740232 0.47343788 0 37
7.1182594 -6.0814528 0.56039172 0 38
7.1111236 -6.0753565 0.64621317 0 39
7.1176558 -6.0809369 0.73337936 0 40
7.1025596 -6.0680399 0.81833744 0 41
7.1118364 -6.0759654 0.90617251 0 42
7.1117363 -6.0758796 0.99307948 0 43
7.1061416 -6.0711002 1.0793195 0 44
7.1056991 -6.0707221 1.1664531 0 45
7.1261673 -6.0882092 1.2574661 0 46
7.1286159 -6.090301 1.345798 0 47
7.108314 -6.0729561 1.4298464 0 48
7.1115832 -6.0757494 1.5186734 0 49
7.1111856 -6.0754094 1.6070166 0 50
7.1158481 -6.0793924 1.6968365 0 51
0 0 0 0 52
0 0 0 0 53
0 0 0 0 54
0 0 0 0 55
0 0 0 0 56
0 0 0 0 57
0 0 0 0 58
0 0 0 0 59
0 0 0 0 60
0 0 0 0 61
0 0 0 0 62
0 0 0 0 63
1.8871722 -1.572571 -0.73231578 0 0
1.9627119 -1.6355178 -0.73611146 0 1
2.0279222 -1.6898571 -0.73434252 0 2
2.1110992 -1.7591684 -0.7373001 0 3
2.1841848 -1.82007 -0.73486102 0 4
2.2794662 -1.8994675 -0.73787242 0 5
2.370466 -1.9752972 -0.73726213 0 6
2.4696317 -2.0579317 -0.7369169 0 7
2.5766551 -2.1471136 -0.73644936 0 8
2.6778612 -2.2314482 -0.73183638 0 9
2.8213763 -2.3510385 -0.73585719 0 10
2.9555731 -2.4628642 -0.73411852 0 11
3.1040235 -2.5865669 -0.73254198 0 12
3.2948484 -2.7455804 -0.73689902 0 13
3.4769332 -2.8973107 -0.73483294 0 14
3.6850808 -3.0707591 -0.73360789 0 15
3.9536393 -3.2945473 -0.73869622 0 16
4.2141514 -3.5116308 -0.73594368 0 17
4.520144 -3.766613 -0.73435646 0 18
4.8853197 -4.0709119 -0.73435038 0 19
5.3006058 -4.4169674 -0.73253447 0 20
5.8030853 -4.8356814 -0.73178291 0 21
6.4724669 -5.3934736 -0.73804277 0 22
7.1454601 -5.9542756 -0.72864515 0 23
7.1538329 -5.9612522 -0.64338446 0 24
7.151073 -5.9589524 -0.55716431 0 25
7.1427174 -5.9519901 -0.47073632 0 26
7.1429605 -5.9521928 -0.38505232 0 27
7.1445069 -5.9534812 -0.29948238 0 28
7.1468787 -5.9554577 -0.21395077 0 29
7.1415076 -5.9509816 -0.12825951 0 30
7.1547289 -5.9619989 -0.042829905 0 31
7.1523414 -5.9600096 0.042815614 0 32
7.150712 -5.958652 0.12842482 0 33
7.1486378 -5.9569235 0.21400343 0 34
7.1369047 -5.9471464 0.2991637 0 35
7.145515 -5.9543214 0.38519001 0 36
7.1384549 -5.9484382 0.47045541 0 37
7.145082 -5.9539604 0.55669755 0 38
7.1520662 -5.9597802 0.64322561 0 39
7.1433024 -5.9524775 0.72842515 0 40
7.1447616 -5.9536934 0.81470323 0 41
7.1485496 -5.9568501 0.90144914 0 42
7.1356282 -5.9460826 0.98613137 0 43
7.1556349 -5.9627542 1.0756191 0 44
7.148108 -5.9564819 1.1613035 0 45
7.151412 -5.9592352 1.248896 0 46
7.1462202 -5.9549088 1.3351966 0 47
7.145925 -5.9546628 1.4225758 0 48
7.1456547 -5.9544377 1.5101994 0 49
7.1473684 -5.9558659 1.5985223 0 50
7.1480818 -5.95646 1.6869298 0 51
0 0 0 0 52
0 0 0 0 53
0 0 0 0 54
0 0 0 0 55
0 0 0 0 56
0 0 0 0 57
0 0 0 0 58
0 0 0 0 59
0 0 0 0 60
0 0 0 0 61
0 0 0 0 62
0 0 0 0 63
1.9170227 -1.5579095 -0.73640978 0 0
1.9750096 -1.6050336 -0.73326617 0 1
2.0521536 -1.6677264 -0.73563558 0 2
2.1303966 -1.7313123 -0.73654884 0 3
2.2003255 -1.7881415 -0.73283839 0 4
2.3033223 -1.8718441 -0.73808825 0 5
2.3849413 -1.9381733 -0.73429626 0 6
2.4866989 -2.0208688 -0.73453915 0 7
2.59831 -2.111572 -0.73516196 0 8
2.7049935 -2.1982708 -0.73180872 0 9
2.8447032 -2.3118088 -0.7344715 0 10
2.9953704 -2.4342515 -0.73651308 0 11
3.1554613 -2.564353 -0.73718387 0 12
3.321167 -2.6990173 -0.73530698 0 13
3.508532 -2.8512833 -0.7340458 0 14
3.7266126 -3.0285113 -0.73440677 0 15
3.9816887 -3.2358043 -0.73644716 0 16
4.2545881 -3.4575818 -0.73552501 0 17
4.5722127 -3.7157063 -0.7353372 0 18
4.9451337 -4.0187683 -0.73585767 0 19
5.3708248 -4.3647151 -0.73476589 0 20
5.8732777 -4.7730446 -0.73317778 0 21
6.4812255 -5.2671061 -0.73160094 0 22
7.1761303 -5.8318353 -0.72440535 0 23
7.1826768 -5.8371553 -0.63947493 0 24
7.1919394 -5.8446827 -0.55470687 0 25
7.1851878 -5.8391962 -0.46876785 0 26
7.1856537 -5.8395748 -0.38345394 0 27
7.1942329 -5.8465466 -0.29853064 0 28
7.1816969 -5.836359 -0.21282858 0 29
7.182126 -5.8367076 -0.12769037 0 30
7.1702247 -5.8270359 -0.042490531 0 31
7.1845121 -5.8386469 0.042575195 0 32
7.1664891 -5.8240004 0.12741236 0 33
7.1744556 -5.8304744 0.21261398 0 34
7.1872835 -5.840899 0.29824227 0 35
7.1755319 -5.8313489 0.3829138 0 36
7.1685715 -5.8256927 0.46768379 0 37
7.1824632 -5.8369818 0.55397594 0 38
7.1765852 -5.8322053 0.63893265 0 39
7.184217 -5.838407 0.72522163 0 40
7.1752424 -5.8311138 0.80994165 0 41
7.182385 -5.8369184 0.89659733 0 42
7.1866283 -5.8403668 0.98318034 0 43
7.1664529 -5.8239708 1.0663997 0 44
7.187851 -5.8413606 1.1560035 0 45
7.1747522 -5.8307157 1.2403573 0 46
7.1719818 -5.828464 1.326519 0 47
7.1726966 -5.8290448 1.4135295 0 48
7.1822548 -5.8368125 1.5026524 0 49
7.1726742 -5.8290267 1.5880314 0 50
7.1712356 -5.8278575 1.6753553 0 51
7.1801419 -5.8350954 1.7654806 0 52
0 0 0 0 53
0 0 0 0 54
0 0 0 0 55
0 0 0 0 56
0 0 0 0 57
0 0 0 0 58
0 0 0 0 59
0 0 0 0 60
0 0 0 0 61
0 0 0 0 62
0 0 0 0 63
1.9272521 -1.5272622 -0.73306972 0 0
2.0022092 -1.5866623 -0.73606533 0 1
2.0737245 -1.6433351 -0.73606873 0 2
2.1434128 -1.69856 -0.7337724 0 3
2.2192309 -1.7586426 -0.73187721 0 4
2.3107388 -1.8311585 -0.73319405 0 5
2.4237223 -1.9206929 -0.73890901 0 6
2.5256405 -2.0014586 -0.73871648 0 7
2.6174457 -2.0742102 -0.73330426 0 8
2.7433751 -2.1740036 -0.73490471 0 9
2.8768039 -2.2797401 -0.73546618 0 10
3.0149739 -2.3892338 -0.73405391 0 11
3.1837273 -2.5229633 -0.73648393 0 12
3.3338773 -2.6419506 -0.73087323 0 13
3.5625248 -2.8231437 -0.73802334 0 14
3.7892413 -3.0028064 -0.73941654 0 15
4.0331826 -3.1961193 -0.73864651 0 16
4.3050237 -3.411541 -0.73693621 0 17
4.6238046 -3.664161 -0.7363326 0 18
5.0011654 -3.9632027 -0.73688793 0 19
5.4333143 -4.3056617 -0.73601604 0 20
5.9500427 -4.7151461 -0.7354672 0 21
6.5719447 -5.2079763 -0.73455703 0 22
7.2158532 -5.7182455 -0.72126275 0 23
7.2096567 -5.7133346 -0.63557422 0 24
7.207129 -5.7113318 -0.55042011 0 25
7.2091212 -5.7129102 -0.465711 0 26
7.2112536 -5.7146001 -0.38104141 0 27
7.2119117 -5.7151217 -0.29632568 0 28
7.2230654 -5.7239604 -0.21195267 0 29
7.2124348 -5.7155361 -0.12697011 0 30
7.2131848 -5.7161307 -0.042325385 0 31
7.2013412 -5.7067451 0.04225589 0 32
7.2239547 -5.7246652 0.12717292 0 33
7.2083707 -5.7123156 0.21152146 0 34
7.2174797 -5.7195339 0.29655445 0 35
7.2059727 -5.7104154 0.38076237 0 36
7.2112732 -5.7146153 0.46585 0 37
7.1967249 -5.7030869 0.54962552 0 38
7.2100625 -5.7136564 0.63560998 0 39
7.2147398 -5.7173629 0.72115147 0 40
7.2030802 -5.7081232 0.80510008 0 41
7.209868 -5.7135019 0.89119047 0 42
7.20474 -5.7094383 0.97597969 0 43
7.2096076 -5.7132959 1.062287 0 44
7.2030945 -5.7081342 1.1470798 0 45
7.2163591 -5.718646 1.2353002 0 46
7.2109871 -5.7143888 1.320637 0 47
7.2144265 -5.7171144 1.4077927 0 48
7.2086296 -5.7125206 1.4933612 0 49
7.2235045 -5.7243085 1.5835813 0 50
7.212491 -5.7155805 1.6684481 0 51
7.2066326 -5.710938 1.7545944 0 52
0 0 0 0 53
0 0 0 0 54
0 0 0 0 55
0 0 0 0 56
0 0 0 0 57
0 0 0 0 58
0 0 0 0 59
0 0 0 0 60
0 0 0 0 61
0 0 0 0 62
0 0 0 0 63
1.95227 -1.5083835 -0.73547518 0 0
2.0268259 -1.5659876 -0.73798019 0 1
2.0889072 -1.6139536 -0.73435807 0 2
2.1673696 -1.6745759 -0.73486894 0 3
2.2531755 -1.7408723 -0.73595649 0 4
2.3249059 -1.7962933 -0.73062539 0 5
2.4175847 -1.8678998 -0.72998035 0 6
2.5372624 -1.9603665 -0.73500955 0 7
2.6493707 -2.0469847 -0.73514098 0 8
2.7664535 -2.1374464 -0.73399073 0 9
2.9048645 -2.2443871 -0.73552889 0 10
3.0386744 -2.3477726 -0.73274004 0 11
3.22593 -2.4924521 -0.73910093 0 12
3.3945391 -2.6227248 -0.73704612 0 13
3.5899212 -2.7736828 -0.73657751 0 14
3.8084836 -2.9425509 -0.73605514 0 15
4.0545897 -3.1326997 -0.73545653 0 16
4.3429856 -3.3555233 -0.73631579 0 17
4.6666102 -3.6055658 -0.73603332 0 18
5.0594382 -3.9090767 -0.73833585 0 19
5.4916253 -4.2429976 -0.73679173 0 20
6.0340228 -4.6620703 -0.73870581 0 21
6.6881781 -5.167491 -0.74039048 0 22
7.2314696 -5.5872545 -0.71590227 0 23
7.2493892 -5.6010995 -0.6329574 0 24
7.2483692 -5.6003113 -0.54826897 0 25
7.2293043 -5.5855813 -0.46254292 0 26
7.2317462 -5.5874681 -0.37846521 0 27
7.2439313 -5.5968823 -0.29479125 0 28
7.2360525 -5.5907955 -0.21030056 0 29
7.2469187 -5.5991907 -0.12635556 0 30
7.2380352 -5.5923271 -0.042064518 0 31
7.2386208 -5.5927796 0.042067923 0 32
7.2560577 -5.6062522 0.12651491 0 33
7.2417259 -5.5951786 0.21046545 0 34
7.2289505 -5.5853081 0.29418162 0 35
7.2413449 -5.5948844 0.37896755 0 36
7.2515907 -5.6028008 0.46396884 0 37
7.2388291 -5.5929403 0.54754734 0 38
7.2503457 -5.6018386 0.6330409 0 39
7.2466583 -5.5989895 0.71740592 0 40
7.2396178 -5.5935497 0.80143559 0 41
7.2481637 -5.600153 0.88734514 0 42
7.2441359 -5.5970407 0.97191978 0 43
7.2458296 -5.5983496 1.0574011 0 44
7.2396402 -5.5935674 1.1418601 0 45
7.2334085 -5.5887523 1.2263621 0 46
7.2478538 -5.5999131 1.3146784 0 47
7.2360587 -5.5908003 1.3984932 0 48
7.2572341 -5.6071606 1.4890343 0 49
7.2568455 -5.6068602 1.575657 0 50
7.2487884 -5.6006351 1.6607881 0 51
7.2476864 -5.5997839 1.7476931 0 52
0 0 0 0 53
0 0 0 0 54
0 0 0 0 55
0 0 0 0 56
0 0 0 0 57
0 0 0 0 58
0 0 0 0 59
0 0 0 0 60
0 0 0 0 61
0 0 0 0 62
0 0 0 0 63
1.9627826 -1.4783255 -0.73253196 0 0
2.0433264 -1.5389893 -0.73704201 0 1
2.1031542 -1.5840503 -0.7324636 0 2
2.1946859 -1.6529901 -0.73718339 0 3
2.272429 -1.7115445 -0.73531538 0 4
2.3602283 -1.7776731 -0.73480093 0 5
2.4566395 -1.8502879 -0.73484743 0 6
2.5528417 -1.9227452 -0.73261821 0 7
2.6646771 -2.0069773 -0.732485 0 8
2.7923965 -2.1031728 -0.73395687 0 9
2.9421699 -2.2159789 -0.73801947 0 10
3.070828 -2.3128815 -0.73357999 0 11
3.2562523 -2.452539 -0.73908275 0 12
3.4226737 -2.577884 -0.73621655 0 13
3.6283438 -2.7327902 -0.73751056 0 14
3.8419323 -2.8936605 -0.7355873 0 15
4.098063 -3.0865726 -0.73640209 0 16
4.3883982 -3.3052468 -0.73706877 0 17
4.7311783 -3.5634212 -0.73925024 0 18
5.1141839 -3.8518932 -0.73935705 0 19
5.496038 -4.1394973 -0.73049933 0 20
6.0347385 -4.5452347 -0.73189586 0 21
6.6837864 -5.0340838 -0.73299634 0 22
7.2774405 -5.4812112 -0.71372694 0 23
7.2891874 -5.4900589 -0.6304903 0 24
7.2760673 -5.4801769 -0.54522568 0 25
7.2631626 -5.4704576 -0.46037057 0 26
7.2822776 -5.4848542 -0.37755153 0 27
7.2720366 -5.4771409 -0.29317206 0 28
7.2797928 -5.4829826 -0.20959647 0 29
7.2689466 -5.4748135 -0.12555635 0 30
7.2765822 -5.4805646 -0.041893721 0 31
7.266871 -5.4732504 0.041837808 0 32
7.2726173 -5.4775782 0.12561975 0 33
7.278667 -5.4821348 0.20956406 0 34
7.2838321 -5.4860249 0.29364759 0 35
7.2801309 -5.4832377 0.37744024 0 36
7.2683764 -5.4743843 0.46070102 0 37
7.2784629 -5.4819813 0.54540521 0 38
7.2739048 -5.478548 0.62916845 0 39
7.282865 -5.4852967 0.71425891 0 40
7.2753115 -5.4796076 0.7978676 0 41
7.2723417 -5.4773707 0.88199288 0 42
7.2739582 -5.4785881 0.96680945 0 43
7.275053 -5.479413 1.0517536 0 44
7.2713208 -5.4766016 1.1361494 0 45
7.2791791 -5.4825206 1.2226 0 46
7.2804589 -5.4834847 1.3082632 0 47
7.2696166 -5.4753184 1.3918614 0 48
7.2787285 -5.4821811 1.4795012 0 49
7.2731919 -5.4780111 1.5644623 0 50
7.265677 -5.4723511 1.6491157 0 51
7.2736626 -5.4783659 1.7375814 0 52
0 0 0 0 53
0 0 0 0 54
0 0 0 0 55
0 0 0 0 56
0 0 0 0 57
0 0 0 0 58
0 0 0 0 59
0 0 0 0 60
0 0 0 0 61
0 0 0 0 62
0 0 0 0 63
1.9923381 -1.4625421 -0.73679477 0 0
2.0624397 -1.5140024 -0.73716539 0 1
2.1291559 -1.5629777 -0.73477018 0 2
2.1986065 -1.6139603 -0.7317788 0 3
2.2707977 -1.6669546 -0.72809988 0 4
2.3797531 -1.7469369 -0.73413628 0 5
2.4728322 -1.8152647 -0.73295873 0 6
2.5829849 -1.8961262 -0.7345221 0 7
2.6801128 -1.9674259 -0.73002267 0 8
2.8193154 -2.0696123 -0.73428768 0 9
2.9615643 -2.1740348 -0.73612297 0 10
3.1092174 -2.2824244 -0.73599058 0 11
3.2676802 -2.3987494 -0.73492616 0 12
3.4493496 -2.53211 -0.7352016 0 13
3.6558549 -2.683702 -0.73633915 0 14
3.8727982 -2.8429563 -0.73474818 0 15
4.1369104 -3.0368369 -0.73661685 0 16
4.4376578 -3.2576103 -0.73855859 0 17
4.7223439 -3.4665937 -0.73115414 0 18
5.115478 -3.7551868 -0.73281312 0 19
5.5674038 -4.0869379 -0.73324978 0 20
6.1132689 -4.4876485 -0.73467201 0 21
6.7904601 -4.9847631 -0.73791713 0 22
7.299294 -5.3582897 -0.70935464 0 23
7.2975073 -5.3569784 -0.62546498 0 24
7.3029346 -5.3609624 -0.54225826 0 25
7.3025174 -5.3606563 -0.45865226 0 26
7.3047462 -5.3622918 -0.3752695 0 27
7.2952437 -5.3553166 -0.2914308 0 28
7.3035588 -5.3614206 -0.20836686 0 29
7.3053041 -5.3627014 -0.12503588 0 30
7.3043056 -5.3619685 -0.041670579 0 31
7.3075633 -5.3643603 0.041689165 0 32
7.3137956 -5.3689351 0.12518121 0 33
7.3341365 -5.3838668 0.20923921 0 34
7.3038321 -5.3616209 0.29177389 0 35
7.2950258 -5.3551564 0.37477013 0 36
7.311101 -5.3669572 0.45919135 0 37
7.301218 -5.3597021 0.54213077 0 38
7.3061519 -5.3633242 0.62620592 0 39
7.2982473 -5.3575215 0.70925295 0 40
7.2964926 -5.3562331 0.79290748 0 41
7.3114824 -5.3672371 0.87866926 0 42
7.3088183 -5.3652811 0.96260118 0 43
7.3130412 -5.368381 1.047623 0 44
7.3128152 -5.3682151 1.1322333 0 45
7.3095145 -5.3657923 1.2165211 0 46
7.3047662 -5.3623066 1.3006841 0 47
7.302896 -5.3609338 1.3855071 0 48
7.3099947 -5.3661447 1.4723328 0 49
7.2995877 -5.3585052 1.5558493 0 50
7.3080139 -5.3646908 1.643628 0 51
7.3085322 -5.3650713 1.7300208 0 52
0 0 0 0 53
0 0 0 0 54
0 0 0 0 55
0 0 0 0 56
0 0 0 0 57
0 0 0 0 58
0 0 0 0 59
0 0 0 0 60
0 0 0 0 61
0 0 0 0 62
0 0 0 0 63
2.0016193 -1.4318179 -0.73366058 0 0
2.0721011 -1.4822357 -0.7340486 0 1
2.1513157 -1.5389001 -0.73583156 0 2
2.2333422 -1.5975761 -0.73674595 0 3
2.3113391 -1.6533698 -0.73452461 0 4
2.4109433 -1.7246195 -0.73716038 0 5
2.495209 -1.7848973 -0.73303044 0 6
2.5978944 -1.8583513 -0.73220843 0 7
2.7174578 -1.9438785 -0.73362863 0 8
2.8441029 -2.0344715 -0.73417252 0 9
2.9715955 -2.1256707 -0.73206407 0 10
3.1381526 -2.2448139 -0.73625016 0 11
3.3059721 -2.3648603 -0.73694241 0 12
3.471122 -2.4829969 -0.73327911 0 13
3.6712692 -2.6261683 -0.73288423 0 14
3.92766 -2.8095722 -0.73854631 0 15
4.1714993 -2.9839976 -0.73618656 0 16
4.4226522 -3.1636548 -0.72953159 0 17
4.7614331 -3.4059949 -0.73066652 0 18
5.1716042 -3.6994026 -0.73428136 0 19
5.6294293 -4.0268989 -0.73484176 0 20
6.2075577 -4.4404511 -0.73938555 0 21
6.7822356 -4.8515348 -0.73048526 0 22
7.3290467 -5.2426858 -0.70592773 0 23
7.3452682 -5.2542892 -0.62397373 0 24
7.3408399 -5.251121 -0.54023749 0 25
7.335011 -5.2469516 -0.45660627 0 26
7.3254347 -5.2401018 -0.37299392 0 27
7.3409324 -5.2511878 -0.29065451 0 28
7.3508143 -5.2582564 -0.20785466 0 29
7.3469143 -5.2554665 -0.12463256 0 30
7.3403773 -5.2507906 -0.041504886 0 31
7.3422318 -5.2521172 0.041515369 0 32
7.3304253 -5.2436714 0.12435285 0 33
7.3332567 -5.245697 0.20735818 0 34
7.3416853 -5.2517262 0.29068434 0 35
7.3424592 -5.2522798 0.37386078 0 36
7.3389611 -5.2497773 0.45685217 0 37
7.3324656 -5.245131 0.53962117 0 38
7.3449192 -5.2540393 0.6239441 0 39
7.3466005 -5.2552419 0.70761847 0 40
7.3293614 -5.2429104 0.78941381 0 41
7.3389492 -5.2497687 0.87414616 0 42
7.3217134 -5.2374396 0.95574528 0 43
7.3518453 -5.2589941 1.0438391 0 44
7.3338981 -5.2461557 1.1254245 0 45
7.3436937 -5.2531629 1.2113674 0 46
7.32651 -5.240871 1.2929832 0 47
7.3283734 -5.2422037 1.3780071 0 48
7.347651 -5.2559938 1.4667891 0 49
7.3276229 -5.2416668 1.5479699 0 50
7.3349843 -5.2469325 1.6350596 0 51
7.3367376 -5.2481871 1.7212912 0 52
0 0 0 0 53
0 0 0 0 54
0 0 0 0 55
0 0 0 0 56
0 0 0 0 57
0 0 0 0 58
0 0 0 0 59
0 0 0 0 60
0 0 0 0 61
0 0 0 0 62
0 0 0 0 63
2.025661 -1.4116899 -0.73605448 0 0
2.0946579 -1.459774 -0.73562491 0 1
2.1667776 -1.5100346 -0.73471361 0 2
2.2430835 -1.5632123 -0.73356295 0 3
2.3256552 -1.620757 -0.73268533 0 4
2.4262679 -1.6908742 -0.73543316 0 5
2.5330594 -1.7652975 -0.73771721 0 6
2.6385047 -1.8387828 -0.73722583 0 7
2.7522457 -1.9180492 -0.73659736 0 8
2.8820648 -2.0085206 -0.73754072 0 9
3.0157464 -2.1016836 -0.7365185 0 10
3.152921 -2.1972811 -0.73332065 0 11
3.318464 -2.3126488 -0.73333257 0 12
3.5100036 -2.4461331 -0.7350831 0 13
3.7136748 -2.5880723 -0.73494101 0 14
3.9500029 -2.7527702 -0.73632699 0 15
4.2144761 -2.9370823 -0.73734164 0 16
4.4864364 -3.1266127 -0.73365575 0 17
4.8418474 -3.3742995 -0.73658365 0 18
5.2320318 -3.6462202 -0.73643941 0 19
5.6433887 -3.9328964 -0.7302959 0 20
6.2096791 -4.3275461 -0.73324448 0 21
6.8931336 -4.8038478 -0.73601174 0 22
7.3758469 -5.1402526 -0.7042942 0 23
7.3793707 -5.1427083 -0.6214518 0 24
7.3814907 -5.1441855 -0.53853321 0 25
7.3780055 -5.1417565 -0.45531249 0 26
7.3752298 -5.139822 -0.37228316 0 27
7.3668876 -5.1340084 -0.28916076 0 28
7.367291 -5.1342897 -0.20651975 0 29
7.370244 -5.1363478 -0.12394754 0 30
7.3668804 -5.1340036 -0.04129466 0 31
7.3728671 -5.1381755 0.041328218 0 32
7.3787045 -5.1422439 0.12408982 0 33
7.3795805 -5.1428542 0.20686425 0 34
7.3628187 -5.1311727 0.28900105 0 35
7.3832946 -5.1454425 0.37269023 0 36
7.3611526 -5.130012 0.45427248 0 37
7.3789072 -5.142385 0.53834474 0 38
7.364994 -5.132689 0.62024105 0 39
7.3679824 -5.1347713 0.70354325 0 40
7.3681264 -5.134872 0.78672892 0 41
7.3744898 -5.1393065 0.87078637 0 42
7.3679862 -5.1347742 0.95347148 0 43
7.3725286 -5.1379399 1.0377271 0 44
7.3601236 -5.1292949 1.1196856 0 45
7.3634281 -5.1315975 1.2041229 0 46
7.3652778 -5.1328864 1.2885886 0 47
7.3762536 -5.1405354 1.3750204 0 48
7.3644085 -5.1322808 1.457426 0 49
7.3734698 -5.1385956 1.5441902 0 50
7.3834729 -5.1455669 1.6316407 0 51
7.3523397 -5.1238704 1.7100405 0 52
0 0 0 0 53
0 0 0 0 54
0 0 0 0 55
0 0 0 0 56
0 0 0 0 57
0 0 0 0 58
0 0 0 0 59
0 0 0 0 60
0 0 0 0 61
0 0 0 0 62
0 0 0 0 63
2.0477829 -1.3900145 -0.73782623 0 0
2.1107724 -1.4327711 -0.73504132 0 1
2.1872318 -1.4846711 -0.7354033 0 2
2.2695017 -1.5405151 -0.73595202 0 3
2.3516304 -1.5962632 -0.73462927 0 4
2.4510796 -1.6637683 -0.73669702 0 5
2.539906 -1.7240629 -0.73348159 0 6
2.650758 -1.7993081 -0.73441201 0 7
2.7830381 -1.8890985 -0.73856568 0 8
2.8901885 -1.961831 -0.73339075 0 9
3.0333905 -2.0590353 -0.73458868 0 10
3.1930552 -2.1674139 -0.73640084 0 11
3.3475566 -2.2722878 -0.73353153 0 12
3.5374699 -2.4011993 -0.73459619 0 13
3.755424 -2.5491443 -0.7369442 0 14
3.9781508 -2.7003291 -0.73532879 0 15
4.2209291 -2.8651245 -0.73225147 0 16
4.5259709 -3.0721838 -0.73388761 0 17
4.8964014 -3.3236282 -0.73860973 0 18
5.2289348 -3.5493486 -0.72980511 0 19
5.7204924 -3.883013 -0.73403931 0 20
6.2976904 -4.2748094 -0.73737425 0 21
6.9038215 -4.686245 -0.73094487 0 22
7.3996744 -5.0228252 -0.70061892 0 23
7.4086509 -5.0289183 -0.61866319 0 24
7.3977327 -5.0215068 -0.53517282 0 25
7.3903213 -5.0164762 -0.45223162 0 26
7.3936529 -5.0187378 -0.37007001 0 27
7.4019313 -5.0243568 -0.28808945 0 28
7.4047427 -5.0262656 -0.20582151 0 29
7.4040761 -5.0258131 -0.12346786 0 30
7.3990273 -5.0223856 -0.041125569 0 31
7.3893409 -5.015811 0.041071732 0 32
7.3973346 -5.0212369 0.12335545 0 33
7.4082012 -5.0286126 0.20591764 0 34
7.3992982 -5.0225697 0.28798699 0 35
7.3989878 -5.0223589 0.37033704 0 36
7.4112287 -5.0306678 0.453511 0 37
7.3943653 -5.0192213 0.53492928 0 38
7.3973012 -5.021214 0.61771542 0 39
7.3980913 -5.0217505 0.70046902 0 40
7.3946543 -5.0194173 0.78291202 0 41
7.3992472 -5.0225353 0.86635166 0 42
7.3936391 -5.0187283 0.94873333 0 43
7.4126992 -5.0316663 1.0345943 0 44
7.4048629 -5.0263467 1.1170048 0 45
7.3930802 -5.0183487 1.1987903 0 46
7.3955817 -5.0200467 1.2829937 0 47
7.4037976 -5.0256238 1.3685317 0 48
7.3989749 -5.0223503 1.4519351 0 49
7.3882833 -5.0150928 1.5342616 0 50
7.4078641 -5.0283842 1.6232443 0 51
7.3982196 -5.0218372 1.70622 0 52
0 0 0 0 53
0 0 0 0 54
0 0 0 0 55
0 0 0 0 56
0 0 0 0 57
0 0 0 0 58
0 0 0 0 59
0 0 0 0 60
0 0 0 0 61
0 0 0 0 62
0 0 0 0 63
2.0648222 -1.364799 -0.73786312 0 0
2.1242158 -1.4040568 -0.7336551 0 1
2.2087233 -1.4599143 -0.73653781 0 2
2.2799754 -1.5070103 -0.73328388 0 3
2.3686016 -1.5655901 -0.73386157 0 4
2.4826236 -1.640956 -0.74005729 0 5
2.5743506 -1.7015853 -0.7373305 0 6
2.6852775 -1.7749054 -0.73787332 0 7
2.790426 -1.8444062 -0.73445201 0 8
2.9209795 -1.9306989 -0.73512423 0 9
3.0626602 -2.0243466 -0.73559314 0 10
3.2142141 -2.1245201 -0.73520011 0 11
3.3879905 -2.2393823 -0.73630202 0 12
3.554687 -2.3495648 -0.73211652 0 13
3.7837594 -2.5009763 -0.73641407 0 14
4.0214143 -2.6580606 -0.73722851 0 15
4.2624822 -2.8174007 -0.73339462 0 16
4.5849266 -3.030529 -0.73734909 0 17
4.9253101 -3.2555144 -0.73687619 0 18
5.3036504 -3.5055885 -0.73416138 0 19
5.7797422 -3.8202741 -0.73555875 0 20
6.3080072 -4.169445 -0.73252392 0 21
7.0071769 -4.6315794 -0.73580223 0 22
7.4217615 -4.9056101 -0.69694608 0 23
7.428041 -4.909761 -0.61519438 0 24
7.4295092 -4.9107313 -0.53306293 0 25
7.4344435 -4.9139929 -0.45119992 0 26
7.427474 -4.9093862 -0.36871341 0 27
7.4376674 -4.9161234 -0.28710583 0 28
7.4387999 -4.916872 -0.20507212 0 29
7.4370756 -4.9157329 -0.12300088 0 30
7.4248629 -4.90766 -0.040930651 0 31
7.4289956 -4.9103918 0.040953435 0 32
7.4235096 -4.9067659 0.12277651 0 33
7.437984 -4.9163332 0.20504963 0 34
7.429018 -4.9104066 0.28677195 0 35
7.4217939 -4.9056315 0.36843142 0 36
7.4228511 -4.9063306 0.45049638 0 37
7.421977 -4.9057527 0.5325225 0 38
7.4310699 -4.9117627 0.61544526 0 39
7.4458714 -4.9215465 0.69921017 0 40
7.4288049 -4.9102659 0.78007609 0 41
7.4209948 -4.9051032 0.86177069 0 42
7.4208999 -4.9050407 0.94442058 0 43
7.4225407 -4.9061255 1.0274702 0 44
7.4218769 -4.9056864 1.1103878 0 45
7.4369297 -4.9156361 1.1960089 0 46
7.4283433 -4.9099607 1.2781067 0 47
7.4278927 -4.9096627 1.3617233 0 48
7.4330659 -4.9130821 1.4466603 0 49
7.4298534 -4.9109588 1.5302383 0 50
7.4258628 -4.9083209 1.6138409 0 51
7.4266038 -4.9088111 1.698717 0 52
0 0 0 0 53
0 0 0 0 54
0 0 0 0 55
0 0 0 0 56
0 0 0 0 57
0 0 0 0 58
0 0 0 0 59
0 0 0 0 60
0 0 0 0 61
0 0 0 0 62
0 0 0 0 63
2.0657954 -1.3292366 -0.73231465 0 0
2.1429548 -1.378885 -0.73421562 0 1
2.2171276 -1.4266114 -0.73343503 0 2
2.2941313 -1.4761595 -0.73194337 0 3
2.3885353 -1.5369037 -0.73412675 0 4
2.489471 -1.6018509 -0.73617113 0 5
2.5877995 -1.6651204 -0.73526251 0 6
2.68311 -1.7264479 -0.73138893 0 7
2.8212812 -1.8153542 -0.73664212 0 8
2.9273407 -1.8835983 -0.7308408 0 9
3.0818124 -1.9829932 -0.73428106 0 10
3.2436383 -2.0871201 -0.73600453 0 11
3.422205 -2.202019 -0.73779738 0 12
3.6107087 -2.3233116 -0.73771495 0 13
3.8100815 -2.4515982 -0.73561424 0 14
4.0198951 -2.5866027 -0.73106378 0 15
4.3033147 -2.7689693 -0.73450637 0 16
4.6277018 -2.9776962 -0.73828393 0 17
4.925333 -3.1692071 -0.73099405 0 18
5.3698263 -3.4552164 -0.73738474 0 19
5.7993565 -3.7315979 -0.73215997 0 20
6.3898268 -4.111536 -0.73609859 0 21
7.0099282 -4.5105405 -0.73021185 0 22
7.4720249 -4.8078771 -0.69606179 0 23
7.4562669 -4.7977371 -0.61259973 0 24
7.4586968 -4.7993007 -0.53088278 0 25
7.4681292 -4.8053699 -0.44962418 0 26
7.4528208 -4.7955198 -0.36701664 0 27
7.4481902 -4.7925406 -0.28521565 0 28
7.4674325 -4.8049216 -0.2042172 0 29
7.4585671 -4.7992177 -0.12237106 0 30
7.4523525 -4.7952185 -0.040754065 0 31
7.4742761 -4.8093252 0.040873956 0 32
7.4670792 -4.8046947 0.12251071 0 33
7.4640136 -4.802722 0.20412371 0 34
7.4603381 -4.8003569 0.28568083 0 35
7.4676347 -4.8050518 0.36774614 0 36
7.4571333 -4.7982945 0.44896215 0 37
7.4565701 -4.7979321 0.53073138 0 38
7.4498625 -4.7936163 0.6120736 0 39
7.460053 -4.8001738 0.69494653 0 40
7.458209 -4.7989869 0.77690846 0 41
7.4595933 -4.7998776 0.85933405 0 42
7.4729919 -4.8084989 0.94345385 0 43
7.4512429 -4.7945046 1.023205 0 44
7.4572153 -4.7983475 1.1067637 0 45
7.4585996 -4.7992382 1.1899134 0 46
7.4624476 -4.8017144 1.2737193 0 47
7.4527249 -4.7954583 1.3553631 0 48
7.4770141 -4.8110871 1.4435906 0 49
7.4663539 -4.8042278 1.5254736 0 50
7.4667859 -4.8045058 1.6097736 0 51
7.4629455 -4.8020344 1.6933953 0 52
0 0 0 0 53
0 0 0 0 54
0 0 0 0 55
0 0 0 0 56
0 0 0 0 57
0 0 0 0 58
0 0 0 0 59
0 0 0 0 60
0 0 0 0 61
0 0 0 0 62
0 0 0 0 63
2.0987656 -1.3142455 -0.73821783 0 0
2.1685314 -1.3579327 -0.73720193 0 1
2.2413428 -1.4035271 -0.73568082 0 2
2.3312318 -1.4598155 -0.73799735 0 3
2.4122684 -1.5105608 -0.73565668 0 4
2.5039587 -1.5679771 -0.7346983 0 5
2.5977554 -1.6267124 -0.7323525 0 6
2.7020614 -1.6920289 -0.73082817 0 7
2.8258736 -1.7695599 -0.73210448 0 8
2.9764376 -1.863843 -0.73732072 0 9
3.1078858 -1.9461558 -0.73473603 0 10
3.27036 -2.0478969 -0.73629826 0 11
3.4440763 -2.156678 -0.73673964 0 12
3.6328421 -2.274883 -0.73646617 0 13
3.8519161 -2.4120669 -0.73790902 0 14
4.056284 -2.5400419 -0.73194605 0 15
4.338788 -2.7169456 -0.73480314 0 16
4.6299047 -2.8992429 -0.73289245 0 17
4.9872327 -3.1230013 -0.73442596 0 18
5.3632011 -3.3584325 -0.73074883 0 19
5.8578668 -3.6681919 -0.73379678 0 20
6.3923802 -4.0029039 -0.73066729 0 21
7.1366768 -4.4689817 -0.73763496 0 22
7.4915957 -4.6912317 -0.69245881 0 23
7.4851284 -4.6871819 -0.61018956 0 24
7.4831338 -4.6859326 -0.52848095 0 25
7.5030322 -4.6983933 -0.44821337 0 26
7.4962597 -4.6941524 -0.36628559 0 27
7.4945221 -4.6930642 -0.28475848 0 28
7.4894567 -4.6898923 -0.20322704 0 29
7.4905462 -4.6905742 -0.1219402 0 30
7.5018635 -4.6976614 -0.040705852 0 31
7.4779124 -4.682663 0.040575888 0 32
7.4800763 -4.6840181 0.12176976 0 33
7.4998012 -4.6963701 0.20350774 0 34
7.4894423 -4.6898832 0.28456548 0 35
7.4862566 -4.6878881 0.3657968 0 36
7.4876747 -4.6887765 0.44729593 0 37
7.494009 -4.6927428 0.52924901 0 38
7.4934115 -4.6923685 0.61086476 0 39
7.485199 -4.6872258 0.69186753 0 40
7.4879265 -4.6889338 0.77393949 0 41
7.4979849 -4.6952324 0.857041 0 42
7.4971447 -4.6947064 0.93914402 0 43
7.4889522 -4.6895761 1.0203875 0 44
7.4968982 -4.6945519 1.1040024 0 45
7.4878139 -4.6888638 1.1852863 0 46
7.4924831 -4.6917872 1.2689028 0 47
7.4942675 -4.6929045 1.3523213 0 48
7.4847851 -4.6869669 1.4338553 0 49
7.4813781 -4.684833 1.5166587 0 50
7.4925489 -4.6918283 1.6027687 0 51
7.4826274 -4.6856155 1.6846602 0 52
0 0 0 0 53
0 0 0 0 54
0 0 0 0 55
0 0 0 0 56
0 0 0 0 57
0 0 0 0 58
0 0 0 0 59
0 0 0 0 60
0 0 0 0 61
0 0 0 0 62
0 0 0 0 63
2.1184223 -1.2905679 -0.73949403 0 0
2.1792548 -1.3276278 -0.73524201 0 1
2.2494795 -1.3704095 -0.73276502 0 2
2.3294933 -1.4191548 -0.73186737 0 3
2.4326892 -1.482023 -0.73627108 0 4
2.5317283 -1.5423588 -0.73722577 0 5
2.6397798 -1.6081851 -0.7385692 0 6
2.7221675 -1.6583767 -0.73069555 0 7
2.8719394 -1.7496195 -0.73840934 0 8
2.9925199 -1.8230785 -0.73569578 0 9
3.1345146 -1.9095833 -0.73542452 0 10
3.2923334 -2.0057282 -0.73563701 0 11
3.4498734 -2.1017036 -0.73239601 0 12
3.6417713 -2.2186103 -0.73269039 0 13
3.8785217 -2.3628414 -0.73738414 0 14
4.0962172 -2.4954638 -0.73355931 0 15
4.3910723 -2.6750932 -0.73803121 0 16
4.6736507 -2.8472433 -0.73421967 0 17
5.0381665 -3.0693107 -0.73631299 0 18
5.4316087 -3.3090003 -0.73447007 0 19
5.9582181 -3.629817 -0.74072033 0 20
6.4868865 -3.9518878 -0.73585945 0 21
7.1266232 -4.3416233 -0.7310226 0 22
7.5265784 -4.5852809 -0.69042861 0 23
7.5075965 -4.5737166 -0.60739052 0 24
7.5118041 -4.5762796 -0.52649182 0 25
7.5260954 -4.5849862 -0.4461894 0 26
7.5156002 -4.5785923 -0.36445206 0 27
7.5231371 -4.5831842 -0.28368297 0 28
7.5367227 -4.5914607 -0.20296225 0 29
7.5172968 -4.5796261 -0.12144977 0 30
7.5093288 -4.5747719 -0.040438063 0 31
7.5280366 -4.5861692 0.040538806 0 32
7.5197687 -4.5811319 0.1214897 0 33
7.52179 -4.5823631 0.20256011 0 34
7.5145364 -4.5779448 0.28335863 0 35
7.5325961 -4.5889468 0.36527628 0 36
7.5286865 -4.5865645 0.446343 0 37
7.5282407 -4.5862932 0.5276438 0 38
7.5252357 -4.5844626 0.60881752 0 39
7.514277 -4.5777864 0.68930012 0 40
7.5219078 -4.5824351 0.77156943 0 41
7.5138116 -4.5775027 0.85235178 0 42
7.514822 -4.5781183 0.93423593 0 43
7.5202708 -4.5814381 1.016902 0 44
7.5173569 -4.5796628 1.0986392 0 45
7.5069232 -4.5733061 1.1793201 0 46
7.5190568 -4.5806985 1.2637684 0 47
7.5203066 -4.5814595 1.3467525 0 48
7.5151362 -4.57831 1.4287769 0 49
7.5132842 -4.5771818 1.5116026 0 50
7.5172968 -4.5796261 1.5958956 0 51
7.5247331 -4.5841565 1.6813219 0 52
0 0 0 0 53
0 0 0 0 54
0 0 0 0 55
0 0 0 0 56
0 0 0 0 57
0 0 0 0 58
0 0 0 0 59
0 0 0 0 60
0 0 0 0 61
0 0 0 0 62
0 0 0 0 63
2.1161005 -1.253741 -0.73324656 0 0
2.1949825 -1.3004768 -0.73509753 0 1
2.2805333 -1.3511636 -0.73741287 0 2
2.3592923 -1.3978264 -0.73577368 0 3
2.4404523 -1.445912 -0.7331841 0 4
2.5358264 -1.5024189 -0.73298407 0 5
2.6616361 -1.5769582 -0.73920304 0 6
2.7476537 -1.6279217 -0.73210806 0 7
2.8689299 -1.6997751 -0.73220623 0 8
3.0032828 -1.779376 -0.73290724 0 9
3.1500757 -1.8663474 -0.7336356 0 10
3.3192534 -1.9665815 -0.73619318 0 11
3.4730463 -2.0577002 -0.73188859 0 12
3.6844621 -2.1829591 -0.73582321 0 13
3.8943918 -2.3073375 -0.73495167 0 14
4.1415496 -2.453773 -0.73621851 0 15
4.3945398 -2.6036639 -0.73317748 0 16
4.7288198 -2.8017173 -0.73741865 0 17
5.0581293 -2.9968255 -0.73378944 0 18
5.498281 -3.2576051 -0.73801321 0 19
5.9495115 -3.5249488 -0.73419386 0 20
6.474618 -3.8360624 -0.72906178 0 21
7.2386007 -4.2887044 -0.73704362 0 22
7.5521379 -4.4744682 -0.68767411 0 23
7.5530467 -4.4750066 -0.60656983 0 24
7.5466571 -4.471221 -0.5250414 0 25
7.5457234 -4.4706678 -0.44406036 0 26
7.5582204 -4.4780717 -0.36382112 0 27
7.5476789 -4.4718261 -0.28251353 0 28
7.5530481 -4.4750075 -0.20190477 0 29
7.5430093 -4.4690595 -0.12096819 0 30
7.5533142 -4.4751649 -0.040375542 0 31
7.5576148 -4.4777131 0.040398531 0 32
7.5498519 -4.4731135 0.12107793 0 33
7.5489941 -4.4726057 0.2017964 0 34
7.5481029 -4.4720774 0.28252941 0 35
7.5709324 -4.4856033 0.36443302 0 36
7.5416694 -4.4682655 0.44382179 0 37
7.5597267 -4.4789643 0.52595073 0 38
7.551033 -4.4738135 0.60640812 0 39
7.5504894 -4.4734912 0.68752402 0 40
7.5560503 -4.4767861 0.7693668 0 41
7.5578189 -4.4778337 0.85103351 0 42
7.535593 -4.4646654 0.92992276 0 43
7.5593286 -4.4787288 1.0146598 0 44
7.5484667 -4.4722929 1.095066 0 45
7.5461516 -4.4709215 1.1767572 0 46
7.554327 -4.4757652 1.2603509 0 47
7.5400867 -4.4673281 1.3403561 0 48
7.5498815 -4.4731312 1.4248176 0 49
7.548058 -4.4720511 1.5074213 0 50
7.5550718 -4.4762063 1.5921097 0 51
7.5495176 -4.4729156 1.6744437 0 52
7.5472131 -4.47155 1.7577051 0 53
0 0 0 0 54
0 0 0 0 55
0 0 0 0 56
0 0 0 0 57
0 0 0 0 58
0 0 0 0 59
0 0 0 0 60
0 0 0 0 61
0 0 0 0 62
0 0 0 0 63
2.144351 -1.2351124 -0.73771715 0 0
2.2019629 -1.268296 -0.73215699 0 1
2.2752967 -1.3105352 -0.73045361 0 2
2.3661871 -1.3628867 -0.73264217 0 3
2.4787798 -1.4277382 -0.7393685 0 4
2.5669916 -1.4785467 -0.73668146 0 5
2.6725197 -1.5393294 -0.73691314 0 6
2.7878218 -1.6057416 -0.73749405 0 7
2.888566 -1.6637686 -0.73194104 0 8
3.0395811 -1.750751 -0.7364561 0 9
3.1640608 -1.8224493 -0.73161829 0 10
3.346122 -1.9273137 -0.73684043 0 11
3.5130641 -2.0234697 -0.73502278 0 12
3.706337 -2.1347919 -0.73489386 0 13
3.9263892 -2.2615385 -0.73568654 0 14
4.1769443 -2.4058542 -0.73719573 0 15
4.4520955 -2.564337 -0.73746341 0 16
4.7223358 -2.7199912 -0.73113656 0 17
5.1128383 -2.9449143 -0.73641711 0 18
5.5000606 -3.1679485 -0.73296797 0 19
6.0378098 -3.4776838 -0.73975718 0 20
6.5857987 -3.7933164 -0.73627311 0 21
7.2284665 -4.1634831 -0.73074371 0 22
7.5774584 -4.3644967 -0.68504107 0 23
7.5798798 -4.3658915 -0.60436773 0 24
7.5774674 -4.3645024 -0.52341163 0 25
7.5893002 -4.3713174 -0.44342804 0 26
7.5697074 -4.3600326 -0.36176601 0 27
7.5794578 -4.3656487 -0.28167242 0 28
7.5920753 -4.3729162 -0.20149539 0 29
7.5765805 -4.3639913 -0.12063689 0 30
7.5816612 -4.3669176 -0.040236991 0 31
7.5868573 -4.3699107 0.040264569 0 32
7.5782638 -4.3649607 0.12066369 0 33
7.5794387 -4.3656378 0.20116001 0 34
7.5765243 -4.3639588 0.28156337 0 35
7.5743027 -4.3626795 0.36198562 0 36
7.5748777 -4.3630104 0.44258538 0 37
7.5805473 -4.3662763 0.52362436 0 38
7.5768104 -4.3641238 0.604123 0 39
7.5748777 -4.3630109 0.68480778 0 40
7.5997944 -4.3773618 0.76828212 0 41
7.5733638 -4.3621387 0.84667999 0 42
7.5760269 -4.3636723 0.92822069 0 43
7.5721436 -4.3614354 1.009105 0 44
7.5731387 -4.362009 1.0907815 0 45
7.5759692 -4.3636394 1.1729509 0 46
7.5825591 -4.367435 1.2560064 0 47
7.5838141 -4.3681579 1.3384799 0 48
7.5758762 -4.3635859 1.41949 0 49
7.5682187 -4.3591752 1.5006292 0 50
7.5682859 -4.3592138 1.5834787 0 51
7.5818305 -4.3670154 1.6695743 0 52
7.5765085 -4.3639498 1.7518981 0 53
0 0 0 0 54
0 0 0 0 55
0 0 0 0 56
0 0 0 0 57
0 0 0 0 58
0 0 0 0 59
0 0 0 0 60
0 0 0 0 61
0 0 0 0 62
0 0 0 0 63
2.1426933 -1.1993159 -0.73201805 0 0
2.2216377 -1.243503 -0.73355925 0 1
2.3272271 -1.3026037 -0.74192685 0 2
2.3864305 -1.3357413 -0.733769 0 3
2.4947882 -1.3963916 -0.73896593 0 4
2.5944736 -1.4521879 -0.73938787 0 5
2.6618357 -1.489892 -0.72886044 0 6
2.8012238 -1.5679109 -0.73588347 0 7
2.9128966 -1.6304168 -0.73297065 0 8
3.0486615 -1.7064075 -0.73351681 0 9
3.1889567 -1.784934 -0.73224443 0 10
3.3732417 -1.8880826 -0.73764408 0 11
3.5412054 -1.982096 -0.73575556 0 12
3.7422776 -2.0946407 -0.73685741 0 13
3.9390492 -2.2047784 -0.73292345 0 14
4.1739626 -2.3362651 -0.73154402 0 15
4.4619508 -2.4974587 -0.73395348 0 16
4.7835331 -2.6774561 -0.73545849 0 17
5.1120915 -2.8613579 -0.73118657 0 18
5.5666628 -3.115792 -0.73668218 0 19
6.043334 -3.3825963 -0.7352823 0 20
6.5830693 -3.6846988 -0.7308473 0 21
7.3540087 -4.1162114 -0.73826241 0 22
7.6055517 -4.2570062 -0.6827969 0 23
7.6102128 -4.2596154 -0.60256445 0 24
7.6080542 -4.2584071 -0.52186793 0 25
7.6112719 -4.2602077 -0.44161764 0 26
7.6020083 -4.255023 -0.36078191 0 27
7.6183314 -4.2641592 -0.28114721 0 28
7.5982509 -4.2529197 -0.20025621 0 29
7.6071253 -4.2578869 -0.1202805 0 30
7.59444 -4.2507868 -0.040024381 0 31
7.6026549 -4.2553849 0.040067676 0 32
7.6020207 -4.2550302 0.12019978 0 33
7.6000128 -4.2539058 0.20030265 0 34
7.6090364 -4.2589564 0.28080419 0 35
7.6103711 -4.2597036 0.36117882 0 36
7.6078448 -4.2582898 0.4414188 0 37
7.6141605 -4.2618251 0.52228683 0 38
7.6115208 -4.2603469 0.60266799 0 39
7.6076326 -4.2581711 0.6829837 0 40
7.5979805 -4.2527685 0.76275456 0 41
7.6031613 -4.2556682 0.84409714 0 42
7.5913935 -4.2490816 0.92363209 0 43
7.6005583 -4.2542114 1.0058444 0 44
7.6150432 -4.2623186 1.0891857 0 45
7.6047859 -4.2565775 1.1692203 0 46
7.6000762 -4.2539415 1.2501489 0 47
7.606092 -4.2573085 1.3330716 0 48
7.605166 -4.2567902 1.4150634 0 49
7.6107588 -4.2599206 1.4985644 0 50
7.6051478 -4.2567801 1.5801202 0 51
7.6108365 -4.2599645 1.6643007 0 52
7.6145968 -4.2620687 1.7484546 0 53
0 0 0 0 54
0 0 0 0 55
0 0 0 0 56
0 0 0 0 57
0 0 0 0 58
0 0 0 0 59
0 0 0 0 60
0 0 0 0 61
0 0 0 0 62
0 0 0 0 63
2.1743107 -1.1821402 -0.7377978 0 0
2.2519188 -1.2243346 -0.73853087 0 1
2.3243613 -1.2637206 -0.7360037 0 2
2.3958037 -1.3025627 -0.73167092 0 3
2.4857299 -1.3514543 -0.73130518 0 4
2.6042008 -1.4158652 -0.73714262 0 5
2.7077096 -1.4721413 -0.73640919 0 6
2.8182604 -1.5322461 -0.73535383 0 7
2.9324236 -1.5943149 -0.73289579 0 8
3.0893614 -1.6796398 -0.73828417 0 9
3.2221017 -1.7518086 -0.73485339 0 10
3.383477 -1.839546 -0.73488033 0 11
3.559716 -1.9353645 -0.73460144 0 12
3.7567189 -2.0424719 -0.73470014 0 13
3.97841 -2.163002 -0.73524266 0 14
4.2138181 -2.2909901 -0.73353642 0 15
4.4819837 -2.4367876 -0.73226458 0 16
4.8258739 -2.6237555 -0.73695219 0 17
5.1703291 -2.8110309 -0.73451686 0 18
5.5713634 -3.0290673 -0.73231977 0 19
6.1187668 -3.3266821 -0.73942715 0 20
6.6762319 -3.6297677 -0.73617935 0 21
7.3615284 -4.0023532 -0.73402125 0 22
7.6303492 -4.1485071 -0.68039203 0 23
7.6409068 -4.1542473 -0.6009047 0 24
7.6292224 -4.1478944 -0.51978201 0 25
7.6293087 -4.1479411 -0.43967152 0 26
7.6493793 -4.1588535 -0.36057582 0 27
7.6360574 -4.1516104 -0.27989626 0 28
7.644475 -4.1561871 -0.2001124 0 29
7.6367126 -4.1519666 -0.119932 0 30
7.6441069 -4.1559868 -0.040013783 0 31
7.6409531 -4.1542721 0.039997272 0 32
7.6250062 -4.1456022 0.11974815 0 33
7.6385226 -4.1529508 0.1999566 0 34
7.6337895 -4.1503773 0.27981311 0 35
7.6384053 -4.1528869 0.36005852 0 36
7.6373773 -4.152328 0.44013652 0 37
7.6295562 -4.1480756 0.51980478 0 38
7.6469669 -4.1575418 0.6013813 0 39
7.6412535 -4.1544356 0.68136436 0 40
7.6336875 -4.150322 0.76115835 0 41
7.6282821 -4.1473832 0.84116066 0 42
7.6315718 -4.1491718 0.92224324 0 43
7.6391993 -4.1533189 1.0041234 0 44
7.6297579 -4.1481853 1.0839127 0 45
7.6390495 -4.1532373 1.1665483 0 46
7.6420932 -4.154892 1.248562 0 47
7.6372213 -4.1522431 1.3294784 0 48
7.6327767 -4.1498265 1.4105995 0 49
7.6363916 -4.151792 1.4934465 0 50
7.6423507 -4.1550322 1.5771151 0 51
7.6285405 -4.1475239 1.6568944 0 52
7.634357 -4.1506863 1.741141 0 53
0 0 0 0 54
0 0 0 0 55
0 0 0 0 56
0 0 0 0 57
0 0 0 0 58
0 0 0 0 59
0 0 0 0 60
0 0 0 0 61
0 0 0 0 62
0 0 0 0 63
2.1930721 -1.1576343 -0.7392779 0 0
2.2510695 -1.1882488 -0.73340499 0 1
2.3277767 -1.2287394 -0.73224545 0 2
2.419332 -1.2770678 -0.73400509 0 3
2.5135002 -1.3267754 -0.73461998 0 4
2.6151128 -1.3804126 -0.73537111 0 5
2.7181873 -1.4348214 -0.73440486 0 6
2.8407464 -1.4995154 -0.73635417 0 7
2.9615748 -1.5632958 -0.73532152 0 8
3.1172292 -1.6454595 -0.7400527 0 9
3.2489657 -1.7149979 -0.73611492 0 10
3.4024575 -1.79602 -0.73415059 0 11
3.5829208 -1.8912793 -0.73453534 0 12
3.7862844 -1.9986267 -0.73562038 0 13
3.9746511 -2.098058 -0.72972506 0 14
4.2515469 -2.24422 -0.73524469 0 15
4.5200081 -2.3859298 -0.73362821 0 16
4.8293819 -2.5492358 -0.73264563 0 17
5.2357421 -2.763737 -0.73892587 0 18
5.6530905 -2.9840384 -0.73818332 0 19
6.1152058 -3.2279704 -0.73414457 0 20
6.6922288 -3.5325577 -0.73309809 0 21
7.3618641 -3.8860309 -0.72923493 0 22
7.6701183 -4.0487456 -0.67944747 0 23
7.6731777 -4.0503612 -0.59948045 0 24
7.6694961 -4.0484176 -0.51909506 0 25
7.6619954 -4.0444584 -0.43865603 0 26
7.6847138 -4.0564504 -0.35986295 0 27
7.6676641 -4.0474505 -0.27920941 0 28
7.6666036 -4.0468907 -0.19937396 0 29
7.6623483 -4.0446444 -0.11954449 0 30
7.6666551 -4.0469179 -0.03986831 0 31
7.6612544 -4.0440674 0.039840229 0 32
7.6685677 -4.0479274 0.11964152 0 33
7.6604915 -4.0436645 0.19921501 0 34
7.6632953 -4.0451446 0.27905032 0 35
7.6525369 -4.0394654 0.35835618 0 36
7.6688094 -4.0480552 0.43904614 0 37
7.649426 -4.0378232 0.51773661 0 38
7.6605983 -4.0437207 0.59849763 0 39
7.6578412 -4.0422654 0.67835993 0 40
7.6737962 -4.0506873 0.76013356 0 41
7.6488051 -4.0374956 0.83788592 0 42
7.6788011 -4.053329 0.92185783 0 43
7.6712284 -4.0493317 1.0017128 0 44
7.6551366 -4.0408378 1.0803776 0 45
7.6752634 -4.0514617 1.1643826 0 46
7.6672015 -4.0472064 1.2444392 0 47
7.661366 -4.044126 1.3249246 0 48
7.6672339 -4.0472236 1.4076638 0 49
