# .PCD v0.7 - Point Cloud Data file format
VERSION 0.7
FIELDS x y z intensity ring
SIZE 4 4 4 4 2
TYPE F F F F U
COUNT 1 1 1 1 1
WIDTH 1470
HEIGHT 1
VIEWPOINT 0 0 0 1 0 0 0
POINTS 1470
DATA ascii
7.7170038 -5.9623933 -0.22427841 0 29
7.7187109 -5.9637122 -0.13458163 0 30
7.7186208 -5.9636426 -0.044857487 0 31
7.7087779 -5.956037 0.044800282 0 32
7.7220216 -5.9662695 0.13463934 0 33
7.7183237 -5.9634128 0.22431676 0 34
7.725409 -5.9688873 0.31438494 0 35
7.7279291 -5.9708338 0.40443236 0 36
7.7242293 -5.9679756 0.49420905 0 37
7.7208691 -5.9653792 0.58400899 0 38
7.7247777 -5.9683995 0.67446446 0 39
7.7168245 -5.9622545 0.76395148 0 40
7.7202754 -5.9649205 0.85464507 0 41
7.7208142 -5.9653373 0.94520867 0 42
7.7247958 -5.9684134 1.0364083 0 43
7.7176633 -5.9629025 1.1262568 0 44
7.7117124 -5.9583044 1.2163169 0 45
7.7157955 -5.9614596 1.3081467 0 46
7.7221498 -5.9663692 1.4007105 0 47
7.7183762 -5.9634533 1.4917094 0 48
7.7149863 -5.960834 1.5829556 0 49
7.7229204 -5.9669642 1.6768545 0 50
7.723546 -5.9674478 1.7695609 0 51
0 0 0 0 52
0 0 0 0 53
0 0 0 0 54
0 0 0 0 55
0 0 0 0 56
0 0 0 0 57
0 0 0 0 58
0 0 0 0 59
0 0 0 0 60
0 0 0 0 61
0 0 0 0 62
0 0 0 0 63
1.9669752 -1.4814832 -0.73409665 0 0
2.0329614 -1.5311826 -0.73330331 0 1
2.1072536 -1.5871378 -0.73389125 0 2
2.1877701 -1.6477813 -0.73486042 0 3
2.2661757 -1.7068347 -0.73329198 0 4
2.3599386 -1.7774547 -0.73471069 0 5
2.4585075 -1.8516948 -0.73540616 0 6
2.5514119 -1.9216683 -0.73220789 0 7
2.6566861 -2.0009584 -0.73028833 0 8
2.7954454 -2.1054692 -0.73475826 0 9
2.9252532 -2.2032375 -0.73377603 0 10
3.0767334 -2.3173292 -0.73499072 0 11
3.230896 -2.4334409 -0.73332757 0 12
3.4296732 -2.5831559 -0.7377221 0 13
3.6199524 -2.72647 -0.73580486 0 14
3.8482256 -2.8984003 -0.73679221 0 15
4.0948701 -3.084168 -0.73582834 0 16
4.3819385 -3.3003814 -0.73598379 0 17
4.7276459 -3.5607607 -0.7386983 0 18
5.1188378 -3.8553979 -0.74002981 0 19
5.4996858 -4.1422448 -0.73098415 0 20
6.0301847 -4.5418048 -0.73134357 0 21
6.6950197 -5.0425444 -0.73422825 0 22
7.487237 -5.6392255 -0.73430246 0 23
7.7206969 -5.815062 -0.66781443 0 24
7.7265258 -5.8194523 -0.57898039 0 25
7.7148352 -5.810647 -0.48899949 0 26
7.7366214 -5.8270564 -0.4011071 0 27
7.7248287 -5.8181744 -0.31142634 0 28
7.735003 -5.8258376 -0.22270268 0 29
7.7322078 -5.8237319 -0.13355826 0 30
7.7251816 -5.81844 -0.044476457 0 31
7.7298188 -5.8219323 0.044503152 0 32
7.7298102 -5.8219261 0.13351683 0 33
7.7196426 -5.8142681 0.22226043 0 34
7.7306194 -5.822536 0.31165981 0 35
7.729351 -5.8215804 0.40073016 0 36
7.7274246 -5.8201294 0.48979747 0 37
7.7181768 -5.8131642 0.57835478 0 38
7.7113552 -5.8080263 0.66700637 0 39
7.7314086 -5.8231301 0.75824934 0 40
7.7273283 -5.8200569 0.84743929 0 41
7.7230053 -5.8168006 0.93664962 0 42
7.7357025 -5.826364 1.0281817 0 43
7.7239079 -5.817481 1.1166445 0 44
7.7262812 -5.8192682 1.2072374 0 45
7.7251797 -5.8184385 1.2975096 0 46
7.7281952 -5.8207097 1.3887192 0 47
7.7306328 -5.822546 1.4801289 0 48
7.7288828 -5.8212276 1.5710012 0 49
7.7211089 -5.8153725 1.6608092 0 50
7.7397647 -5.8294239 1.756721 0 51
0 0 0 0 52
0 0 0 0 53
0 0 0 0 54
0 0 0 0 55
0 0 0 0 56
0 0 0 0 57
0 0 0 0 58
0 0 0 0 59
0 0 0 0 60
0 0 0 0 61
0 0 0 0 62
0 0 0 0 63
1.9806732 -1.453979 -0.73248094 0 0
2.0606158 -1.5126635 -0.73651344 0 1
2.1341376 -1.5666348 -0.73648942 0 2
2.2062418 -1.6195652 -0.7343201 0 3
2.2842157 -1.6768045 -0.73240215 0 4
2.3950672 -1.7581787 -0.73886061 0 5
2.4743929 -1.8164104 -0.73342133 0 6
2.5905728 -1.9016962 -0.73667985 0 7
2.7054267 -1.9860084 -0.73691779 0 8
2.8195598 -2.0697918 -0.7343514 0 9
2.9639237 -2.1757667 -0.73670942 0 10
3.1125016 -2.2848356 -0.73676801 0 11
3.2647188 -2.3965755 -0.73426014 0 12
3.4360845 -2.5223722 -0.73237425 0 13
3.6508682 -2.6800413 -0.73533475 0 14
3.8762486 -2.8454893 -0.73540276 0 15
4.1337504 -3.034517 -0.73605412 0 16
4.4318538 -3.2533498 -0.73759264 0 17
4.7127991 -3.4595869 -0.72967625 0 18
5.1176934 -3.756813 -0.73313046 0 19
5.5570321 -4.0793242 -0.73188382 0 20
6.1150131 -4.4889288 -0.73488158 0 21
6.7844958 -4.9803848 -0.73726898 0 22
7.617836 -5.5921264 -0.74031097 0 23
7.73559 -5.6785674 -0.66301274 0 24
7.7246594 -5.6705432 -0.57357222 0 25
7.731421 -5.6755071 -0.48559058 0 26
7.726038 -5.671555 -0.39691269 0 27
7.7323556 -5.6761928 -0.30889258 0 28
7.7343497 -5.6776567 -0.2206571 0 29
7.7471757 -5.6870723 -0.13259886 0 30
7.736886 -5.6795187 -0.044138424 0 31
7.7352042 -5.6782837 0.044128828 0 32
7.7361159 -5.6789532 0.13240956 0 33
7.7226424 -5.6690626 0.2203231 0 34
7.7271352 -5.6723609 0.30868402 0 35
7.7316623 -5.675684 0.39720163 0 36
7.7359505 -5.6788321 0.48587504 0 37
7.728694 -5.6735053 0.57387179 0 38
7.7253947 -5.671083 0.66213894 0 39
7.7249155 -5.6707311 0.75071704 0 40
7.7385697 -5.6807547 0.84094787 0 41
7.7357244 -5.6786656 0.92965317 0 42
7.7361884 -5.6790066 1.0188875 0 43
7.7276378 -5.67273 1.1070157 0 44
7.7299771 -5.6744471 1.1968219 0 45
7.7254949 -5.6711569 1.2857527 0 46
7.726182 -5.6716609 1.3757212 0 47
7.7339263 -5.6773458 1.4672823 0 48
7.736959 -5.6795721 1.5583293 0 49
7.7281871 -5.6731329 1.6472019 0 50
7.7290449 -5.6737628 1.7383212 0 51
0 0 0 0 52
0 0 0 0 53
0 0 0 0 54
0 0 0 0 55
0 0 0 0 56
0 0 0 0 57
0 0 0 0 58
0 0 0 0 59
0 0 0 0 60
0 0 0 0 61
0 0 0 0 62
0 0 0 0 63
2.006561 -1.4353529 -0.7354719 0 0
2.0702274 -1.4808953 -0.73338485 0 1
2.1509507 -1.5386391 -0.73570669 0 2
2.227351 -1.5932904 -0.73476958 0 3
2.3106062 -1.6528455 -0.73429173 0 4
2.398757 -1.7159023 -0.73343438 0 5
2.5020597 -1.7897979 -0.73504299 0 6
2.6050315 -1.8634566 -0.73421991 0 7
2.7147455 -1.9419384 -0.73289645 0 8
2.845695 -2.0356104 -0.7345835 0 9
2.9860809 -2.1360326 -0.7356326 0 10
3.1269176 -2.2367773 -0.73361433 0 11
3.2862735 -2.3507693 -0.7325514 0 12
3.4783919 -2.4881973 -0.73481482 0 13
3.6865249 -2.6370811 -0.73592967 0 14
3.9033024 -2.7921486 -0.73396617 0 15
4.1628046 -2.9777782 -0.7346521 0 16
4.4350934 -3.1725545 -0.73158383 0 17
4.7635374 -3.4075 -0.7309894 0 18
5.1676702 -3.6965883 -0.73372275 0 19
5.6394205 -4.0340457 -0.73614591 0 20
6.2002206 -4.4352021 -0.73851156 0 21
6.7793384 -4.849463 -0.73017323 0 22
7.6095767 -5.443357 -0.73294812 0 23
7.739223 -5.5360966 -0.65743983 0 24
7.7386117 -5.5356598 -0.56951088 0 25
7.7327094 -5.5314374 -0.48136312 0 26
7.7342491 -5.5325389 -0.3938098 0 27
7.7391553 -5.5360484 -0.30642164 0 28
7.7355847 -5.533494 -0.21873459 0 29
7.738924 -5.5358829 -0.1312826 0 30
7.7398734 -5.536562 -0.043763764 0 31
7.7288837 -5.5287008 0.043701626 0 32
7.7367182 -5.5343051 0.13124518 0 33
7.7369523 -5.5344725 0.21877326 0 34
7.7282109 -5.5282197 0.30598831 0 35
7.7376461 -5.5349689 0.39398277 0 36
7.740972 -5.5373478 0.48187748 0 37
7.7473216 -5.5418901 0.57015187 0 38
7.7386022 -5.5356526 0.65738708 0 39
7.7360091 -5.5337977 0.74512601 0 40
7.7361565 -5.5339031 0.83322793 0 41
7.7331543 -5.5317554 0.92110014 0 42
7.7201858 -5.5224791 1.0077602 0 43
7.7243805 -5.5254798 1.096733 0 44
7.7415662 -5.5377731 1.1879834 0 45
7.7280989 -5.5281396 1.2747763 0 46
7.7367935 -5.534359 1.3653901 0 47
7.7442145 -5.5396671 1.4562007 0 48
7.7398047 -5.5365129 1.5450735 0 49
7.7384801 -5.5355654 1.634764 0 50
7.7420363 -5.5381093 1.7257966 0 51
0 0 0 0 52
0 0 0 0 53
0 0 0 0 54
0 0 0 0 55
0 0 0 0 56
0 0 0 0 57
0 0 0 0 58
0 0 0 0 59
0 0 0 0 60
0 0 0 0 61
0 0 0 0 62
0 0 0 0 63
2.0200558 -1.4077835 -0.73401767 0 0
2.0947053 -1.4598072 -0.73564166 0 1
2.1860917 -1.5234946 -0.74126267 0 2
2.2473838 -1.5662093 -0.73496932 0 3
2.3260252 -1.6210147 -0.73280185 0 4
2.4215128 -1.6875603 -0.73399186 0 5
2.533138 -1.7653524 -0.7377401 0 6
2.6309373 -1.833509 -0.73511142 0 7
2.7467756 -1.914237 -0.73513335 0 8
2.8931336 -2.0162344 -0.74037331 0 9
3.0174828 -2.1028938 -0.73694259 0 10
3.1459582 -2.1924288 -0.7317012 0 11
3.3070006 -2.3046598 -0.73079932 0 12
3.4958582 -2.4362752 -0.73212069 0 13
3.7248094 -2.5958321 -0.73714453 0 14
3.9506748 -2.7532384 -0.73645228 0 15
4.2087445 -2.9330881 -0.73633891 0 16
4.4778471 -3.1206267 -0.73225117 0 17
4.8342934 -3.369035 -0.73543447 0 18
5.2303257 -3.6450312 -0.73619932 0 19
5.6375837 -3.9288507 -0.7295447 0 20
6.2106528 -4.3282247 -0.73335946 0 21
6.8928857 -4.8036747 -0.73598528 0 22
7.7549868 -5.4044762 -0.74049699 0 23
7.7484159 -5.3998966 -0.65253085 0 24
7.7568455 -5.4057713 -0.56591809 0 25
7.7548809 -5.4044023 -0.47857025 0 26
7.7406988 -5.3945189 -0.3907311 0 27
7.7524157 -5.4026842 -0.30429327 0 28
7.7533584 -5.4033413 -0.21734199 0 29
7.7603855 -5.4082384 -0.13050866 0 30
7.7411084 -5.3948045 -0.043392375 0 31
7.7379184 -5.3925815 0.043374497 0 32
7.7506018 -5.4014201 0.13034412 0 33
7.7501578 -5.4011106 0.21725227 0 34
7.7506256 -5.4014368 0.304223 0 35
7.7448764 -5.3974299 0.39094198 0 36
7.7478175 -5.3994799 0.47813439 0 37
7.7562585 -5.4053626 0.56587523 0 38
7.7500925 -5.4010653 0.65267205 0 39
7.73317 -5.3892722 0.73841375 0 40
7.7356224 -5.3909812 0.82596821 0 41
7.7547078 -5.4042816 0.91568285 0 42
7.7629089 -5.409997 1.0045774 0 43
7.7600327 -5.4079924 1.0922705 0 44
7.7493081 -5.4005189 1.1788918 0 45
7.7346268 -5.3902874 1.2648243 0 46
7.7379751 -5.3926206 1.3537937 0 47
7.7451739 -5.3976374 1.4437915 0 48
7.7382121 -5.3927855 1.5314021 0 49
7.7581105 -5.4066529 1.6247436 0 50
7.7403851 -5.3943005 1.7105132 0 51
0 0 0 0 52
0 0 0 0 53
0 0 0 0 54
0 0 0 0 55
0 0 0 0 56
0 0 0 0 57
0 0 0 0 58
0 0 0 0 59
0 0 0 0 60
0 0 0 0 61
0 0 0 0 62
0 0 0 0 63
2.0391579 -1.38416 -0.73471868 0 0
2.1017208 -1.426627 -0.73188931 0 1
2.1920409 -1.4879354 -0.73702025 0 2
2.2709999 -1.541532 -0.73643786 0 3
2.3532243 -1.5973451 -0.73512721 0 4
2.4493582 -1.6625999 -0.73617965 0 5
2.5369091 -1.7220285 -0.73261613 0 6
2.650084 -1.7988505 -0.73422521 0 7
2.7551353 -1.8701583 -0.73116082 0 8
2.8863578 -1.9592308 -0.73241872 0 9
3.0423129 -2.0650916 -0.73674941 0 10
3.2056901 -2.1759903 -0.73931473 0 11
3.3475873 -2.2723088 -0.73353833 0 12
3.5224302 -2.3909905 -0.73147303 0 13
3.7587328 -2.5513902 -0.73759353 0 14
3.9777284 -2.7000422 -0.73525071 0 15
4.2219567 -2.8658218 -0.73242974 0 16
4.5201139 -3.0682082 -0.73293799 0 17
4.8801832 -3.3126197 -0.73616326 0 18
5.2369871 -3.5548146 -0.73092902 0 19
5.7290716 -3.8888364 -0.7351402 0 20
6.311276 -4.2840309 -0.73896492 0 21
6.8898764 -4.6767793 -0.72946846 0 22
7.7456756 -5.2576871 -0.73337913 0 23
7.7492108 -5.260087 -0.64710182 0 24
7.7546396 -5.263772 -0.56099254 0 25
7.7369719 -5.2517791 -0.47344401 0 26
7.7481012 -5.2593336 -0.38781101 0 27
7.7584772 -5.266377 -0.30196655 0 28
7.7388844 -5.2530775 -0.21510929 0 29
7.7452102 -5.2573709 -0.1291565 0 30
7.72611 -5.2444062 -0.042943574 0 31
7.7546639 -5.2637887 0.043102287 0 32
7.7499304 -5.2605753 0.12923521 0 33
7.7580409 -5.2660804 0.21564175 0 34
7.7416921 -5.2549829 0.30131325 0 35
7.7320132 -5.2484131 0.38700575 0 36
7.7438903 -5.2564754 0.47386736 0 37
7.7402382 -5.2539964 0.55995065 0 38
7.7573366 -5.2656026 0.64778036 0 39
7.7482862 -5.2594595 0.73362631 0 40
7.7521653 -5.2620921 0.82076359 0 41
7.7474546 -5.2588949 0.90712202 0 42
7.7454295 -5.2575202 0.99387419 0 43
7.7551398 -5.264111 1.0823889 0 44
7.7680182 -5.2728529 1.1717858 0 45
7.7554507 -5.2643223 1.2575488 0 46
7.7527041 -5.2624578 1.3449477 0 47
7.7365036 -5.2514615 1.4300297 0 48
7.7425857 -5.2555895 1.5193633 0 49
7.755898 -5.264626 1.6106011 0 50
7.7377772 -5.2523255 1.6955363 0 51
0 0 0 0 52
0 0 0 0 53
0 0 0 0 54
0 0 0 0 55
0 0 0 0 56
0 0 0 0 57
0 0 0 0 58
0 0 0 0 59
0 0 0 0 60
0 0 0 0 61
0 0 0 0 62
0 0 0 0 63
2.0523205 -1.3565358 -0.7333957 0 0
2.1349065 -1.4111232 -0.73734742 0 1
2.1976435 -1.4525907 -0.73284298 0 2
2.2857285 -1.5108129 -0.73513407 0 3
2.3697796 -1.5663687 -0.73422647 0 4
2.4551644 -1.6228062 -0.73187184 0 5
2.5564878 -1.6897786 -0.73221439 0 6
2.6827424 -1.7732297 -0.73717666 0 7
2.784862 -1.8407285 -0.73298752 0 8
2.9240489 -1.9327277 -0.73589671 0 9
3.0668728 -2.0271311 -0.73660493 0 10
3.2146258 -2.1247921 -0.73529428 0 11
3.3919201 -2.2419796 -0.73715603 0 12
3.5513289 -2.3473451 -0.73142487 0 13
3.773262 -2.4940376 -0.73437107 0 14
4.0126066 -2.6522388 -0.73561382 0 15
4.2594357 -2.8153872 -0.73287046 0 16
4.5669351 -3.0186369 -0.73445565 0 17
4.9361377 -3.2626712 -0.73849612 0 18
5.2968249 -3.5010769 -0.73321652 0 19
5.7909818 -3.827703 -0.73698908 0 20
6.3041625 -4.1669035 -0.73207742 0 21
7.0066175 -4.6312099 -0.73574346 0 22
7.7493582 -5.1221437 -0.72770929 0 23
7.7435575 -5.11831 -0.64132565 0 24
7.7524199 -5.1241679 -0.55623162 0 25
7.7503257 -5.1227837 -0.47037095 0 26
7.7429838 -5.1179309 -0.3843759 0 27
7.7466207 -5.1203346 -0.29903194 0 28
7.7519217 -5.1238384 -0.21370423 0 29
7.7397866 -5.1158175 -0.12800737 0 30
7.7566657 -5.1269741 -0.042759765 0 31
7.7432442 -5.118103 0.042685777 0 32
7.7557583 -5.1263742 0.12827152 0 33
7.7464633 -5.1202302 0.21355374 0 34
7.7460866 -5.1199818 0.29901132 0 35
7.7561221 -5.1266146 0.38502809 0 36
7.7459865 -5.1199155 0.47010761 0 37
7.7552924 -5.1260667 0.55643773 0 38
7.741272 -5.1167994 0.64113635 0 39
7.7630544 -5.1311965 0.72899544 0 40
7.7615128 -5.130178 0.81501269 0 41
7.7472196 -5.1207304 0.89965391 0 42
7.7593546 -5.1287513 0.98749399 0 43
7.7497935 -5.1224318 1.0727704 0 44
7.7532053 -5.1246867 1.1599579 0 45
7.7537503 -5.1250472 1.2469602 0 46
7.7635517 -5.1315255 1.3357821 0 47
7.7496686 -5.1223493 1.4207132 0 48
7.7514133 -5.1235027 1.5086187 0 49
7.7450514 -5.1192975 1.595156 0 50
7.7551336 -5.1259613 1.6854004 0 51
0 0 0 0 52
0 0 0 0 53
0 0 0 0 54
0 0 0 0 55
0 0 0 0 56
0 0 0 0 57
0 0 0 0 58
0 0 0 0 59
0 0 0 0 60
0 0 0 0 61
0 0 0 0 62
0 0 0 0 63
2.0674932 -1.3303291 -0.73291653 0 0
2.1432116 -1.3790501 -0.73430359 0 1
2.2190888 -1.4278735 -0.73408389 0 2
2.3012607 -1.480747 -0.73421806 0 3
2.3892598 -1.53737 -0.73434943 0 4
2.4819906 -1.5970377 -0.73395914 0 5
2.5797937 -1.6599691 -0.73298788 0 6
2.6897564 -1.7307246 -0.73320067 0 7
2.820596 -1.8149134 -0.73646325 0 8
2.9371006 -1.8898784 -0.7332775 0 9
3.0739281 -1.9779201 -0.73240256 0 10
3.2399693 -2.0847592 -0.73517197 0 11
3.4268124 -2.2049835 -0.73879075 0 12
3.5950396 -2.3132293 -0.73451352 0 13
3.8201842 -2.4580986 -0.7375648 0 14
4.025147 -2.589982 -0.73201895 0 15
4.3057728 -2.7705507 -0.73492587 0 16
4.6139035 -2.9688177 -0.73608267 0 17
4.9348383 -3.1753235 -0.73240483 0 18
5.359705 -3.4487038 -0.73599488 0 19
5.7857032 -3.7228127 -0.73043621 0 20
6.4018745 -4.119288 -0.73748642 0 21
7.0035443 -4.506433 -0.72954684 0 22
7.7533112 -4.9888706 -0.72226518 0 23
7.7538815 -4.9892378 -0.63705146 0 24
7.7569814 -4.9912324 -0.55211359 0 25
7.756166 -4.9907074 -0.46696565 0 26
7.7494287 -4.9863725 -0.38162321 0 27
7.7536416 -4.9890828 -0.29691237 0 28
7.7526765 -4.9884624 -0.21201798 0 29
7.764894 -4.9963236 -0.12739688 0 30
7.7563195 -4.9908066 -0.042416345 0 31
7.7601633 -4.9932795 0.042437363 0 32
7.7597127 -4.9929895 0.12731187 0 33
7.7606773 -4.9936104 0.21223678 0 34
7.7580986 -4.991951 0.29708305 0 35
7.7555833 -4.9903326 0.38192627 0 36
7.7702398 -4.9997635 0.46781299 0 37
7.7579226 -4.991838 0.55218059 0 38
7.7669721 -4.9976606 0.63812703 0 39
7.7755504 -5.0031805 0.72433692 0 40
7.7654653 -4.9966912 0.80891478 0 41
7.7656937 -4.9968381 0.8945964 0 42
7.7652516 -4.9965539 0.98035127 0 43
7.7535529 -4.9890261 1.0647182 0 44
7.7606702 -4.9936056 1.151801 0 45
7.7566156 -4.9909968 1.2374576 0 46
7.7532516 -4.988832 1.3233548 0 47
7.7544351 -4.9895935 1.4102325 0 48
7.7512102 -4.9875188 1.4965298 0 49
7.7523036 -4.9882221 1.5838969 0 50
7.7536941 -4.9891167 1.6716285 0 51
7.7641363 -4.9958358 1.7617376 0 52
0 0 0 0 53
0 0 0 0 54
0 0 0 0 55
0 0 0 0 56
0 0 0 0 57
0 0 0 0 58
0 0 0 0 59
0 0 0 0 60
0 0 0 0 61
0 0 0 0 62
0 0 0 0 63
2.0917785 -1.3098701 -0.73576015 0 0
2.1629314 -1.354426 -0.73529816 0 1
2.2298021 -1.3963004 -0.73189276 0 2
2.3279765 -1.4577771 -0.73696685 0 3
2.4072056 -1.5073904 -0.73411268 0 4
2.5168905 -1.576075 -0.73849267 0 5
2.6018484 -1.6292756 -0.73350644 0 6
2.7123497 -1.6984713 -0.73361081 0 7
2.8354993 -1.7755876 -0.73459822 0 8
2.9708297 -1.8603314 -0.73593158 0 9
3.1141114 -1.9500542 -0.73620778 0 10
3.268888 -2.0469751 -0.73596686 0 11
3.4461596 -2.1579826 -0.73718524 0 12
3.6201818 -2.2669551 -0.73389959 0 13
3.8371899 -2.4028454 -0.73508793 0 14
4.063138 -2.5443339 -0.73318279 0 15
4.3501925 -2.7240872 -0.73673457 0 16
4.6188798 -2.8923392 -0.73114729 0 17
4.9968495 -3.1290236 -0.73584217 0 18
5.3660817 -3.3602364 -0.73114139 0 19
5.8776951 -3.6806083 -0.73628056 0 20
6.3997884 -4.0075426 -0.73151404 0 21
7.1251707 -4.4617763 -0.73644567 0 22
7.7565928 -4.8571725 -0.71695286 0 23
7.7700701 -4.865612 -0.63341802 0 24
7.7665024 -4.863378 -0.54849327 0 25
7.7626605 -4.8609719 -0.46372291 0 26
7.7679148 -4.8642626 -0.37955934 0 27
7.7490134 -4.8524265 -0.29442802 0 28
7.7576852 -4.8578568 -0.21050544 0 29
7.7635956 -4.861558 -0.12638524 0 30
7.7604175 -4.8595676 -0.042108789 0 31
7.7686825 -4.8647432 0.042153638 0 32
7.755918 -4.85675 0.12626025 0 33
7.7755079 -4.8690171 0.21098906 0 34
7.767509 -4.8640084 0.29513076 0 35
7.7850742 -4.8750076 0.38039777 0 36
7.7673736 -4.8639235 0.46400449 0 37
7.7685618 -4.8646679 0.5486387 0 38
7.7683949 -4.864563 0.63328153 0 39
7.7645655 -4.862165 0.71768975 0 40
7.7587528 -4.8585253 0.80193168 0 41
7.7661519 -4.8631587 0.88769329 0 42
7.7761292 -4.8694062 0.97409159 0 43
7.7670951 -4.863749 1.0582851 0 44
7.7735763 -4.8678074 1.1447463 0 45
7.7698579 -4.8654795 1.2299325 0 46
7.7600303 -4.8593254 1.3142138 0 47
7.7702537 -4.8657269 1.4021224 0 48
7.7632446 -4.8613377 1.4871997 0 49
7.7658238 -4.8629532 1.5743229 0 50
7.7635593 -4.8615351 1.6607418 0 51
7.7672787 -4.8638639 1.7487475 0 52
0 0 0 0 53
0 0 0 0 54
0 0 0 0 55
0 0 0 0 56
0 0 0 0 57
0 0 0 0 58
0 0 0 0 59
0 0 0 0 60
0 0 0 0 61
0 0 0 0 62
0 0 0 0 63
2.1103199 -1.2856319 -0.73666567 0 0
2.1802475 -1.3282326 -0.73557699 0 1
2.2542584 -1.3733209 -0.73432177 0 2
2.3367097 -1.4235512 -0.73413461 0 3
2.4437966 -1.4887898 -0.73963279 0 4
2.5237293 -1.5374858 -0.73489654 0 5
2.6355195 -1.6055896 -0.73737723 0 6
2.7466259 -1.673277 -0.73726076 0 7
2.8546331 -1.7390763 -0.73395967 0 8
2.9993393 -1.827233 -0.73737228 0 9
3.1252563 -1.9039432 -0.73325235 0 10
3.2951074 -2.0074184 -0.73625684 0 11
3.4463828 -2.0995772 -0.73165494 0 12
3.6504483 -2.2238963 -0.73443615 0 13
3.8861532 -2.3674905 -0.73883504 0 14
4.0942268 -2.4942515 -0.73320287 0 15
4.3830962 -2.670234 -0.73669058 0 16
4.6837502 -2.8533962 -0.73580629 0 17
5.0428801 -3.0721819 -0.73700184 0 18
5.4311337 -3.3087111 -0.73440588 0 19
5.950644 -3.6252029 -0.7397787 0 20
6.4793057 -3.9472697 -0.73499954 0 21
7.1248221 -4.3405261 -0.73083788 0 22
7.7792335 -4.7392011 -0.71360511 0 23
7.7583632 -4.7264867 -0.62767839 0 24
7.7809181 -4.7402272 -0.54535365 0 25
7.7742047 -4.7361374 -0.46089873 0 26
7.7739863 -4.7360044 -0.37698194 0 27
7.7773814 -4.7380729 -0.29327002 0 28
7.7789521 -4.7390299 -0.20948544 0 29
7.770946 -4.7341523 -0.12554774 0 30
7.7763681 -4.7374554 -0.041876081 0 31
7.7696562 -4.7333665 0.041839939 0 32
7.7731752 -4.7355103 0.12558375 0 33
7.7808514 -4.7401867 0.20953658 0 34
7.7862625 -4.7434831 0.29360491 0 35
7.7691846 -4.733079 0.3767491 0 36
7.7672181 -4.7318811 0.46048453 0 37
7.7732215 -4.7355385 0.54481417 0 38
7.762485 -4.7289977 0.62801188 0 39
7.7617469 -4.728548 0.71200109 0 40
7.7711549 -4.7342792 0.79713625 0 41
7.7641578 -4.7300167 0.8807506 0 42
7.7863746 -4.7435517 0.96799511 0 43
7.7620959 -4.7287607 1.049602 0 44
7.7597113 -4.7273078 1.1340586 0 45
7.7675791 -4.732101 1.2202686 0 46
7.7669392 -4.7317114 1.3054314 0 47
7.7665558 -4.7314777 1.3908514 0 48
7.7653923 -4.7307687 1.4763556 0 49
7.7749577 -4.7365961 1.5642489 0 50
7.7669892 -4.7317414 1.6489044 0 51
7.7745776 -4.7363648 1.737147 0 52
0 0 0 0 53
0 0 0 0 54
0 0 0 0 55
0 0 0 0 56
0 0 0 0 57
0 0 0 0 58
0 0 0 0 59
0 0 0 0 60
0 0 0 0 61
0 0 0 0 62
0 0 0 0 63
2.1208425 -1.2565504 -0.73488963 0 0
2.1832688 -1.2935367 -0.73117459 0 1
2.2702682 -1.3450817 -0.73409361 0 2
2.3816237 -1.4110572 -0.74273801 0 3
2.4389386 -1.4450151 -0.73272932 0 4
2.5320537 -1.5001836 -0.73189354 0 5
2.6469622 -1.5682642 -0.73512775 0 6
2.7493386 -1.6289198 -0.732557 0 7
2.8822083 -1.7076422 -0.73559517 0 8
3.015084 -1.7863679 -0.73578715 0 9
3.1469998 -1.8645251 -0.73291928 0 10
3.3029993 -1.9569511 -0.73258805 0 11
3.4888968 -2.0670912 -0.73522884 0 12
3.6928179 -2.1879098 -0.73749202 0 13
3.884016 -2.3011901 -0.73299354 0 14
4.1423287 -2.4542346 -0.73635703 0 15
4.3785257 -2.5941761 -0.73050576 0 16
4.7178841 -2.7952378 -0.73571324 0 17
5.054882 -2.9949014 -0.73331833 0 18
5.5038323 -3.2608943 -0.73875839 0 19
5.9597621 -3.5310221 -0.73545885 0 20
6.4894958 -3.844877 -0.73073709 0 21
7.2507114 -4.2958798 -0.73827678 0 22
7.7824893 -4.6109462 -0.70864916 0 23
7.7894263 -4.615056 -0.62555301 0 24
7.7706518 -4.6039324 -0.54062533 0 25
7.7813063 -4.6102448 -0.45792422 0 26
7.7681623 -4.6024575 -0.37392685 0 27
7.7769547 -4.607667 -0.29109547 0 28
7.7797093 -4.6092992 -0.20796378 0 29
7.7754188 -4.6067572 -0.12469538 0 30
7.7692285 -4.6030893 -0.041529693 0 31
7.7801576 -4.6095643 0.041588113 0 32
7.7864842 -4.6133132 0.12487284 0 33
7.7785883 -4.6086345 0.2079338 0 34
7.775229 -4.6066446 0.29103085 0 35
7.7762465 -4.6072474 0.37431598 0 36
7.7746649 -4.6063104 0.45753342 0 37
7.784039 -4.6118641 0.54155672 0 38
7.7789459 -4.6088467 0.62471139 0 39
7.7778916 -4.608222 0.70823056 0 40
7.7706132 -4.6039095 0.79121381 0 41
7.7730384 -4.6053467 0.87526792 0 42
7.7887063 -4.6146293 0.96115798 0 43
7.7770381 -4.6077166 1.0438821 0 44
7.7753272 -4.6067023 1.1279769 0 45
7.7813449 -4.6102676 1.2134335 0 46
7.7776504 -4.608079 1.2976098 0 47
7.7820005 -4.6106567 1.3833597 0 48
7.7792549 -4.6090298 1.4681051 0 49
7.7681332 -4.6024404 1.5513724 0 50
7.7878323 -4.6141114 1.6411601 0 51
7.7716241 -4.6045089 1.7237058 0 52
0 0 0 0 53
0 0 0 0 54
0 0 0 0 55
0 0 0 0 56
0 0 0 0 57
0 0 0 0 58
0 0 0 0 59
0 0 0 0 60
0 0 0 0 61
0 0 0 0 62
0 0 0 0 63
2.1362059 -1.2304209 -0.73491502 0 0
2.2070394 -1.27122 -0.73384488 0 1
2.2958181 -1.3223552 -0.73704171 0 2
2.3775852 -1.3694516 -0.73617131 0 3
2.4732049 -1.424527 -0.73770559 0 4
2.565676 -1.477789 -0.73630393 0 5
2.6667922 -1.5360304 -0.73533386 0 6
2.7807779 -1.6016843 -0.73563063 0 7
2.9101534 -1.6762027 -0.73741114 0 8
3.0375109 -1.7495584 -0.73595446 0 9
3.1743762 -1.8283908 -0.73400348 0 10
3.3383939 -1.9228624 -0.73513865 0 11
3.5102522 -2.0218501 -0.73443443 0 12
3.6939008 -2.1276288 -0.73242801 0 13
3.9101076 -2.2521605 -0.73263586 0 14
4.1715865 -2.4027681 -0.73625016 0 15
4.4186845 -2.5450928 -0.73192912 0 16
4.7232647 -2.7205262 -0.73128039 0 17
5.1043186 -2.9400074 -0.73519003 0 18
5.4980326 -3.1667805 -0.73269773 0 19
6.0327225 -3.4747531 -0.73913383 0 20
6.590322 -3.7959218 -0.7367788 0 21
7.2429099 -4.171802 -0.73220378 0 22
7.7693152 -4.4750032 -0.7023859 0 23
7.7740059 -4.4777055 -0.61984605 0 24
7.7683554 -4.4744506 -0.53659713 0 25
7.7704835 -4.4756765 -0.45401424 0 26
7.7817287 -4.4821534 -0.3718988 0 27
7.7808852 -4.4816675 -0.28915796 0 28
7.7687478 -4.4746766 -0.20618433 0 29
7.7802453 -4.4812989 -0.1238797 0 30
7.7635007 -4.4716544 -0.041202042 0 31
7.7711601 -4.4760661 0.041242689 0 32
7.778904 -4.4805264 0.12385835 0 33
7.7955623 -4.4901214 0.20689598 0 34
7.7593923 -4.4692879 0.28835925 0 35
7.7671523 -4.4737577 0.37120214 0 36
7.7752862 -4.4784427 0.45429483 0 37
7.7871118 -4.4852538 0.5378927 0 38
7.789506 -4.4866328 0.62108189 0 39
7.7692246 -4.4749513 0.70237774 0 40
7.7747154 -4.4781141 0.78596532 0 41
7.7711315 -4.4760494 0.86878985 0 42
7.7824602 -4.4825749 0.95351309 0 43
7.7858996 -4.4845557 1.0375913 0 44
7.7690887 -4.4748731 1.1190047 0 45
7.7743998 -4.477932 1.203673 0 46
7.7857108 -4.484447 1.2896572 0 47
7.7864013 -4.4848447 1.3742348 0 48
7.785388 -4.484261 1.4587461 0 49
7.7745457 -4.4780159 1.5415398 0 50
7.7865853 -4.484951 1.6291525 0 51
7.7924356 -4.4883204 1.715951 0 52
0 0 0 0 53
0 0 0 0 54
0 0 0 0 55
0 0 0 0 56
0 0 0 0 57
0 0 0 0 58
0 0 0 0 59
0 0 0 0 60
0 0 0 0 61
0 0 0 0 62
0 0 0 0 63
2.1479192 -1.2022409 -0.73380339 0 0
2.2233763 -1.244476 -0.73413324 0 1
2.3104606 -1.2932192 -0.73658168 0 2
2.3919637 -1.3388383 -0.73547029 0 3
2.4797754 -1.3879887 -0.73451912 0 4
2.5930007 -1.4513634 -0.73896813 0 5
2.6759353 -1.4977839 -0.73272115 0 6
2.8061383 -1.5706615 -0.73717451 0 7
2.9178076 -1.6331655 -0.73420644 0 8
3.0612175 -1.7134355 -0.73653781 0 9
3.1993949 -1.7907766 -0.73464125 0 10
3.3782043 -1.8908604 -0.7387293 0 11
3.5320549 -1.9769741 -0.73385435 0 12
3.7450552 -2.0961955 -0.73740435 0 13
3.9480217 -2.2098007 -0.73459291 0 14
4.1803422 -2.3398359 -0.73266214 0 15
4.4633555 -2.4982452 -0.73418462 0 16
4.7751341 -2.672755 -0.73416722 0 17
5.1014566 -2.8554053 -0.72966546 0 18
5.5594277 -3.1117425 -0.73572475 0 19
6.0298023 -3.3750222 -0.73363584 0 20
6.5784979 -3.6821399 -0.73033983 0 21
7.3462305 -4.1118579 -0.73748159 0 22
7.7758994 -4.3523536 -0.69809002 0 23
7.7759395 -4.352376 -0.61568642 0 24
7.7778459 -4.3534431 -0.53351462 0 25
7.7799625 -4.3546281 -0.45140535 0 26
7.7717752 -4.3500452 -0.36883885 0 27
7.7803898 -4.354867 -0.28712782 0 28
7.7838082 -4.3567805 -0.20514669 0 29
7.7802963 -4.354815 -0.12301859 0 30
7.7851925 -4.3575554 -0.041029688 0 31
7.7794342 -4.3543324 0.040999342 0 32
7.77773 -4.3533783 0.12297802 0 33
7.7783375 -4.3537183 0.20500249 0 34
7.7896771 -4.3600655 0.28747055 0 35
7.7803669 -4.3548546 0.3692466 0 36
7.7961154 -4.3636689 0.45234254 0 37
7.7837248 -4.3567338 0.5339179 0 38
7.7764063 -4.3526378 0.61572343 0 39
7.7834129 -4.3565593 0.69876462 0 40
7.777225 -4.353096 0.78074878 0 41
7.7845554 -4.3571987 0.8642354 0 42
7.7835445 -4.3566327 0.94701076 0 43
7.7780437 -4.3535538 1.0293324 0 44
7.7645731 -4.346014 1.1105731 0 45
7.7659659 -4.3467941 1.1940016 0 46
7.7777715 -4.3534017 1.2793782 0 47
7.7872767 -4.3587217 1.3648267 0 48
7.765079 -4.3462977 1.4448178 0 49
7.7897873 -4.360127 1.5338153 0 50
7.7848868 -4.3573842 1.6174645 0 51
7.7711816 -4.3497133 1.6993643 0 52
0 0 0 0 53
0 0 0 0 54
0 0 0 0 55
0 0 0 0 56
0 0 0 0 57
0 0 0 0 58
0 0 0 0 59
0 0 0 0 60
0 0 0 0 61
0 0 0 0 62
0 0 0 0 63
2.1585722 -1.1735835 -0.7324574 0 0
2.2452476 -1.2207077 -0.73634303 0 1
2.3302419 -1.2669177 -0.73786569 0 2
2.4038985 -1.3069638 -0.73414302 0 3
2.4876132 -1.3524781 -0.73185927 0 4
2.6032455 -1.4153458 -0.73687226 0 5
2.6888654 -1.4618959 -0.73128414 0 6
2.8147607 -1.5303434 -0.73444068 0 7
2.9317608 -1.5939546 -0.73273015 0 8
3.0893564 -1.679637 -0.73828298 0 9
3.2325807 -1.7575059 -0.73724329 0 10
3.3976262 -1.8472387 -0.73795348 0 11
3.563606 -1.9374794 -0.73540419 0 12
3.7463262 -2.0368216 -0.73266768 0 13
3.9842224 -2.1661623 -0.73631692 0 14
4.2111397 -2.2895339 -0.73307014 0 15
4.4739265 -2.4324071 -0.73094821 0 16
4.8304276 -2.6262314 -0.73764765 0 17
5.1780457 -2.8152263 -0.73561311 0 18
5.572453 -3.0296595 -0.732463 0 19
6.1216927 -3.3282728 -0.73978066 0 20
6.704865 -3.6453352 -0.73933673 0 21
7.3526392 -3.9975202 -0.73313487 0 22
7.7988434 -4.2401147 -0.69541651 0 23
7.7870383 -4.2336965 -0.61239696 0 24
7.801971 -4.2418151 -0.53155148 0 25
7.7931013 -4.2369928 -0.44911078 0 26
7.7879658 -4.2342005 -0.36710849 0 27
7.8082218 -4.2452135 -0.28620687 0 28
7.7915382 -4.2361431 -0.20396215 0 29
7.8006573 -4.2411013 -0.12250669 0 30
7.7933826 -4.2371459 -0.040795181 0 31
7.7832732 -4.2316494 0.040742259 0 32
7.7902279 -4.2354307 0.1223429 0 33
7.7943115 -4.2376509 0.20403473 0 34
7.7899165 -4.2352614 0.2855359 0 35
7.794498 -4.237752 0.36741641 0 36
7.8070917 -4.2445993 0.44991705 0 37
7.7828012 -4.2313929 0.53024542 0 38
7.7704315 -4.2246675 0.61109096 0 39
7.7985344 -4.2399468 0.69538891 0 40
7.794456 -4.2377295 0.7771886 0 41
7.781929 -4.2309189 0.85810316 0 42
7.7937889 -4.2373667 0.94184649 0 43
7.7778687 -4.2287111 1.0223507 0 44
7.7703538 -4.2246256 1.1038864 0 45
7.7799397 -4.2298369 1.1880634 0 46
7.7996149 -4.2405343 1.2742977 0 47
7.7888031 -4.2346559 1.3558655 0 48
7.7675657 -4.2231097 1.4355097 0 49
7.8037047 -4.2427578 1.5261679 0 50
7.7918158 -4.2362938 1.6079595 0 51
7.7861471 -4.233212 1.6911261 0 52
0 0 0 0 53
0 0 0 0 54
0 0 0 0 55
0 0 0 0 56
0 0 0 0 57
0 0 0 0 58
0 0 0 0 59
0 0 0 0 60
0 0 0 0 61
0 0 0 0 62
0 0 0 0 63
2.1852708 -1.1535163 -0.73664808 0 0
2.2630887 -1.1945932 -0.7373209 0 1
2.3344257 -1.2322491 -0.73433703 0 2
2.4306457 -1.2830398 -0.73743755 0 3
2.5023351 -1.3208817 -0.73135674 0 4
2.6194429 -1.3826983 -0.73658872 0 5
2.7087712 -1.4298511 -0.73186082 0 6
2.8282945 -1.4929426 -0.73312652 0 7
2.9580531 -1.5614369 -0.73444712 0 8
3.0988014 -1.6357322 -0.73567778 0 9
3.2429471 -1.711821 -0.73475134 0 10
3.394413 -1.7917737 -0.73241484 0 11
3.5919023 -1.8960203 -0.73637664 0 12
3.7807574 -1.9957093 -0.73454654 0 13
3.9817629 -2.1018119 -0.73103076 0 14
4.2580819 -2.2476695 -0.73637486 0 15
4.5270863 -2.3896661 -0.73477703 0 16
4.8401508 -2.5549204 -0.73427939 0 17
5.2430596 -2.7675996 -0.73995858 0 18
5.6458912 -2.9802382 -0.73724329 0 19
6.1195583 -3.2302678 -0.73466712 0 20
6.6866498 -3.5296128 -0.7324869 0 21
7.3706751 -3.890682 -0.73010772 0 22
7.7918859 -4.1130223 -0.69023412 0 23
7.8076963 -4.1213679 -0.60998994 0 24
7.7931843 -4.1137075 -0.52746665 0 25
7.7894931 -4.1117592 -0.4459554 0 26
7.7942467 -4.1142683 -0.36499223 0 27
7.7884417 -4.1112041 -0.28360736 0 28
7.7980413 -4.1162715 -0.20279206 0 29
7.8136983 -4.124536 -0.12190578 0 30
7.8025932 -4.1186743 -0.040575221 0 31
7.7928548 -4.1135335 0.04052458 0 32
7.7923212 -4.1132517 0.12157226 0 33
7.8037086 -4.1192632 0.20293944 0 34
7.8076077 -4.1213212 0.2843053 0 35
7.8002911 -4.1174588 0.36527526 0 36
7.7977581 -4.1161218 0.44642857 0 37
7.7870131 -4.1104503 0.52704895 0 38
7.7840929 -4.1089087 0.60814583 0 39
7.7958636 -4.1151218 0.69058651 0 40
7.8095536 -4.1223483 0.77358115 0 41
7.8005128 -4.1175761 0.85450464 0 42
7.7990899 -4.1168251 0.93629879 0 43
7.7915215 -4.1128297 1.0174208 0 44
7.7928481 -4.1135302 1.099813 0 45
7.8053989 -4.1201549 1.1841249 0 46
7.79879 -4.1166663 1.2657969 0 47
7.8046598 -4.1197648 1.3497052 0 48
7.7919574 -4.11306 1.4305624 0 49
7.7936015 -4.1139278 1.5141841 0 50
7.7873459 -4.1106257 1.5964854 0 51
7.791008 -4.1125588 1.6810712 0 52
0 0 0 0 53
0 0 0 0 54
0 0 0 0 55
0 0 0 0 56
0 0 0 0 57
0 0 0 0 58
0 0 0 0 59
0 0 0 0 60
0 0 0 0 61
0 0 0 0 62
0 0 0 0 63
2.182739 -1.1180826 -0.73110485 0 0
2.2767901 -1.1662592 -0.73705691 0 1
2.3435347 -1.2004483 -0.73250359 0 2
2.4458683 -1.2528675 -0.7373262 0 3
2.5271931 -1.2945251 -0.73391408 0 4
2.6273193 -1.3458136 -0.7340945 0 5
2.7302008 -1.3985136 -0.73294902 0 6
2.8594151 -1.464702 -0.73646903 0 7
2.973496 -1.5231386 -0.73357576 0 8
3.1208022 -1.5985945 -0.73617858 0 9
3.2567618 -1.6682382 -0.73317814 0 10
3.4225817 -1.7531775 -0.73378581 0 11
3.6110046 -1.849695 -0.73557431 0 12
3.8167748 -1.9550984 -0.73681772 0 13
4.0189934 -2.0586824 -0.73316306 0 14
4.2627764 -2.1835575 -0.73248804 0 15
4.5770679 -2.3445497 -0.73815435 0 16
4.8760467 -2.4976978 -0.73501003 0 17
5.2470293 -2.6877294 -0.73579884 0 18
5.6507015 -2.894506 -0.7331683 0 19
6.1097355 -3.1296408 -0.72881275 0 20
6.7885714 -3.4773664 -0.73891193 0 21
7.4850707 -3.8341403 -0.73671347 0 22
7.8087931 -3.9999633 -0.68732285 0 23
7.7993093 -3.995105 -0.60545087 0 24
7.7964954 -3.9936638 -0.52432734 0 25
7.8007822 -3.9958596 -0.44375512 0 26
7.8007021 -3.9958189 -0.36296618 0 27
7.7919025 -3.9913113 -0.28192493 0 28
7.7945886 -3.992687 -0.20141026 0 29
7.8069348 -3.9990115 -0.12102393 0 30
7.7953768 -3.9930909 -0.040279314 0 31
7.7953515 -3.9930778 0.04027918 0 32
7.7997971 -3.9953551 0.12091327 0 33
7.8041983 -3.9976094 0.20165858 0 34
7.7906842 -3.9906871 0.28188086 0 35
7.7852955 -3.987927 0.36224931 0 36
7.7998962 -3.9954059 0.44370472 0 37
7.8065262 -3.9988022 0.52500194 0 38
7.8047357 -3.997885 0.60587209 0 39
7.7995534 -3.9952302 0.68650961 0 40
7.7972932 -3.9940724 0.76744378 0 41
7.8073506 -3.9992242 0.84980243 0 42
7.8031273 -3.997061 0.9308126 0 43
7.7991939 -3.9950459 1.0119313 0 44
7.8034601 -3.9972315 1.0942911 0 45
7.7909455 -3.9908209 1.1743988 0 46
7.7829661 -3.9867337 1.255177 0 47
7.7980647 -3.9944677 1.3399692 0 48
7.8067183 -3.9989004 1.424137 0 49
7.8007817 -3.9958594 1.5059191 0 50
7.8023763 -3.9966762 1.5893713 0 51
7.8018169 -3.9963896 1.6726737 0 52
7.7795453 -3.9849813 1.7513692 0 53
0 0 0 0 54
0 0 0 0 55
0 0 0 0 56
0 0 0 0 57
0 0 0 0 58
0 0 0 0 59
0 0 0 0 60
0 0 0 0 61
0 0 0 0 62
0 0 0 0 63
2.1987848 -1.092384 -0.73192477 0 0
2.2932978 -1.1393392 -0.73780966 0 1
2.3695469 -1.1772207 -0.73605388 0 2
2.456486 -1.2204131 -0.73594749 0 3
2.5537808 -1.2687504 -0.73704892 0 4
2.6542053 -1.3186425 -0.73702043 0 5
2.7594028 -1.370906 -0.73620743 0 6
2.8736591 -1.42767 -0.7355606 0 7
2.9971776 -1.4890355 -0.7348454 0 8
3.1325786 -1.5563045 -0.73438668 0 9
3.2851667 -1.6321121 -0.73499918 0 10
3.4393411 -1.7087079 -0.73281884 0 11
3.6212275 -1.7990713 -0.73309493 0 12
3.847827 -1.9116488 -0.73821855 0 13
4.0638342 -2.0189638 -0.73675847 0 14
4.2984381 -2.1355181 -0.73404813 0 15
4.5795827 -2.2751942 -0.73399252 0 16
4.8861856 -2.4275186 -0.73198354 0 17
5.2952051 -2.6307244 -0.73796254 0 18
5.7165742 -2.840066 -0.73712832 0 19
6.1982846 -3.0793858 -0.73480308 0 20
6.7952566 -3.3759689 -0.73506552 0 21
7.498137 -3.7251687 -0.73343557 0 22
7.8042912 -3.87727 -0.68267852 0 23
7.8004808 -3.8753769 -0.60179704 0 24
7.7979922 -3.8741405 -0.52118486 0 25
7.7929258 -3.8716235 -0.44056672 0 26
7.8132463 -3.8817189 -0.3613016 0 27
7.7986827 -3.8744836 -0.28042525 0 28
7.7974582 -3.8738751 -0.20023841 0 29
7.8005533 -3.8754132 -0.12017718 0 30
7.8123827 -3.88129 -0.040117547 0 31
7.8140206 -3.8821037 0.040125955 0 32
7.8024211 -3.8763409 0.12020595 0 33
7.806097 -3.8781672 0.20046026 0 34
7.7971101 -3.8737023 0.28036869 0 35
7.7905841 -3.87046 0.36025366 0 36
7.798058 -3.8741732 0.44085684 0 37
7.7947936 -3.8725514 0.52097106 0 38
7.7956772 -3.8729904 0.60142642 0 39
7.79108 -3.8707066 0.68152291 0 40
7.8006706 -3.8754711 0.76302809 0 41
7.8057246 -3.8779821 0.8443712 0 42
7.8088412 -3.8795307 0.92573369 0 43
7.8013463 -3.875807 1.0059509 0 44
7.8044052 -3.8773267 1.0876555 0 45
7.7998557 -3.8750665 1.168471 0 46
7.7995472 -3.8749132 1.2500724 0 47
7.8007474 -3.8755095 1.3321407 0 48
7.7976294 -3.8739603 1.4136821 0 49
7.8060727 -3.878155 1.4976213 0 50
7.8078871 -3.8790567 1.5806581 0 51
7.8056593 -3.8779497 1.6631483 0 52
7.8054724 -3.8778567 1.7463392 0 53
0 0 0 0 54
0 0 0 0 55
0 0 0 0 56
0 0 0 0 57
0 0 0 0 58
0 0 0 0 59
0 0 0 0 60
0 0 0 0 61
0 0 0 0 62
0 0 0 0 63
2.2146914 -1.0665381 -0.73279876 0 0
2.3043332 -1.1097074 -0.73691428 0 1
2.3811142 -1.146683 -0.73521149 0 2
2.4710004 -1.18997 -0.73585653 0 3
2.5539014 -1.2298928 -0.73266363 0 4
2.6646659 -1.2832342 -0.735488 0 5
2.7620623 -1.3301378 -0.73249787 0 6
2.8907104 -1.3920914 -0.735488 0 7
3.0160007 -1.452428 -0.735026 0 8
3.143656 -1.5139035 -0.73256409 0 9
3.322206 -1.5998886 -0.73882872 0 10
3.4629591 -1.6676716 -0.73342639 0 11
3.6578777 -1.7615393 -0.73607385 0 12
3.8507578 -1.8544254 -0.73435056 0 13
4.0590897 -1.9547527 -0.73148531 0 14
4.3419757 -2.0909834 -0.73703659 0 15
4.6056948 -2.2179835 -0.73375088 0 16
4.930573 -2.3744366 -0.73420364 0 17
5.2894697 -2.5472717 -0.73274261 0 18
5.7039065 -2.7468541 -0.73108423 0 19
6.2050991 -2.9882154 -0.73119962 0 20
6.7875686 -3.2687175 -0.7298308 0 21
7.6177778 -3.6685247 -0.74066985 0 22
7.7915726 -3.7522199 -0.67747873 0 23
7.8070784 -3.7596872 -0.59869415 0 24
7.8068428 -3.7595737 -0.51864737 0 25
7.8090649 -3.7606437 -0.43883166 0 26
7.8117447 -3.7619343 -0.35906592 0 27
7.7980118 -3.7553208 -0.2787196 0 28
7.8049788 -3.7586761 -0.19922958 0 29
7.8140831 -3.7630606 -0.11966369 0 30
7.7947707 -3.7537601 -0.039787073 0 31
7.808599 -3.7604194 0.039857656 0 32
7.8068295 -3.7595673 0.11955261 0 33
7.8172956 -3.7646074 0.19954398 0 34
7.8088293 -3.7605305 0.27910626 0 35
7.8159161 -3.7639432 0.35925767 0 36
7.8071647 -3.7597287 0.43872488 0 37
7.8151999 -3.7635982 0.51920259 0 38
7.8079782 -3.7601206 0.59876311 0 39
7.8015776 -3.7570379 0.67834866 0 40
7.7984142 -3.7555149 0.75823301 0 41
7.8124223 -3.7622607 0.84002787 0 42
7.8069224 -3.7596121 0.91995609 0 43
7.8027587 -3.757607 1.0000994 0 44
7.8146176 -3.7633178 1.0825477 0 45
7.7986131 -3.7556105 1.1612788 0 46
7.8114748 -3.7618043 1.2444761 0 47
7.8017735 -3.7571325 1.3243263 0 48
7.8007016 -3.7566161 1.4057581 0 49
7.815557 -3.7637701 1.4904491 0 50
7.8034506 -3.7579401 1.5702864 0 51
7.8049035 -3.7586398 1.6530145 0 52
7.8078117 -3.7600405 1.7363871 0 53
0 0 0 0 54
0 0 0 0 55
0 0 0 0 56
0 0 0 0 57
0 0 0 0 58
0 0 0 0 59
0 0 0 0 60
0 0 0 0 61
0 0 0 0 62
0 0 0 0 63
2.2372379 -1.0437055 -0.73595691 0 0
2.29547 -1.0708715 -0.72981364 0 1
2.4019172 -1.1205307 -0.73732471 0 2
2.4715281 -1.1530052 -0.73173612 0 3
2.5777061 -1.2025388 -0.73519498 0 4
2.6762671 -1.2485191 -0.73439705 0 5
2.7801228 -1.2969693 -0.7330026 0 6
2.9082906 -1.3567616 -0.73566055 0 7
3.0300331 -1.4135563 -0.73415428 0 8
3.1769037 -1.4820737 -0.7360093 0 9
3.3215766 -1.5495658 -0.73439574 0 10
3.5093114 -1.6371468 -0.73892391 0 11
3.6746883 -1.7142977 -0.73515916 0 12
3.8592067 -1.8003783 -0.73168463 0 13
4.1041188 -1.9146335 -0.73530161 0 14
4.3478956 -2.0283592 -0.73375225 0 15
4.6245403 -2.157418 -0.73247153 0 16
4.9257779 -2.29795 -0.72922683 0 17
5.3594871 -2.5002818 -0.73812723 0 18
5.7737279 -2.6935313 -0.73573256 0 19
6.2960424 -2.9371991 -0.7376045 0 20
6.8961754 -3.2171702 -0.73719937 0 21
7.6281114 -3.5586295 -0.73736423 0 22
7.8098483 -3.6434126 -0.67512131 0 23
7.7994671 -3.6385696 -0.59463447 0 24
7.8054099 -3.6413419 -0.51553857 0 25
7.8190737 -3.647716 -0.4368405 0 26
7.8118567 -3.6443493 -0.35698429 0 27
7.8021264 -3.6398101 -0.27724603 0 28
7.8152432 -3.6459291 -0.19833222 0 29
7.8037524 -3.6405685 -0.11881096 0 30
7.8076882 -3.6424048 -0.039621394 0 31
7.8059378 -3.6415882 0.039612513 0 32
7.8065934 -3.6418941 0.11885422 0 33
7.8118653 -3.6443536 0.19824651 0 34
7.806262 -3.6417394 0.27739295 0 35
7.8105593 -3.6437442 0.35692501 0 36
7.8110189 -3.6439586 0.43639049 0 37
7.8057914 -3.6415198 0.51556373 0 38
7.8244305 -3.6502151 0.59653765 0 39
7.8087854 -3.6429164 0.67502946 0 40
7.8079462 -3.642525 0.75474781 0 41
7.8093319 -3.6431715 0.83481556 0 42
7.8094511 -3.6432271 0.91490591 0 43
7.8041673 -3.6407621 0.99446672 0 44
7.8038807 -3.6406283 1.0747776 0 45
7.8075795 -3.642354 1.1558573 0 46
7.8080487 -3.6425729 1.236701 0 47
7.8054929 -3.6413805 1.3172574 0 48
7.8055611 -3.6414125 1.3984591 0 49
7.8038111 -3.6405962 1.4795603 0 50
7.803318 -3.6403661 1.561134 0 51
7.8000965 -3.6388631 1.6423957 0 52
7.813931 -3.6453171 1.7276487 0 53
0 0 0 0 54
0 0 0 0 55
0 0 0 0 56
0 0 0 0 57
0 0 0 0 58
0 0 0 0 59
0 0 0 0 60
0 0 0 0 61
0 0 0 0 62
0 0 0 0 63
2.246541 -1.0146006 -0.73485756 0 0
2.3162017 -1.0460613 -0.73226005 0 1
2.4033024 -1.0853984 -0.7335974 0 2
2.4916422 -1.1252952 -0.7335391 0 3
2.5870883 -1.1684012 -0.73371774 0 4
2.7037146 -1.221073 -0.73775297 0 5
2.8082438 -1.2682812 -0.73624939 0 6
2.9209588 -1.3191864 -0.73470622 0 7
3.0740225 -1.3883142 -0.74062032 0 8
3.1929131 -1.4420086 -0.73555475 0 9
3.3506961 -1.5132679 -0.73666418 0 10
3.5122652 -1.5862371 -0.73538327 0 11
3.6887698 -1.6659514 -0.73382252 0 12
3.908711 -1.765283 -0.7368992 0 13
4.1309009 -1.8656301 -0.73593426 0 14
4.3991127 -1.986762 -0.738217 0 15
4.6689177 -2.1086135 -0.73533803 0 16
5.0053744 -2.2605667 -0.73683965 0 17
5.3682833 -2.4244664 -0.73517722 0 18
5.7977834 -2.6184406 -0.73463953 0 19
6.287746 -2.8397214 -0.73248631 0 20
6.9022622 -3.117254 -0.73369694 0 21
7.6162004 -3.4396887 -0.73206902 0 22
7.8163009 -3.5300596 -0.67187595 0 23
7.8244224 -3.5337274 -0.59317935 0 24
7.8312793 -3.5368245 -0.51433581 0 25
7.802125 -3.5236573 -0.43344012 0 26
7.8181295 -3.5308855 -0.35526001 0 27
7.8137283 -3.5288978 -0.27609545 0 28
7.8122239 -3.5282183 -0.1971397 0 29
7.8136921 -3.5288815 -0.1182927 0 30
7.8101873 -3.5272985 -0.039410993 0 31
7.8247042 -3.5338547 0.039484244 0 32
7.8247008 -3.5338533 0.11845937 0 33
7.8173566 -3.5305364 0.19726922 0 34
7.8216095 -3.5324571 0.27637392 0 35
7.8126831 -3.5284257 0.35501251 0 36
7.8210077 -3.5321856 0.43448916 0 37
7.825438 -3.5341864 0.5139522 0 38
7.8211913 -3.5322683 0.59293437 0 39
7.8150325 -3.5294869 0.671767 0 40
7.8215332 -3.5324225 0.7518056 0 41
7.8056145 -3.5252333 0.82972151 0 42
7.81815 -3.5308948 0.91076964 0 43
7.8214273 -3.5323749 0.99105626 0 44
7.808188 -3.5263956 1.0693181 0 45
7.8237653 -3.5334308 1.1517341 0 46
7.8229704 -3.5330718 1.2320901 0 47
7.8157353 -3.5298042 1.3115619 0 48
7.8127561 -3.5284588 1.3918695 0 49
7.8152442 -3.5295823 1.4733877 0 50
7.8115802 -3.5279276 1.5539906 0 51
7.8083925 -3.5264881 1.6348883 0 52
7.8110824 -3.5277028 1.7172983 0 53
0 0 0 0 54
0 0 0 0 55
0 0 0 0 56
0 0 0 0 57
0 0 0 0 58
0 0 0 0 59
0 0 0 0 60
0 0 0 0 61
0 0 0 0 62
0 0 0 0 63
2.2657292 -0.98990864 -0.73709673 0 0
2.334476 -1.0199445 -0.73401695 0 1
2.4258666 -1.0598736 -0.73645121 0 2
2.5117185 -1.0973827 -0.73542136 0 3
2.608031 -1.1394621 -0.73562795 0 4
2.7255266 -1.1907965 -0.73965335 0 5
2.8106682 -1.2279953 -0.73287082 0 6
2.9358366 -1.2826821 -0.73442566 0 7
3.0653539 -1.3392688 -0.73450857 0 8
3.2222161 -1.4078027 -0.73826152 0 9
3.3617833 -1.4687803 -0.73507541 0 10
3.5391898 -1.5462902 -0.7369839 0 11
3.7081463 -1.6201081 -0.73365861 0 12
3.9255145 -1.7150773 -0.73603553 0 13
4.1362066 -1.8071297 -0.73286527 0 14
4.3798037 -1.9135586 -0.73097289 0 15
4.6858206 -2.0472589 -0.73397982 0 16
4.9838295 -2.1774607 -0.72967136 0 17
5.3545713 -2.3394396 -0.72930473 0 18
5.8010163 -2.5344937 -0.73104495 0 19
6.3821535 -2.7883954 -0.73943406 0 20
6.8933835 -3.0117545 -0.72876143 0 21
7.6262655 -3.3319545 -0.72904325 0 22
7.8228436 -3.4178405 -0.6687752 0 23
7.8203778 -3.4167631 -0.589643 0 24
7.8213782 -3.4172001 -0.51088721 0 25
7.8151593 -3.4144831 -0.43179908 0 26
7.8123908 -3.4132736 -0.35306534 0 27
7.8141251 -3.4140313 -0.27460533 0 28
7.8242645 -3.4184611 -0.19636795 0 29
7.8153858 -3.414582 -0.11767379 0 30
7.8218288 -3.417397 -0.039254721 0 31
7.8196235 -3.4164336 0.039243653 0 32
7.8240752 -3.4183786 0.11780463 0 33
7.8227181 -3.4177856 0.19632915 0 34
7.8268218 -3.4195783 0.27505153 0 35
7.8114948 -3.4128821 0.35302487 0 36
7.8173146 -3.4154246 0.43191817 0 37
7.8097959 -3.4121397 0.51013064 0 38
7.8296771 -3.420826 0.59034413 0 39
7.8155928 -3.4146724 0.66815531 0 40
7.8100977 -3.4122717 0.7466169 0 41
7.8255091 -3.4190049 0.82730478 0 42
7.8190064 -3.4161639 0.90590733 0 43
7.8273225 -3.4197972 0.98640031 0 44
7.8302016 -3.4210551 1.0664911 0 45
7.8205409 -3.4168344 1.1449879 0 46
7.820035 -3.4166133 1.2249185 0 47
7.8174963 -3.415504 1.304711 0 48
7.8256874 -3.4190829 1.3865783 0 49
7.8275752 -3.4199076 1.4676734 0 50
7.8092322 -3.4118936 1.5450606 0 51
7.8267717 -3.4195566 1.6298094 0 52
7.8136702 -3.4138324 1.708509 0 53
0 0 0 0 54
0 0 0 0 55
0 0 0 0 56
0 0 0 0 57
0 0 0 0 58
0 0 0 0 59
0 0 0 0 60
0 0 0 0 61
0 0 0 0 62
0 0 0 0 63
2.2710474 -0.95915341 -0.73493439 0 0
2.3539348 -0.99416 -0.7362358 0 1
2.4352713 -1.0285116 -0.73541123 0 2
2.5216572 -1.0649959 -0.73444152 0 3
2.6202655 -1.1066421 -0.73518503 0 4
2.723978 -1.1504439 -0.73533839 0 5
2.8459785 -1.2019696 -0.73816818 0 6
2.9587793 -1.2496098 -0.73626542 0 7
3.0786302 -1.3002276 -0.73380333 0 8
3.2187901 -1.3594227 -0.73359114 0 9
3.3661058 -1.42164 -0.73214281 0 10
3.5632799 -1.5049144 -0.73809105 0 11
3.7542956 -1.585588 -0.73887593 0 12
3.9458754 -1.6664997 -0.7359553 0 13
4.1706991 -1.7614517 -0.73508352 0 14
4.4266624 -1.8695552 -0.73490113 0 15
4.707294 -1.988077 -0.73345876 0 16
5.0430164 -2.1298659 -0.73444682 0 17
5.4351573 -2.2954824 -0.73638052 0 18
5.8837161 -2.4849267 -0.73756033 0 19
6.3689561 -2.6898627 -0.73401737 0 20
6.9947906 -2.9541776 -0.73558617 0 21
7.7497849 -3.2730415 -0.73694807 0 22
7.825582 -3.3050537 -0.66548467 0 23
7.8050752 -3.2963929 -0.58538878 0 24
7.8246546 -3.304662 -0.50840849 0 25
7.8228788 -3.3039122 -0.42994845 0 26
7.8095384 -3.2982779 -0.35107699 0 27
7.8132925 -3.2998633 -0.27312949 0 28
7.8239121 -3.3043485 -0.19532458 0 29
7.8055148 -3.2965786 -0.11690599 0 30
7.831419 -3.307519 -0.039095785 0 31
7.8288188 -3.3064208 0.039082803 0 32
7.8185258 -3.3020735 0.11710086 0 33
7.8222728 -3.3036561 0.19528367 0 34
7.8329582 -3.3081689 0.27381694 0 35
7.8099742 -3.2984619 0.35109657 0 36
7.8155613 -3.3008215 0.42954627 0 37
7.8253183 -3.3049424 0.50845158 0 38
7.8286214 -3.3063374 0.58715475 0 39
7.8209243 -3.3030865 0.66508859 0 40
7.8225489 -3.3037727 0.7438674 0 41
7.8248868 -3.30476 0.82288074 0 42
7.8285632 -3.3063128 0.90223604 0 43
7.8300877 -3.3069568 0.98155016 0 44
7.8206606 -3.3029752 1.0595797 0 45
7.8248425 -3.3047414 1.139582 0 46
7.8223438 -3.3036861 1.2188247 0 47
7.8230591 -3.3039882 1.2987607 0 48
7.838325 -3.3104358 1.3815006 0 49
7.8186069 -3.3021078 1.4582683 0 50
7.8250465 -3.3048275 1.5400327 0 51
7.8067102 -3.2970834 1.6170672 0 52
7.8325186 -3.3079834 1.7036073 0 53
0 0 0 0 54
0 0 0 0 55
0 0 0 0 56
0 0 0 0 57
0 0 0 0 58
0 0 0 0 59
0 0 0 0 60
0 0 0 0 61
0 0 0 0 62
0 0 0 0 63
2.2843943 -0.93186092 -0.73548985 0 0
2.3526156 -0.95969009 -0.732077 0 1
2.4506829 -0.99969411 -0.73629743 0 2
2.5388355 -1.0356537 -0.73568004 0 3
2.6390238 -1.0765231 -0.73667836 0 4
2.7376513 -1.1167556 -0.73526692 0 5
2.8326249 -1.1554978 -0.73096412 0 6
2.9744892 -1.2133677 -0.73640633 0 7
3.1137595 -1.2701795 -0.7383979 0 8
3.2313731 -1.318157 -0.73270947 0 9
3.3943772 -1.3846505 -0.73453319 0 10
3.5625212 -1.4532405 -0.73417693 0 11
3.7555242 -1.5319711 -0.73535466 0 12
3.9328701 -1.604315 -0.7297951 0 13
4.173336 -1.702407 -0.73180342 0 14
4.4325018 -1.808127 -0.73212403 0 15
4.732461 -1.9304879 -0.73362595 0 16
5.0496545 -2.0598788 -0.73166943 0 17
5.4127712 -2.2080033 -0.7296139 0 18
5.8699207 -2.3944857 -0.73208475 0 19
6.3941894 -2.6083481 -0.73317367 0 20
7.0114541 -2.8601456 -0.73358452 0 21
7.7659717 -3.1679318 -0.73472744 0 22
7.83916 -3.1977873 -0.66324532 0 23
7.8200321 -3.1899846 -0.58352453 0 24
7.8379259 -3.1972837 -0.50667799 0 25
7.8324466 -3.1950486 -0.42828262 0 26
7.8373342 -3.1970422 -0.35053277 0 27
7.8177481 -3.1890528 -0.27189389 0 28
7.8213782 -3.1905334 -0.1942672 0 29
7.8439751 -3.1997514 -0.1168839 0 30
7.8270884 -3.1928627 -0.038875226 0 31
7.8369169 -3.1968722 0.038924046 0 32
7.8326354 -3.1951256 0.11671492 0 33
7.8282256 -3.1933267 0.19443728 0 34
7.8346853 -3.1959617 0.27248293 0 35
7.8266726 -3.1926932 0.3500559 0 36
7.8258796 -3.1923697 0.42792353 0 37
7.8356876 -3.1963706 0.50653327 0 38
7.8324189 -3.1950374 0.58444881 0 39
7.8194342 -3.1897404 0.66157639 0 40
7.8327665 -3.195179 0.74104685 0 41
7.8302794 -3.1941645 0.81925541 0 42
7.8317699 -3.1947725 0.89801019 0 43
7.8316803 -3.194736 0.97675145 0 44
7.8249836 -3.1920042 1.0547677 0 45
7.8265862 -3.1926582 1.1340328 0 46
7.8185205 -3.1893678 1.2120267 0 47
7.8447523 -3.2000685 1.2957314 0 48
7.8215003 -3.1905835 1.3715168 0 49
7.832778 -3.195184 1.4534736 0 50
7.8202577 -3.1900764 1.5312544 0 51
7.8317833 -3.1947782 1.6140015 0 52
7.8274937 -3.1930282 1.6938465 0 53
0 0 0 0 54
0 0 0 0 55
0 0 0 0 56
0 0 0 0 57
0 0 0 0 58
0 0 0 0 59
0 0 0 0 60
0 0 0 0 61
0 0 0 0 62
0 0 0 0 63
2.2951291 -0.90348595 -0.73531353 0 0
2.3674803 -0.93196732 -0.73308104 0 1
2.457823 -0.96753109 -0.73481268 0 2
2.5533655 -1.0051417 -0.73625326 0 3
2.6602356 -1.0472115 -0.73894918 0 4
2.7430584 -1.079815 -0.73309761 0 5
2.8431537 -1.1192179 -0.73007447 0 6
2.9781299 -1.1723517 -0.73368317 0 7
3.0979989 -1.2195386 -0.73104894 0 8
3.272141 -1.2880903 -0.73830628 0 9
3.4174917 -1.3453082 -0.73589969 0 10
3.5851157 -1.411294 -0.7352013 0 11
3.7858887 -1.490329 -0.73765618 0 12
3.9724824 -1.5637823 -0.733522 0 13
4.211236 -1.6577685 -0.73481911 0 14
4.4705563 -1.7598509 -0.73477972 0 15
4.7817373 -1.8823485 -0.73762089 0 16
5.1141496 -2.0132036 -0.73737174 0 17
5.5008287 -2.1654215 -0.73783863 0 18
5.9512563 -2.3427339 -0.73858011 0 19
6.4847722 -2.5527544 -0.73990494 0 20
7.0088282 -2.7590508 -0.72970504 0 21
7.7464123 -3.0494037 -0.72927433 0 22
7.8381195 -3.0855045 -0.65989733 0 23
7.8361073 -3.0847125 -0.58184963 0 24
7.8166995 -3.0770726 -0.5028218 0 25
7.8294106 -3.0820763 -0.4260121 0 26
