# .PCD v0.7 - Point Cloud Data file format
VERSION 0.7
FIELDS x y z intensity ring
SIZE 4 4 4 4 2
TYPE F F F F U
COUNT 1 1 1 1 1
WIDTH 1396
HEIGHT 1
VIEWPOINT 0 0 0 1 0 0 0
POINTS 1396
DATA ascii
7.5555205 -2.6568301 0.47938761 0 38
7.5468416 -2.6537783 0.55272275 0 39
7.5658607 -2.6604662 0.62828189 0 40
7.556108 -2.6570368 0.70164943 0 41
7.5615301 -2.6589434 0.77650332 0 42
7.5614023 -2.6588984 0.85097194 0 43
7.566442 -2.6606705 0.92621619 0 44
7.5665517 -2.6607091 1.0010666 0 45
7.5625396 -2.6592982 1.075505 0 46
7.5652161 -2.6602395 1.1510668 0 47
7.5627923 -2.6593874 1.2260537 0 48
7.5588703 -2.6580081 1.3009466 0 49
7.5725203 -2.6628079 1.3791875 0 50
7.5772238 -2.6644619 1.4562232 0 51
7.5701685 -2.6619811 1.5312297 0 52
7.5635514 -2.6596541 1.6064552 0 53
7.5676684 -2.6611018 1.6842182 0 54
7.5573587 -2.6574767 1.7590046 0 55
0 0 0 0 56
0 0 0 0 57
0 0 0 0 58
0 0 0 0 59
0 0 0 0 60
0 0 0 0 61
0 0 0 0 62
0 0 0 0 63
2.3359571 -0.78928119 -0.735057 0 0
2.4009066 -0.81122661 -0.73018283 0 1
2.4918432 -0.84195262 -0.73170745 0 2
2.6049855 -0.88018149 -0.73775178 0 3
2.6940639 -0.91027963 -0.73500967 0 4
2.7957432 -0.94463533 -0.73386258 0 5
2.9039671 -0.98120248 -0.73240155 0 6
3.0417461 -1.0277557 -0.73600137 0 7
3.1511517 -1.0647221 -0.7303403 0 8
3.3184855 -1.1212614 -0.73541957 0 9
3.4726954 -1.1733663 -0.73446065 0 10
3.6500015 -1.2332752 -0.73516846 0 11
3.8374269 -1.2966031 -0.73437345 0 12
4.045753 -1.3669931 -0.73373842 0 13
4.2921991 -1.450263 -0.73559958 0 14
4.5630445 -1.5417773 -0.73661584 0 15
4.8192077 -1.6283305 -0.7301529 0 16
5.1838894 -1.7515504 -0.73410726 0 17
5.566514 -1.8808329 -0.73334324 0 18
6.0332313 -2.0385292 -0.73541021 0 19
6.5805697 -2.2234657 -0.73745483 0 20
7.2400336 -2.4462876 -0.74034345 0 21
7.5593886 -2.5541923 -0.6989848 0 22
7.548945 -2.5506635 -0.62422544 0 23
7.5562201 -2.5531218 -0.55106866 0 24
7.5649829 -2.5560825 -0.47795761 0 25
7.5443206 -2.5491011 -0.40318441 0 26
7.5571771 -2.5534451 -0.33034703 0 27
7.5576997 -2.5536218 -0.25689638 0 28
7.5543456 -2.5524883 -0.18338491 0 29
7.5496264 -2.5508938 -0.10994981 0 30
7.5584755 -2.5538838 -0.036690827 0 31
7.5709472 -2.5580978 0.036751367 0 32
7.5655465 -2.556273 0.11018167 0 33
7.5560813 -2.5530748 0.18342705 0 34
7.5588865 -2.5540228 0.2569367 0 35
7.5610147 -2.5547416 0.33051479 0 36
7.5566711 -2.5532742 0.40384445 0 37
7.5643792 -2.5558786 0.47791946 0 38
7.5526524 -2.5519164 0.55080849 0 39
7.5579195 -2.5536959 0.62496758 0 40
7.5525188 -2.5518711 0.69834954 0 41
7.5678978 -2.5570674 0.77386981 0 42
7.5546746 -2.5525997 0.84661835 0 43
7.5545993 -2.5525742 0.92085475 0 44
7.5564942 -2.5532143 0.99550706 0 45
7.5501928 -2.5510852 1.0692071 0 46
7.5493793 -2.5508103 1.1437982 0 47
7.5647893 -2.5560172 1.2211897 0 48
7.5524774 -2.5518572 1.294348 0 49
7.5709043 -2.5580833 1.3730603 0 50
7.5463448 -2.5497851 1.444154 0 51
7.5727839 -2.5587184 1.5252793 0 52
7.5539203 -2.5523448 1.5976229 0 53
7.5710187 -2.5581219 1.6778363 0 54
7.5584803 -2.5538855 1.7518238 0 55
0 0 0 0 56
0 0 0 0 57
0 0 0 0 58
0 0 0 0 59
0 0 0 0 60
0 0 0 0 61
0 0 0 0 62
0 0 0 0 63
2.348572 -0.76150066 -0.7360245 0 0
2.4300885 -0.78793156 -0.73605561 0 1
2.5149875 -0.81545919 -0.73550355 0 2
2.6111453 -0.84663731 -0.73649228 0 3
2.6962824 -0.87424219 -0.73262662 0 4
2.8080201 -0.91047198 -0.73409092 0 5
2.9091058 -0.94324797 -0.730717 0 6
3.0582328 -0.99160087 -0.73698449 0 7
3.1931489 -1.035346 -0.73706752 0 8
3.3510671 -1.0865495 -0.73962325 0 9
3.4739828 -1.1264036 -0.73174828 0 10
3.6460142 -1.182183 -0.73138213 0 11
3.8504899 -1.2484822 -0.73387992 0 12
4.0601721 -1.3164696 -0.73336214 0 13
4.3059368 -1.3961563 -0.7349562 0 14
4.5790372 -1.4847063 -0.73619467 0 15
4.882596 -1.5831321 -0.73675168 0 16
5.2311697 -1.6961535 -0.73779339 0 17
5.5683722 -1.8054881 -0.73060799 0 18
6.0389171 -1.9580575 -0.73311299 0 19
6.5838237 -2.134738 -0.73482221 0 20
7.2575192 -2.3531768 -0.73911673 0 21
7.5620513 -2.4519184 -0.69639051 0 22
7.5523853 -2.4487844 -0.62197304 0 23
7.5462174 -2.4467843 -0.54810351 0 24
7.5654497 -2.4530201 -0.47604537 0 25
7.5677357 -2.4537616 -0.40279284 0 26
7.5603423 -2.4513643 -0.32914287 0 27
7.5417399 -2.4453325 -0.25531247 0 28
7.5564327 -2.4500966 -0.18269041 0 29
7.5554876 -2.44979 -0.10958818 0 30
7.5530815 -2.4490099 -0.036515698 0 31
7.5557423 -2.4498727 0.036528561 0 32
7.5456452 -2.4465988 0.10944542 0 33
7.5579162 -2.4505775 0.18272629 0 34
7.549922 -2.4479856 0.25558949 0 35
7.5574288 -2.4504194 0.32901603 0 36
7.5540161 -2.4493129 0.40206259 0 37
7.5727472 -2.4553864 0.47650456 0 38
7.5551457 -2.4496794 0.54875207 0 39
7.562613 -2.4521005 0.62281531 0 40
7.5625429 -2.4520776 0.69643575 0 41
7.5600281 -2.4512625 0.7699247 0 42
7.5669098 -2.4534936 0.84454471 0 43
7.5472689 -2.4471254 0.91622406 0 44
7.5637269 -2.4524617 0.99241197 0 45
7.5562844 -2.4500484 1.0657228 0 46
7.5587726 -2.4508553 1.1405692 0 47
7.5425825 -2.4456058 1.2126586 0 48
7.5661945 -2.4532619 1.2914313 0 49
7.5773907 -2.4568918 1.3686541 0 50
7.5644078 -2.4526823 1.44173 0 51
7.5558872 -2.4499197 1.5156938 0 52
7.551877 -2.4486194 1.5907025 0 53
7.5573092 -2.4503808 1.6679945 0 54
7.5634613 -2.4523754 1.7458571 0 55
0 0 0 0 56
0 0 0 0 57
0 0 0 0 58
0 0 0 0 59
0 0 0 0 60
0 0 0 0 61
0 0 0 0 62
0 0 0 0 63
2.343998 -0.72829092 -0.73172909 0 0
2.4446073 -0.75955063 -0.73756844 0 1
2.532187 -0.78676212 -0.73764849 0 2
2.61745 -0.81325376 -0.73539436 0 3
2.7191055 -0.8448385 -0.73594964 0 4
2.818187 -0.87562364 -0.73387855 0 5
2.9376917 -0.91275424 -0.73502254 0 6
3.0522854 -0.94835907 -0.73268569 0 7
3.1780629 -0.98743874 -0.73072731 0 8
3.3613727 -1.0443939 -0.73900753 0 9
3.4977851 -1.0867779 -0.73389161 0 10
3.6740742 -1.1415517 -0.73413962 0 11
3.871556 -1.2029102 -0.73502028 0 12
4.1045589 -1.2753054 -0.73849118 0 13
4.3006482 -1.3362311 -0.73119366 0 14
4.5677652 -1.4192257 -0.73152137 0 15
4.8840003 -1.5174813 -0.73409253 0 16
5.2270904 -1.624081 -0.73434603 0 17
5.6455302 -1.7540921 -0.73784584 0 18
6.102911 -1.8962024 -0.73799533 0 19
6.5748978 -2.042851 -0.7309671 0 20
7.2358589 -2.2482145 -0.73403984 0 21
7.5695529 -2.3518949 -0.69436556 0 22
7.5537896 -2.346997 -0.61966509 0 23
7.5601621 -2.3489771 -0.5469771 0 24
7.560328 -2.3490286 -0.47386974 0 25
7.5590262 -2.3486242 -0.40076184 0 26
7.5623226 -2.3496485 -0.32794645 0 27
7.5631289 -2.3498988 -0.2550391 0 28
7.5723562 -2.3527658 -0.18236215 0 29
7.5579214 -2.3482809 -0.10919639 0 30
7.5567327 -2.3479114 -0.03639102 0 31
7.5596108 -2.3488057 0.036404882 0 32
7.5651684 -2.3505325 0.10930111 0 33
7.5592213 -2.3486848 0.18204583 0 34
7.5575795 -2.3481746 0.25485194 0 35
7.5705652 -2.3522093 0.3283039 0 36
7.5413523 -2.3431327 0.3998248 0 37
7.5591102 -2.3486502 0.47379339 0 38
7.5570893 -2.3480225 0.54675478 0 39
7.5599604 -2.3489144 0.62017125 0 40
7.5651956 -2.3505409 0.69396591 0 41
7.5568085 -2.347935 0.76659852 0 42
7.5598397 -2.348877 0.84046841 0 43
7.5654755 -2.3506279 0.91485614 0 44
7.5704942 -2.3521872 0.98943013 0 45
7.5625291 -2.3497124 1.0624481 0 46
7.5496345 -2.345706 1.1347522 0 47
7.571095 -2.3523738 1.2125005 0 48
7.5519209 -2.3464165 1.2839732 0 49
7.5571184 -2.3480313 1.3596747 0 50
7.5598874 -2.3488917 1.4352552 0 51
7.5564966 -2.3478382 1.5099106 0 52
7.5717144 -2.3525665 1.5886675 0 53
7.5745735 -2.3534548 1.6652919 0 54
7.5506473 -2.3460207 1.7361093 0 55
0 0 0 0 56
0 0 0 0 57
0 0 0 0 58
0 0 0 0 59
0 0 0 0 60
0 0 0 0 61
0 0 0 0 62
0 0 0 0 63
2.3561134 -0.70040739 -0.73276716 0 0
2.4222581 -0.72007042 -0.72809899 0 1
2.524843 -0.75056607 -0.73276514 0 2
2.6436236 -0.78587627 -0.73997706 0 3
2.7237794 -0.80970436 -0.73446441 0 4
2.8366926 -0.8432703 -0.73594165 0 5
2.9543564 -0.87824851 -0.7364344 0 6
3.0674002 -0.91185337 -0.73356694 0 7
3.2214961 -0.95766181 -0.7379505 0 8
3.3706362 -1.001997 -0.73827946 0 9
3.513679 -1.0445197 -0.73447603 0 10
3.680335 -1.0940619 -0.73264706 0 11
3.8684974 -1.1499974 -0.73169959 0 12
4.1151772 -1.2233284 -0.73763931 0 13
4.3520083 -1.2937318 -0.73716545 0 14
4.6255865 -1.3750591 -0.73801774 0 15
4.8716354 -1.4482026 -0.72950226 0 16
5.231987 -1.5553252 -0.7322917 0 17
5.6448874 -1.678069 -0.73500943 0 18
6.1158142 -1.8180625 -0.73679662 0 19
6.6855769 -1.9874374 -0.74049896 0 20
7.236815 -2.1513052 -0.73139799 0 21
7.5644755 -2.2487094 -0.69131106 0 22
7.5429482 -2.24231 -0.61646724 0 23
7.5584888 -2.2469299 -0.54481584 0 24
7.5619884 -2.2479701 -0.47220555 0 25
7.5510411 -2.2447159 -0.39884493 0 26
7.5596309 -2.2472694 -0.32660669 0 27
7.5590334 -2.2470918 -0.25395 0 28
7.5566702 -2.2463892 -0.18130547 0 29
7.5522909 -2.2450874 -0.10870797 0 30
7.5586095 -2.2469656 -0.036264263 0 31
7.5611939 -2.2477341 0.036276661 0 32
7.5480809 -2.2438359 0.10864738 0 33
7.5558081 -2.2461329 0.18128477 0 34
7.5578389 -2.2467368 0.25390989 0 35
7.5552988 -2.2459817 0.32641953 0 36
7.5545745 -2.2457662 0.39903155 0 37
7.5612469 -2.2477498 0.47215924 0 38
7.5544214 -2.2457209 0.5445227 0 39
7.5534906 -2.2454441 0.61732882 0 40
7.5530653 -2.2453177 0.69026834 0 41
7.5541129 -2.2456291 0.76346612 0 42
7.5544314 -2.2457237 0.83673388 0 43
7.5567632 -2.246417 0.91039354 0 44
7.5564837 -2.2463338 0.98391461 0 45
7.5497055 -2.2443187 1.0566896 0 46
7.5665765 -2.2493341 1.1330557 0 47
7.5667334 -2.2493808 1.2072811 0 48
7.556026 -2.2461977 1.2798784 0 49
7.5527186 -2.2452147 1.3538135 0 50
7.5490479 -2.2441232 1.4278502 0 51
7.5446386 -2.2428126 1.5019169 0 52
7.5587087 -2.2469952 1.580022 0 53
7.5536079 -2.2454789 1.654487 0 54
7.5499606 -2.2443945 1.7294749 0 55
0 0 0 0 56
0 0 0 0 57
0 0 0 0 58
0 0 0 0 59
0 0 0 0 60
0 0 0 0 61
0 0 0 0 62
0 0 0 0 63
2.379375 -0.67559493 -0.73736233 0 0
2.4571171 -0.69766891 -0.73594284 0 1
2.5482213 -0.72353685 -0.73691225 0 2
2.6231334 -0.74480724 -0.73162282 0 3
2.7266951 -0.7742123 -0.73262811 0 4
2.8429277 -0.80721521 -0.73492861 0 5
2.965724 -0.84208173 -0.73663127 0 6
3.0868413 -0.87647152 -0.73558325 0 7
3.2257853 -0.915923 -0.73629737 0 8
3.3811581 -0.96003926 -0.73794264 0 9
3.5315688 -1.0027466 -0.73558253 0 10
3.7035544 -1.0515798 -0.7346397 0 11
3.9176173 -1.1123604 -0.73834735 0 12
4.0911031 -1.1616195 -0.73070848 0 13
4.3418951 -1.232829 -0.73282927 0 14
4.6127357 -1.309731 -0.73334235 0 15
4.9370871 -1.4018266 -0.73666638 0 16
5.2842522 -1.5003999 -0.73696893 0 17
5.634263 -1.5997813 -0.73100936 0 18
6.0930104 -1.7300371 -0.73143113 0 19
6.6641684 -1.8922105 -0.73549497 0 20
7.2491875 -2.0583198 -0.73003525 0 21
7.5422435 -2.1415293 -0.68682081 0 22
7.5465827 -2.1427615 -0.61456442 0 23
7.5500484 -2.1437457 -0.54226643 0 24
7.5456691 -2.1425021 -0.46950588 0 25
7.5666652 -2.1484637 -0.39824468 0 26
7.5533695 -2.1446886 -0.32517219 0 27
7.5721273 -2.1500146 -0.25348258 0 28
7.5518317 -2.1442521 -0.18054312 0 29
7.5501518 -2.143775 -0.10828955 0 30
7.553967 -2.1448581 -0.036112722 0 31
7.5610204 -2.1468611 0.036146443 0 32
7.5526476 -2.1444836 0.10832535 0 33
7.5577583 -2.1459348 0.1806848 0 34
7.5601711 -2.1466198 0.25308233 0 35
7.5468645 -2.1428416 0.32489216 0 36
7.5556941 -2.1453485 0.39766726 0 37
7.5703344 -2.1495056 0.47104061 0 38
7.5490031 -2.1434488 0.54219133 0 39
7.5459967 -2.1425951 0.61451668 0 40
7.5458364 -2.1425495 0.68714797 0 41
7.5572338 -2.1457858 0.76105732 0 42
7.5399756 -2.1408856 0.83215398 0 43
7.567162 -2.1486046 0.90839463 0 44
7.5588622 -2.1462481 0.98071378 0 45
7.5524926 -2.1444395 1.0533094 0 46
7.5597749 -2.1465073 1.1279994 0 47
7.559474 -2.1464219 1.2018209 0 48
7.5518293 -2.1442511 1.274605 0 49
7.5717092 -2.1498959 1.3523767 0 50
7.5489373 -2.1434302 1.4227368 0 51
7.5509033 -2.1439884 1.4978026 0 52
7.5464115 -2.1427128 1.571825 0 53
7.5461965 -2.1426518 1.6469682 0 54
7.5648799 -2.1479566 1.7267116 0 55
0 0 0 0 56
0 0 0 0 57
0 0 0 0 58
0 0 0 0 59
0 0 0 0 60
0 0 0 0 61
0 0 0 0 62
0 0 0 0 63
2.3777275 -0.64364231 -0.73434359 0 0
2.4829426 -0.67212361 -0.7411465 0 1
2.5521083 -0.69084656 -0.73552406 0 2
2.6424677 -0.71530652 -0.73450661 0 3
2.7524488 -0.74507797 -0.73703045 0 4
2.8477547 -0.77087694 -0.73367053 0 5
2.9736483 -0.8049559 -0.7360853 0 6
3.1044786 -0.84037119 -0.73726797 0 7
3.2413769 -0.87742901 -0.73733777 0 8
3.3577516 -0.90893126 -0.73033959 0 9
3.5245035 -0.95407039 -0.73161203 0 10
3.7203827 -1.0070941 -0.73546571 0 11
3.9110463 -1.0587062 -0.73459983 0 12
4.1511126 -1.1236912 -0.73890293 0 13
4.3838024 -1.1866795 -0.73738384 0 14
4.6130147 -1.2487265 -0.73089027 0 15
4.9275084 -1.3338587 -0.73273438 0 16
5.3039207 -1.4357523 -0.73719412 0 17
5.7252254 -1.5497979 -0.74028265 0 18
6.1258421 -1.6582433 -0.73286921 0 19
6.6718044 -1.8060334 -0.73383129 0 20
7.3690648 -1.9947793 -0.73958153 0 21
7.5548658 -2.0450749 -0.68562841 0 22
7.5537624 -2.0447762 -0.61305517 0 23
7.566802 -2.048306 -0.54161978 0 24
7.5609708 -2.0467277 -0.46885657 0 25
7.5615091 -2.0468733 -0.3966186 0 26
7.55514 -2.0451491 -0.32414129 0 27
7.5647864 -2.0477605 -0.25237483 0 28
7.5605836 -2.0466228 -0.18013707 0 29
7.5620055 -2.0470076 -0.10809038 0 30
7.5531993 -2.0446239 -0.03598614 0 31
7.5601754 -2.0465124 0.036019374 0 32
7.5618453 -2.0469644 0.10808809 0 33
7.5484304 -2.0433331 0.17984752 0 34
7.5394702 -2.0409074 0.25153023 0 35
7.554194 -2.0448933 0.3241007 0 36
7.5619063 -2.0469809 0.39663944 0 37
7.5716939 -2.0496302 0.46952149 0 38
7.5478921 -2.0431871 0.54026622 0 39
7.5566454 -2.0455568 0.61328912 0 40
7.5548496 -2.0450706 0.68562698 0 41
7.5581017 -2.0459509 0.7585538 0 42
7.5583491 -2.0460179 0.83134228 0 43
7.5500989 -2.0437846 0.90326113 0 44
7.5526228 -2.0444679 0.9765687 0 45
7.5604839 -2.0465958 1.0508347 0 46
7.5480151 -2.0432205 1.1224111 0 47
7.5664306 -2.0482056 1.1988322 0 48
7.5524216 -2.0444133 1.270366 0 49
7.5512099 -2.0440853 1.3441243 0 50
7.5516849 -2.0442138 1.4184098 0 51
7.5659475 -2.0480747 1.4956782 0 52
7.5536485 -2.0447454 1.567977 0 53
7.5645471 -2.0476956 1.6453536 0 54
7.5596814 -2.0463786 1.7196516 0 55
0 0 0 0 56
0 0 0 0 57
0 0 0 0 58
0 0 0 0 59
0 0 0 0 60
0 0 0 0 61
0 0 0 0 62
0 0 0 0 63
2.3892708 -0.61533922 -0.73551619 0 0
2.4624109 -0.6341759 -0.73263478 0 1
2.5478756 -0.6561867 -0.7319234 0 2
2.6488814 -0.68220001 -0.7339021 0 3
2.7482276 -0.70778584 -0.73351413 0 4
2.862694 -0.73726583 -0.7351281 0 5
2.9869916 -0.76927781 -0.73699105 0 6
3.1008003 -0.7985884 -0.73400688 0 7
3.2517843 -0.83747321 -0.73730695 0 8
3.3885813 -0.87270427 -0.73465568 0 9
3.5699875 -0.91942412 -0.73865092 0 10
3.7326212 -0.96130925 -0.73549277 0 11
3.9051385 -1.0057398 -0.73111206 0 12
4.1418495 -1.066703 -0.73486382 0 13
4.3766594 -1.1271766 -0.73379546 0 14
4.6682162 -1.2022649 -0.73723835 0 15
4.9451666 -1.2735914 -0.73297602 0 16
5.3033266 -1.3658328 -0.7347216 0 17
5.7143822 -1.4716973 -0.73648506 0 18
6.1233249 -1.5770174 -0.73019296 0 19
6.6879191 -1.7224245 -0.73321873 0 20
7.3649135 -1.8967795 -0.73676831 0 21
7.553266 -1.9452883 -0.68326074 0 22
7.5542927 -1.9455527 -0.61111039 0 23
7.5513744 -1.9448011 -0.53876299 0 24
7.5483255 -1.944016 -0.46655485 0 25
7.5498843 -1.9444174 -0.39472491 0 26
7.5607829 -1.9472241 -0.32333165 0 27
7.5575485 -1.9463912 -0.25131589 0 28
7.5546317 -1.94564 -0.17941168 0 29
7.5649552 -1.9482988 -0.10778195 0 30
7.5608797 -1.9472492 -0.035905939 0 31
7.5541334 -1.9455117 0.035873901 0 32
7.5523186 -1.9450443 0.10760191 0 33
7.5431075 -1.9426721 0.179138 0 34
7.5640211 -1.9480582 0.25153112 0 35
7.5475926 -1.9438272 0.32276762 0 36
7.5668335 -1.9487826 0.39561108 0 37
7.5713081 -1.949935 0.46797538 0 38
7.5595403 -1.9469042 0.53934562 0 39
7.5635486 -1.9479364 0.61185914 0 40
7.5627856 -1.94774 0.68412191 0 41
7.5650034 -1.9483111 0.7567848 0 42
7.5503654 -1.9445412 0.8277716 0 43
7.5581331 -1.9465418 0.90129066 0 44
7.5490727 -1.9442083 0.97294486 0 45
7.5765967 -1.951297 1.04966 0 46
7.5676498 -1.9489927 1.1216823 0 47
7.5610418 -1.9472909 1.1940943 0 48
7.544333 -1.9429876 1.264891 0 49
7.5567436 -1.9461839 1.3407482 0 50
7.556879 -1.9462187 1.4147835 0 51
7.5446801 -1.9430771 1.4866382 0 52
7.5519085 -1.9449387 1.5625333 0 53
7.558898 -1.9467387 1.6387941 0 54
7.5623531 -1.9476286 1.7146819 0 55
0 0 0 0 56
0 0 0 0 57
0 0 0 0 58
0 0 0 0 59
0 0 0 0 60
0 0 0 0 61
0 0 0 0 62
0 0 0 0 63
2.3931844 -0.58506656 -0.73445076 0 0
2.4905884 -0.60887909 -0.7387349 0 1
2.5729537 -0.62901515 -0.7368499 0 2
2.6572733 -0.64962888 -0.73395848 0 3
2.7611713 -0.67502904 -0.73469794 0 4
2.8793063 -0.70390975 -0.73711568 0 5
2.9973145 -0.73275942 -0.73725909 0 6
3.1170056 -0.76202053 -0.73556918 0 7
3.2365749 -0.7912519 -0.73159701 0 8
3.3874137 -0.8281278 -0.73213947 0 9
3.5576074 -0.86973536 -0.73382109 0 10
3.7441006 -0.91532767 -0.73548126 0 11
3.9525661 -0.96629173 -0.73771107 0 12
4.1351156 -1.0109199 -0.73140824 0 13
4.4051833 -1.0769439 -0.73630184 0 14
4.6601319 -1.1392717 -0.73369378 0 15
4.9855886 -1.2188368 -0.73669028 0 16
5.3037815 -1.2966261 -0.7325204 0 17
5.7202334 -1.3984368 -0.73496735 0 18
6.2058835 -1.5171646 -0.73775744 0 19
6.678812 -1.6327825 -0.72996396 0 20
7.360476 -1.7994303 -0.73405546 0 21
7.5568299 -1.8474332 -0.68147671 0 22
7.5441422 -1.8443315 -0.60840869 0 23
7.5559616 -1.847221 -0.53742909 0 24
7.5382967 -1.8429024 -0.46449921 0 25
7.5669541 -1.8499084 -0.39439827 0 26
7.5604324 -1.8483139 -0.32232037 0 27
7.5521946 -1.8463 -0.25036395 0 28
7.5642133 -1.8492383 -0.17908567 0 29
7.5408621 -1.8435296 -0.10710762 0 30
7.5645404 -1.8493181 -0.035812624 0 31
7.5603957 -1.848305 0.035793003 0 32
7.5414104 -1.8436636 0.1071154 0 33
7.5577703 -1.847663 0.17893313 0 34
7.5644875 -1.8493054 0.25077149 0 35
7.5613546 -1.8485394 0.32235968 0 36
7.5444012 -1.8443947 0.39322278 0 37
7.5522223 -1.8463068 0.46535724 0 38
7.5326085 -1.8415117 0.53576803 0 39
7.5625105 -1.848822 0.60989004 0 40
7.5498209 -1.8457197 0.6808446 0 41
7.5519195 -1.8462328 0.75314796 0 42
7.5574598 -1.8475872 0.82599622 0 43
7.5579953 -1.8477181 0.89849693 0 44
7.5585856 -1.8478625 0.97116905 0 45
7.5626373 -1.848853 1.0444974 0 46
7.5504565 -1.8458751 1.1156852 0 47
7.556222 -1.8472846 1.1896558 0 48
7.5480075 -1.8452765 1.2616075 0 49
7.5567365 -1.8474103 1.3366154 0 50
7.5451169 -1.8445697 1.4082285 0 51
7.5556622 -1.8471477 1.4842144 0 52
7.5564942 -1.8473512 1.5586641 0 53
7.5583706 -1.8478099 1.6336302 0 54
7.5572662 -1.8475399 1.7082483 0 55
0 0 0 0 56
0 0 0 0 57
0 0 0 0 58
0 0 0 0 59
0 0 0 0 60
0 0 0 0 61
0 0 0 0 62
0 0 0 0 63
2.4114871 -0.55821019 -0.73790532 0 0
2.487957 -0.57591146 -0.7357983 0 1
2.5685101 -0.59455782 -0.73342812 0 2
2.6683676 -0.6176728 -0.73486942 0 3
2.7603867 -0.63897336 -0.7323432 0 4
2.8714569 -0.66468382 -0.73295838 0 5
3.0024884 -0.69501495 -0.7363739 0 6
3.1199102 -0.72219574 -0.7341035 0 7
3.2534864 -0.75311589 -0.73327094 0 8
3.4278767 -0.79348373 -0.73872024 0 9
3.5624959 -0.82464534 -0.73268247 0 10
3.7347484 -0.86451828 -0.73150063 0 11
3.9411232 -0.91228986 -0.73342615 0 12
4.1853628 -0.96882635 -0.73813283 0 13
4.3836446 -1.0147246 -0.73056102 0 14
4.6766562 -1.0825509 -0.73414415 0 15
4.9856453 -1.1540754 -0.73454618 0 16
5.3623581 -1.2412769 -0.73844671 0 17
5.717989 -1.3235981 -0.73253238 0 18
6.2216024 -1.4401743 -0.73746508 0 19
6.7907453 -1.5719193 -0.74002928 0 20
7.3619671 -1.7041456 -0.73205894 0 21
7.553175 -1.7484064 -0.67915696 0 22
7.552546 -1.7482607 -0.60730684 0 23
7.5443363 -1.7463604 -0.53503442 0 24
7.5343118 -1.7440399 -0.46289718 0 25
7.5510287 -1.7479095 -0.3924183 0 26
7.5549812 -1.7488245 -0.32114691 0 27
7.5582075 -1.7495712 -0.2498312 0 28
7.5459023 -1.7467228 -0.17813018 0 29
7.5486956 -1.7473694 -0.1069056 0 30
7.5432057 -1.7460988 -0.035607278 0 31
7.5449448 -1.7465012 0.035615485 0 32
7.5496092 -1.7475809 0.10691854 0 33
7.566226 -1.7514274 0.17860994 0 34
7.544786 -1.7464644 0.24938755 0 35
7.5541296 -1.7486274 0.32111073 0 36
7.5508728 -1.7478734 0.39241022 0 37
7.5421896 -1.7458634 0.4633812 0 38
7.5507159 -1.7478371 0.53548682 0 39
7.5564003 -1.7491529 0.60761672 0 40
7.5593972 -1.7498467 0.67971641 0 41
7.5617437 -1.7503898 0.75192434 0 42
7.5677071 -1.7517703 0.82469958 0 43
7.560606 -1.7501265 0.89618123 0 44
7.5423245 -1.7458947 0.96624833 0 45
7.5464277 -1.7468445 1.0392134 0 46
7.5492949 -1.7475082 1.1122544 0 47
7.5551109 -1.7488545 1.1860056 0 48
7.5541563 -1.7486335 1.2589461 0 49
7.5486531 -1.7473596 1.3312845 0 50
7.5481162 -1.7472353 1.4046721 0 51
7.5498652 -1.7476401 1.4787425 0 52
7.5615907 -1.7503544 1.5551583 0 53
7.5329061 -1.7437145 1.6233695 0 54
7.5519052 -1.7481124 1.7020488 0 55
0 0 0 0 56
0 0 0 0 57
0 0 0 0 58
0 0 0 0 59
0 0 0 0 60
0 0 0 0 61
0 0 0 0 62
0 0 0 0 63
2.4111588 -0.52698547 -0.73576641 0 0
2.4939718 -0.54508519 -0.73553926 0 1
2.5879488 -0.56562489 -0.73693705 0 2
2.6812336 -0.58601332 -0.73637259 0 3
2.7786226 -0.60729873 -0.73514444 0 4
2.8967972 -0.63312715 -0.73738372 0 5
2.9927707 -0.65410316 -0.73196268 0 6
3.1187737 -0.68164253 -0.73180854 0 7
3.2560871 -0.71165389 -0.73182952 0 8
3.4117939 -0.7456854 -0.7332229 0 9
3.5942416 -0.78556132 -0.73716903 0 10
3.7739024 -0.82482815 -0.73712718 0 11
3.9553006 -0.86447477 -0.73403084 0 12
4.1824737 -0.91412592 -0.73558533 0 13
4.4428635 -0.97103697 -0.73838443 0 14
4.6687841 -1.0204145 -0.73088336 0 15
4.9980588 -1.0923811 -0.73434055 0 16
5.3623362 -1.171998 -0.73640347 0 17
5.7299867 -1.2523521 -0.7320413 0 18
6.2228737 -1.360078 -0.73557782 0 19
6.7912173 -1.4842957 -0.73803592 0 20
7.360311 -1.6086775 -0.72987211 0 21
7.5478387 -1.6496638 -0.67680198 0 22
7.5488515 -1.6498851 -0.60533261 0 23
7.5568786 -1.6516395 -0.53444314 0 24
7.5425615 -1.6485103 -0.46212369 0 25
7.5378027 -1.6474702 -0.39064863 0 26
7.5318446 -1.6461681 -0.31927884 0 27
7.5547309 -1.6511701 -0.24902634 0 28
7.5456104 -1.6491768 -0.17763115 0 29
7.5526791 -1.6507217 -0.1066665 0 30
7.5523124 -1.6506416 -0.035551768 0 31
7.5491009 -1.6499397 0.035536651 0 32
7.5446491 -1.6489667 0.10655309 0 33
7.5422354 -1.6484392 0.1775517 0 34
7.5493007 -1.6499833 0.24884734 0 35
7.550642 -1.6502764 0.32007566 0 36
7.5480533 -1.6497107 0.39117989 0 37
7.5521765 -1.6506119 0.46271279 0 38
7.5444269 -1.6489182 0.53356254 0 39
7.5459447 -1.6492498 0.6050995 0 40
7.5580611 -1.651898 0.67771858 0 41
7.5519371 -1.6505595 0.74887437 0 42
7.5504808 -1.6502413 0.82054895 0 43
7.5586653 -1.65203 0.89347571 0 44
7.5490136 -1.6499206 0.96443319 0 45
7.5563903 -1.6515328 1.0377103 0 46
7.5496945 -1.6500694 1.1092401 0 47
7.555192 -1.6512709 1.1827414 0 48
7.5505991 -1.650267 1.2548765 0 49
7.5542541 -1.6510658 1.3285913 0 50
7.5522647 -1.6506311 1.401561 0 51
7.5343165 -1.6467084 1.4716198 0 52
7.5501142 -1.650161 1.5485077 0 53
7.5423808 -1.6484709 1.6209204 0 54
7.5706344 -1.654646 1.7015557 0 55
0 0 0 0 56
0 0 0 0 57
0 0 0 0 58
0 0 0 0 59
0 0 0 0 60
0 0 0 0 61
0 0 0 0 62
0 0 0 0 63
2.4241073 -0.49866736 -0.73779076 0 0
2.5051365 -0.51533598 -0.73690736 0 1
2.5866587 -0.53210604 -0.73465097 0 2
2.6891744 -0.55319476 -0.73662949 0 3
2.7784019 -0.57154995 -0.73317122 0 4
2.8873398 -0.59395975 -0.73306173 0 5
3.0108907 -0.61937559 -0.73447615 0 6
3.139056 -0.64574069 -0.734649 0 7
3.2556057 -0.66971636 -0.72981524 0 8
3.4262156 -0.70481282 -0.73440421 0 9
3.5746288 -0.73534316 -0.73123676 0 10
3.7751102 -0.77658451 -0.73544234 0 11
3.9813793 -0.81901652 -0.73694587 0 12
4.1695333 -0.85772192 -0.73139918 0 13
4.4314494 -0.91160125 -0.73456901 0 14
4.7118859 -0.96929026 -0.73570931 0 15
4.9830856 -1.0250793 -0.73023343 0 16
5.3676596 -1.1041907 -0.73521429 0 17
5.8001847 -1.1931661 -0.73907924 0 18
6.2013392 -1.2756884 -0.73112285 0 19
6.7786388 -1.3944457 -0.73474997 0 20
7.4891782 -1.5406119 -0.74071646 0 21
7.5488 -1.5528768 -0.67512494 0 22
7.5459137 -1.552283 -0.60352081 0 23
7.5499773 -1.5531191 -0.53256416 0 24
7.5630331 -1.5558048 -0.46217093 0 25
7.5590115 -1.5549774 -0.39072731 0 26
7.5522408 -1.5535847 -0.3193095 0 27
7.5416393 -1.5514038 -0.24794722 0 28
7.5463457 -1.552372 -0.17718568 0 29
7.5456843 -1.552236 -0.10629011 0 30
7.5542493 -1.5539979 -0.035468251 0 31
7.5528355 -1.553707 0.035461612 0 32
7.5528507 -1.5537102 0.10639106 0 33
7.5421662 -1.5515122 0.17708756 0 34
7.5516863 -1.5534706 0.24827754 0 35
7.5552034 -1.5541941 0.31943476 0 36
7.5519471 -1.5535243 0.39036214 0 37
7.5467267 -1.5524504 0.46117446 0 38
7.5439863 -1.5518867 0.53214157 0 39
7.5438037 -1.551849 0.60335201 0 40
7.5497527 -1.5530728 0.67521012 0 41
7.5411072 -1.5512943 0.74585247 0 42
7.5648098 -1.5561702 0.81996459 0 43
7.5468864 -1.5524832 0.88975954 0 44
7.5417895 -1.5514348 0.96100038 0 45
7.5562038 -1.5543998 1.0349816 0 46
7.5401859 -1.5511049 1.1049571 0 47
7.5622191 -1.5556374 1.1807576 0 48
7.5368471 -1.550418 1.249328 0 49
7.5438781 -1.5518643 1.3233104 0 50
7.5490932 -1.5529372 1.397323 0 51
7.5502758 -1.5531805 1.4708954 0 52
7.5454211 -1.5521818 1.5435139 0 53
7.551702 -1.5534738 1.618696 0 54
7.5421767 -1.5515144 1.6907439 0 55
7.5496902 -1.5530599 1.7668918 0 56
0 0 0 0 57
0 0 0 0 58
0 0 0 0 59
0 0 0 0 60
0 0 0 0 61
0 0 0 0 62
0 0 0 0 63
2.4125581 -0.46544823 -0.73247838 0 0
2.5027399 -0.48284677 -0.73440039 0 1
2.5882661 -0.49934712 -0.7333082 0 2
2.693315 -0.51961392 -0.73595792 0 3
2.7860956 -0.53751379 -0.73340189 0 4
2.9051723 -0.56048697 -0.73578382 0 5
3.0064363 -0.58002353 -0.73159444 0 6
3.1561062 -0.60889894 -0.73683137 0 7
3.2774007 -0.63229996 -0.73290271 0 8
3.4367163 -0.66303629 -0.73485184 0 9
3.5824578 -0.69115382 -0.73104447 0 10
3.7817008 -0.72959322 -0.73492301 0 11
3.9951262 -0.77076876 -0.73768032 0 12
4.2159648 -0.81337452 -0.73773378 0 13
4.4319935 -0.85505235 -0.73286086 0 14
4.7172637 -0.91008878 -0.73474616 0 15
5.0517998 -0.97462988 -0.73849088 0 16
5.3670058 -1.0354418 -0.7333253 0 17
5.7852602 -1.1161344 -0.73537308 0 18
6.1949329 -1.1951715 -0.72857982 0 19
6.7812543 -1.3082888 -0.73323435 0 20
7.4984908 -1.4466633 -0.73982215 0 21
7.5521359 -1.4570129 -0.67377001 0 22
7.5604734 -1.4586214 -0.60320514 0 23
7.5446076 -1.4555606 -0.53088278 0 24
7.5573349 -1.4580159 -0.46069229 0 25
7.5513043 -1.4568524 -0.38937351 0 26
7.5467567 -1.4559752 -0.31829661 0 27
7.5463848 -1.4559034 -0.24749595 0 28
7.5568609 -1.4579245 -0.17699827 0 29
7.5751657 -1.4614561 -0.1064442 0 30
7.5566278 -1.4578795 -0.035392575 0 31
7.5539627 -1.4573654 0.035380092 0 32
7.5357847 -1.4538584 0.10589083 0 33
7.5440183 -1.4554468 0.17669748 0 34
7.553885 -1.4573504 0.24774194 0 35
7.5466037 -1.4559456 0.31829014 0 36
7.5580921 -1.458162 0.38972351 0 37
7.5508485 -1.4567646 0.46029687 0 38
7.5562377 -1.4578043 0.53170109 0 39
7.5445962 -1.4555583 0.60193843 0 40
7.5370612 -1.4541047 0.67242509 0 41
7.5540524 -1.4573827 0.74530405 0 42
7.5532308 -1.4572241 0.81670552 0 43
7.5459709 -1.4558235 0.887474 0 44
7.550416 -1.456681 0.95974463 0 45
7.5452309 -1.4556807 1.030949 0 46
7.5442014 -1.4554821 1.1028395 0 47
7.5576768 -1.458082 1.1771599 0 48
7.553072 -1.4571935 1.248953 0 49
7.5599737 -1.4585251 1.3228878 0 50
7.5496988 -1.4565427 1.3940146 0 51
7.5417514 -1.4550095 1.4656385 0 52
7.5549693 -1.4575596 1.5416842 0 53
7.5529175 -1.4571637 1.6149937 0 54
7.5440731 -1.4554574 1.6870295 0 55
7.5463662 -1.4558998 1.7617909 0 56
0 0 0 0 57
0 0 0 0 58
0 0 0 0 59
0 0 0 0 60
0 0 0 0 61
0 0 0 0 62
0 0 0 0 63
2.4236348 -0.43674695 -0.73415536 0 0
2.5055332 -0.45150533 -0.73353547 0 1
2.611166 -0.4705407 -0.73810107 0 2
2.7004442 -0.48662892 -0.73621517 0 3
2.8061368 -0.50567514 -0.73698497 0 4
2.902483 -0.52303702 -0.73341835 0 5
3.0150816 -0.54332763 -0.7320171 0 6
3.147161 -0.56712878 -0.73305947 0 7
3.2749779 -0.5901618 -0.73068291 0 8
3.4532697 -0.62229055 -0.73669946 0 9
3.621341 -0.65257758 -0.73728585 0 10
3.7728615 -0.67988205 -0.73152518 0 11
3.9835057 -0.71784085 -0.73384935 0 12
4.2127314 -0.75914806 -0.735479 0 13
4.4367332 -0.79951388 -0.73196363 0 14
4.7419124 -0.85450822 -0.73689306 0 15
5.0554481 -0.91100842 -0.73733091 0 16
5.3541369 -0.96483314 -0.72989076 0 17
5.7914143 -1.0436319 -0.73446852 0 18
6.2834191 -1.1322929 -0.73729336 0 19
6.7735209 -1.2206107 -0.73071998 0 20
7.492156 -1.3501112 -0.73750347 0 21
7.5436764 -1.3593953 -0.67147321 0 22
7.5524206 -1.3609711 -0.60118204 0 23
7.5630369 -1.3628842 -0.5309602 0 24
7.5420332 -1.3590991 -0.45870605 0 25
7.550487 -1.3606226 -0.3884393 0 26
7.5619326 -1.3626852 -0.31820589 0 27
7.5472431 -1.360038 -0.24695696 0 28
7.5471921 -1.3600289 -0.17636678 0 29
7.5416956 -1.3590384 -0.10573107 0 30
7.5533266 -1.3611343 -0.035296053 0 31
7.5453291 -1.3596932 0.035258681 0 32
7.5515804 -1.3608197 0.10586965 0 33
7.5550308 -1.3614415 0.17654996 0 34
7.5424123 -1.3591675 0.24679887 0 35
7.5366573 -1.3581305 0.31714231 0 36
7.5520525 -1.3609047 0.38851982 0 37
7.5327716 -1.3574302 0.45814276 0 38
7.5465541 -1.3599139 0.52980298 0 39
7.5510793 -1.3607293 0.60107523 0 40
7.5443134 -1.3595101 0.67152989 0 41
7.5486798 -1.360297 0.7430675 0 42
7.5515137 -1.3608077 0.81464899 0 43
7.5511503 -1.3607421 0.88604832 0 44
7.5441761 -1.3594854 0.95675427 0 45
7.5431633 -1.3593029 1.0283049 0 46
7.5358372 -1.3579826 1.0990926 0 47
7.5532312 -1.3611171 1.1737719 0 48
7.5530787 -1.3610897 1.2460923 0 49
7.5424752 -1.3591789 1.3168017 0 50
7.5531178 -1.3610967 1.3914503 0 51
7.5471659 -1.3600241 1.4633301 0 52
7.5565219 -1.3617102 1.5384679 0 53
7.546813 -1.3599606 1.6099911 0 54
7.5407691 -1.3588715 1.6824268 0 55
7.5626383 -1.3628124 1.7615445 0 56
0 0 0 0 57
0 0 0 0 58
0 0 0 0 59
0 0 0 0 60
0 0 0 0 61
0 0 0 0 62
0 0 0 0 63
2.406527 -0.4031789 -0.7274164 0 0
2.5145769 -0.42128113 -0.73461097 0 1
2.6035674 -0.43619016 -0.7343815 0 2
2.7015302 -0.45260245 -0.73493844 0 3
2.8100004 -0.47077507 -0.73642361 0 4
2.8952219 -0.4850527 -0.73002124 0 5
3.0289869 -0.5074631 -0.73382264 0 6
3.1657133 -0.53036964 -0.73580617 0 7
3.2823555 -0.54991138 -0.73076499 0 8
3.4395127 -0.57624078 -0.7321977 0 9
3.6183658 -0.60620505 -0.73510689 0 10
3.8078215 -0.63794559 -0.73672694 0 11
3.9863951 -0.66786307 -0.7328133 0 12
4.2143736 -0.70605761 -0.73419446 0 13
4.4756656 -0.74983329 -0.73680979 0 14
4.7287617 -0.79223591 -0.73328012 0 15
5.0653257 -0.84862226 -0.73719388 0 16
5.435782 -0.91068691 -0.73943835 0 17
5.7822156 -0.96872681 -0.73173594 0 18
6.2966738 -1.0549169 -0.73727077 0 19
6.7937121 -1.1381886 -0.73133308 0 20
7.5027266 -1.2569737 -0.73696679 0 21
7.5602279 -1.2666073 -0.67150939 0 22
7.5502601 -1.2649373 -0.59972656 0 23
7.5554485 -1.2658064 -0.52929467 0 24
7.5579038 -1.2662178 -0.45868966 0 25
7.5558276 -1.26587 -0.38788393 0 26
7.552537 -1.2653188 -0.31713185 0 27
7.5440545 -1.2638975 -0.24632545 0 28
7.5532136 -1.265432 -0.17613055 0 29
7.5613251 -1.266791 -0.10577989 0 30
7.5474644 -1.2644689 -0.035193343 0 31
7.5238433 -1.2605115 0.035083197 0 32
7.5472822 -1.2644383 0.10558343 0 33
7.555532 -1.2658205 0.17618461 0 34
7.5524807 -1.2653093 0.24660058 0 35
7.5445065 -1.2639734 0.31679463 0 36
7.5436783 -1.2638346 0.38726023 0 37
7.5437012 -1.2638384 0.45782769 0 38
7.5498629 -1.2648708 0.52890337 0 39
7.5366812 -1.2626623 0.59864801 0 40
7.544776 -1.2640184 0.67013693 0 41
7.5404692 -1.2632968 0.74067408 0 42
7.5366292 -1.2626536 0.81130701 0 43
7.5328131 -1.2620143 0.88200897 0 44
7.5459242 -1.2642108 0.95493227 0 45
7.5560613 -1.2659092 1.0278635 0 46
7.5386586 -1.2629936 1.0971562 0 47
7.5508161 -1.2650304 1.1708908 0 48
7.5425925 -1.2636527 1.2417049 0 49
7.5482755 -1.2646047 1.3150001 0 50
7.5579715 -1.2662292 1.389371 0 51
7.5472579 -1.2644343 1.460223 0 52
7.5403895 -1.2632835 1.5319049 0 53
7.5421314 -1.2635754 1.6055562 0 54
7.550282 -1.264941 1.6809518 0 55
7.5658131 -1.267543 1.7585204 0 56
0 0 0 0 57
0 0 0 0 58
0 0 0 0 59
0 0 0 0 60
0 0 0 0 61
0 0 0 0 62
0 0 0 0 63
2.4447868 -0.37874627 -0.7375176 0 0
2.519408 -0.39030659 -0.73456472 0 1
2.6212296 -0.40608081 -0.73789924 0 2
2.6971564 -0.41784337 -0.73229539 0 3
2.8124704 -0.43570781 -0.7356112 0 4
2.9068651 -0.45033142 -0.73150545 0 5
3.0373333 -0.47054356 -0.73438734 0 6
3.1604595 -0.48961827 -0.73313016 0 7
3.3072863 -0.51236469 -0.7348572 0 8
3.4641576 -0.53666717 -0.73598355 0 9
3.6313443 -0.56256771 -0.73628259 0 10
3.8109887 -0.59039825 -0.73587948 0 11
4.0238252 -0.62337083 -0.7382291 0 12
4.2168994 -0.65328193 -0.73317957 0 13
4.4851904 -0.6948455 -0.73691553 0 14
4.772646 -0.73937809 -0.73861945 0 15
5.0572724 -0.78347242 -0.73456419 0 16
5.4208269 -0.83979428 -0.73594362 0 17
5.7883196 -0.89672625 -0.73105776 0 18
6.3130655 -0.97801989 -0.73772615 0 19
6.7929511 -1.0523638 -0.72980297 0 20
7.4925175 -1.1607406 -0.73450649 0 21
7.5525575 -1.1700419 -0.66949958 0 22
7.5435801 -1.1686511 -0.59800929 0 23
7.5393414 -1.1679945 -0.52712029 0 24
7.5509682 -1.1697958 -0.45736116 0 25
7.5380077 -1.1677879 -0.38620278 0 26
7.5616031 -1.1714433 -0.31688371 0 27
7.557435 -1.1707976 -0.24627367 0 28
7.5395684 -1.1680297 -0.17546418 0 29
7.5438204 -1.1686884 -0.105326 0 30
7.5335884 -1.1671033 -0.035059072 0 31
7.5348749 -1.1673025 0.035065055 0 32
7.5455265 -1.1689527 0.10534982 0 33
7.5473862 -1.1692408 0.17564613 0 34
7.5413594 -1.1683072 0.2457498 0 35
7.5653348 -1.1720214 0.31704012 0 36
7.5304184 -1.1666121 0.38581392 0 37
7.5275912 -1.1661742 0.45594522 0 38
7.5517583 -1.1699182 0.52798843 0 39
7.5467644 -1.1691445 0.59826171 0 40
7.5385923 -1.1678785 0.66826165 0 41
7.552156 -1.1699798 0.74035299 0 42
7.5370474 -1.1676391 0.80974519 0 43
7.5462885 -1.1690707 0.88183695 0 44
7.5259871 -1.1659257 0.95052314 0 45
7.5392551 -1.1679811 1.0235462 0 46
7.5585709 -1.1709735 1.0978755 0 47
7.5468087 -1.1691513 1.1679517 0 48
7.5416317 -1.1683493 1.2390879 0 49
7.5415807 -1.1683414 1.3112319 0 50
7.5409589 -1.1682451 1.3834983 0 51
7.5510101 -1.1698022 1.4580556 0 52
7.534462 -1.1672386 1.5276692 0 53
7.542244 -1.1684442 1.6024004 0 54
7.5355554 -1.167408 1.6743507 0 55
7.5575924 -1.1708219 1.7531309 0 56
0 0 0 0 57
0 0 0 0 58
0 0 0 0 59
0 0 0 0 60
0 0 0 0 61
0 0 0 0 62
0 0 0 0 63
2.4386516 -0.3471477 -0.73432356 0 0
2.521615 -0.35895774 -0.7338658 0 1
2.6202118 -0.3729932 -0.73626584 0 2
2.7263844 -0.38810715 -0.73887944 0 3
2.7933154 -0.39763492 -0.72926712 0 4
2.9115038 -0.41445929 -0.73133498 0 5
3.0350049 -0.43203998 -0.73248452 0 6
3.1822155 -0.45299575 -0.7368291 0 7
3.307683 -0.47085634 -0.73360342 0 8
3.4705257 -0.49403736 -0.73599023 0 9
3.6062877 -0.51336342 -0.7298671 0 10
3.8148215 -0.54304868 -0.73527455 0 11
4.0311618 -0.57384521 -0.73822474 0 12
4.2165613 -0.60023725 -0.73178214 0 13
4.4782724 -0.63749248 -0.7344355 0 14
4.7770681 -0.68002671 -0.73795396 0 15
5.0397825 -0.71742469 -0.7306872 0 16
5.4290681 -0.77284044 -0.7357167 0 17
5.7958026 -0.82504594 -0.73066634 0 18
6.2895894 -0.89533764 -0.73364085 0 19
6.9013104 -0.98241752 -0.74009073 0 20
7.4982362 -1.0673913 -0.73372495 0 21
7.5392175 -1.073225 -0.66709673 0 22
7.5382981 -1.0730942 -0.59649944 0 23
7.5444036 -1.0739633 -0.52651113 0 24
7.5508924 -1.074887 -0.45652148 0 25
7.5299487 -1.0719056 -0.38508546 0 26
7.5311761 -1.0720804 -0.31503233 0 27
7.5367808 -1.0728781 -0.24515216 0 28
7.5336733 -1.0724359 -0.17500687 0 29
7.5539398 -1.0753208 -0.10527471 0 30
7.5390716 -1.0732043 -0.035020526 0 31
7.5477729 -1.074443 0.035060946 0 32
7.5439119 -1.0738934 0.10513496 0 33
7.5486417 -1.0745666 0.17535459 0 34
7.5505767 -1.0748421 0.24560091 0 35
7.5466127 -1.0742779 0.31567806 0 36
7.5457234 -1.0741512 0.38589218 0 37
7.5427966 -1.0737346 0.45603204 0 38
7.5343528 -1.0725325 0.52580971 0 39
7.5458417 -1.0741681 0.59709638 0 40
7.5499167 -1.0747482 0.66804349 0 41
7.5356345 -1.072715 0.73738444 0 42
7.5432487 -1.0737989 0.80893171 0 43
7.558928 -1.076031 0.88170117 0 44
7.5306969 -1.0720122 0.94938129 0 45
7.5294585 -1.0718359 1.0203497 0 46
7.549541 -1.0746946 1.0945617 0 47
7.5548143 -1.0754453 1.1670558 0 48
7.5591297 -1.0760596 1.2396952 0 49
7.5512948 -1.0749443 1.3105235 0 50
7.5439172 -1.0738941 1.381514 0 51
7.549715 -1.0747194 1.4551438 0 52
7.5466189 -1.0742787 1.5273404 0 53
7.532784 -1.0723093 1.5974685 0 54
7.5437932 -1.0738765 1.6731206 0 55
7.556283 -1.0756544 1.7496268 0 56
0 0 0 0 57
0 0 0 0 58
0 0 0 0 59
0 0 0 0 60
0 0 0 0 61
0 0 0 0 62
0 0 0 0 63
2.4276733 -0.3151814 -0.72979558 0 0
2.5357821 -0.32921702 -0.73675501 0 1
2.6245077 -0.34073612 -0.73623997 0 2
2.7177174 -0.35283741 -0.73529917 0 3
2.8334482 -0.36786258 -0.73850811 0 4
2.9274561 -0.3800675 -0.73411262 0 5
3.0651708 -0.3979468 -0.73852813 0 6
3.1781361 -0.41261294 -0.73465419 0 7
3.3316548 -0.43254405 -0.73768467 0 8
3.4740396 -0.45102966 -0.73550367 0 9
3.6607554 -0.47527072 -0.73965198 0 10
3.8037531 -0.4938359 -0.73191553 0 11
4.0324745 -0.52353048 -0.73723048 0 12
4.2543383 -0.55233473 -0.73710388 0 13
4.491374 -0.58310878 -0.73535264 0 14
4.7673373 -0.61893672 -0.73521954 0 15
5.0581636 -0.65669423 -0.73212606 0 16
5.4286571 -0.70479488 -0.73443103 0 17
5.8693881 -0.76201439 -0.73870599 0 18
6.2972169 -0.81755883 -0.73330247 0 19
6.8931289 -0.89492518 -0.7379775 0 20
7.4837666 -0.97160691 -0.7310847 0 21
7.5506625 -0.98029184 -0.66699243 0 22
7.5365729 -0.97846264 -0.59536588 0 23
7.5418091 -0.97914243 -0.52545005 0 24
7.529798 -0.97758305 -0.45448503 0 25
7.5470228 -0.9798193 -0.38531336 0 26
7.5388856 -0.97876287 -0.31482759 0 27
7.5383534 -0.97869378 -0.24479336 0 28
7.5466018 -0.97976464 -0.17501409 0 29
7.5347056 -0.97822022 -0.1048311 0 30
7.5534735 -0.9806568 -0.035028763 0 31
7.5381808 -0.97867137 0.034957845 0 32
7.5377121 -0.97861052 0.10487293 0 33
7.5377345 -0.97861344 0.17480846 0 34
7.5342455 -0.97816044 0.24465996 0 35
7.5438404 -0.97940618 0.31503451 0 36
7.53368 -0.97808707 0.38463214 0 37
7.5562592 -0.98101848 0.45608217 0 38
7.5410833 -0.97904819 0.52539951 0 39
7.5585551 -0.98131657 0.5971024 0 40
7.5398855 -0.97889274 0.66604048 0 41
7.5385847 -0.97872382 0.73643982 0 42
7.5391083 -0.97879177 0.80713594 0 43
7.5463004 -0.97972554 0.87875658 0 44
7.5422626 -0.97920132 0.94924963 0 45
7.5548887 -0.98084056 1.0220842 0 46
7.5424094 -0.97922039 1.0916995 0 47
7.5364485 -0.97844648 1.1622723 0 48
7.5430145 -0.97929895 1.2349842 0 49
7.5286546 -0.97743464 1.3044099 0 50
7.5473185 -0.97985774 1.3798261 0 51
7.5511651 -0.98035711 1.4529899 0 52
7.5388775 -0.97876179 1.5232226 0 53
7.5426269 -0.97924858 1.5968815 0 54
7.5644808 -0.98208582 1.6749039 0 55
7.5433955 -0.97934842 1.7437224 0 56
0 0 0 0 57
0 0 0 0 58
0 0 0 0 59
0 0 0 0 60
0 0 0 0 61
0 0 0 0 62
0 0 0 0 63
2.4552529 -0.28811112 -0.73696572 0 0
2.511507 -0.29471228 -0.72859406 0 1
2.6217134 -0.3076444 -0.73433936 0 2
2.7074842 -0.31770915 -0.73141819 0 3
2.8436272 -0.3336848 -0.74003571 0 4
2.9494374 -0.34610111 -0.73850179 0 5
3.0668869 -0.35988319 -0.73781955 0 6
3.1737087 -0.37241817 -0.73251677 0 7
3.312784 -0.38873792 -0.73239255 0 8
3.4767668 -0.40798047 -0.73496342 0 9
3.6551964 -0.42891824 -0.73740733 0 10
3.8133409 -0.44747567 -0.73264623 0 11
4.0343704 -0.47341231 -0.73645711 0 12
4.244504 -0.49807039 -0.73428333 0 13
4.4776654 -0.52543068 -0.73199499 0 14
4.7660308 -0.55926889 -0.73390198 0 15
5.1019034 -0.59868175 -0.73733574 0 16
5.4264064 -0.63676053 -0.73301184 0 17
5.8624067 -0.68792284 -0.73670703 0 18
6.2908311 -0.73819625 -0.73144656 0 19
6.9050922 -0.81027657 -0.73813581 0 20
7.4820309 -0.87797731 -0.72980529 0 21
7.5261664 -0.88315636 -0.66381907 0 22
7.5610952 -0.88725507 -0.59639609 0 23
7.5406742 -0.88485879 -0.52457327 0 24
7.5393519 -0.88470364 -0.45437068 0 25
7.5496855 -0.88591623 -0.38486403 0 26
7.5510755 -0.88607931 -0.31485784 0 27
7.5422373 -0.88504225 -0.24454759 0 28
7.5512857 -0.88610399 -0.17485681 0 29
7.5547161 -0.8865065 -0.10494991 0 30
7.5325351 -0.88390368 -0.034878623 0 31
7.5492435 -0.88586438 0.03495599 0 32
7.5435758 -0.88519931 0.10479515 0 33
7.5463281 -0.88552225 0.17474201 0 34
7.5504804 -0.88600951 0.24481486 0 35
7.548244 -0.88574708 0.31473976 0 36
7.5497007 -0.88591802 0.38486481 0 37
7.5357785 -0.88428432 0.45415533 0 38
7.5388927 -0.88464975 0.52444935 0 39
7.5533614 -0.88634759 0.59578609 0 40
7.5466757 -0.88556302 0.66562802 0 41
7.5424781 -0.88507044 0.73570138 0 42
7.5483212 -0.88575613 0.80689526 0 43
7.5467877 -0.88557619 0.87747896 0 44
7.5395832 -0.88473076 0.94747156 0 45
7.5446873 -0.88532966 1.0191542 0 46
7.52632 -0.88317436 1.0877166 0 47
7.5501313 -0.88596851 1.1626143 0 48
7.5517983 -0.88616413 1.2345449 0 49
7.5444775 -0.88530505 1.3051665 0 50
7.5421715 -0.8850345 1.3767914 0 51
7.5422897 -0.88504839 1.4490784 0 52
7.5344286 -0.88412589 1.5200121 0 53
7.5404792 -0.88483596 1.5940028 0 54
7.5587592 -0.88698095 1.6710957 0 55
7.5414395 -0.88494861 1.7406232 0 56
0 0 0 0 57
0 0 0 0 58
0 0 0 0 59
0 0 0 0 60
0 0 0 0 61
0 0 0 0 62
0 0 0 0 63
2.4576254 -0.25779742 -0.73667067 0 0
2.5427792 -0.2667298 -0.73665899 0 1
2.6373844 -0.27665359 -0.73772019 0 2
2.7312062 -0.28649521 -0.73681921 0 3
2.8127005 -0.29504371 -0.73098785 0 4
2.924474 -0.30676842 -0.73125142 0 5
3.0581923 -0.32079506 -0.73472333 0 6
3.195472 -0.33519527 -0.73653293 0 7
3.3081391 -0.34701374 -0.73036712 0 8
3.4667621 -0.3636528 -0.73184788 0 9
3.6436176 -0.38220438 -0.7340678 0 10
3.8456311 -0.403395 -0.73784125 0 11
4.0414267 -0.42393336 -0.73673797 0 12
4.2635007 -0.44722822 -0.73656267 0 13
4.4854012 -0.47050494 -0.7322585 0 14
4.765162 -0.49985096 -0.73276627 0 15
5.1090651 -0.53592539 -0.73736262 0 16
5.429482 -0.56953609 -0.73242587 0 17
5.8637118 -0.61508548 -0.73586494 0 18
6.3018241 -0.66104215 -0.73172426 0 19
6.8892927 -0.72266585 -0.73544139 0 20
7.4899364 -0.78567153 -0.72957891 0 21
7.5440893 -0.79135203 -0.66449142 0 22
7.5217462 -0.78900826 -0.59248233 0 23
7.5335822 -0.79024982 -0.52336437 0 24
7.540803 -0.79100728 -0.45383766 0 25
7.5457044 -0.79152143 -0.3841359 0 26
7.5496674 -0.79193711 -0.31436932 0 27
7.5390368 -0.79082203 -0.24411006 0 28
7.5447679 -0.79142314 -0.17446734 0 29
7.5390468 -0.79082304 -0.10458923 0 30
7.5325174 -0.79013819 -0.03483092 0 31
7.5451398 -0.79146218 0.034889285 0 32
7.5335608 -0.79024756 0.10451312 0 33
7.5428066 -0.79121745 0.174422 0 34
7.5404954 -0.79097497 0.24415728 0 35
7.5372257 -0.79063201 0.31385124 0 36
7.5399566 -0.79091847 0.38384327 0 37
7.5527864 -0.79226434 0.45455888 0 38
7.5459366 -0.79154581 0.52422267 0 39
7.5465546 -0.7916106 0.59443647 0 40
7.5348916 -0.79038721 0.66368127 0 41
7.5458446 -0.79153615 0.73502481 0 42
7.5356383 -0.79046553 0.8044396 0 43
7.5408297 -0.79101008 0.87558907 0 44
7.5457449 -0.79152566 0.94695121 0 45
7.5490518 -0.79187256 1.0183516 0 46
7.5351028 -0.79040933 1.087499 0 47
7.5582395 -0.79283631 1.1622739 0 48
7.5373492 -0.790645 1.2305003 0 49
7.5464902 -0.7916038 1.3037322 0 50
7.5427833 -0.791215 1.3750231 0 51
7.5331573 -0.7902053 1.4453478 0 52
7.538435 -0.79075885 1.518744 0 53
7.5311027 -0.78998971 1.589847 0 54
7.5486007 -0.79182523 1.6665713 0 55
7.5447769 -0.7914241 1.7390159 0 56
0 0 0 0 57
0 0 0 0 58
0 0 0 0 59
0 0 0 0 60
0 0 0 0 61
0 0 0 0 62
0 0 0 0 63
2.4567592 -0.22720402 -0.73551792 0 0
2.5313509 -0.23410235 -0.73245883 0 1
2.632664 -0.24347192 -0.73550683 0 2
2.7291934 -0.25239909 -0.73538339 0 3
2.8221891 -0.26099941 -0.73256433 0 4
2.9143054 -0.26951846 -0.72782516 0 5
3.045296 -0.2816326 -0.73073775 0 6
3.1853719 -0.29458702 -0.73331457 0 7
3.337127 -0.3086215 -0.73587358 0 8
3.4789002 -0.32173285 -0.73351961 0 9
3.650326 -0.33758652 -0.73452747 0 10
3.8549235 -0.35650793 -0.73872721 0 11
4.0255842 -0.37229085 -0.73295999 0 12
4.2586236 -0.39384261 -0.73482788 0 13
4.5225234 -0.41824836 -0.73742342 0 14
4.773746 -0.44148177 -0.73319614 0 15
5.1093011 -0.47251427 -0.73650241 0 16
5.4379148 -0.50290483 -0.73267388 0 17
5.8736253 -0.5431999 -0.73621511 0 18
6.3051763 -0.58311027 -0.73122567 0 19
6.8947825 -0.63763773 -0.73513478 0 20
7.4891047 -0.69260138 -0.72861326 0 21
7.5431585 -0.69760031 -0.66360366 0 22
7.5359788 -0.69693631 -0.59288353 0 23
7.532661 -0.69662952 -0.5226658 0 24
7.5395465 -0.69726628 -0.45321175 0 25
7.5444298 -0.69771791 -0.38360524 0 26
7.5359235 -0.69693124 -0.31341648 0 27
7.5250854 -0.69592887 -0.24336284 0 28
7.5440965 -0.69768709 -0.17424028 0 29
7.5359092 -0.69692993 -0.10441893 0 30
7.5433755 -0.69762039 -0.034838829 0 31
7.540009 -0.69730908 0.03482328 0 32
7.5455017 -0.69781703 0.10455184 0 33
7.5498486 -0.698219 0.17437311 0 34
7.5452051 -0.69778961 0.24401352 0 35
7.5345941 -0.69680828 0.31336117 0 36
7.5419245 -0.69748622 0.38347787 0 37
7.5479374 -0.69804227 0.45371616 0 38
7.5447898 -0.69775122 0.52350736 0 39
7.5388851 -0.69720513 0.59311223 0 40
7.5344262 -0.69679272 0.66283548 0 41
7.5355153 -0.69689345 0.73312855 0 42
7.5516477 -0.69838542 0.80517101 0 43
7.5550537 -0.69870043 0.87617683 0 44
7.5403619 -0.69734168 0.94512814 0 45
7.5460043 -0.69786352 1.016706 0 46
7.5249805 -0.69591922 1.0847211 0 47
7.552496 -0.69846386 1.1599822 0 48
7.5325704 -0.69662112 1.2282289 0 49
7.53864 -0.69718248 1.3007966 0 50
7.5441947 -0.69769615 1.3736125 0 51
7.5393205 -0.69724542 1.4447761 0 52
7.551949 -0.69841331 1.5196215 0 53
7.545238 -0.69779265 1.5908995 0 54
7.5376902 -0.69709462 1.6621444 0 55
7.5397153 -0.6972819 1.7357417 0 56
0 0 0 0 57
0 0 0 0 58
0 0 0 0 59
0 0 0 0 60
0 0 0 0 61
0 0 0 0 62
0 0 0 0 63
2.457839 -0.19685727 -0.73506093 0 0
2.5378535 -0.20326594 -0.73356169 0 1
2.6323729 -0.21083634 -0.73464566 0 2
2.7372534 -0.2192366 -0.73677301 0 3
2.8461776 -0.22796072 -0.73800766 0 4
2.9523633 -0.23646553 -0.73654795 0 5
3.0600126 -0.24508756 -0.73349053 0 6
3.1942649 -0.2558403 -0.73458207 0 7
3.3476527 -0.26812568 -0.7374118 0 8
3.4865944 -0.27925405 -0.73436242 0 9
3.6352987 -0.29116431 -0.73072797 0 10
3.853281 -0.30862331 -0.73762941 0 11
4.0248852 -0.32236773 -0.73205566 0 12
4.2613373 -0.341306 -0.73451644 0 13
4.5310588 -0.36290902 -0.7380318 0 14
4.7704196 -0.38208029 -0.73190826 0 15
5.1054606 -0.40891492 -0.73516846 0 16
5.4272289 -0.43468654 -0.73045874 0 17
5.8562374 -0.46904737 -0.73325729 0 18
6.3831201 -0.51124734 -0.73948002 0 19
6.9054403 -0.55308187 -0.73549044 0 20
7.5284572 -0.60298157 -0.73166519 0 21
7.5422473 -0.6040861 -0.66281998 0 22
7.5245872 -0.60267156 -0.59135956 0 23
7.536365 -0.60361493 -0.52236825 0 24
7.5425029 -0.60410655 -0.45290869 0 25
7.5378933 -0.60373735 -0.38286647 0 26
7.5428982 -0.6041382 -0.31337389 0 27
7.5345712 -0.60347128 -0.24341123 0 28
7.5309029 -0.60317743 -0.1737511 0 29
7.5333419 -0.60337281 -0.10427266 0 30
7.5319123 -0.60325831 -0.034748998 0 31
7.521431 -0.60241878 0.03470064 0 32
7.5387359 -0.60380483 0.10434732 0 33
7.5426464 -0.60411805 0.17402205 0 34
7.5391321 -0.60383654 0.24355857 0 35
7.5562711 -0.60520929 0.31392947 0 36
7.5472336 -0.60448545 0.38334087 0 37
7.5380111 -0.60374677 0.45263898 0 38
7.5301418 -0.60311651 0.52193695 0 39
7.5289197 -0.60301858 0.59170008 0 40
7.5501633 -0.60472012 0.66351563 0 41
7.5378323 -0.60373241 0.73257625 0 42
7.5436239 -0.60419631 0.80346262 0 43
7.5419726 -0.60406405 0.87373227 0 44
7.5277405 -0.60292417 0.94254559 0 45
7.5481043 -0.60455519 1.0159105 0 46
7.5231276 -0.60255474 1.083304 0 47
7.5476384 -0.60451782 1.1580069 0 48
7.5375757 -0.6037119 1.2277418 0 49
7.5411768 -0.60400033 1.2998545 0 50
7.5483408 -0.60457414 1.3729101 0 51
7.5412283 -0.60400444 1.4436092 0 52
7.5322976 -0.60328913 1.51406 0 53
7.5373769 -0.60369599 1.5875567 0 54
7.5472822 -0.60448933 1.6624948 0 55
7.5309939 -0.60318476 1.7318956 0 56
0 0 0 0 57
0 0 0 0 58
0 0 0 0 59
0 0 0 0 60
0 0 0 0 61
0 0 0 0 62
0 0 0 0 63
2.4478676 -0.16579521 -0.73141384 0 0
2.5401921 -0.1720484 -0.73357069 0 1
2.6372659 -0.17862326 -0.73534262 0 2
2.7258282 -0.18462162 -0.73303133 0 3
2.8387923 -0.19227272 -0.73542404 0 4
2.9665511 -0.20092589 -0.73941523 0 5
3.0566218 -0.20702642 -0.73201221 0 6
3.1948557 -0.21638906 -0.73405051 0 7
3.3156929 -0.22457343 -0.72970837 0 8
3.5167792 -0.23819309 -0.74004722 0 9
3.6378341 -0.24639219 -0.73057336 0 10
3.8484759 -0.26065907 -0.73604041 0 11
4.0653224 -0.27534619 -0.73873883 0 12
4.2569499 -0.28832522 -0.73309368 0 13
4.5291858 -0.30676386 -0.73705649 0 14
4.7802963 -0.32377172 -0.73275739 0 15
5.1192732 -0.34673077 -0.73648781 0 16
5.4445677 -0.36876312 -0.73212677 0 17
5.8645329 -0.39720756 -0.73362899 0 18
6.3896022 -0.43277073 -0.73955852 0 19
6.8915682 -0.46676913 -0.73334616 0 20
7.5307913 -0.51006401 -0.73122722 0 21
7.5346589 -0.51032597 -0.66155159 0 22
7.534595 -0.51032162 -0.59160823 0 23
7.5354457 -0.51037925 -0.52183008 0 24
7.5419393 -0.51081908 -0.45246348 0 25
