# .PCD v0.7 - Point Cloud Data file format
VERSION 0.7
FIELDS x y z intensity ring
SIZE 4 4 4 4 2
TYPE F F F F U
COUNT 1 1 1 1 1
WIDTH 1290
HEIGHT 1
VIEWPOINT 0 0 0 1 0 0 0
POINTS 1290
DATA ascii
-2.6629469 1.7837762 -0.73473805 0 7
-2.7669649 1.8534527 -0.73126364 0 8
-2.8974607 1.9408653 -0.73219573 0 9
-2.8841741 1.9319652 -0.69556499 0 10
-2.9031494 1.9446759 -0.66677231 0 11
-2.8975372 1.9409167 -0.63229573 0 12
-2.8967023 1.9403573 -0.59904593 0 13
-2.890162 1.9359763 -0.56480455 0 14
-2.8948987 1.9391491 -0.53288567 0 15
-2.8995423 1.9422597 -0.50093573 0 16
-2.8949733 1.9391991 -0.46747968 0 17
-2.9063632 1.9468286 -0.43660453 0 18
-2.8814547 1.9301437 -0.40050307 0 19
-2.8879716 1.934509 -0.3690449 0 20
-2.9012744 1.9434199 -0.33829519 0 21
-2.8745003 1.9254851 -0.30308032 0 22
-2.892688 1.9376683 -0.27275404 0 23
-2.8936236 1.938295 -0.24063429 0 24
-2.8985307 1.9415821 -0.20882078 0 25
-2.8971407 1.9406511 -0.17654993 0 26
-2.9014959 1.9435683 -0.14462626 0 27
-2.9071341 1.947345 -0.11268023 0 28
-2.8960979 1.9399524 -0.080166772 0 29
-2.9006073 1.9429731 -0.048169523 0 30
-2.8995557 1.9422686 -0.016049782 0 31
-2.8921332 1.9372967 0.016008696 0 32
-2.8965583 1.9402608 0.048102278 0 33
-2.8995678 1.9422768 0.080262825 0 34
-2.8957293 1.9397056 0.11223819 0 35
-2.8995202 1.9422448 0.14452778 0 36
-2.8904307 1.9361562 0.17614102 0 37
-2.8905306 1.9362231 0.20824441 0 38
-2.8932328 1.9380332 0.24060179 0 39
-2.8920758 1.9372582 0.27269632 0 40
-2.8965001 1.9402219 0.30539995 0 41
-2.8878348 1.9344174 0.3367281 0 42
-2.888062 1.9345696 0.36905643 0 43
-2.8885701 1.9349099 0.40149206 0 44
-2.8940482 1.9385794 0.43475452 0 45
-2.8965373 1.9402467 0.46773222 0 46
-2.8837235 1.9316634 0.4982028 0 47
-2.8958743 1.9398025 0.53306526 0 48
-2.8858516 1.933089 0.56396216 0 49
-2.9021862 1.9440306 0.60017997 0 50
-2.8924809 1.9375296 0.63119233 0 51
-2.8986044 1.9416316 0.66572851 0 52
-2.8953137 1.9394271 0.69825149 0 53
-2.8908825 1.9364589 0.73053342 0 54
-2.891638 1.936965 0.76421267 0 55
-2.8975382 1.9409173 0.79946452 0 56
-2.8931949 1.938008 0.83205038 0 57
-2.8977382 1.9410512 0.86734325 0 58
-2.8918629 1.9371157 0.89965755 0 59
-2.8929412 1.937838 0.93424106 0 60
-2.8907282 1.9363556 0.96791762 0 61
-2.8969891 1.9405494 1.0046564 0 62
-2.8914719 1.9368538 1.0375034 0 63
-2.060164 1.3436021 -0.73323411 0 0
-2.1385109 1.3946986 -0.73561829 0 1
-2.2262349 1.4519105 -0.73938799 0 2
-2.2939317 1.4960612 -0.73480165 0 3
-2.389159 1.5581666 -0.73725015 0 4
-2.4831445 1.6194624 -0.73723191 0 5
-2.5766959 1.6804749 -0.73503047 0 6
-2.6783824 1.7467929 -0.73301506 0 7
-2.7984259 1.8250833 -0.73359174 0 8
-2.9291568 1.9103435 -0.73421377 0 9
-2.9602816 1.9306426 -0.70814067 0 10
-2.9753962 1.9405 -0.67783391 0 11
-2.9701915 1.9371057 -0.64290375 0 12
-2.9747195 1.9400587 -0.61020046 0 13
-2.985954 1.9473857 -0.57880116 0 14
-2.9776807 1.9419899 -0.54368716 0 15
-2.964839 1.9336149 -0.50807047 0 16
-2.962091 1.9318227 -0.47444606 0 17
-2.9786482 1.942621 -0.44384146 0 18
-2.9625971 1.9321527 -0.40844813 0 19
-2.9648736 1.9336374 -0.37580517 0 20
-2.9669816 1.9350123 -0.34315646 0 21
-2.971575 1.938008 -0.31077954 0 22
-2.9633412 1.932638 -0.27715427 0 23
-2.9647765 1.9335741 -0.24455567 0 24
-2.9570699 1.9285479 -0.21131369 0 25
-2.9703653 1.9372189 -0.17954697 0 26
-2.9744961 1.939913 -0.14706485 0 27
-2.9531157 1.9259691 -0.11353596 0 28
-2.9897134 1.9498376 -0.082088254 0 29
-2.964237 1.9332223 -0.048827741 0 30
-2.9826097 1.9452046 -0.01637587 0 31
-2.9706354 1.9373951 0.016310126 0 32
-2.9666088 1.9347692 0.048866808 0 33
-2.9584382 1.9294404 0.08122953 0 34
-2.9689765 1.9363133 0.11414575 0 35
-2.9662979 1.9345664 0.14665952 0 36
-2.9755759 1.9406172 0.17986195 0 37
-2.9769824 1.9415345 0.21273667 0 38
-2.9709849 1.9376231 0.24506778 0 39
-2.9654055 1.9339843 0.27734733 0 40
-2.9774165 1.9418176 0.31139046 0 41
-2.9597471 1.930294 0.3423197 0 42
-2.969229 1.9364779 0.37635723 0 43
-2.9642885 1.9332558 0.40868133 0 44
-2.9726214 1.9386904 0.44294342 0 45
-2.9587948 1.929673 0.47391814 0 46
-2.9758754 1.9408126 0.50996172 0 47
-2.9757664 1.9407415 0.54333764 0 48
-2.9784999 1.9425242 0.57735622 0 49
-2.9692826 1.9365129 0.60908526 0 50
-2.967525 1.9353666 0.64232659 0 51
-2.9694252 1.9366058 0.67647362 0 52
-2.9660156 1.9343822 0.70951235 0 53
-2.9613361 1.9313303 0.74227977 0 54
-2.9844356 1.9463954 0.7823531 0 55
-2.9726293 1.9386955 0.81354403 0 56
-2.9684267 1.9359547 0.84677601 0 57
-2.9664102 1.9346396 0.88071084 0 58
-2.974638 1.9400055 0.91791809 0 59
-2.9812748 1.9443339 0.95497417 0 60
-2.9645865 1.9334502 0.98461294 0 61
-2.9651299 1.9338045 1.0199637 0 62
-2.976126 1.940976 1.0592346 0 63
-2.0825226 1.3219745 -0.73535055 0 0
-2.1600969 1.3712184 -0.7371878 0 1
-2.2214735 1.4101799 -0.73199213 0 2
-2.3170369 1.4708431 -0.73635364 0 3
-2.4072223 1.5280923 -0.73697013 0 4
-2.501967 1.5882357 -0.73696619 0 5
-2.6029224 1.6523217 -0.73666036 0 6
-2.7041085 1.7165542 -0.73422354 0 7
-2.8393924 1.8024317 -0.73846495 0 8
-2.9607053 1.8794405 -0.73627323 0 9
-3.0534298 1.9383014 -0.72466677 0 10
-3.0479693 1.9348352 -0.68889487 0 11
-3.0480881 1.9349107 -0.65456522 0 12
-3.0490994 1.9355526 -0.62052894 0 13
-3.0404499 1.9300619 -0.58472008 0 14
-3.0416796 1.9308425 -0.55099583 0 15
-3.0420876 1.9311014 -0.51719987 0 16
-3.0381079 1.9285752 -0.48278695 0 17
-3.0469832 1.9342092 -0.45044586 0 18
-3.0489306 1.9354454 -0.41703814 0 19
-3.0413496 1.9306331 -0.38246068 0 20
-3.0504587 1.9364154 -0.35003084 0 21
-3.0532584 1.9381926 -0.31680581 0 22
-3.0608423 1.9430069 -0.28401726 0 23
-3.04831 1.9350516 -0.24946453 0 24
-3.0383749 1.9287448 -0.21541272 0 25
-3.0433085 1.9318765 -0.18250641 0 26
-3.0587347 1.941669 -0.15003796 0 27
-3.0328665 1.925248 -0.11568317 0 28
-3.0601325 1.9425564 -0.083359584 0 29
-3.0344715 1.9262669 -0.049590744 0 30
-3.0414722 1.9307108 -0.01656745 0 31
-3.048744 1.9353269 0.016607061 0 32
-3.0431781 1.9317937 0.049733032 0 33
-3.0293391 1.9230088 0.082520753 0 34
-3.0466282 1.9339838 0.11620808 0 35
-3.0658841 1.9462074 0.15038866 0 36
-3.0483458 1.9350742 0.18280849 0 37
-3.0537114 1.9384803 0.21650003 0 38
-3.0502968 1.9363127 0.24962711 0 39
-3.0609698 1.9430878 0.28402907 0 40
-3.0522294 1.9375396 0.31669906 0 41
-3.0572994 1.9407579 0.3508158 0 42
-3.0341115 1.9260383 0.38155046 0 43
-3.0510969 1.9368205 0.41733441 0 44
-3.0425141 1.9313723 0.44978517 0 45
-3.0536618 1.9384488 0.48525864 0 46
-3.0492954 1.9356769 0.51842535 0 47
-3.0538266 1.9385533 0.55319625 0 48
-3.0487552 1.9353341 0.5863173 0 49
-3.045089 1.9330068 0.61971271 0 50
-3.0404038 1.9300327 0.65291506 0 51
-3.0574853 1.9408759 0.69104564 0 52
-3.0427697 1.9315345 0.72213686 0 53
-3.0514162 1.9370232 0.75883132 0 54
-3.0515676 1.9371194 0.79364723 0 55
-3.0389495 1.9291095 0.82514006 0 56
-3.0438213 1.9322021 0.86144042 0 57
-3.0562332 1.940081 0.9002279 0 58
-3.0534794 1.9383329 0.93482149 0 59
-3.0455334 1.9332889 0.9678697 0 60
-3.0596387 1.9422429 1.0081738 0 61
-3.0507722 1.9366145 1.0411533 0 62
-3.0455451 1.9332962 1.0753993 0 63
-2.0987499 1.2963494 -0.73539627 0 0
-2.1815846 1.3475145 -0.7388103 0 1
-2.2384501 1.3826391 -0.73192859 0 2
-2.3395889 1.4451102 -0.7378177 0 3
-2.4141841 1.4911859 -0.73343241 0 4
-2.5130334 1.5522429 -0.73454821 0 5
-2.6205935 1.6186801 -0.73597276 0 6
-2.7281294 1.6851026 -0.73506403 0 7
-2.8634565 1.7686911 -0.73901129 0 8
-2.9740145 1.8369802 -0.73391014 0 9
-3.1192567 1.926693 -0.73461121 0 10
-3.1270437 1.9315028 -0.70134598 0 11
-3.1320951 1.934623 -0.66744632 0 12
-3.1299512 1.9332987 -0.63209736 0 13
-3.1315746 1.9343014 -0.5976252 0 14
-3.1392865 1.939065 -0.56431532 0 15
-3.1401973 1.9396274 -0.52978498 0 16
-3.1352489 1.9365709 -0.49440214 0 17
-3.133384 1.9354191 -0.45966575 0 18
-3.1464119 1.9434661 -0.42707071 0 19
-3.150481 1.9459795 -0.3931455 0 20
-3.1466959 1.9436415 -0.35830426 0 21
-3.1300285 1.9333465 -0.32228041 0 22
-3.1271851 1.9315902 -0.28794754 0 23
-3.1389709 1.93887 -0.25491357 0 24
-3.1442401 1.9421246 -0.22120842 0 25
-3.1273639 1.9317006 -0.18610865 0 26
-3.1457207 1.9430392 -0.15312126 0 27
-3.13868 1.9386903 -0.11880095 0 28
-3.1339786 1.9357864 -0.084716372 0 29
-3.1289005 1.9326497 -0.05074174 0 30
-3.1385775 1.938627 -0.016965266 0 31
-3.1304307 1.9335949 0.01692123 0 32
-3.1409934 1.9401191 0.050937846 0 33
-3.1382992 1.9384551 0.084833167 0 34
-3.1489799 1.9450523 0.1191908 0 35
-3.1332583 1.9353415 0.15251465 0 36
-3.1229095 1.9289492 0.18584357 0 37
-3.1347651 1.9362721 0.22054183 0 38
-3.1138279 1.9233398 0.25287172 0 39
-3.1430535 1.9413917 0.28940865 0 40
-3.1399291 1.9394618 0.3232998 0 41
-3.1346877 1.9362243 0.35693693 0 42
-3.1324916 1.9348677 0.39090061 0 43
-3.1339374 1.9357609 0.42537752 0 44
-3.1381085 1.9383373 0.46035883 0 45
-3.1395988 1.9392579 0.49508813 0 46
-3.1305146 1.9336467 0.52815145 0 47
-3.1443717 1.942206 0.56522942 0 48
-3.1315253 1.934271 0.59761584 0 49
-3.1350493 1.9364477 0.63312697 0 50
-3.1319249 1.9345177 0.66741002 0 51
-3.1245418 1.9299575 0.70078486 0 52
-3.150044 1.9457095 0.74186182 0 53
-3.1403594 1.9397277 0.7749598 0 54
-3.1323724 1.9347942 0.8084141 0 55
-3.1453981 1.9428399 0.8474924 0 56
-3.1304712 1.9336199 0.87916785 0 57
-3.1432607 1.9415197 0.91876078 0 58
-3.1304898 1.9336314 0.951047 0 59
-3.134155 1.9358953 0.98839372 0 60
-3.1423669 1.9409677 1.0274915 0 61
-3.148664 1.9448572 1.0663192 0 62
-3.1298542 1.9332389 1.0966924 0 63
-2.1101561 1.267818 -0.73387492 0 0
-2.182229 1.3111206 -0.73351324 0 1
-2.2605162 1.3581569 -0.73362756 0 2
-2.3580356 1.4167482 -0.73808539 0 3
-2.4282467 1.4589323 -0.73219919 0 4
-2.5317969 1.5211469 -0.73450983 0 5
-2.6200924 1.5741963 -0.73034054 0 6
-2.7452497 1.6493931 -0.73415673 0 7
-2.882951 1.7321264 -0.73848975 0 8
-3.0063777 1.8062832 -0.73635983 0 9
-3.1363099 1.8843486 -0.73311502 0 10
-3.2128482 1.9303342 -0.71521282 0 11
-3.2237229 1.936868 -0.68184531 0 12
-3.2278607 1.9393539 -0.64700544 0 13
-3.2235885 1.9367871 -0.61059391 0 14
-3.221554 1.9355649 -0.57478184 0 15
-3.2175992 1.9331887 -0.53879231 0 16
-3.2147665 1.9314867 -0.50315815 0 17
-3.2217681 1.9356934 -0.46910441 0 18
-3.2168376 1.932731 -0.43337122 0 19
-3.2094834 1.9283125 -0.39751938 0 20
-3.2237611 1.9368908 -0.36433992 0 21
-3.2199867 1.9346231 -0.32906854 0 22
-3.2140737 1.9310704 -0.29373947 0 23
-3.2284942 1.9397346 -0.26022702 0 24
-3.2122724 1.9299883 -0.22430815 0 25
-3.2167108 1.932655 -0.18999706 0 26
-3.2206101 1.9349978 -0.15559666 0 27
-3.220052 1.9346625 -0.12097134 0 28
-3.2083023 1.9276029 -0.086078227 0 29
-3.2198212 1.9345238 -0.051826522 0 30
-3.2278619 1.9393547 -0.017317671 0 31
-3.2178695 1.933351 0.017264061 0 32
-3.223099 1.936493 0.051879279 0 33
-3.2187264 1.9338659 0.086357906 0 34
-3.222393 1.9360689 0.12105928 0 35
-3.2237194 1.9368658 0.15574686 0 36
-3.2198122 1.9345182 0.19018023 0 37
-3.2245548 1.9373678 0.22516581 0 38
-3.2163544 1.9324408 0.25924852 0 39
-3.2045062 1.9253222 0.2928651 0 40
-3.2053561 1.9258329 0.32757339 0 41
-3.2284515 1.9397088 0.36487001 0 42
-3.2208388 1.935135 0.39892581 0 43
-3.23225 1.9419912 0.4354476 0 44
-3.2146344 1.9314073 0.46806571 0 45
-3.2144399 1.9312905 0.50310701 0 46
-3.2279351 1.9393988 0.54052311 0 47
-3.2220647 1.9358716 0.57487291 0 48
-3.2182605 1.933586 0.60958475 0 49
-3.2267036 1.9386588 0.64677352 0 50
-3.2202485 1.9347805 0.68111038 0 51
-3.2228515 1.9363444 0.71743965 0 52
-3.2194717 1.9343138 0.75255418 0 53
-3.2262554 1.9383895 0.79021502 0 54
-3.2058666 1.9261395 0.82120699 0 55
-3.2215471 1.9355606 0.86153197 0 56
-3.221452 1.9355035 0.89796716 0 57
-3.2155573 1.9319619 0.93287832 0 58
-3.2219837 1.935823 0.97153789 0 59
-3.2224894 1.9361267 1.0086668 0 60
-3.2181094 1.9334952 1.0444046 0 61
-3.2309563 1.9412138 1.0860221 0 62
-3.2101836 1.9287333 1.1164451 0 63
-2.1226711 1.2400742 -0.73286879 0 0
-2.2000394 1.2852731 -0.73413199 0 1
-2.2839441 1.3342906 -0.73585045 0 2
-2.359844 1.3786317 -0.73328978 0 3
-2.4552429 1.4343642 -0.73496556 0 4
-2.5509906 1.4903004 -0.73470622 0 5
-2.6522138 1.5494355 -0.73392791 0 6
-2.7676737 1.6168877 -0.73478097 0 7
-2.8978634 1.692945 -0.73692143 0 8
-3.0259047 1.7677474 -0.73576289 0 9
-3.1779256 1.8565588 -0.73745066 0 10
-3.320528 1.9398676 -0.73381793 0 11
-3.3225355 1.9410404 -0.69764394 0 12
-3.3113129 1.9344842 -0.6589151 0 13
-3.3106484 1.9340961 -0.62253249 0 14
-3.3182979 1.9385649 -0.58774513 0 15
-3.3146126 1.9364119 -0.55100852 0 16
-3.3147476 1.9364907 -0.51504076 0 17
-3.3109071 1.9342471 -0.47858417 0 18
-3.3062172 1.9315072 -0.44217929 0 19
-3.317322 1.9379947 -0.4078936 0 20
-3.3130786 1.9355158 -0.37171644 0 21
-3.3139703 1.9360367 -0.33621496 0 22
-3.3191547 1.9390653 -0.30114111 0 23
-3.3191457 1.9390601 -0.26559186 0 24
-3.3142724 1.9362131 -0.22975078 0 25
-3.3116364 1.9346733 -0.19418406 0 26
-3.3118715 1.9348105 -0.15884431 0 27
-3.30336 1.9298381 -0.12320025 0 28
-3.3192894 1.9391441 -0.088409565 0 29
-3.3119447 1.9348533 -0.052922394 0 30
-3.3129234 1.935425 -0.017645014 0 31
-3.3060679 1.9314201 0.017608503 0 32
-3.3151979 1.9367539 0.052974377 0 33
-3.3204486 1.9398214 0.088440441 0 34
-3.3221984 1.9408435 0.12390283 0 35
-3.2992325 1.9274267 0.15823811 0 36
-3.3167653 1.9376695 0.19448482 0 37
-3.3097463 1.933569 0.22943701 0 38
-3.3129439 1.9354371 0.26509562 0 39
-3.3143344 1.9362494 0.30070379 0 40
-3.3102422 1.9338586 0.33583671 0 41
-3.3283982 1.9444655 0.37343523 0 42
-3.3150339 1.936658 0.40761223 0 43
-3.3080726 1.9325911 0.44242743 0 44
-3.330373 1.9456192 0.48139796 0 45
-3.3184593 1.9386591 0.51561749 0 46
-3.3196592 1.9393601 0.55184746 0 47
-3.3104067 1.9339548 0.58634746 0 48
-3.3197093 1.9393893 0.62423629 0 49
-3.3198948 1.9394977 0.66062278 0 50
-3.2965815 1.925878 0.69219428 0 51
-3.3165686 1.9375546 0.73294294 0 52
-3.3048525 1.93071 0.76690453 0 53
-3.3090074 1.9331374 0.80460066 0 54
-3.302187 1.9291527 0.83974022 0 55
-3.3219075 1.9406737 0.88192278 0 56
-3.3246076 1.942251 0.91999459 0 57
-3.3239806 1.9418846 0.95733356 0 58
-3.3234062 1.9415492 0.99484617 0 59
-3.3114192 1.9345462 1.0289789 0 60
-3.3143079 1.9362339 1.0678173 0 61
-3.3163695 1.9374382 1.1066407 0 62
-3.3147023 1.9364643 1.1444269 0 63
-2.1443033 1.2175977 -0.73511267 0 0
-2.2096922 1.2547275 -0.7321493 0 1
-2.2993467 1.3056358 -0.7355848 0 2
-2.397398 1.3613122 -0.73970169 0 3
-2.4695835 1.4023013 -0.73404115 0 4
-2.5796328 1.4647903 -0.73771203 0 5
-2.6739399 1.5183407 -0.73471802 0 6
-2.7990794 1.5893986 -0.73787433 0 7
-2.8869829 1.6393127 -0.72897339 0 8
-3.043982 1.7284614 -0.73493487 0 9
-3.196481 1.8150547 -0.73652166 0 10
-3.3441975 1.8989325 -0.73383301 0 11
-3.4140172 1.9385781 -0.7117936 0 12
-3.4101734 1.9363954 -0.6737982 0 13
-3.4108109 1.9367576 -0.63684064 0 14
-3.4106891 1.9366883 -0.5998463 0 15
-3.3995621 1.9303701 -0.56114185 0 16
-3.4149961 1.939134 -0.52687252 0 17
-3.4072258 1.9347218 -0.48903105 0 18
-3.4090545 1.93576 -0.45271525 0 19
-3.398082 1.9295295 -0.414875 0 20
-3.4263072 1.9455566 -0.38170728 0 21
-3.4061825 1.9341292 -0.34313139 0 22
-3.3862798 1.9228281 -0.30506304 0 23
-3.4148524 1.9390523 -0.27132171 0 24
-3.4151516 1.9392222 -0.23507309 0 25
-3.4142621 1.9387171 -0.19878882 0 26
-3.4110856 1.9369135 -0.16244823 0 27
-3.4071259 1.934665 -0.12617347 0 28
-3.4081216 1.9352304 -0.090134986 0 29
-3.4053016 1.933629 -0.054030143 0 30
-3.4095433 1.9360377 -0.018031465 0 31
-3.4111867 1.9369708 0.018040156 0 32
-3.405771 1.9338957 0.054037593 0 33
-3.4085085 1.9354501 0.090145215 0 34
-3.4148743 1.9390649 0.1264604 0 35
-3.3981302 1.9295571 0.16183124 0 36
-3.4047153 1.9332962 0.19823298 0 37
-3.4099982 1.936296 0.23471837 0 38
-3.3942499 1.9273536 0.26968479 0 39
-3.4103436 1.9364921 0.30723089 0 40
-3.4009364 1.9311504 0.34260294 0 41
-3.4065809 1.9343556 0.37950969 0 42
-3.3991203 1.9301193 0.41500178 0 43
-3.4115961 1.9372033 0.45305279 0 44
-3.4075174 1.9348873 0.48907289 0 45
-3.4062474 1.9341661 0.52552271 0 46
-3.4184844 1.9411148 0.56426525 0 47
-3.4125447 1.937742 0.60017264 0 48
-3.4074271 1.934836 0.63620883 0 49
-3.4163475 1.9399014 0.67501813 0 50
-3.4135993 1.9383408 0.71170646 0 51
-3.402545 1.9320638 0.74663651 0 52
-3.4022126 1.9318751 0.78392559 0 53
-3.4060233 1.9340389 0.82234561 0 54
-3.4122045 1.9375488 0.86159366 0 55
-3.400336 1.9308095 0.89637351 0 56
-3.4167798 1.9401468 0.93882799 0 57
-3.4109855 1.9368565 0.97545862 0 58
-3.4040196 1.932901 1.0117861 0 59
-3.4053681 1.9336668 1.0507044 0 60
-3.4110861 1.9369137 1.0912417 0 61
-3.4152477 1.9392768 1.1315925 0 62
-3.4180923 1.940892 1.1717945 0 63
-2.1544361 1.1885605 -0.73352063 0 0
-2.2243173 1.2271127 -0.73194021 0 1
-2.3126919 1.2758671 -0.73477948 0 2
-2.3984928 1.3232018 -0.73496372 0 3
-2.4953268 1.3766233 -0.7366057 0 4
-2.5867541 1.4270619 -0.73467475 0 5
-2.6835749 1.4804761 -0.73230797 0 6
-2.8173363 1.5542697 -0.73759311 0 7
-2.9083409 1.6044751 -0.72932947 0 8
-3.0626466 1.6896026 -0.73436952 0 9
-3.2100952 1.7709471 -0.7345854 0 10
-3.3638365 1.8557632 -0.73307973 0 11
-3.4974809 1.9294922 -0.72419369 0 12
-3.4901884 1.9254692 -0.68487805 0 13
-3.4904099 1.9255913 -0.64723283 0 14
-3.5026658 1.9323525 -0.61179727 0 15
-3.5114081 1.9371756 -0.5756281 0 16
-3.5067205 1.9345896 -0.53731316 0 17
-3.5027082 1.932376 -0.49928725 0 18
-3.5129023 1.938 -0.46330637 0 19
-3.5050042 1.9336426 -0.42499414 0 20
-3.514672 1.9389763 -0.38886601 0 21
-3.5008774 1.9313661 -0.35025188 0 22
-3.4959528 1.9286492 -0.31278312 0 23
-3.4986699 1.9301481 -0.27607468 0 24
-3.4948916 1.9280638 -0.23891182 0 25
-3.4896019 1.9251455 -0.20178179 0 26
-3.5063131 1.9343648 -0.16583799 0 27
-3.5015156 1.9317181 -0.12877955 0 28
-3.4951553 1.9282093 -0.091802768 0 29
-3.509057 1.9358786 -0.055294506 0 30
-3.4949067 1.9280721 -0.018356141 0 31
-3.5024705 1.9322449 0.018395867 0 32
-3.4933755 1.9272274 0.0550474 0 33
-3.5001912 1.9309875 0.091935039 0 34
-3.4930353 1.9270396 0.12846765 0 35
-3.4980614 1.9298124 0.16544771 0 36
-3.5071552 1.9348294 0.20279679 0 37
-3.4983299 1.9299606 0.23914686 0 38
-3.5021658 1.9320768 0.27635056 0 39
-3.5034225 1.93277 0.31345141 0 40
-3.5088241 1.9357501 0.35104692 0 41
-3.4968019 1.9291176 0.38688883 0 42
-3.4878914 1.924202 0.42291918 0 43
-3.4937968 1.9274597 0.46078658 0 44
-3.505779 1.9340701 0.49972495 0 45
-3.5002522 1.9310211 0.53632206 0 46
-3.498991 1.9303254 0.5735926 0 47
-3.5038314 1.9329957 0.61200082 0 48
-3.4980659 1.9298149 0.64865249 0 49
-3.4983568 1.9299755 0.68648094 0 50
-3.4967182 1.9290714 0.72403574 0 51
-3.4886892 1.924642 0.76028883 0 52
-3.5059249 1.9341506 0.80228192 0 53
-3.5020509 1.9320134 0.83973104 0 54
-3.5023181 1.9321609 0.87828219 0 55
-3.5015266 1.9317242 0.91671765 0 56
-3.4989951 1.9303275 0.95482415 0 57
-3.506819 1.9346439 0.99598622 0 58
-3.5000212 1.9308937 1.0331856 0 59
-3.4915562 1.9262236 1.0699083 0 60
-3.5061073 1.9342512 1.1139468 0 61
-3.5044172 1.9333189 1.1531736 0 62
-3.5115418 1.9372494 1.1955743 0 63
-2.1906033 1.1736151 -0.74086505 0 0
-2.2604496 1.2110353 -0.73887396 0 1
-2.318732 1.2422601 -0.73179001 0 2
-2.4020975 1.2869229 -0.73116392 0 3
-2.5035086 1.341254 -0.73409694 0 4
-2.5965514 1.3911016 -0.73254371 0 5
-2.7049911 1.4491982 -0.73323393 0 6
-2.8247597 1.5133643 -0.73460919 0 7
-2.9420741 1.5762153 -0.73287296 0 8
-3.0900176 1.655476 -0.73599583 0 9
-3.2294371 1.73017 -0.73408753 0 10
-3.3873365 1.8147645 -0.73328251 0 11
-3.5730407 1.9142556 -0.73490971 0 12
-3.600173 1.9287916 -0.7017532 0 13
-3.6001143 1.9287603 -0.66312754 0 14
-3.5971985 1.9271981 -0.62412256 0 15
-3.6028147 1.9302069 -0.58667725 0 16
-3.6091526 1.9336025 -0.5493235 0 17
-3.6085978 1.9333053 -0.51095378 0 18
-3.6010842 1.9292799 -0.47177196 0 19
-3.6066928 1.9322847 -0.43441042 0 20
-3.6014249 1.9294624 -0.39580947 0 21
-3.6082287 1.9331075 -0.35858676 0 22
-3.6169884 1.9378005 -0.32145599 0 23
-3.6090991 1.9335738 -0.28289098 0 24
-3.5941172 1.9255472 -0.24405786 0 25
-3.5981786 1.9277232 -0.20667382 0 26
-3.5964344 1.9267887 -0.1689671 0 27
-3.6062093 1.9320257 -0.13174629 0 28
-3.6023731 1.9299704 -0.093988486 0 29
-3.6054053 1.931595 -0.056434192 0 30
-3.5972908 1.9272475 -0.018767999 0 31
-3.6023898 1.9299793 0.018794602 0 32
-3.59672 1.9269418 0.056298241 0 33
-3.610589 1.9343721 0.094202839 0 34
-3.6004806 1.9289565 0.13153701 0 35
-3.5969093 1.9270431 0.16898941 0 36
-3.6094997 1.9337884 0.20732409 0 37
-3.597023 1.927104 0.24425519 0 38
-3.6045277 1.9311247 0.28253266 0 39
-3.6111715 1.934684 0.32093897 0 40
-3.6027355 1.9301646 0.35804087 0 41
-3.6032956 1.9304646 0.39601505 0 42
-3.614459 1.9364454 0.4353458 0 43
-3.6067982 1.9323411 0.47252053 0 44
-3.6126392 1.9354705 0.51152605 0 45
-3.6185606 1.9386427 0.55075544 0 46
-3.6089935 1.9335173 0.58768344 0 47
-3.6112573 1.9347301 0.62656182 0 48
-3.5994613 1.9284103 0.66300726 0 49
-3.5922761 1.9245609 0.70021391 0 50
-3.5987616 1.9280355 0.74019998 0 51
-3.6006076 1.9290245 0.77945089 0 52
-3.612505 1.9353985 0.82116318 0 53
-3.6123328 1.9353062 0.86040348 0 54
-3.5935359 1.9252357 0.89515263 0 55
-3.6218131 1.9403853 0.94189143 0 56
-3.6013327 1.929413 0.97620255 0 57
-3.5907366 1.9237361 1.013025 0 58
-3.5924675 1.9246634 1.0534093 0 59
-3.6001353 1.9287715 1.0958294 0 60
-3.6016665 1.9295918 1.1366831 0 61
-3.606303 1.9320757 1.1787934 0 62
-3.6052017 1.9314858 1.2192841 0 63
-2.1828592 1.1351466 -0.73346978 0 0
-2.2656469 1.1781985 -0.73578155 0 1
-2.3533447 1.2238036 -0.73790866 0 2
-2.4192815 1.2580926 -0.73163033 0 3
-2.52034 1.3106458 -0.73425108 0 4
-2.6312726 1.3683337 -0.73753667 0 5
-2.7263243 1.4177632 -0.73423547 0 6
-2.8311775 1.4722899 -0.73151475 0 7
-2.9696016 1.5442742 -0.73494434 0 8
-3.1108034 1.617703 -0.73615307 0 9
-3.2695041 1.7002317 -0.73838705 0 10
-3.4101913 1.7733929 -0.73345399 0 11
-3.5996015 1.8718914 -0.73558283 0 12
-3.7050228 1.9267135 -0.71751845 0 13
-3.7122977 1.9304965 -0.67936742 0 14
-3.7145174 1.9316508 -0.64030814 0 15
-3.704634 1.926511 -0.59935451 0 16
-3.7052038 1.9268074 -0.56029427 0 17
-3.7178137 1.933365 -0.52301234 0 18
-3.7152188 1.9320155 -0.48357561 0 19
-3.7157454 1.9322895 -0.44464988 0 20
-3.7163513 1.9326046 -0.40579784 0 21
-3.7081864 1.9283584 -0.3661364 0 22
-3.7052691 1.9268414 -0.32717136 0 23
-3.7117896 1.9302323 -0.28905785 0 24
-3.7057228 1.9270774 -0.25000843 0 25
-3.6936612 1.920805 -0.21078561 0 26
-3.7136357 1.9311923 -0.17334464 0 27
-3.7013288 1.9247923 -0.13434647 0 28
-3.7088513 1.9287043 -0.096140534 0 29
-3.7183158 1.9336261 -0.057824999 0 30
-3.7060072 1.9272254 -0.019210111 0 31
-3.6973212 1.9227084 0.019165087 0 32
-3.7011635 1.9247065 0.057558257 0 33
-3.7018983 1.9250885 0.095960289 0 34
-3.7126133 1.9306606 0.13475607 0 35
-3.7147102 1.9317511 0.1733948 0 36
-3.7054856 1.9269539 0.21146038 0 37
-3.7097526 1.929173 0.25028032 0 38
-3.6904969 1.9191594 0.28739968 0 39
-3.7178559 1.9333869 0.32828277 0 40
-3.7040174 1.9261905 0.36572477 0 41
-3.7006075 1.9244173 0.40407872 0 42
-3.7159517 1.9323967 0.44467455 0 43
-3.7063501 1.9274036 0.48242125 0 44
-3.7088146 1.9286852 0.52174634 0 45
-3.7026308 1.9254694 0.55990523 0 46
-3.710644 1.9296365 0.60032684 0 47
-3.7052855 1.9268501 0.63871676 0 48
-3.70895 1.9287555 0.67875475 0 49
-3.7047992 1.926597 0.71747512 0 50
-3.7031701 1.9257499 0.75674719 0 51
-3.7004676 1.9243445 0.7958858 0 52
-3.7122483 1.9304708 0.83837676 0 53
-3.7091105 1.9288391 0.87773889 0 54
-3.7148516 1.9318246 0.91938567 0 55
-3.704977 1.9266895 0.95728546 0 56
-3.7122869 1.9304909 0.99976838 0 57
-3.707217 1.9278544 1.0391202 0 58
-3.699589 1.9238876 1.0778019 0 59
-3.7121997 1.9304456 1.1226299 0 60
-3.7107384 1.9296856 1.1635295 0 61
-3.7074656 1.9279838 1.2040203 0 62
-3.7231488 1.9361393 1.2510276 0 63
-2.185935 1.1028149 -0.72989154 0 0
-2.2775688 1.1490445 -0.73500913 0 1
-2.3333154 1.177169 -0.72703463 0 2
-2.4367981 1.2293766 -0.73230064 0 3
-2.5459342 1.2844362 -0.73705047 0 4
-2.6447079 1.3342681 -0.73664814 0 5
-2.7448583 1.3847944 -0.73458546 0 6
-2.8494425 1.4375576 -0.73161137 0 7
-2.9775889 1.5022081 -0.73229414 0 8
-3.1357815 1.5820171 -0.73740476 0 9
-3.2755387 1.6525252 -0.73510522 0 10
-3.4313846 1.7311502 -0.73337835 0 11
-3.6149151 1.8237423 -0.734074 0 12
-3.8294239 1.9319631 -0.73695374 0 13
-3.8348067 1.9346787 -0.69738078 0 14
-3.8266206 1.9305487 -0.65549082 0 15
-3.8214905 1.9279605 -0.61437827 0 16
-3.8057253 1.920007 -0.57188159 0 17
-3.8179276 1.9261631 -0.53372377 0 18
-3.8232765 1.9288616 -0.49451593 0 19
-3.8314409 1.9329807 -0.45561597 0 20
-3.8204458 1.9274335 -0.41454488 0 21
-3.8242228 1.9293389 -0.37522271 0 22
-3.8268025 1.9306405 -0.33578104 0 23
-3.8250558 1.9297593 -0.29600823 0 24
-3.8251233 1.9297934 -0.25644353 0 25
-3.8207564 1.9275903 -0.21666953 0 26
-3.830018 1.9322628 -0.17765462 0 27
-3.8215427 1.9279869 -0.13783894 0 28
-3.8411801 1.9378941 -0.098945566 0 29
-3.8345468 1.9345474 -0.059258133 0 30
-3.839143 1.9368664 -0.019775271 0 31
-3.8300467 1.9322772 0.019728417 0 32
-3.8325627 1.9335465 0.05922747 0 33
-3.8253071 1.9298861 0.098536693 0 34
-3.8328516 1.9336922 0.13824683 0 35
-3.8151264 1.9247499 0.17696388 0 36
-3.8187945 1.9266005 0.21655826 0 37
-3.8282661 1.931379 0.25665423 0 38
-3.8196049 1.9270092 0.29558638 0 39
-3.8213511 1.9278902 0.33530268 0 40
-3.8228278 1.9286352 0.37508583 0 41
-3.8227572 1.9285996 0.41479573 0 42
-3.8273432 1.9309132 0.45512867 0 43
-3.8323517 1.9334401 0.49568972 0 44
-3.8202534 1.9273365 0.53404891 0 45
-3.8277133 1.9311 0.57518572 0 46
-3.8148696 1.9246203 0.61331385 0 47
-3.8254979 1.9299823 0.65529853 0 48
-3.8187027 1.9265541 0.69445217 0 49
-3.8143599 1.9243631 0.73405468 0 50
-3.8150826 1.9247277 0.77472162 0 51
-3.8141487 1.9242566 0.81518531 0 52
-3.830997 1.9327567 0.85976267 0 53
-3.8282907 1.9313912 0.90025401 0 54
-3.819917 1.9271666 0.93945235 0 55
-3.8209004 1.9276628 0.98103899 0 56
-3.810781 1.9225576 1.0198503 0 57
-3.827122 1.9308016 1.0659938 0 58
-3.8310332 1.9327749 1.1090879 0 59
-3.8290651 1.931782 1.1507013 0 60
-3.8151598 1.9247667 1.1887605 0 61
-3.8126981 1.9235247 1.2304208 0 62
-3.8261924 1.9303327 1.2775793 0 63
-2.2091765 1.0806712 -0.73315948 0 0
-2.2833097 1.1169351 -0.73237419 0 1
-2.360287 1.1545904 -0.73095965 0 2
-2.4611795 1.2039444 -0.73512316 0 3
-2.5536096 1.2491589 -0.73477018 0 4
-2.6443381 1.2935408 -0.73205936 0 5
-2.7692358 1.3546375 -0.73659593 0 6
-2.8813598 1.4094856 -0.73530072 0 7
-3.024482 1.4794972 -0.73929673 0 8
-3.1364834 1.5342853 -0.73307788 0 9
-3.2850275 1.6069492 -0.73274481 0 10
-3.4543657 1.689785 -0.73379368 0 11
-3.646208 1.7836293 -0.73591924 0 12
-3.8489082 1.8827848 -0.73619229 0 13
-3.9406931 1.9276836 -0.71227235 0 14
-3.9366183 1.9256903 -0.67022634 0 15
-3.9410143 1.9278407 -0.62973529 0 16
-3.9346244 1.9247149 -0.58765024 0 17
-3.9293969 1.9221578 -0.54596114 0 18
-3.9342179 1.9245161 -0.50576633 0 19
-3.9473789 1.9309541 -0.46654394 0 20
-3.9420376 1.9283413 -0.42513344 0 21
-3.9369555 1.9258553 -0.38393119 0 22
-3.9488559 1.9316766 -0.34438035 0 23
-3.9369807 1.9258677 -0.30281422 0 24
-3.9228153 1.9189383 -0.26139131 0 25
-3.9451222 1.9298502 -0.22235961 0 26
-3.9412415 1.9279518 -0.18170032 0 27
-3.9345214 1.9246646 -0.14104967 0 28
-3.9444799 1.929536 -0.10098767 0 29
-3.9446931 1.9296403 -0.060589042 0 30
-3.943311 1.9289641 -0.020188132 0 31
-3.9413257 1.9279929 0.020177968 0 32
-3.9384279 1.9265754 0.06049281 0 33
-3.9406865 1.9276804 0.10089055 0 34
-3.941582 1.9281185 0.14130278 0 35
-3.9326918 1.9237695 0.18130617 0 36
-3.9330995 1.9239689 0.22168195 0 37
-3.9498107 1.9321437 0.26319009 0 38
-3.9418654 1.9282571 0.30318993 0 39
-3.928401 1.9216707 0.34259647 0 40
-3.949297 1.9318924 0.38513473 0 41
-3.9436252 1.9291179 0.42530462 0 42
-3.9383504 1.9265376 0.46547687 0 43
-3.9371362 1.9259436 0.50614148 0 44
-3.9346316 1.9247185 0.54668844 0 45
-3.9411168 1.9278909 0.58861989 0 46
-3.933567 1.9241977 0.62854528 0 47
-3.9273078 1.9211359 0.66864115 0 48
-3.939955 1.9273225 0.71213889 0 49
-3.9256594 1.9203296 0.75087273 0 50
-3.9431512 1.9288861 0.79585165 0 51
-3.9357362 1.9252588 0.83604878 0 52
-3.9468346 1.9306878 0.88036472 0 53
-3.9421871 1.9284145 0.92139179 0 54
-3.9403174 1.9274999 0.96316123 0 55
-3.9416728 1.9281628 1.0058844 0 56
-3.9403145 1.9274985 1.0480942 0 57
-3.9484861 1.9314958 1.0931001 0 58
-3.9418943 1.9282712 1.1342322 0 59
-3.9324367 1.9236448 1.174569 0 60
-3.9302132 1.9225571 1.2171516 0 61
-3.9371955 1.9259727 1.2628599 0 62
-3.9435701 1.9290909 1.3087527 0 63
-2.2345595 1.0592391 -0.73720497 0 0
-2.300091 1.0903028 -0.73340106 0 1
-2.3806846 1.1285063 -0.73292375 0 2
-2.4653647 1.1686468 -0.73202568 0 3
-2.5630822 1.2149675 -0.7331416 0 4
-2.6604421 1.2611185 -0.73216915 0 5
-2.7684927 1.3123374 -0.7320506 0 6
-2.898629 1.3740253 -0.73534042 0 7
-3.0189831 1.4310763 -0.73359573 0 8
-3.1623909 1.4990554 -0.73476928 0 9
-3.3015037 1.5649984 -0.73207206 0 10
-3.4931672 1.6558518 -0.7376551 0 11
-3.6696386 1.739504 -0.73627543 0 12
-3.8706269 1.8347777 -0.7359755 0 13
-4.0670919 1.9279072 -0.73077852 0 14
-4.0606565 1.9248564 -0.68726259 0 15
-4.0652719 1.9270444 -0.64575529 0 16
-4.0575504 1.9233841 -0.60243177 0 17
-4.0585823 1.9238732 -0.56058115 0 18
-4.0575547 1.9233861 -0.51854235 0 19
-4.0803814 1.9342067 -0.47941634 0 20
-4.0596528 1.9243808 -0.43523288 0 21
-4.0686107 1.9286271 -0.39442766 0 22
-4.0549874 1.9221692 -0.35154819 0 23
-4.066226 1.9274966 -0.31090862 0 24
-4.0607977 1.9249235 -0.26898801 0 25
-4.0699811 1.9292767 -0.22804269 0 26
-4.0598655 1.9244815 -0.18606411 0 27
-4.0650678 1.9269476 -0.14486927 0 28
-4.0636024 1.9262531 -0.10342325 0 29
-4.0489745 1.919319 -0.061823595 0 30
-4.0667181 1.9277298 -0.020697005 0 31
-4.0702138 1.929387 0.020714797 0 32
-4.065639 1.9272186 0.062078048 0 33
-4.0740976 1.9312279 0.10369036 0 34
-4.05723 1.9232322 0.14458995 0 35
-4.0550389 1.9221936 0.18584292 0 36
-4.0645533 1.9267037 0.22773856 0 37
-4.0566945 1.9229785 0.26871625 0 38
-4.0711956 1.9298525 0.31128863 0 39
-4.0710115 1.9297652 0.35293746 0 40
-4.0607166 1.9248852 0.39366236 0 41
-4.065464 1.9271355 0.43585593 0 42
-4.0629706 1.9259535 0.47737068 0 43
-4.0700941 1.9293302 0.52014482 0 44
-4.0618691 1.9254314 0.56103516 0 45
-4.0677605 1.9282241 0.6039477 0 46
-4.0554581 1.9223925 0.64419639 0 47
-4.0663996 1.9275789 0.68823463 0 48
-4.0633726 1.926144 0.73011017 0 49
-4.0636086 1.9262559 0.77266979 0 50
-4.0631013 1.9260155 0.8152197 0 51
-4.0623498 1.9256593 0.85784996 0 52
-4.0783339 1.933236 0.90432554 0 53
-4.0519395 1.9207245 0.94145244 0 54
-4.064734 1.9267895 0.98770732 0 55
-4.0556655 1.9224906 1.0288639 0 56
-4.05478 1.922071 1.0721734 0 57
-4.0710845 1.9297997 1.1203861 0 58
-4.0820618 1.935003 1.167629 0 59
-4.0769219 1.9325668 1.2105355 0 60
-4.0717082 1.9300954 1.2535267 0 61
-4.0684338 1.9285432 1.2972503 0 62
-4.0617223 1.9253616 1.3400054 0 63
-2.253756 1.034595 -0.73928517 0 0
-2.3156495 1.0630076 -0.73413867 0 1
-2.393893 1.0989255 -0.73277462 0 2
-2.5010109 1.1480983 -0.73836225 0 3
-2.5824525 1.1854844 -0.73445708 0 4
-2.6667969 1.2242031 -0.72972018 0 5
-2.8128369 1.2912433 -0.73952186 0 6
-2.9045658 1.3333517 -0.73263186 0 7
-3.0361955 1.3937769 -0.73355824 0 8
-3.1877754 1.4633602 -0.7364307 0 9
-3.3439381 1.5350473 -0.7372402 0 10
-3.4950097 1.6043972 -0.73382264 0 11
-3.6907668 1.6942602 -0.73627889 0 12
-3.8672409 1.7752714 -0.73112565 0 13
-4.1081553 1.8858639 -0.73393458 0 14
-4.1926346 1.9246445 -0.70554096 0 15
-4.1949801 1.9257212 -0.66254747 0 16
-4.1835318 1.9204658 -0.61758363 0 17
-4.1800179 1.9188528 -0.57405174 0 18
-4.1835084 1.9204552 -0.53158075 0 19
-4.1955276 1.9259725 -0.4901256 0 20
-4.1907034 1.923758 -0.44671288 0 21
-4.1876822 1.922371 -0.40364879 0 22
-4.1912751 1.9240204 -0.3612853 0 23
-4.1913743 1.9240661 -0.31864455 0 24
-4.1986547 1.9274081 -0.27652889 0 25
-4.1959 1.9261436 -0.23375325 0 26
-4.193234 1.9249196 -0.19107717 0 27
-4.1916304 1.9241835 -0.14852521 0 28
-4.1973114 1.9267913 -0.10621525 0 29
-4.1896505 1.9232746 -0.063605659 0 30
-4.1961308 1.9262495 -0.021233482 0 31
-4.1924195 1.9245458 0.021214701 0 32
-4.1953607 1.9258958 0.063692346 0 33
-4.1987524 1.927453 0.10625172 0 34
-4.1833277 1.9203721 0.14823103 0 35
-4.1924605 1.9245646 0.19104193 0 36
-4.1959901 1.926185 0.23375827 0 37
-4.1883745 1.922689 0.27585182 0 38
-4.1925101 1.9245874 0.31873089 0 39
-4.1817203 1.9196342 0.36046168 0 40
-4.1904478 1.9236407 0.40391541 0 41
-4.1910768 1.9239293 0.44675267 0 42
-4.1941032 1.9253187 0.48995924 0 43
-4.202188 1.9290302 0.53395432 0 44
-4.1995935 1.9278392 0.57674015 0 45
-4.1951084 1.9257801 0.61929262 0 46
-4.2104793 1.9328363 0.66499543 0 47
-4.193625 1.9250991 0.70570761 0 48
-4.1987147 1.9274355 0.75011331 0 49
-4.2043967 1.9300439 0.79486698 0 50
-4.1882625 1.9226373 0.83552533 0 51
-4.1853242 1.9212886 0.87876314 0 52
-4.1980867 1.9271475 0.92555499 0 53
-4.1924205 1.9245462 0.96852094 0 54
-4.2064176 1.9309716 1.016289 0 55
-4.1921282 1.924412 1.0573995 0 56
-4.1952858 1.9258616 1.102981 0 57
-4.1896734 1.9232852 1.1464274 0 58
-4.1925454 1.9246037 1.1923723 0 59
-4.188561 1.9227746 1.2365701 0 60
-4.2027817 1.9293026 1.2864784 0 61
-4.1904106 1.9236236 1.3285009 0 62
-4.192256 1.9244707 1.3751588 0 63
-2.240675 0.99541897 -0.73092401 0 0
-2.3242784 1.0325596 -0.73279357 0 1
-2.4110465 1.0711064 -0.73393822 0 2
-2.4999011 1.1105801 -0.73394746 0 3
-2.5999117 1.1550097 -0.73532772 0 4
-2.696775 1.1980412 -0.73383659 0 5
-2.8041716 1.245752 -0.73316085 0 6
-2.9195704 1.2970181 -0.73233837 0 7
-3.0412116 1.3510569 -0.73070109 0 8
-3.181613 1.4134302 -0.73093671 0 9
-3.3284492 1.4786623 -0.72976154 0 10
-3.5182481 1.5629802 -0.73461097 0 11
-3.6897442 1.6391673 -0.73199862 0 12
-3.8929157 1.7294263 -0.73190385 0 13
-4.1182241 1.8295193 -0.73165905 0 14
-4.207252 1.8690699 -0.70407999 0 15
-4.2317352 1.8799466 -0.66465122 0 16
-4.2117062 1.8710487 -0.61829966 0 17
-4.2215495 1.8754215 -0.5765447 0 18
-4.2205038 1.8749571 -0.53331172 0 19
-4.2353091 1.8815342 -0.49203292 0 20
-4.216908 1.8733597 -0.44701689 0 21
-4.2187581 1.8741815 -0.40439227 0 22
-4.2233477 1.8762203 -0.36203384 0 23
-4.2106633 1.8705853 -0.31833822 0 24
-4.2110634 1.8707631 -0.27581021 0 25
-4.2170601 1.8734272 -0.23363103 0 26
-4.2197671 1.8746297 -0.19122139 0 27
-4.2210426 1.8751965 -0.14873911 0 28
-4.2086062 1.8696716 -0.10591128 0 29
-4.215301 1.8726457 -0.063640676 0 30
-4.2204685 1.8749413 -0.021238366 0 31
-4.2258534 1.8773336 0.021265464 0 32
-4.2242956 1.8766415 0.063776471 0 33
-4.2278595 1.8782248 0.1063958 0 34
-4.2175212 1.8736321 0.14861503 0 35
-4.2295351 1.8789693 0.19166404 0 36
-4.2144079 1.8722489 0.23348409 0 37
-4.2161422 1.8730195 0.27614287 0 38
-4.2203374 1.8748832 0.31906962 0 39
-4.2176228 1.8736773 0.36154315 0 40
-4.2149601 1.8724943 0.40402821 0 41
-4.2196398 1.8745731 0.44730645 0 42
-4.2169561 1.873381 0.4899008 0 43
-4.2202735 1.8748548 0.53328264 0 44
-4.2184105 1.874027 0.57611603 0 45
-4.2201438 1.8747972 0.61953837 0 46
-4.229394 1.8789064 0.66428351 0 47
-4.2230678 1.876096 0.70672673 0 48
-4.2206864 1.8750381 0.74986285 0 49
-4.2248344 1.876881 0.79430765 0 50
-4.2233953 1.8762416 0.83786821 0 51
-4.2295032 1.878955 0.88312125 0 52
-4.2189918 1.8742853 0.92501277 0 53
-4.209609 1.8701169 0.96710622 0 54
-4.2236691 1.8763633 1.0148059 0 55
-4.2201505 1.8748001 1.0585729 0 56
-4.2200437 1.8747528 1.1033459 0 57
-4.2213492 1.8753326 1.1486981 0 58
-4.2203321 1.8748808 1.1936278 0 59
-4.2190266 1.8743007 1.2386664 0 60
-4.2049503 1.8680474 1.2800142 0 61
-4.2160058 1.8729587 1.3292133 0 62
-4.208148 1.869468 1.3727275 0 63
-2.2616906 0.97163647 -0.73382646 0 0
-2.3310328 1.0014263 -0.73098546 0 1
-2.4351437 1.0461531 -0.73730189 0 2
-2.5173509 1.0814698 -0.7351107 0 3
-2.6038671 1.1186377 -0.73250055 0 4
-2.7238796 1.1701958 -0.73724085 0 5
-2.8142803 1.2090325 -0.73186153 0 6
-2.9555483 1.2697221 -0.73739082 0 7
-3.0763946 1.3216385 -0.73519409 0 8
-3.2176859 1.3823382 -0.73526341 0 9
-3.3669486 1.4464623 -0.73424733 0 10
-3.5294881 1.5162903 -0.7330094 0 11
-3.7220085 1.5989983 -0.73444325 0 12
-3.9193475 1.6837764 -0.73292524 0 13
-4.1615019 1.7878073 -0.73538661 0 14
-4.2145734 1.8106073 -0.70152634 0 15
-4.2135286 1.8101584 -0.65824586 0 16
-4.2247849 1.8149943 -0.61689669 0 17
-4.2273636 1.8161019 -0.57424545 0 18
-4.2251348 1.8151445 -0.53103638 0 19
-4.2145834 1.8106115 -0.48700181 0 20
-4.2063017 1.8070537 -0.44350353 0 21
-4.2110133 1.809078 -0.4014872 0 22
-4.2272644 1.8160595 -0.36042812 0 23
-4.2209072 1.8133283 -0.31740293 0 24
-4.2200322 1.8129525 -0.27491677 0 25
-4.2208338 1.8132968 -0.23258723 0 26
-4.2125187 1.8097246 -0.18987015 0 27
-4.2154574 1.8109871 -0.14774644 0 28
-4.2214646 1.8135679 -0.10566568 0 29
-4.2153378 1.8109356 -0.063300252 0 30
-4.2203746 1.8130994 -0.021124102 0 31
-4.2248998 1.8150437 0.021146756 0 32
-4.2196383 1.8127832 0.063364834 0 33
-4.2184734 1.8122828 0.10559081 0 34
-4.2284207 1.8165562 0.1482008 0 35
-4.2158813 1.8111691 0.19002171 0 36
-4.2226543 1.8140789 0.23268755 0 37
-4.2311492 1.8177284 0.27564099 0 38
-4.2344584 1.8191501 0.31842196 0 39
-4.2263632 1.8156723 0.36035126 0 40
-4.2260375 1.8155322 0.40291959 0 41
-4.2291598 1.8168737 0.44591364 0 42
-4.2230654 1.8142555 0.48798195 0 43
-4.2106228 1.8089101 0.52921247 0 44
-4.2175169 1.8118718 0.57290792 0 45
-4.2110686 1.8091016 0.61489379 0 46
-4.2124257 1.8096845 0.65807354 0 47
-4.2263708 1.8156755 0.70349002 0 48
-4.2244301 1.8148419 0.74650681 0 49
-4.2249241 1.8150541 0.79006863 0 50
-4.2163482 1.8113698 0.83198857 0 51
-4.222683 1.8140912 0.87697321 0 52
-4.2095437 1.8084464 0.91799623 0 53
-4.2147789 1.8106955 0.96310598 0 54
-4.2249289 1.8150561 1.0096699 0 55
-4.2204428 1.8131288 1.0529741 0 56
-4.2172909 1.8117748 1.0967184 0 57
-4.2239594 1.8146397 1.1432501 0 58
-4.2242646 1.8147706 1.1883388 0 59
-4.213459 1.8101286 1.2304041 0 60
-4.2250743 1.8151186 1.2792492 0 61
-4.2299476 1.8172121 1.3264637 0 62
-4.2143512 1.8105118 1.3673854 0 63
-2.2875149 0.94958609 -0.73836106 0 0
-2.345098 0.97348988 -0.73158705 0 1
-2.4453609 1.0151106 -0.7365604 0 2
-2.5291171 1.0498793 -0.73472124 0 3
-2.6194201 1.0873655 -0.73305905 0 4
-2.7278869 1.1323919 -0.73450118 0 5
-2.8378739 1.1780494 -0.73417455 0 6
-2.950768 1.2249137 -0.73238492 0 7
-3.0977359 1.2859225 -0.73645973 0 8
-3.2358341 1.3432494 -0.73558044 0 9
-3.390028 1.4072579 -0.73545116 0 10
-3.5514376 1.4742619 -0.7337476 0 11
-3.7432768 1.5538975 -0.73481405 0 12
-3.941251 1.6360799 -0.73320371 0 13
-4.1830783 1.7364666 -0.73537064 0 14
-4.2089314 1.7471987 -0.69695842 0 15
-4.2222056 1.7527089 -0.65618491 0 16
-4.2159133 1.7500969 -0.61241263 0 17
-4.2126007 1.7487217 -0.56927609 0 18
-4.223949 1.7534326 -0.52813751 0 19
-4.2154398 1.7499005 -0.48457778 0 20
-4.2122273 1.7485669 -0.44182789 0 21
-4.2134862 1.7490894 -0.39964214 0 22
-4.2179308 1.7509344 -0.35776952 0 23
-4.2277141 1.7549956 -0.31626812 0 24
-4.2123227 1.7486063 -0.27299312 0 25
-4.2225766 1.7528629 -0.23147802 0 26
-4.2190199 1.7513865 -0.18917818 0 27
-4.2073107 1.7465259 -0.14669712 0 28
-4.2150321 1.7497311 -0.10495819 0 29
-4.2223363 1.7527632 -0.063076928 0 30
-4.2248344 1.7538003 -0.021036897 0 31
-4.2287803 1.7554383 0.021056544 0 32
-4.2138162 1.7492263 0.062949643 0 33
-4.2112794 1.7481734 0.10486475 0 34
-4.2078514 1.7467502 0.14671595 0 35
-4.2219763 1.7526138 0.18931076 0 36
-4.2028589 1.7446778 0.23039712 0 37
-4.2292776 1.7556447 0.27409196 0 38
-4.2168546 1.7504877 0.31545573 0 39
-4.2144485 1.7494889 0.35747415 0 40
-4.2325559 1.7570055 0.40145087 0 41
-4.2230582 1.753063 0.44296396 0 42
-4.2302375 1.7560432 0.4862788 0 43
-4.2261448 1.7543441 0.52841204 0 44
-4.2249403 1.7538441 0.57094359 0 45
-4.2143645 1.7494539 0.61218762 0 46
-4.2053671 1.745719 0.65356797 0 47
-4.2255239 1.7540865 0.69970596 0 48
-4.21875 1.7512746 0.74164164 0 49
-4.2174106 1.7507185 0.7845785 0 50
-4.215313 1.7498478 0.82747591 0 51
-4.2235365 1.7532614 0.87260711 0 52
-4.2152653 1.7498279 0.91448259 0 53
-4.2203298 1.7519302 0.95937926 0 54
-4.2297859 1.7558557 1.0055947 0 55
-4.2159052 1.7500936 1.0463939 0 56
-4.2167768 1.7504555 1.0909048 0 57
-4.2271819 1.7547746 1.138196 0 58
-4.2242699 1.7535658 1.1821851 0 59
-4.1990643 1.7431026 1.2198492 0 60
-4.223773 1.7533597 1.2722311 0 61
-4.2209725 1.7521971 1.3167932 0 62
-4.2196984 1.7516681 1.3620287 0 63
-2.2793934 0.9135232 -0.73205847 0 0
-2.3514109 0.94238603 -0.72988623 0 1
-2.4532003 0.98318064 -0.73522466 0 2
-2.5388246 1.0174967 -0.73385113 0 3
-2.6483421 1.0613885 -0.73744482 0 4
-2.7360845 1.0965534 -0.73302245 0 5
-2.8659599 1.1486042 -0.7377308 0 6
-2.9894493 1.1980957 -0.73827326 0 7
-3.1069772 1.2451979 -0.73496103 0 8
-3.2492478 1.3022163 -0.73493409 0 9
-3.3880527 1.3578458 -0.73134506 0 10
-3.5840013 1.436377 -0.73677057 0 11
-3.7736447 1.5123813 -0.73706901 0 12
-3.9824882 1.5960805 -0.73716831 0 13
-4.2077141 1.6863453 -0.73600054 0 14
-4.2135859 1.6886986 -0.69423813 0 15
-4.2177315 1.69036 -0.65220988 0 16
-4.2096176 1.6871083 -0.60843861 0 17
-4.2256761 1.6935441 -0.56818599 0 18
-4.2210946 1.6917078 -0.52513993 0 19
-4.2138844 1.6888181 -0.48197532 0 20
-4.2252293 1.693365 -0.44097424 0 21
-4.2246828 1.6931459 -0.39869925 0 22
-4.2199593 1.6912529 -0.35615069 0 23
-4.2033076 1.6845794 -0.31286904 0 24
-4.2118745 1.6880127 -0.27159837 0 25
-4.2139277 1.6888355 -0.22984812 0 26
-4.2132015 1.6885446 -0.18797208 0 27
-4.2199554 1.6912514 -0.14640182 0 28
-4.2159033 1.6896273 -0.10445463 0 29
-4.211514 1.6878682 -0.062600471 0 30
-4.2243409 1.6930089 -0.020929195 0 31
-4.2302403 1.6953733 0.020958424 0 32
-4.2145419 1.6890818 0.062645473 0 33
-4.2109962 1.6876607 0.10433305 0 34
-4.22297 1.6924595 0.1465064 0 35
-4.2157516 1.6895665 0.18808584 0 36
-4.216166 1.6897327 0.2299702 0 37
-4.223618 1.6927193 0.27235565 0 38
-4.2130971 1.6885028 0.31359771 0 39
-4.2146721 1.6891339 0.35570443 0 40
-4.221097 1.6917089 0.39836088 0 41
-4.2140799 1.6888967 0.4398106 0 42
-4.2119579 1.6880461 0.48175499 0 43
-4.2129416 1.6884404 0.52412564 0 44
-4.2302356 1.6953715 0.56879902 0 45
-4.2163091 1.6897901 0.60940576 0 46
-4.2220116 1.6920754 0.65287173 0 47
-4.2258172 1.6936007 0.69625342 0 48
-4.2079301 1.6864319 0.73603833 0 49
-4.2192478 1.6909678 0.7809931 0 50
-4.2257361 1.6935681 0.82537156 0 51
-4.2086983 1.6867398 0.86519086 0 52
-4.2126231 1.6883128 0.90933681 0 53
-4.2202578 1.6913725 0.9545629 0 54
-4.2149243 1.6892351 0.9970479 0 55
-4.2150598 1.6892893 1.0409496 0 56
-4.2121582 1.6881264 1.0842577 0 57
-4.2054877 1.6854529 1.1266892 0 58
-4.2190371 1.6908834 1.1748132 0 59
-4.2220721 1.6920997 1.2203964 0 60
-4.2136202 1.6887124 1.2628229 0 61
-4.2253556 1.6934156 1.3115653 0 62
-4.2140245 1.6888744 1.3533918 0 63
-2.3017561 0.88979715 -0.73567098 0 0
-2.3893857 0.92367232 -0.73809236 0 1
-2.4639099 0.95248145 -0.73486865 0 2
-2.5493951 0.98552769 -0.73334819 0 3
-2.6413925 1.0210915 -0.73195815 0 4
-2.7527416 1.064136 -0.73392391 0 5
-2.8783915 1.1127089 -0.73735315 0 6
-2.9881566 1.1551411 -0.73439062 0 7
-3.1091361 1.2019085 -0.7319203 0 8
-3.2754276 1.2661923 -0.73727816 0 9
-3.4204328 1.3222475 -0.7347694 0 10
-3.5867605 1.3865453 -0.73377734 0 11
-3.7653489 1.4555829 -0.73189741 0 12
-4.0146952 1.5519733 -0.73954159 0 13
-4.2102704 1.6275775 -0.73289162 0 14
-4.2219214 1.6320814 -0.69225258 0 15
-4.2256584 1.633526 -0.65028042 0 16
-4.2174888 1.630368 -0.60663277 0 17
-4.2233019 1.6326152 -0.56512463 0 18
-4.2095532 1.6273001 -0.52117527 0 19
-4.2083249 1.6268255 -0.47901523 0 20
-4.2144251 1.6291837 -0.43772274 0 21
-4.2146311 1.6292632 -0.39583001 0 22
-4.2199764 1.6313295 -0.35443234 0 23
-4.2055101 1.6257373 -0.31152144 0 24
-4.2316809 1.6358542 -0.2715579 0 25
-4.2115407 1.6280686 -0.22860867 0 26
-4.2141676 1.6290841 -0.18710731 0 27
-4.2266836 1.6339223 -0.14592718 0 28
-4.2222719 1.6322169 -0.10410728 0 29
-4.2100487 1.6274917 -0.062276512 0 30
-4.2257929 1.6335781 -0.020835293 0 31
-4.2275929 1.634274 0.020844169 0 32
-4.2258286 1.6335919 0.062509939 0 33
-4.2122631 1.6283478 0.10386049 0 34
-4.2092056 1.6271659 0.14532375 0 35
-4.2135644 1.6288509 0.18708053 0 36
-4.2109032 1.6278222 0.22857408 0 37
-4.2154007 1.6295607 0.27051318 0 38
-4.2177582 1.6304721 0.31242871 0 39
-4.2157927 1.6297122 0.35408098 0 40
-4.2193456 1.6310856 0.39627281 0 41
-4.2200527 1.631359 0.43830723 0 42
-4.2190189 1.6309594 0.48023245 0 43
-4.2243915 1.6330364 0.5230124 0 44
-4.2177472 1.6304679 0.56438136 0 45
-4.2220659 1.6321374 0.60729116 0 46
-4.2190475 1.6309705 0.64926308 0 47
-4.2128696 1.6285824 0.69076842 0 48
-4.2126698 1.6285051 0.73330927 0 49
-4.2293787 1.6349642 0.77908808 0 50
-4.2135839 1.6288583 0.81902397 0 51
-4.2171297 1.6302291 0.86273795 0 52
-4.2152119 1.6294876 0.90550196 0 53
-4.2039518 1.6251349 0.94628322 0 54
-4.2245727 1.6331064 0.99450475 0 55
-4.2213583 1.6318638 1.0374711 0 56
-4.2174048 1.6303355 1.0803661 0 57
-4.2239814 1.6328778 1.1261795 0 58
-4.2155452 1.6296165 1.1681726 0 59
-4.2064199 1.6260891 1.210001 0 60
-4.2271109 1.6340876 1.2607486 0 61
-4.212101 1.6282853 1.3011377 0 62
-4.2196636 1.6312085 1.3486589 0 63
-2.3024175 0.85766429 -0.73245627 0 0
-2.3844099 0.8882069 -0.7331261 0 1
-2.4852633 0.92577547 -0.73778629 0 2
-2.5590487 0.95326096 -0.7326979 0 3
-2.6611431 0.9912917 -0.73399794 0 4
-2.764744 1.0298837 -0.73369211 0 5
-2.8750494 1.070973 -0.73306799 0 6
-2.9940553 1.1153035 -0.73241442 0 7
-3.130656 1.166188 -0.73355508 0 8
-3.2800779 1.2218486 -0.73488754 0 9
-3.4351497 1.2796137 -0.73449522 0 10
-3.6240191 1.3499688 -0.73794794 0 11
-3.78845 1.4112203 -0.73295927 0 12
-3.9985127 1.4894699 -0.73313135 0 13
-4.2036896 1.5658996 -0.72833925 0 14
-4.2115979 1.5688454 -0.68734485 0 15
-4.2133155 1.5694853 -0.64536232 0 16
-4.231132 1.5761219 -0.60576171 0 17
-4.2181559 1.5712883 -0.56180817 0 18
-4.2197738 1.571891 -0.52000833 0 19
-4.2084126 1.5676589 -0.47679499 0 20
-4.2134733 1.569544 -0.43558642 0 21
-4.1984382 1.5639433 -0.3924734 0 22
-4.2177558 1.5711393 -0.35259658 0 23
-4.197412 1.5635611 -0.30947399 0 24
-4.2109904 1.5686191 -0.26897204 0 25
-4.224689 1.5737219 -0.22825472 0 26
-4.220767 1.5722609 -0.18652783 0 27
-4.2080235 1.5675139 -0.14460653 0 28
-4.2155976 1.5703354 -0.10345878 0 29
-4.2130861 1.5693998 -0.062031291 0 30
-4.2131801 1.5694348 -0.020676391 0 31
-4.2094655 1.5680511 0.020658163 0 32
-4.2126369 1.5692325 0.062024675 0 33
-4.2006912 1.5647826 0.10309295 0 34
-4.2105393 1.5684512 0.14469299 0 35
-4.2103209 1.5683697 0.1860662 0 36
-4.2222071 1.5727974 0.22812064 0 37
-4.2102332 1.5683371 0.26892367 0 38
-4.2103381 1.5683761 0.31042701 0 39
-4.2185364 1.57143 0.35266182 0 40
-4.2030792 1.5656722 0.39290729 0 41
-4.2122188 1.5690767 0.43545672 0 42
-4.2088065 1.5678055 0.47683957 0 43
-4.2192469 1.5716946 0.51994336 0 44
-4.23242 1.5766017 0.56370801 0 45
-4.2071753 1.567198 0.60233188 0 46
-4.2132635 1.5694658 0.64535433 0 47
-4.2090549 1.5678982 0.68692982 0 48
-4.2167878 1.5707786 0.73060864 0 49
-4.2121067 1.5690349 0.77229398 0 50
-4.2175565 1.5710651 0.81597942 0 51
-4.2059216 1.566731 0.85643899 0 52
-4.2130666 1.5693924 0.90082753 0 53
-4.2176237 1.5710901 0.94494069 0 54
-4.2039456 1.5659949 0.98504138 0 55
-4.2221971 1.5727936 1.032846 0 56
-4.2139759 1.5697312 1.0744619 0 57
-4.2189956 1.571601 1.1196131 0 58
-4.2143764 1.5698805 1.1624116 0 59
-4.217958 1.5712146 1.207671 0 60
-4.2184701 1.5714054 1.2523139 0 61
-4.2085466 1.5677087 1.293987 0 62
-4.2247891 1.5737592 1.3440105 0 63
-2.3155968 0.83029681 -0.73334557 0 0
-2.4068055 0.86300129 -0.73669356 0 1
-2.4941428 0.89431751 -0.73710197 0 2
-2.5615036 0.91847086 -0.73011196 0 3
-2.6699796 0.95736682 -0.73313272 0 4
-2.7729204 0.99427801 -0.73256201 0 5
-2.8936334 1.0375617 -0.7344979 0 6
-3.0123494 1.0801294 -0.73358512 0 7
-3.1601322 1.1331193 -0.73714125 0 8
-3.2946267 1.1813447 -0.73483694 0 9
-3.444047 1.2349219 -0.73309535 0 10
-3.6253803 1.2999421 -0.73491466 0 11
-3.8175025 1.3688307 -0.73526806 0 12
-4.015347 1.4397713 -0.73291647 0 13
-4.2137547 1.5109136 -0.72680908 0 14
-4.2092848 1.5093111 -0.68388671 0 15
-4.2127166 1.5105414 -0.6423769 0 16
