# .PCD v0.7 - Point Cloud Data file format
VERSION 0.7
FIELDS x y z intensity ring
SIZE 4 4 4 4 2
TYPE F F F F U
COUNT 1 1 1 1 1
WIDTH 1323
HEIGHT 1
VIEWPOINT 0 0 0 1 0 0 0
POINTS 1323
DATA ascii
2.6154385 2.0207677 0.44342506 0 46
2.6166732 2.0217218 0.47463486 0 47
2.6155207 2.0208311 0.50549448 0 48
2.6080136 2.0150311 0.53511041 0 49
2.6127498 2.0186903 0.56729853 0 50
2.630492 2.0323985 0.6026786 0 51
2.6075871 2.0147014 0.62878847 0 52
2.6131692 2.0190144 0.66166985 0 53
2.6243508 2.0276537 0.69628835 0 54
2.6121593 2.018234 0.72481561 0 55
2.6150584 2.0204742 0.75754601 0 56
2.6272678 2.0299075 0.79329342 0 57
2.619714 2.024071 0.82327193 0 58
2.6167014 2.0217435 0.8546952 0 59
2.6153901 2.0207303 0.8867749 0 60
2.6098118 2.0164201 0.91748267 0 61
2.6004567 2.0091925 0.94684291 0 62
2.6255872 2.0286088 0.9891327 0 63
1.9199523 1.5214775 -0.7302931 0 0
1.9956207 1.5814413 -0.73364323 0 1
2.0608814 1.6331576 -0.7315101 0 2
2.1439054 1.6989504 -0.73394108 0 3
2.2239223 1.7623602 -0.73342437 0 4
2.3115621 1.8318108 -0.73345518 0 5
2.4071789 1.9075831 -0.73386556 0 6
2.5151875 1.993175 -0.73565906 0 7
2.551122 2.0216515 -0.71472293 0 8
2.5369353 2.0104091 -0.67960286 0 9
2.5492778 2.02019 -0.65173286 0 10
2.5587807 2.0277207 -0.62298483 0 11
2.5517726 2.022167 -0.59029537 0 12
2.5496471 2.0204828 -0.55894941 0 13
2.54511 2.0168874 -0.52725261 0 14
2.5390022 2.0120471 -0.49545017 0 15
2.5383756 2.0115504 -0.46488401 0 16
2.533041 2.007323 -0.43360728 0 17
2.5466595 2.018115 -0.40555096 0 18
2.5484667 2.0195472 -0.37549937 0 19
2.5628805 2.0309696 -0.34717691 0 20
2.5457914 2.0174272 -0.31467775 0 21
2.5462668 2.0178041 -0.28460041 0 22
2.5459185 2.0175278 -0.25447801 0 23
2.5600092 2.0286944 -0.22568008 0 24
2.5511036 2.021637 -0.19483192 0 25
2.5519307 2.0222924 -0.16485535 0 26
2.561202 2.0296395 -0.13533348 0 27
2.5455184 2.017211 -0.1045912 0 28
2.5563524 2.0257964 -0.075013265 0 29
2.5380955 2.0113285 -0.044681478 0 30
2.5417078 2.0141912 -0.014914184 0 31
2.547765 2.0189915 0.014949726 0 32
2.5502069 2.0209265 0.044894695 0 33
2.5596042 2.0283735 0.075108685 0 34
2.5488484 2.0198498 0.10472802 0 35
2.5486071 2.0196586 0.13466795 0 36
2.5461729 2.0177295 0.16448338 0 37
2.5462208 2.0177677 0.19445901 0 38
2.5481222 2.0192745 0.22463216 0 39
2.5451794 2.0169423 0.25440416 0 40
2.5455368 2.0172255 0.28451881 0 41
2.5537076 2.0237007 0.31565624 0 42
2.5430186 2.0152299 0.34448636 0 43
2.5531721 2.0232761 0.37619269 0 44
2.5476265 2.0188816 0.40570498 0 45
2.5510092 2.0215623 0.43668312 0 46
2.5444918 2.0163975 0.46600419 0 47
2.5515518 2.0219922 0.49789903 0 48
2.5590823 2.0279598 0.53014714 0 49
2.5504236 2.0210981 0.55911964 0 50
2.5602605 2.0288935 0.59225887 0 51
2.5626671 2.0308006 0.62393099 0 52
2.5423543 2.0147035 0.64996284 0 53
2.5486128 2.0196633 0.68273115 0 54
2.5416765 2.0141664 0.71207672 0 55
2.549952 2.0207243 0.74582726 0 56
2.5463898 2.0179014 0.77630609 0 57
2.5388567 2.0119319 0.80557549 0 58
2.5422587 2.0146277 0.83840811 0 59
2.5567751 2.0261314 0.87528217 0 60
2.5418735 2.0143225 0.90223825 0 61
2.5366557 2.0101876 0.93254203 0 62
2.5509346 2.021503 0.97030008 0 63
1.91792 1.5586386 -0.73675448 0 0
1.9752666 1.6052425 -0.7333616 0 1
2.0524461 1.6679641 -0.73574042 0 2
2.1326094 1.7331105 -0.73731387 0 3
2.209841 1.7958744 -0.73600757 0 4
2.3034 1.8719071 -0.73811316 0 5
2.3896675 1.9420143 -0.73575145 0 6
2.4775243 2.013413 -0.73182911 0 7
2.484323 2.0189381 -0.7029106 0 8
2.4854481 2.0198524 -0.67241293 0 9
2.487699 2.0216815 -0.64229685 0 10
2.4864631 2.0206771 -0.61138093 0 11
2.492034 2.0252044 -0.5821929 0 12
2.4868672 2.0210056 -0.55059284 0 13
2.4815955 2.0167215 -0.51919287 0 14
2.4742355 2.0107403 -0.48759973 0 15
2.490761 2.0241699 -0.4606874 0 16
2.4805644 2.0158834 -0.42883515 0 17
2.4865277 2.0207295 -0.39990181 0 18
2.4956312 2.0281279 -0.37136093 0 19
2.4784029 2.014127 -0.33906263 0 20
2.4816377 2.0167558 -0.30978981 0 21
2.4878981 2.0218434 -0.28083402 0 22
2.4813025 2.0164833 -0.25047883 0 23
2.4891393 2.0228522 -0.2216085 0 24
2.4892995 2.0229824 -0.19199711 0 25
2.4658382 2.003916 -0.1608734 0 26
2.4885612 2.0223823 -0.13279913 0 27
2.4869428 2.0210671 -0.10319775 0 28
2.4820118 2.0170598 -0.073554069 0 29
2.479708 2.0151877 -0.044086505 0 30
2.4898221 2.023407 -0.014754609 0 31
2.4891715 2.0228782 0.014750753 0 32
2.488163 2.0220587 0.044236828 0 33
2.4796889 2.015172 0.073485233 0 34
2.4898503 2.0234299 0.10331839 0 35
2.4944334 2.0271547 0.13311251 0 36
2.4782288 2.0139854 0.16168177 0 37
2.4848936 2.0194018 0.19165727 0 38
2.4740279 2.0105715 0.22026312 0 39
2.4840031 2.0186782 0.25075144 0 40
2.4907722 2.0241792 0.28115845 0 41
2.4843886 2.0189915 0.31013322 0 42
2.4856353 2.0200045 0.34005207 0 43
2.4768546 2.0128686 0.36856687 0 44
2.4989169 2.0307982 0.40189436 0 45
2.4839089 2.0186017 0.42941338 0 46
2.4859433 2.0202549 0.45979634 0 47
2.4857969 2.0201359 0.48987815 0 48
2.4817176 2.0168207 0.51921839 0 49
2.4791598 2.0147421 0.54888642 0 50
2.489943 2.0235052 0.58170444 0 51
2.4778843 2.0137055 0.60927159 0 52
2.4895711 2.0232029 0.64278018 0 53
2.4800136 2.0154359 0.67094272 0 54
2.487303 2.0213599 0.70375377 0 55
2.4938476 2.0266783 0.73665076 0 56
2.4816198 2.0167413 0.76406252 0 57
2.4936724 2.026536 0.79908502 0 58
2.4788918 2.0145242 0.82561737 0 59
2.4818954 2.0169652 0.85807359 0 60
2.4814951 2.0166399 0.88954163 0 61
2.4709797 2.0080943 0.91740614 0 62
2.4779537 2.013762 0.95188719 0 63
1.895485 1.5794981 -0.73554152 0 0
1.9539276 1.6281979 -0.73281693 0 1
2.0401382 1.7000368 -0.73876613 0 2
2.1101811 1.7584032 -0.73697942 0 3
2.1829119 1.8190093 -0.7344327 0 4
2.2734745 1.8944747 -0.73593289 0 5
2.3676829 1.9729781 -0.73639655 0 6
2.4120643 2.0099609 -0.71973926 0 7
2.4360769 2.0299706 -0.69626987 0 8
2.419049 2.0157812 -0.66110522 0 9
2.4146945 2.0121527 -0.62978852 0 10
2.4210324 2.0174339 -0.60134691 0 11
2.4179382 2.0148556 -0.57062751 0 12
2.4211915 2.0175664 -0.54150397 0 13
2.4175406 2.0145242 -0.51093543 0 14
2.4321973 2.0267377 -0.48418999 0 15
2.4306638 2.0254598 -0.45414418 0 16
2.4234023 2.0194087 -0.42321393 0 17
2.4218698 2.0181317 -0.39346439 0 18
2.4178696 2.0147984 -0.36344877 0 19
2.4190764 2.0158041 -0.33431214 0 20
2.4233589 2.0193727 -0.30559134 0 21
2.4267702 2.0222154 -0.27671987 0 22
2.4275033 2.0228262 -0.24754019 0 23
2.4050865 2.0041463 -0.21630296 0 24
2.4337785 2.0280554 -0.18962394 0 25
2.4254568 2.0211208 -0.15984821 0 26
2.4166591 2.0137897 -0.13027373 0 27
2.4173763 2.0143874 -0.10133121 0 28
2.4292929 2.0243173 -0.072723925 0 29
2.419358 2.0160387 -0.043451007 0 30
2.4254246 2.0210941 -0.014519168 0 31
2.4235232 2.0195096 0.014507785 0 32
2.424535 2.0203526 0.043543983 0 33
2.4238489 2.0197809 0.072560951 0 34
2.4154255 2.0127618 0.10124944 0 35
2.4186642 2.0154607 0.13038184 0 36
2.4133387 2.0110228 0.15904957 0 37
2.4196692 2.0162981 0.18852462 0 38
2.4144547 2.0119526 0.2171455 0 39
2.4123559 2.0102038 0.24599557 0 40
2.4289789 2.024056 0.27697176 0 41
2.4253767 2.021054 0.3058458 0 42
2.4183781 2.0152221 0.33421564 0 43
2.420321 2.0168412 0.36381724 0 44
2.4117663 2.0097127 0.39182296 0 45
2.4356177 2.0295877 0.42534721 0 46
2.4191971 2.0159047 0.45200175 0 47
2.4124408 2.0102746 0.48025694 0 48
2.4253211 2.0210078 0.51257986 0 49
2.4282494 2.0234478 0.54308248 0 50
2.4189517 2.0157001 0.5708667 0 51
2.4301615 2.0250411 0.60361439 0 52
2.4239545 2.0198689 0.63220364 0 53
2.4194953 2.0161531 0.66122723 0 54
2.4252837 2.0209765 0.69318497 0 55
2.4246118 2.0204167 0.72348338 0 56
2.4196424 2.0162756 0.75255698 0 57
2.414005 2.0115781 0.78142321 0 58
2.4229617 2.0190418 0.81519663 0 59
2.4320173 2.0265877 0.84938055 0 60
2.4288032 2.0239093 0.8795079 0 61
2.4164004 2.0135744 0.90626651 0 62
2.4199049 2.0164945 0.93904227 0 63
1.8706746 1.5982025 -0.73348445 0 0
1.9389466 1.6565303 -0.73478228 0 1
2.0139148 1.720579 -0.73687589 0 2
2.069164 1.767781 -0.73019087 0 3
2.1733491 1.856791 -0.73884124 0 4
2.2507048 1.9228795 -0.73616046 0 5
2.3396392 1.9988602 -0.73526335 0 6
2.3585403 2.0150082 -0.71110779 0 7
2.3574049 2.0140383 -0.68081111 0 8
2.3616602 2.0176737 -0.65215248 0 9
2.3625412 2.0184264 -0.62261236 0 10
2.3611901 2.0172722 -0.59259945 0 11
2.3617752 2.017772 -0.56318605 0 12
2.3630016 2.0188198 -0.53400141 0 13
2.3596485 2.015955 -0.50390118 0 14
2.3562617 2.0130615 -0.47396505 0 15
2.3782492 2.0318463 -0.44898519 0 16
2.3612864 2.0173545 -0.41666684 0 17
2.3502555 2.00793 -0.38581181 0 18
2.3583424 2.0148392 -0.3581979 0 19
2.3589842 2.0153875 -0.32940745 0 20
2.3713157 2.025923 -0.30214715 0 21
2.3522243 2.0096123 -0.27101684 0 22
2.3662858 2.0216255 -0.24381414 0 23
2.3765666 2.0304091 -0.2159671 0 24
2.3605983 2.0167665 -0.18584034 0 25
2.360817 2.0169535 -0.1572108 0 26
2.3645649 2.0201554 -0.12879486 0 27
2.3489003 2.0067723 -0.0994877 0 28
2.3590143 2.0154133 -0.07135655 0 29
2.3512878 2.0088122 -0.042668886 0 30
2.3653643 2.0208385 -0.014307304 0 31
2.3556497 2.0125387 0.014248543 0 32
2.355351 2.0122836 0.042742621 0 33
2.3615558 2.0175846 0.071433425 0 34
2.3604245 2.016618 0.099975802 0 35
2.3661895 2.0215433 0.12888335 0 36
2.3562238 2.0130291 0.15690494 0 37
2.3608446 2.0169771 0.18585974 0 38
2.360533 2.0167108 0.21451007 0 39
2.3631988 2.0189884 0.24349608 0 40
2.3594253 2.0157645 0.27184653 0 41
2.3691111 2.0240393 0.30186623 0 42
2.3545506 2.0115995 0.32878834 0 43
2.3529253 2.0102112 0.35737512 0 44
2.3491616 2.0069957 0.38563228 0 45
2.3590302 2.0154269 0.41626874 0 46
2.3589137 2.0153275 0.44533488 0 47
2.3611197 2.0172122 0.47494227 0 48
2.3618181 2.0178087 0.50436455 0 49
2.3685203 2.0235345 0.53524846 0 50
2.3646772 2.0202513 0.56387806 0 51
2.3547034 2.0117302 0.59097147 0 52
2.3622088 2.0181425 0.6225248 0 53
2.3736088 2.0278821 0.65545201 0 54
2.3661566 2.0215154 0.68333858 0 55
2.3713236 2.0259297 0.71496201 0 56
2.3551247 2.0120902 0.74012989 0 57
2.365135 2.0206425 0.7735883 0 58
2.3599608 2.0162218 0.80228084 0 59
2.3652689 2.020757 0.83468384 0 60
2.3502908 2.0079603 0.85995328 0 61
2.364639 2.0202188 0.89610255 0 62
2.3589921 2.0153942 0.92495191 0 63
1.8696772 1.6375439 -0.74093264 0 0
1.9155864 1.6777531 -0.73369235 0 1
1.9828959 1.7367057 -0.73328459 0 2
2.0651793 1.8087732 -0.73657787 0 3
2.1446526 1.8783791 -0.73688209 0 4
2.2239788 1.9478564 -0.73519748 0 5
2.3041987 2.0181165 -0.73186898 0 6
2.3076909 2.0211751 -0.70321673 0 7
2.3081393 2.0215678 -0.67371136 0 8
2.3022904 2.0164452 -0.64255643 0 9
2.2997077 2.014183 -0.61253428 0 10
2.3074224 2.0209401 -0.5852977 0 11
2.306308 2.019964 -0.55584031 0 12
2.306684 2.0202932 -0.52684867 0 13
2.3006392 2.0149989 -0.49655345 0 14
2.301662 2.0158949 -0.46793312 0 15
2.3101928 2.0233665 -0.44080076 0 16
2.2948961 2.009969 -0.40928209 0 17
2.2950644 2.0101163 -0.38078055 0 18
2.3120766 2.0250163 -0.35492596 0 19
2.3116798 2.0246689 -0.32625374 0 20
2.2996786 2.0141575 -0.29615268 0 21
2.3117318 2.0247142 -0.26919958 0 22
2.2972863 2.0120623 -0.23923585 0 23
2.3076155 2.0211091 -0.21194367 0 24
2.3018761 2.0160823 -0.18315519 0 25
2.3004804 2.0148599 -0.15483104 0 26
2.3002553 2.0146625 -0.1266318 0 27
2.2954626 2.0104651 -0.098264001 0 28
2.3080239 2.0214667 -0.070560716 0 29
2.3001938 2.0146089 -0.042188041 0 30
2.3008375 2.0151725 -0.014065822 0 31
2.3099861 2.0231853 0.01412175 0 32
2.29597 2.0109093 0.04211057 0 33
2.3019915 2.0161831 0.070376292 0 34
2.3030808 2.0171373 0.098590113 0 35
2.3092268 2.0225203 0.12712568 0 36
2.2917225 2.0071893 0.15424159 0 37
2.2959187 2.0108645 0.1826812 0 38
2.3011549 2.0154507 0.21135031 0 39
2.3008902 2.0152187 0.23961115 0 40
2.2972305 2.0120134 0.26751092 0 41
2.3152225 2.0277717 0.29815444 0 42
2.2934279 2.008683 0.32367781 0 43
2.3107669 2.023869 0.35472491 0 44
2.2990603 2.0136161 0.3814435 0 45
2.2982612 2.0129161 0.40988222 0 46
2.2967699 2.0116098 0.43823951 0 47
2.3034627 2.0174718 0.46829918 0 48
2.2955332 2.0105269 0.49545145 0 49
2.3091273 2.0224333 0.52740669 0 50
2.3055406 2.0192916 0.55565536 0 51
2.2931833 2.0084689 0.58168584 0 52
2.2980022 2.0126894 0.61208004 0 53
2.3046873 2.0185444 0.64322537 0 54
2.3042407 2.0181532 0.67257339 0 55
2.3053474 2.0191226 0.70250261 0 56
2.3096237 2.0228679 0.73359215 0 57
2.2961547 2.0110712 0.75905728 0 58
2.3030407 2.0171022 0.79130274 0 59
2.3098075 2.0230291 0.82382822 0 60
2.3095801 2.0228298 0.85409403 0 61
2.2962804 2.0111811 0.87950265 0 62
2.2968905 2.0117157 0.91023254 0 63
1.8334105 1.646052 -0.73452616 0 0
1.8873069 1.6944406 -0.73078603 0 1
1.9612182 1.7607989 -0.73321956 0 2
2.038799 1.8304517 -0.73514122 0 3
2.1151469 1.8989973 -0.73471183 0 4
2.1949179 1.9706165 -0.73354554 0 5
2.2536056 2.0233068 -0.72364712 0 6
2.2476404 2.0179513 -0.6924268 0 7
2.2553298 2.0248549 -0.66551429 0 8
2.2351511 2.0067382 -0.63065737 0 9
2.2400565 2.0111423 -0.60318732 0 10
2.2544158 2.0240343 -0.5781216 0 11
2.239506 2.0106483 -0.54565787 0 12
2.2470758 2.0174444 -0.51886088 0 13
2.2346988 2.0063319 -0.48760924 0 14
2.2555368 2.0250406 -0.46358308 0 15
2.2380936 2.0093801 -0.43172559 0 16
2.2549996 2.0245585 -0.40657592 0 17
2.242955 2.0137446 -0.3762148 0 18
2.2428408 2.0136421 -0.34807229 0 19
2.2472758 2.0176239 -0.32064143 0 20
2.2394929 2.0106363 -0.29156387 0 21
2.2497694 2.0198627 -0.26485637 0 22
2.2521522 2.022002 -0.23710696 0 23
2.2463942 2.0168324 -0.20858276 0 24
2.2424297 2.013273 -0.18038134 0 25
2.2401316 2.0112097 -0.15242229 0 26
2.2443225 2.0149724 -0.12490719 0 27
2.2356091 2.0071495 -0.096751019 0 28
2.2450693 2.0156429 -0.069388561 0 29
2.2473652 2.0177042 -0.041671012 0 30
2.2488883 2.0190716 -0.013898966 0 31
2.2388716 2.0100784 0.01383706 0 32
2.2571399 2.02648 0.041852254 0 33
2.2552218 2.0247581 0.06970235 0 34
2.2517803 2.021668 0.09745086 0 35
2.2518249 2.021708 0.12532474 0 36
2.2393255 2.0104859 0.15236743 0 37
2.2485292 2.0187492 0.18087198 0 38
2.2462358 2.0166903 0.20856807 0 39
2.2499931 2.0200636 0.23687966 0 40
2.2582755 2.0274994 0.26585773 0 41
2.2413762 2.0123272 0.29180905 0 42
2.2474732 2.0178013 0.32066962 0 43
2.2459319 2.0164173 0.34855202 0 44
2.2601337 2.0291679 0.37909624 0 45
2.2406042 2.0116341 0.4039804 0 46
2.2432871 2.0140429 0.4327274 0 47
2.2454321 2.0159686 0.46150625 0 48
2.2542353 2.0238721 0.49187213 0 49
2.2566693 2.0260575 0.52107614 0 50
2.2571185 2.0264606 0.54994917 0 51
2.2351313 2.0067205 0.57317626 0 52
2.2542305 2.0238678 0.60700405 0 53
2.2511549 2.0211065 0.6351729 0 54
2.2419121 2.0128083 0.66155487 0 55
2.2474365 2.0177684 0.69236398 0 56
2.2413244 2.0122807 0.7197035 0 57
2.240176 2.0112498 0.74867094 0 58
2.2391429 2.0103221 0.7777828 0 59
2.2426925 2.013509 0.80866021 0 60
2.2457695 2.0162716 0.8396017 0 61
2.2426283 2.0134513 0.86837041 0 62
2.2375867 2.008925 0.89645278 0 63
1.8094901 1.66521 -0.73309082 0 0
1.8824123 1.7323179 -0.7370832 0 1
1.9444852 1.7894413 -0.73513448 0 2
2.0006983 1.8411723 -0.72951126 0 3
2.0822158 1.91619 -0.73140228 0 4
2.1772232 2.0036221 -0.73581028 0 5
2.1938298 2.0189044 -0.7123704 0 6
2.1861343 2.0118225 -0.68104827 0 7
2.1882927 2.013809 -0.65299034 0 8
2.1884933 2.0139935 -0.6244331 0 9
2.1905932 2.0159261 -0.59649807 0 10
2.1854661 2.0112076 -0.5667392 0 11
2.1940961 2.0191495 -0.54060233 0 12
2.1857293 2.0114498 -0.51036823 0 13
2.1916194 2.0168705 -0.48358428 0 14
2.1883688 2.0138788 -0.4548333 0 15
2.1861145 2.0118043 -0.42643857 0 16
2.1929471 2.0180922 -0.39983183 0 17
2.1959629 2.0208673 -0.37247264 0 18
2.1968265 2.0216622 -0.34476313 0 19
2.193825 2.0189002 -0.31653324 0 20
2.2013843 2.0258567 -0.28982371 0 21
2.1957924 2.0207105 -0.26140732 0 22
2.1980994 2.0228336 -0.23401728 0 23
2.1926317 2.017802 -0.20587909 0 24
2.1964045 2.0212739 -0.17866486 0 25
2.1973138 2.0221107 -0.15118931 0 26
2.1987319 2.0234156 -0.12374524 0 27
2.1785505 2.0048435 -0.09534137 0 28
2.1928794 2.0180299 -0.068537295 0 29
2.1890848 2.0145376 -0.041046582 0 30
2.1934109 2.0185189 -0.01370846 0 31
2.1888072 2.0142822 0.013679688 0 32
2.1787221 2.0050013 0.040852278 0 33
2.1803973 2.0065429 0.068147168 0 34
2.1891372 2.014586 0.095804669 0 35
2.1817398 2.0077784 0.12278892 0 36
2.1850908 2.0108621 0.15034828 0 37
2.1988096 2.0234871 0.1788605 0 38
2.182308 2.0083013 0.20490971 0 39
2.1832952 2.0092099 0.23244119 0 40
2.183043 2.0089779 0.25988951 0 41
2.1849644 2.010746 0.28766194 0 42
2.1899004 2.0152884 0.31596696 0 43
2.2054012 2.0295532 0.34610882 0 44
2.1848555 2.0106456 0.37058863 0 45
2.1995757 2.0241921 0.40104041 0 46
2.1920314 2.0172493 0.42759278 0 47
2.1968105 2.0216475 0.45658785 0 48
2.1840665 2.0099196 0.48191771 0 49
2.1962886 2.0211673 0.51283389 0 50
2.1960359 2.0209346 0.5410803 0 51
2.1967547 2.0215962 0.56966662 0 52
2.1876476 2.0132151 0.59569591 0 53
2.1824412 2.008424 0.62270629 0 54
2.190938 2.0162432 0.65377975 0 55
2.1813021 2.0073757 0.6795429 0 56
2.1926768 2.0178432 0.71199596 0 57
2.1747799 2.0013735 0.73498452 0 58
2.1938791 2.0189497 0.77062529 0 59
2.1869061 2.0125327 0.79740787 0 60
2.1869953 2.012615 0.82681817 0 61
2.1813066 2.0073798 0.85411918 0 62
2.1881998 2.0137231 0.88651997 0 63
1.7893569 1.6877841 -0.73328686 0 0
1.8601851 1.7545916 -0.73677224 0 1
1.9150052 1.8062998 -0.73233104 0 2
1.9923651 1.8792684 -0.73484313 0 3
2.0737681 1.9560506 -0.73682791 0 4
2.1322582 2.0112205 -0.72891688 0 5
2.1328549 2.0117834 -0.70055073 0 6
2.1396799 2.0182209 -0.67425656 0 7
2.1336823 2.0125637 -0.64403045 0 8
2.1377859 2.0164344 -0.61699295 0 9
2.1353221 2.0141106 -0.58814716 0 10
2.1300621 2.0091491 -0.55873621 0 11
2.14165 2.0200791 -0.53376007 0 12
2.1302593 2.009335 -0.50314718 0 13
2.1444182 2.0226901 -0.47862107 0 14
2.126488 2.0057778 -0.44706428 0 15
2.1331718 2.0120823 -0.42090565 0 16
2.1384003 2.017014 -0.39437881 0 17
2.1379108 2.0165524 -0.36680424 0 18
2.1308312 2.0098746 -0.3382591 0 19
2.1478877 2.0259628 -0.31347594 0 20
2.1426339 2.0210073 -0.28533915 0 21
2.1420789 2.0204837 -0.25795102 0 22
2.1350718 2.0138745 -0.2299262 0 23
2.1390469 2.0176239 -0.20316185 0 24
2.1413467 2.019793 -0.17619321 0 25
2.1411631 2.0196199 -0.14902326 0 26
2.1325657 2.0115106 -0.12140428 0 27
2.1415751 2.0200083 -0.094803058 0 28
2.1372526 2.0159314 -0.067568362 0 29
2.1499135 2.0278735 -0.040776577 0 30
2.1304364 2.0095022 -0.013468294 0 31
2.1445847 2.0228474 0.013557738 0 32
2.1317558 2.0107465 0.040432185 0 33
2.1428733 2.0212331 0.067746058 0 34
2.1362591 2.0149944 0.094567738 0 35
2.1395884 2.0181346 0.12180407 0 36
2.1256783 2.0050139 0.14794552 0 37
2.1477478 2.0258307 0.17671989 0 38
2.1486206 2.026654 0.20407113 0 39
2.1387661 2.017359 0.23032403 0 40
2.1350965 2.0138977 0.25711021 0 41
2.1326561 2.0115957 0.28401038 0 42
2.1218507 2.0014038 0.30967593 0 43
2.1434307 2.0217588 0.34025916 0 44
2.1289201 2.0080717 0.36526164 0 45
2.146538 2.0246897 0.3958796 0 46
2.1243989 2.0038073 0.41917461 0 47
2.1342924 2.0131392 0.44870505 0 48
2.1404741 2.01897 0.47774079 0 49
2.1351392 2.0139382 0.50429982 0 50
2.1452296 2.0234554 0.53465217 0 51
2.1339331 2.0128002 0.55975163 0 52
2.1435587 2.0218797 0.59041584 0 53
2.1306765 2.0097287 0.61494112 0 54
2.1370835 2.0157721 0.64505714 0 55
2.1419358 2.0203488 0.67496747 0 56
2.1398079 2.0183415 0.70283449 0 57
2.1312602 2.0102792 0.72857571 0 58
2.1428277 2.0211902 0.76136547 0 59
2.1410336 2.0194979 0.78967649 0 60
2.1340916 2.0129497 0.81611347 0 61
2.1340466 2.0129073 0.84524179 0 62
2.1292226 2.0083573 0.87256545 0 63
1.7875198 1.7280743 -0.74118596 0 0
1.832899 1.7719444 -0.73453927 0 1
1.9007392 1.8375286 -0.73546064 0 2
1.957267 1.8921765 -0.73042428 0 3
2.0430379 1.9750949 -0.73448294 0 4
2.0805066 2.0113175 -0.71962577 0 5
2.0767369 2.0076733 -0.69017494 0 6
2.0861332 2.0167572 -0.6651473 0 7
2.0759528 2.0069153 -0.63400632 0 8
2.0877519 2.018322 -0.60966927 0 9
2.0729091 2.003973 -0.5776999 0 10
2.0827045 2.0134425 -0.55276644 0 11
2.0812011 2.0119891 -0.52482086 0 12
2.0849376 2.0156014 -0.49825895 0 13
2.0824387 2.0131855 -0.47027728 0 14
2.0871947 2.0177834 -0.44398618 0 15
2.0772758 2.0081942 -0.41471761 0 16
2.0881472 2.0187042 -0.38965932 0 17
2.0763011 2.007252 -0.36044124 0 18
2.0813961 2.0121775 -0.33431399 0 19
2.0867186 2.017323 -0.30814555 0 20
2.0849609 2.0156238 -0.28093815 0 21
2.0855889 2.0162311 -0.25411478 0 22
2.089397 2.0199122 -0.22766502 0 23
2.0808926 2.0116909 -0.19997279 0 24
2.0844016 2.0150831 -0.17353337 0 25
2.0740807 2.0051055 -0.14605935 0 26
2.0807948 2.0115962 -0.11985613 0 27
2.0857868 2.0164223 -0.093423985 0 28
2.0846176 2.0152919 -0.066682726 0 29
2.0847445 2.0154145 -0.040007554 0 30
2.0866351 2.0172424 -0.013347194 0 31
2.0936456 2.0240195 0.013392035 0 32
2.0729492 2.0040116 0.039781198 0 33
2.0830503 2.0137768 0.066632591 0 34
2.090497 2.0209758 0.093634963 0 35
2.082171 2.0129266 0.11993539 0 36
2.0790884 2.0099466 0.14641201 0 37
2.0835829 2.0142918 0.17346521 0 38
2.077661 2.0085666 0.19966225 0 39
2.0832512 2.0139709 0.22699538 0 40
2.0907555 2.0212257 0.25474426 0 41
2.0833082 2.0140262 0.28071547 0 42
2.0817184 2.0124891 0.3074072 0 43
2.0822749 2.0130272 0.33445516 0 44
2.0905092 2.0209875 0.36290774 0 45
2.085932 2.0165627 0.38924596 0 46
2.0830846 2.0138099 0.41587731 0 47
2.087954 2.0185175 0.44414771 0 48
2.0825756 2.0133178 0.47030818 0 49
2.0789437 2.0098069 0.49682653 0 50
2.0783899 2.0092714 0.52411187 0 51
2.0849509 2.015614 0.55336255 0 52
2.0994177 2.0295999 0.5850876 0 53
2.0780616 2.008954 0.60683954 0 54
2.0786746 2.0095465 0.63483757 0 55
2.084461 2.0151405 0.66461414 0 56
2.0807183 2.0115223 0.6914981 0 57
2.0802212 2.0110416 0.71952707 0 58
2.0925531 2.0229635 0.75228393 0 59
2.0851967 2.0158517 0.77816582 0 60
2.0823457 2.0130956 0.80573034 0 61
2.0838032 2.0145047 0.83508986 0 62
2.0891669 2.01969 0.86626244 0 63
1.7453967 1.7293723 -0.73248196 0 0
1.8122497 1.7956115 -0.735057 0 1
1.8619705 1.8448759 -0.72918236 0 2
1.9430668 1.9252276 -0.73390412 0 3
2.0156031 1.9970978 -0.73339301 0 4
2.0351942 2.0165091 -0.71247548 0 5
2.0424998 2.0237477 -0.68701488 0 6
2.0386536 2.0199368 -0.65787852 0 7
2.0361948 2.0175006 -0.62939292 0 8
2.0369704 2.0182691 -0.60204172 0 9
2.0397623 2.0210352 -0.57534456 0 10
2.022815 2.0042436 -0.54337114 0 11
2.0368488 2.0181487 -0.51985502 0 12
2.0275581 2.0089431 -0.49041277 0 13
2.0328364 2.0141733 -0.46463367 0 14
2.0310073 2.0123608 -0.43726468 0 15
2.0323474 2.0136886 -0.41066036 0 16
2.0405774 2.021843 -0.38539267 0 17
2.0432329 2.0244739 -0.35899505 0 18
2.0396295 2.0209038 -0.33157179 0 19
2.0328157 2.0141525 -0.30382013 0 20
2.0249295 2.0063386 -0.27615261 0 21
2.0323589 2.0137 -0.25062713 0 22
2.031559 2.0129073 -0.22404294 0 23
2.0335817 2.0149117 -0.19779231 0 24
2.0280786 2.009459 -0.17088848 0 25
2.0242836 2.0056987 -0.14427848 0 26
2.0353358 2.0166495 -0.11865704 0 27
2.0378613 2.0191519 -0.092382468 0 28
2.0274646 2.0088506 -0.065639712 0 29
2.0239086 2.0053272 -0.039310317 0 30
2.0360768 2.0173838 -0.013181476 0 31
2.0293972 2.0107656 0.013138234 0 32
2.0235209 2.0049431 0.039302789 0 33
2.0272093 2.0085976 0.065631442 0 34
2.0350468 2.0163631 0.092254877 0 35
2.0264423 2.0078378 0.11813857 0 36
2.0329239 2.0142598 0.14489432 0 37
2.046385 2.0275972 0.17243101 0 38
2.046946 2.0281529 0.19909213 0 39
2.0238109 2.0052302 0.22318846 0 40
2.0254667 2.006871 0.2497772 0 41
2.0354445 2.0167572 0.27758661 0 42
2.0324225 2.013763 0.30376133 0 43
2.0430968 2.0243392 0.33213544 0 44
2.0262415 2.0076387 0.35600966 0 45
2.0387349 2.0200174 0.38504469 0 46
2.0258362 2.0072372 0.40934467 0 47
2.0266161 2.0080099 0.43631929 0 48
2.032342 2.0136831 0.46452063 0 49
2.0359361 2.0172443 0.49243924 0 50
2.0385828 2.0198667 0.52029759 0 51
2.0386074 2.019891 0.54761332 0 52
2.0282078 2.0095868 0.57208544 0 53
2.0322108 2.0135531 0.60063499 0 54
2.0378399 2.0191305 0.62990147 0 55
2.0371361 2.0184333 0.65738881 0 56
2.0354576 2.0167701 0.68464619 0 57
2.0454621 2.0266829 0.71607006 0 58
2.0337751 2.0151031 0.74000502 0 59
2.0343807 2.0157032 0.76839375 0 60
2.0340755 2.0154009 0.79658186 0 61
2.0417531 2.0230079 0.82814461 0 62
2.0329964 2.0143316 0.85317749 0 63
1.7269849 1.753732 -0.73374963 0 0
1.789201 1.8169118 -0.73471463 0 1
1.8597441 1.8885474 -0.73734903 0 2
1.9219621 1.9517291 -0.7349419 0 3
1.9827433 2.0134516 -0.73039001 0 4
1.9819083 2.0126038 -0.70243192 0 5
1.9811307 2.0118141 -0.6746428 0 6
1.9796261 2.0102861 -0.64675832 0 7
1.9722815 2.0028279 -0.617203 0 8
1.9855795 2.0163317 -0.59413582 0 9
1.9797025 2.0103638 -0.56533384 0 10
1.9865936 2.0173616 -0.54026401 0 11
1.9850662 2.0158105 -0.5129264 0 12
1.9857752 2.0165305 -0.48626742 0 13
1.9836149 2.0143368 -0.45901003 0 14
1.9813361 2.0120227 -0.43186468 0 15
1.980345 2.0110161 -0.40511864 0 16
1.9783219 2.0089617 -0.37827179 0 17
1.9789175 2.0095665 -0.35200989 0 18
1.9846296 2.0153673 -0.32663473 0 19
1.9789999 2.0096502 -0.29944763 0 20
1.9849886 2.0157318 -0.27406517 0 21
1.9816943 2.0123863 -0.24741209 0 22
1.9895335 2.0203471 -0.22213125 0 23
1.9857497 2.0165045 -0.19553694 0 24
1.9738157 2.0043857 -0.16838028 0 25
1.9800897 2.010757 -0.14288007 0 26
1.9834777 2.0141973 -0.11706885 0 27
1.9902489 2.0210736 -0.091343768 0 28
1.9820818 2.01278 -0.064966813 0 29
1.9904135 2.0212407 -0.039139524 0 30
1.9878634 2.018651 -0.013029058 0 31
1.9851454 2.0158911 0.013011244 0 32
1.9772241 2.0078471 0.038880169 0 33
1.9797946 2.0104573 0.064891845 0 34
1.9802045 2.0108736 0.090882771 0 35
1.9720429 2.0025854 0.11639395 0 36
1.9902382 2.0210626 0.14361237 0 37
1.9752611 2.0058534 0.16850358 0 38
1.9844197 2.0151539 0.19540597 0 39
1.9816123 2.0123031 0.22124687 0 40
1.9824793 2.0131836 0.24751011 0 41
1.984256 2.0149879 0.27396405 0 42
1.9863751 2.0171397 0.3005636 0 43
1.9718639 2.0024037 0.3245337 0 44
1.9798257 2.010489 0.35217145 0 45
1.9896792 2.0204949 0.38044339 0 46
1.9756557 2.0062542 0.40415937 0 47
1.9903421 2.0211682 0.4338277 0 48
1.988014 2.0188041 0.46002799 0 49
1.9846872 2.0154257 0.48600098 0 50
1.9768925 2.0075102 0.51081437 0 51
1.9791067 2.0097587 0.53822792 0 52
1.9785519 2.0091953 0.5650053 0 53
1.9871408 2.0179172 0.594603 0 54
1.98514 2.0158854 0.62122691 0 55
1.9819871 2.0126839 0.64752972 0 56
1.9842854 2.0150175 0.675717 0 57
1.9764071 2.0070171 0.70048213 0 58
1.9718158 2.0023549 0.72636467 0 59
1.9801612 2.0108294 0.75719666 0 60
1.9820523 2.0127499 0.7858417 0 61
1.9840016 2.0147295 0.81470722 0 62
1.9839303 2.014657 0.84291893 0 63
1.7209132 1.7910928 -0.74047148 0 0
1.750108 1.8214781 -0.72780389 0 1
1.8294318 1.9040368 -0.73455805 0 2
1.9068456 1.9846075 -0.73843735 0 3
1.9384367 2.017487 -0.72315258 0 4
1.9272693 2.0058641 -0.69175619 0 5
1.9370978 2.0160935 -0.66803968 0 6
1.9356226 2.0145581 -0.64042681 0 7
1.9271891 2.0057807 -0.61076403 0 8
1.9358852 2.0148313 -0.58663505 0 9
1.9346672 2.0135639 -0.55950159 0 10
1.9402498 2.0193741 -0.53437316 0 11
1.9289509 2.0076144 -0.5047673 0 12
1.9371407 2.0161381 -0.48039249 0 13
1.9394176 2.018508 -0.45449188 0 14
1.9319553 2.0107412 -0.4264583 0 15
1.9261667 2.0047166 -0.39904809 0 16
1.94036 2.0194886 -0.37573296 0 17
1.9268832 2.0054624 -0.34711435 0 18
1.9330685 2.0118999 -0.32219598 0 19
1.9243351 2.0028102 -0.2948803 0 20
1.9358565 2.0148015 -0.27068174 0 21
1.9280756 2.0067034 -0.24378012 0 22
1.9387493 2.0178123 -0.2192149 0 23
1.9255056 2.0040286 -0.19201674 0 24
1.9365748 2.0155492 -0.16730498 0 25
1.9351315 2.0140471 -0.14141232 0 26
1.9240084 2.0024703 -0.11500347 0 27
1.934123 2.0129974 -0.089897081 0 28
1.9410946 2.0202532 -0.064432748 0 29
1.9373769 2.0163839 -0.038581252 0 30
1.931231 2.0099874 -0.012818898 0 31
1.9403259 2.0194533 0.012879266 0 32
1.9269236 2.0055044 0.038373083 0 33
1.935712 2.0146511 0.064254075 0 34
1.9322603 2.0110586 0.089810498 0 35
1.9348562 2.0137603 0.11565188 0 36
1.9343795 2.0132642 0.14135736 0 37
1.9403634 2.0194921 0.16763228 0 38
1.9262929 2.004848 0.19209525 0 39
1.94047 2.0196033 0.21940945 0 40
1.9289124 2.0075743 0.24388592 0 41
1.9248277 2.0033228 0.26913965 0 42
1.9341824 2.0130591 0.29638928 0 43
1.935871 2.0148165 0.32266307 0 44
1.9356854 2.0146234 0.34869999 0 45
1.9335915 2.012444 0.37442228 0 46
1.9271514 2.0057414 0.39925209 0 47
1.9331998 2.0120366 0.42673302 0 48
1.9378467 2.0168729 0.45412374 0 49
1.936044 2.0149965 0.48012051 0 50
1.9307119 2.0094471 0.5052281 0 51
1.9338366 2.0126991 0.53260684 0 52
1.9366621 2.0156398 0.5600785 0 53
1.9413421 2.0205109 0.58828872 0 54
1.9373103 2.0163147 0.61397165 0 55
1.9482797 2.0277314 0.64461458 0 56
1.9332521 2.0120909 0.66671342 0 57
1.927893 2.0065134 0.69198006 0 58
1.92954 2.0082276 0.71983361 0 59
1.93911 2.0181878 0.75093198 0 60
1.9274853 2.006089 0.77392876 0 61
1.9364562 2.0154257 0.8052991 0 62
1.9205508 1.9988717 0.82637119 0 63
1.687903 1.8005348 -0.73573875 0 0
1.740199 1.8563204 -0.7331202 0 1
1.7989513 1.9189931 -0.73173881 0 2
1.8824445 2.0080576 -0.73849422 0 3
1.8896126 2.0157042 -0.71413094 0 4
1.8962685 2.0228043 -0.68950474 0 5
1.8849593 2.0107405 -0.65853596 0 6
1.8873259 2.0132649 -0.63259029 0 7
1.88061 2.0061009 -0.60377431 0 8
1.8958331 2.0223398 -0.58198971 0 9
1.8860234 2.0118754 -0.55254656 0 10
1.8785191 2.0038702 -0.52411836 0 11
1.8843892 2.0101323 -0.49953669 0 12
1.898145 2.024806 -0.47686034 0 13
1.8901756 2.0163047 -0.44872856 0 14
1.8902828 2.0164189 -0.42270076 0 15
1.8835518 2.009239 -0.39530811 0 16
1.8831218 2.0087802 -0.36940446 0 17
1.8864772 2.0123596 -0.3442671 0 18
1.8808167 2.0063214 -0.31757486 0 19
1.8848757 2.0106511 -0.29260015 0 20
1.8832686 2.0089369 -0.26676255 0 21
1.8871101 2.0130348 -0.24171202 0 22
1.8857679 2.0116029 -0.2160048 0 23
1.8868879 2.0127978 -0.19061942 0 24
1.893458 2.0198061 -0.16571318 0 25
1.8748088 1.9999125 -0.13879074 0 26
1.8840065 2.0097239 -0.11408096 0 27
1.885227 2.0110259 -0.088767074 0 28
1.8911228 2.0173151 -0.063592583 0 29
1.8895072 2.0155916 -0.038118649 0 30
1.8873572 2.0132983 -0.012691044 0 31
1.8807545 2.0062549 0.012646645 0 32
1.892076 2.018332 0.038170476 0 33
1.8890254 2.0150778 0.063522056 0 34
1.8911756 2.0173714 0.089047171 0 35
1.8752663 2.0004005 0.11355172 0 36
1.891614 2.0178392 0.14003482 0 37
1.8936304 2.01999 0.16572826 0 38
1.8769999 2.0022497 0.18962049 0 39
1.8839262 2.0096383 0.21579385 0 40
1.8915373 2.0177574 0.24227908 0 41
1.8907139 2.0168791 0.26781717 0 42
1.8825009 2.0081179 0.2922315 0 43
1.8852133 2.0110111 0.3183172 0 44
1.8894385 2.0155184 0.34480748 0 45
1.8897859 2.0158889 0.37071174 0 46
1.8876849 2.013648 0.39617553 0 47
1.8835738 2.0092623 0.42120051 0 48
1.8877668 2.0137353 0.44815671 0 49
1.8805895 2.006079 0.47244996 0 50
1.882628 2.0082533 0.49906981 0 51
1.887578 2.0135338 0.5266459 0 52
1.8799343 2.0053802 0.55076265 0 53
1.8840966 2.0098202 0.57838678 0 54
1.8866328 2.0125256 0.60570794 0 55
1.8842652 2.01 0.63156438 0 56
1.8914726 2.0176883 0.66081142 0 57
1.8906692 2.0168314 0.68746877 0 58
1.8784935 2.0038431 0.70992881 0 59
1.8812069 2.0067375 0.73800868 0 60
1.8932747 2.0196106 0.77010566 0 61
1.8860625 2.0119171 0.79457039 0 62
1.8849926 2.0107758 0.82164794 0 63
1.6659627 1.8215085 -0.73588264 0 0
1.7281063 1.8894544 -0.73775798 0 1
1.7801149 1.9463189 -0.73375636 0 2
1.8315336 2.0025382 -0.7281267 0 3
1.8339405 2.0051701 -0.70235634 0 4
1.8388096 2.0104938 -0.67755002 0 5
1.8406523 2.0125084 -0.65165299 0 6
1.8401775 2.0119894 -0.62503231 0 7
1.8403676 2.012197 -0.59875286 0 8
1.8431919 2.015285 -0.5733937 0 9
1.8446993 2.0169332 -0.54766446 0 10
1.8435558 2.0156829 -0.5212394 0 11
1.8419338 2.0139096 -0.49480945 0 12
1.8489925 2.0216272 -0.4707216 0 13
1.8487507 2.021363 -0.4447614 0 14
1.8396593 2.0114226 -0.41687977 0 15
1.8417776 2.0137386 -0.39170802 0 16
1.8365687 2.0080435 -0.36508846 0 17
1.8427709 2.0148249 -0.34078655 0 18
1.8409958 2.0128841 -0.31500655 0 19
1.8462303 2.0186071 -0.29043227 0 20
1.8431519 2.0152414 -0.26457018 0 21
1.8370848 2.0086079 -0.23845001 0 22
1.8419925 2.0139737 -0.21381107 0 23
1.8340498 2.0052896 -0.18775839 0 24
1.8434012 2.0155141 -0.16348895 0 25
1.8408887 2.0127668 -0.13810144 0 26
1.8478255 2.0203514 -0.11338586 0 27
1.8251936 1.9956064 -0.087089211 0 28
1.8424478 2.0144715 -0.062784016 0 29
1.8406423 2.0124974 -0.037629247 0 30
1.8365576 2.0080314 -0.012514542 0 31
1.8297822 2.0006235 0.012468373 0 32
1.8408685 2.0127449 0.037633874 0 33
1.8432204 2.0153162 0.062810339 0 34
1.8386979 2.0103717 0.087733574 0 35
1.8353798 2.0067437 0.11262217 0 36
1.8370006 2.0085158 0.13780977 0 37
1.8352805 2.0066352 0.16276874 0 38
1.8318664 2.0029023 0.18753487 0 39
1.8473489 2.0198302 0.21443282 0 40
1.8420881 2.0140781 0.23909943 0 41
1.8426869 2.0147328 0.26450342 0 42
1.8378886 2.0094867 0.28912005 0 43
1.8324232 2.003511 0.31353971 0 44
1.8431371 2.0152252 0.34085429 0 45
1.8406124 2.0124648 0.36589229 0 46
1.8478442 2.0203719 0.39299828 0 47
1.8412002 2.0131075 0.41722897 0 48
1.8436877 2.0158272 0.44354334 0 49
1.8385105 2.0101666 0.46805307 0 50
1.8390335 2.0107384 0.49403033 0 51
1.8340942 2.005338 0.51856422 0 52
1.8333298 2.0045023 0.54428899 0 53
1.8288976 1.9996562 0.56894696 0 54
1.8387878 2.0104699 0.59823895 0 55
1.8338286 2.0050476 0.62287587 0 56
1.843418 2.0155323 0.65263212 0 57
1.8446797 2.0169117 0.67971295 0 58
1.8294606 2.0002718 0.70064062 0 59
1.8333936 2.0045719 0.72886616 0 60
1.8397783 2.0115528 0.75834942 0 61
1.8382715 2.0099053 0.78478938 0 62
1.8314742 2.0024734 0.80899173 0 63
1.6416744 1.8398756 -0.73509187 0 0
1.7025572 1.9081089 -0.7368117 0 1
1.7625468 1.9753412 -0.73647135 0 2
1.7993608 2.0165997 -0.72513962 0 3
1.7946724 2.0113451 -0.69673681 0 4
1.7878395 2.0036876 -0.66779697 0 5
1.7981057 2.015193 -0.64531416 0 6
1.7923694 2.0087643 -0.61713707 0 7
1.7978593 2.0149169 -0.59293908 0 8
1.8010317 2.0184724 -0.56795645 0 9
1.7909778 2.0072045 -0.53900218 0 10
1.7985158 2.0156527 -0.51547372 0 11
1.8010005 2.0184374 -0.49044365 0 12
1.8000107 2.017328 -0.46453175 0 13
1.7906625 2.0068514 -0.43669057 0 14
1.7877101 2.0035424 -0.41065949 0 15
1.7948722 2.0115693 -0.38696364 0 16
1.7898095 2.0058951 -0.36066917 0 17
1.798517 2.0156541 -0.33716074 0 18
1.7987946 2.0159652 -0.31200367 0 19
1.7917182 2.0080345 -0.28571963 0 20
1.7985172 2.0156543 -0.26170117 0 21
1.7931859 2.0096793 -0.23594175 0 22
1.788693 2.0046439 -0.21046963 0 23
1.8038582 2.0216401 -0.18719833 0 24
1.8003561 2.0177152 -0.16185954 0 25
1.8003844 2.0177469 -0.13691382 0 26
1.7863876 2.0020602 -0.11111813 0 27
1.7912866 2.0075507 -0.086642675 0 28
1.7922795 2.0086634 -0.061911445 0 29
1.8009826 2.0184174 -0.037323039 0 30
1.7937067 2.010263 -0.012390053 0 31
1.7993742 2.0166147 0.012429201 0 32
1.7860153 2.0016429 0.03701286 0 33
1.7857443 2.0013392 0.0616857 0 34
1.7966721 2.0135865 0.086903162 0 35
1.8054396 2.0234125 0.11230322 0 36
1.7970288 2.0139861 0.13665862 0 37
1.7975926 2.0146182 0.16161108 0 38
1.7908325 2.0070419 0.18584657 0 39
1.7962559 2.0131199 0.21135956 0 40
1.7916533 2.0079615 0.2357401 0 41
1.7916459 2.0079534 0.26070133 0 42
1.7864437 2.0021231 0.28487849 0 43
1.7991008 2.0163083 0.31205678 0 44
1.7968439 2.0137789 0.33684707 0 45
1.7900802 2.0061986 0.36072373 0 46
1.7949532 2.0116601 0.3869811 0 47
1.7992779 2.0165069 0.41331676 0 48
1.7937911 2.0103576 0.43745351 0 49
1.7994047 2.016649 0.46437538 0 50
1.7923056 2.0086927 0.48807588 0 51
1.7974964 2.0145102 0.51518154 0 52
1.7959617 2.0127904 0.54050213 0 53
1.7874515 2.0032525 0.56367397 0 54
1.7881123 2.0039933 0.58972448 0 55
1.8037779 2.0215502 0.62106514 0 56
1.8041712 2.0219908 0.64749098 0 57
1.7902285 2.0063648 0.66868931 0 58
1.7932585 2.0097609 0.69618797 0 59
1.7949532 2.0116601 0.7233634 0 60
1.7970319 2.0139897 0.75088072 0 61
1.794179 2.0107923 0.77646255 0 62
1.7852812 2.0008204 0.79939467 0 63
1.6207364 1.8619993 -0.73591298 0 0
1.6865627 1.9376247 -0.74014491 0 1
1.7303749 1.9879588 -0.73318726 0 2
1.7530665 2.0140283 -0.71640944 0 3
1.747836 2.008019 -0.68808764 0 4
1.7499936 2.0104978 -0.66284484 0 5
1.747924 2.0081201 -0.63611847 0 6
1.7525285 2.0134101 -0.61189753 0 7
1.7558308 2.017204 -0.58721417 0 8
1.7614198 2.0236249 -0.56326926 0 9
1.7423995 2.0017734 -0.53175002 0 10
1.7469273 2.0069752 -0.50772268 0 11
1.7468112 2.0068417 -0.4823705 0 12
1.7443038 2.0039611 -0.45648018 0 13
1.7445618 2.0042574 -0.43142557 0 14
1.7505543 2.011142 -0.4077743 0 15
1.7538543 2.0149333 -0.3834331 0 16
1.749823 2.0103018 -0.3575657 0 17
1.7509645 2.0116134 -0.3328582 0 18
1.7489878 2.0093424 -0.30762696 0 19
1.7455684 2.005414 -0.2822713 0 20
1.748816 2.009145 -0.25804454 0 21
1.7495732 2.010015 -0.23343776 0 22
1.7510165 2.011673 -0.20893124 0 23
1.7482986 2.0085506 -0.18398172 0 24
1.7586019 2.0203876 -0.16032708 0 25
1.7593874 2.0212901 -0.13567598 0 26
1.7551433 2.0164142 -0.11070859 0 27
1.7543496 2.0155025 -0.08604832 0 28
1.755537 2.0168664 -0.06149428 0 29
1.7457604 2.0056345 -0.036686949 0 30
1.7520635 2.0128758 -0.012272444 0 31
1.7518615 2.0126438 0.012271028 0 32
1.7424877 2.0018747 0.036618173 0 33
1.7568575 2.0183835 0.061540533 0 34
1.7434471 2.0029767 0.085513562 0 35
1.7520686 2.0128818 0.11051465 0 36
1.7603506 2.0223966 0.13575026 0 37
1.7499222 2.0104158 0.15953578 0 38
1.7424572 2.0018396 0.18336698 0 39
1.743452 2.0029824 0.20802863 0 40
1.7465085 2.0064938 0.23302883 0 41
1.7531344 2.0141063 0.25868174 0 42
1.7533569 2.0143619 0.28353074 0 43
1.7567344 2.0182421 0.30898947 0 44
1.7616613 2.0239024 0.33489165 0 45
1.7550926 2.016356 0.35864252 0 46
1.7478967 2.0080888 0.38213065 0 47
1.7468096 2.0068398 0.40690199 0 48
1.7508014 2.011426 0.43296865 0 49
1.7586734 2.0204697 0.46024069 0 50
1.7430289 2.0024962 0.48132604 0 51
1.7413843 2.000607 0.50611168 0 52
1.752411 2.0132751 0.53480542 0 53
1.7525756 2.0134642 0.56044108 0 54
1.7490547 2.0094192 0.58494794 0 55
1.7466351 2.0066395 0.6098398 0 56
1.7547884 2.0160065 0.63861662 0 57
1.7558827 2.0172637 0.66507542 0 58
1.7479663 2.0081689 0.68813896 0 59
1.7607784 2.0228879 0.71956098 0 60
1.7481445 2.0083735 0.74071646 0 61
1.7514122 2.0121276 0.76860398 0 62
1.7505592 2.0111477 0.79486048 0 63
1.5961647 1.8799551 -0.73519683 0 0
1.6472917 1.9401723 -0.73332518 0 1
1.7103184 2.0144048 -0.73512888 0 2
1.7086469 2.0124362 -0.70831597 0 3
1.7014449 2.0039537 -0.67947394 0 4
1.7109307 2.015126 -0.65738475 0 5
1.7138914 2.0186131 -0.63271856 0 6
1.7016821 2.0042331 -0.60270369 0 7
1.7131277 2.0177138 -0.58118641 0 8
1.7053944 2.0086052 -0.55320978 0 9
1.7036929 2.0066013 -0.52742773 0 10
1.7114607 2.0157502 -0.5045805 0 11
1.7102481 2.014322 -0.47907746 0 12
1.7020301 2.0046427 -0.45183393 0 13
1.7045215 2.0075774 -0.42759621 0 14
1.7117692 2.0161135 -0.40448394 0 15
1.7151294 2.0200713 -0.38036874 0 16
1.712326 2.0167694 -0.35494414 0 17
1.695009 1.9963735 -0.32686299 0 18
1.7058717 2.0091674 -0.30436575 0 19
1.7078239 2.0114667 -0.28014618 0 20
1.7087693 2.0125802 -0.25576776 0 21
1.7187045 2.024282 -0.23262265 0 22
1.7055848 2.0088296 -0.20644212 0 23
1.7070034 2.0105004 -0.18222386 0 24
1.7016668 2.004215 -0.15737136 0 25
1.702377 2.0050516 -0.13317083 0 26
1.7073901 2.0109558 -0.10924795 0 27
1.7101969 2.0142617 -0.085091107 0 28
1.703511 2.006387 -0.060531504 0 29
1.706996 2.0104916 -0.036389094 0 30
1.7098457 2.0138481 -0.012149263 0 31
1.7088883 2.0127203 0.012142461 0 32
1.704877 2.0079961 0.036343925 0 33
1.7087947 2.0126102 0.060719252 0 34
1.7061312 2.0094731 0.084888816 0 35
1.7056042 2.0088525 0.10913368 0 36
1.7097611 2.0137486 0.13374846 0 37
1.7016201 2.0041602 0.15736705 0 38
1.7048209 2.0079298 0.18199088 0 39
1.7048646 2.0079815 0.20635495 0 40
1.7057942 2.0090764 0.23087528 0 41
1.7036489 2.0065496 0.25500137 0 42
1.7033058 2.0061455 0.27940506 0 43
1.7028503 2.005609 0.30382669 0 44
1.7060815 2.0094147 0.32899818 0 45
1.70437 2.0073988 0.35329494 0 46
1.7138103 2.0185177 0.38007623 0 47
1.7100055 2.0140364 0.40406719 0 48
1.7003621 2.0026784 0.42655277 0 49
1.7040291 2.0069973 0.45236459 0 50
1.7118845 2.0162494 0.47953582 0 51
1.708923 2.0127614 0.50383234 0 52
1.705515 2.0087473 0.52799177 0 53
1.707972 2.0116413 0.55404592 0 54
1.702358 2.0050292 0.57753271 0 55
1.7021914 2.0048327 0.60288405 0 56
1.705544 2.0087817 0.629637 0 57
1.7056657 2.008925 0.65536183 0 58
1.7084538 2.0122087 0.68227291 0 59
1.7086203 2.0124049 0.708305 0 60
1.7121301 2.0165386 0.73590755 0 61
1.7024419 2.0051279 0.7578764 0 62
1.708376 2.0121171 0.78688163 0 63
1.5726293 1.8990768 -0.73505676 0 0
1.626397 1.9640057 -0.73471898 0 1
1.6707206 2.01753 -0.72871703 0 2
1.6742003 2.0217321 -0.70428872 0 3
1.6679062 2.0141313 -0.67591971 0 4
1.6593615 2.003813 -0.64698887 0 5
1.6738696 2.0213327 -0.62707216 0 6
1.6645558 2.0100856 -0.59826326 0 7
1.6669312 2.012954 -0.57386792 0 8
1.6671163 2.0131776 -0.54878157 0 9
1.6703506 2.0170832 -0.52474439 0 10
1.6681596 2.0144374 -0.49907953 0 11
1.6661135 2.0119665 -0.47360879 0 12
1.6720577 2.0191448 -0.45043436 0 13
1.6629407 2.0081353 -0.42332774 0 14
1.6582276 2.0024438 -0.39762053 0 15
1.6763737 2.0243566 -0.37726572 0 16
1.6655186 2.0112484 -0.35034156 0 17
1.6659806 2.011806 -0.326011 0 18
1.6669861 2.0130203 -0.30182138 0 19
1.6642313 2.0096939 -0.27702817 0 20
1.6737967 2.0212445 -0.25423402 0 21
1.6683723 2.0146942 -0.22914605 0 22
1.6621189 2.0071428 -0.20415294 0 23
1.6668874 2.0129011 -0.18057005 0 24
1.6561775 1.9999682 -0.15542707 0 25
1.6656331 2.0113866 -0.13222125 0 26
1.6593238 2.0037675 -0.10774083 0 27
1.6628616 2.0080397 -0.083958127 0 28
1.6651649 2.0108211 -0.060043 0 29
1.6673374 2.0134447 -0.03606873 0 30
1.6590979 2.0034947 -0.011962823 0 31
1.6709161 2.017766 0.012048036 0 32
1.6652557 2.0109308 0.036023699 0 33
1.6762573 2.0242159 0.060442965 0 34
1.672473 2.0196462 0.084443413 0 35
1.6650558 2.0106893 0.108113 0 36
1.6625953 2.0077181 0.13198011 0 37
1.6583753 2.0026221 0.15563332 0 38
1.6652045 2.010869 0.18038775 0 39
1.6684301 2.0147641 0.20492813 0 40
1.6615179 2.006417 0.22820459 0 41
1.6661413 2.0120001 0.25307125 0 42
1.66404 2.0094626 0.27699631 0 43
1.6666374 2.0125992 0.30175826 0 44
1.6671718 2.0132446 0.32624412 0 45
1.6636945 2.0090456 0.34995785 0 46
1.6661055 2.0119569 0.37495491 0 47
1.6650152 2.0106404 0.39924812 0 48
1.6651988 2.0108621 0.42390257 0 49
1.6579089 2.0020587 0.44662279 0 50
1.665125 2.0107729 0.47332782 0 51
1.6609483 2.0057292 0.49692205 0 52
1.6677893 2.0139904 0.52393979 0 53
1.6715285 2.0185056 0.5502339 0 54
1.6560185 1.999776 0.57011104 0 55
1.6647526 2.0103233 0.59833401 0 56
1.6667624 2.0127501 0.62440956 0 57
1.668559 2.0149198 0.65057504 0 58
1.6687068 2.0150983 0.6762442 0 59
1.6664507 2.0123739 0.7010287 0 60
1.6616813 2.0066144 0.72477436 0 61
1.6705728 2.0173516 0.75467521 0 62
1.6657712 2.0115533 0.77859187 0 63
1.5447953 1.9128646 -0.73298562 0 0
1.6028761 1.984784 -0.73506314 0 1
1.6190145 2.0047677 -0.7168625 0 2
1.6204492 2.0065444 -0.69200426 0 3
1.6224555 2.0090287 -0.66746163 0 4
1.6282135 2.0161586 -0.64446181 0 5
1.6195278 2.0054033 -0.61590582 0 6
1.6186466 2.0043123 -0.59057635 0 7
1.6160574 2.001106 -0.56478232 0 8
1.6274163 2.0151713 -0.5438289 0 9
1.6293205 2.0175292 -0.51960909 0 10
1.6244386 2.0114841 -0.49336177 0 11
1.6199493 2.0059254 -0.46746236 0 12
1.6216564 2.008039 -0.44347495 0 13
1.6178159 2.0032835 -0.41807967 0 14
1.6283364 2.0163107 -0.39636821 0 15
1.6194634 2.0053236 -0.36997953 0 16
1.6180168 2.0035324 -0.34550568 0 17
1.6210617 2.0073028 -0.3220267 0 18
1.635566 2.0252628 -0.30061877 0 19
1.6154794 2.0003903 -0.27298683 0 20
1.6233631 2.0101526 -0.25030914 0 21
1.6129683 1.997281 -0.22489265 0 22
1.6177795 2.0032384 -0.2017172 0 23
1.6283908 2.0163779 -0.17907217 0 24
1.6183714 2.0039713 -0.15417998 0 25
1.613883 1.9984134 -0.13005409 0 26
1.6284906 2.0165017 -0.1073407 0 27
1.630914 2.0195024 -0.083592579 0 28
1.6230577 2.0097742 -0.059411306 0 29
1.624081 2.0110414 -0.035665236 0 30
1.6192774 2.0050931 -0.011852579 0 31
1.616043 2.0010881 0.011828906 0 32
1.6231949 2.0099442 0.035645775 0 33
1.6235994 2.0104451 0.059431136 0 34
1.6162117 2.001297 0.082839012 0 35
1.6275138 2.0152919 0.10727631 0 36
1.6163701 2.0014932 0.13025449 0 37
1.6269352 2.0145757 0.15499584 0 38
1.6188171 2.0045233 0.17801937 0 39
1.6226805 2.0093071 0.20232828 0 40
1.6150002 1.9997969 0.22517595 0 41
1.6146778 1.9993976 0.24896991 0 42
1.6168393 2.0020742 0.27321661 0 43
1.6226426 2.0092602 0.29824346 0 44
1.623767 2.0106525 0.3225641 0 45
1.6266581 2.0142324 0.3473509 0 46
1.6231983 2.0099483 0.3708328 0 47
1.6150068 1.9998051 0.39312354 0 48
1.6224617 2.0090361 0.41928026 0 49
1.6275883 2.0153842 0.44509712 0 50
1.6274563 2.0152209 0.4696286 0 51
1.6315224 2.0202558 0.4955132 0 52
1.6249636 2.0121343 0.51821965 0 53
1.6220661 2.0085464 0.54204106 0 54
1.627203 2.0149071 0.56867748 0 55
1.6177869 2.0032475 0.59026265 0 56
1.6226089 2.0092185 0.61707753 0 57
1.6295308 2.0177896 0.64498323 0 58
1.6231598 2.0099006 0.66775137 0 59
1.6196721 2.0055819 0.69167233 0 60
1.622689 2.0093176 0.71848947 0 61
1.6158783 2.0008843 0.74102587 0 62
1.6214864 2.0078285 0.76937461 0 63
1.5319617 1.9454327 -0.73819113 0 0
1.5778458 2.0037007 -0.73482794 0 1
1.581991 2.0089645 -0.71135348 0 2
1.5843105 2.0119104 -0.68708432 0 3
1.5829207 2.0101454 -0.66131604 0 4
1.5823317 2.0093973 -0.63603312 0 5
1.5804673 2.0070298 -0.61039054 0 6
1.5765829 2.0020969 -0.58416724 0 7
1.5865277 2.0147259 -0.56307775 0 8
1.5819129 2.0088656 -0.53683716 0 9
1.5802944 2.0068102 -0.51180512 0 10
1.5749923 2.0000772 -0.48577705 0 11
1.5865649 2.0147731 -0.46494269 0 12
1.5866613 2.0148957 -0.44064704 0 13
1.5774285 2.0031707 -0.41397679 0 14
1.5835629 2.0109608 -0.39145908 0 15
1.5846398 2.0123284 -0.36764908 0 16
1.5767524 2.0023124 -0.34192595 0 17
1.5856186 2.0135715 -0.31988028 0 18
1.585825 2.0138335 -0.29600543 0 19
1.5762157 2.0016308 -0.27049068 0 20
1.5784056 2.0044117 -0.24715875 0 21
1.5715514 1.9957075 -0.22252272 0 22
1.5831933 2.0104916 -0.20047209 0 23
1.587486 2.0159428 -0.17728654 0 24
1.5882096 2.0168617 -0.15365759 0 25
1.5733143 1.9979463 -0.12875491 0 26
1.5868022 2.0150745 -0.10621806 0 27
1.5869607 2.0152757 -0.082603641 0 28
1.5847892 2.0125182 -0.058911897 0 29
1.584801 2.0125329 -0.035343412 0 30
1.5834925 2.0108714 -0.011770747 0 31
1.5771294 2.0027909 0.011723448 0 32
1.5893131 2.0182631 0.035444044 0 33
1.5862051 2.0143163 0.058964532 0 34
1.5847961 2.012527 0.082490981 0 35
1.5881563 2.016794 0.1063087 0 36
1.5739375 1.9987378 0.12880592 0 37
1.5877942 2.0163343 0.15361738 0 38
1.5828843 2.0100992 0.17677262 0 39
1.5825611 2.0096889 0.20039204 0 40
1.5855355 2.0134661 0.2245028 0 41
1.5842191 2.0117943 0.24806908 0 42
1.5824145 2.0095024 0.27155444 0 43
1.574369 1.9992856 0.29386708 0 44
1.5751969 2.0003369 0.31777781 0 45
1.5818205 2.0087483 0.34302497 0 46
1.5849622 2.012738 0.36772388 0 47
1.5787631 2.0048656 0.39027259 0 48
1.5870897 2.0154395 0.41651228 0 49
1.5873474 2.0157669 0.44083756 0 50
1.5929196 2.0228429 0.46680495 0 51
1.5817553 2.0086653 0.48786297 0 52
1.5793691 2.0056353 0.51150542 0 53
1.5816916 2.0085845 0.53676206 0 54
1.5925059 2.0223176 0.56519949 0 55
1.587074 2.0154197 0.58805454 0 56
1.584406 2.0120316 0.61191171 0 57
1.5898346 2.0189252 0.63904899 0 58
1.5857186 2.0136983 0.66248494 0 59
1.5845006 2.0121517 0.68716675 0 60
1.5805256 2.0071039 0.71069461 0 61
1.5923716 2.0221472 0.74159282 0 62
1.581951 2.008914 0.76227903 0 63
1.4998356 1.9535843 -0.7342307 0 0
1.5436198 2.0106146 -0.73034722 0 1
1.546773 2.0147216 -0.70660383 0 2
1.529817 1.9926361 -0.67402679 0 3
1.5338397 1.9978758 -0.65102524 0 4
1.5380238 2.0033257 -0.62807751 0 5
1.5436559 2.0106616 -0.60567647 0 6
1.5409876 2.0071862 -0.58007944 0 7
1.5381837 2.0035338 -0.5546217 0 8
1.5447873 2.0121353 -0.53259444 0 9
1.5486393 2.0171528 -0.50954771 0 10
1.5418984 2.0083725 -0.4831503 0 11
1.5393391 2.0050387 -0.45829365 0 12
1.5480548 2.0163913 -0.43677816 0 13
1.5390131 2.0046144 -0.41033316 0 14
1.5435994 2.0105879 -0.38766232 0 15
1.5338722 1.9979181 -0.36154309 0 16
1.5446459 2.0119512 -0.34030271 0 17
1.5411222 2.0073614 -0.31585935 0 18
1.5411313 2.0073733 -0.29224831 0 19
1.5450363 2.0124598 -0.26936632 0 20
1.5333303 1.9972122 -0.24392766 0 21
1.5398241 2.0056705 -0.22150567 0 22
1.5390072 2.0046065 -0.19798329 0 23
1.5371765 2.0022221 -0.17440444 0 24
