# .PCD v0.7 - Point Cloud Data file format
VERSION 0.7
FIELDS x y z intensity ring
SIZE 4 4 4 4 2
TYPE F F F F U
COUNT 1 1 1 1 1
WIDTH 1325
HEIGHT 1
VIEWPOINT 0 0 0 1 0 0 0
POINTS 1325
DATA ascii
0 0 0 0 63
0.78501332 -2.3470817 -0.73779511 0 0
0.80953908 -2.4204104 -0.73535448 0 1
0.83725876 -2.5032883 -0.73430926 0 2
0.87124586 -2.6049051 -0.73696738 0 3
0.89693844 -2.6817224 -0.73088723 0 4
0.94061381 -2.8123057 -0.73744798 0 5
0.97632343 -2.9190726 -0.73545116 0 6
1.0095296 -3.0183544 -0.72958732 0 7
1.0594189 -3.1675165 -0.73337519 0 8
1.1087669 -3.3150604 -0.7339021 0 9
1.1608325 -3.4707294 -0.73328704 0 10
1.2237178 -3.6587474 -0.73616922 0 11
1.2831414 -3.8364158 -0.73342198 0 12
1.3636568 -4.0771461 -0.73866844 0 13
1.4332021 -4.2850771 -0.73362082 0 14
1.5287999 -4.5709014 -0.7371223 0 15
1.6243966 -4.8567219 -0.73507702 0 16
1.7349811 -5.1873541 -0.73383951 0 17
1.8727248 -5.5991893 -0.73688638 0 18
1.895872 -5.668396 -0.6902259 0 19
1.8955271 -5.6673646 -0.63446033 0 20
1.9003748 -5.6818585 -0.58040947 0 21
1.8976604 -5.6737432 -0.52408546 0 22
1.8968318 -5.6712656 -0.46847519 0 23
1.9036551 -5.6916661 -0.4146598 0 24
1.8996346 -5.6796455 -0.35847104 0 25
1.9007139 -5.6828728 -0.30339116 0 26
1.8980083 -5.6747832 -0.24780583 0 27
1.9017256 -5.6858974 -0.19307175 0 28
1.8985341 -5.6763554 -0.13765366 0 29
1.9001287 -5.6811233 -0.082652241 0 30
1.8988715 -5.6773643 -0.027530966 0 31
1.9015785 -5.6854577 0.027570212 0 32
1.8970277 -5.6718516 0.082517356 0 33
1.8986717 -5.6767669 0.13766363 0 34
1.9044703 -5.6941042 0.19335042 0 35
1.8952398 -5.6665063 0.24744438 0 36
1.9007407 -5.6829529 0.30339545 0 37
1.9005259 -5.6823106 0.35863924 0 38
1.8988587 -5.6773257 0.41361505 0 39
1.8980973 -5.6750493 0.46878776 0 40
1.8971907 -5.6723385 0.52395576 0 41
1.8981285 -5.6751428 0.57972342 0 42
1.9003032 -5.6816449 0.63605899 0 43
1.8962845 -5.6696291 0.6903761 0 44
1.9024429 -5.6880422 0.74857998 0 45
1.8983947 -5.6759386 0.80295813 0 46
1.900444 -5.682066 0.85999489 0 47
1.8987942 -5.6771331 0.91551781 0 48
1.895943 -5.6686087 0.97048646 0 49
1.8958666 -5.6683803 1.0269569 0 50
1.9002395 -5.6814542 1.0861449 0 51
1.8928714 -5.6594248 1.1387215 0 52
1.9047329 -5.6948891 1.203202 0 53
1.8983866 -5.6759143 1.2565579 0 54
1.9014004 -5.6849256 1.316231 0 55
1.899057 -5.6779189 1.372449 0 56
1.9015819 -5.6854677 1.4324358 0 57
1.8971136 -5.6721082 1.4873507 0 58
1.8978075 -5.6741829 1.5464643 0 59
1.9007812 -5.683074 1.6078284 0 60
1.9012305 -5.6844172 1.6674548 0 61
1.9003398 -5.6817541 1.7261963 0 62
0 0 0 0 63
0.80981916 -2.325783 -0.73417473 0 0
0.84315699 -2.4215286 -0.73878825 0 1
0.86544579 -2.4855416 -0.73216981 0 2
0.89961243 -2.5836673 -0.73403305 0 3
0.93429494 -2.6832747 -0.73438591 0 4
0.97073531 -2.7879307 -0.73413092 0 5
1.0107232 -2.9027748 -0.73442078 0 6
1.0584481 -3.0398397 -0.73787093 0 7
1.1031064 -3.1680975 -0.73659456 0 8
1.1503071 -3.3036568 -0.73445338 0 9
1.2094375 -3.4734781 -0.73695421 0 10
1.2653335 -3.6340106 -0.73426706 0 11
1.3335642 -3.8299673 -0.73526853 0 12
1.4083955 -4.0448813 -0.73590493 0 13
1.4857426 -4.2670202 -0.73360181 0 14
1.5792884 -4.5356817 -0.73451889 0 15
1.6818805 -4.8303242 -0.73415625 0 16
1.8035836 -5.179853 -0.73586011 0 17
1.9321846 -5.549192 -0.73337781 0 18
1.9726037 -5.6652746 -0.69274706 0 19
1.9759356 -5.6748438 -0.63796943 0 20
1.9760646 -5.6752143 -0.58216888 0 21
1.9748811 -5.6718154 -0.52611077 0 22
1.9737413 -5.6685419 -0.47021952 0 23
1.97384 -5.6688256 -0.41473266 0 24
1.9743336 -5.6702428 -0.35938269 0 25
1.9761442 -5.6754432 -0.30426881 0 26
1.9800338 -5.686614 -0.24936679 0 27
1.9789782 -5.6835818 -0.19380479 0 28
1.9757375 -5.6742749 -0.13818191 0 29
1.9770619 -5.6780787 -0.082955368 0 30
1.9750557 -5.672317 -0.027622171 0 31
1.9756936 -5.674149 0.027631093 0 32
1.9761232 -5.6753831 0.082915984 0 33
1.9740598 -5.669457 0.13806458 0 34
1.9811285 -5.6897578 0.19401537 0 35
1.9787925 -5.6830487 0.24921046 0 36
1.9780635 -5.6809549 0.3045643 0 37
1.9723877 -5.6646543 0.35902846 0 38
1.9747193 -5.671351 0.41491744 0 39
1.9750533 -5.6723099 0.47053206 0 40
1.9767789 -5.6772661 0.52661633 0 41
1.9759265 -5.674818 0.58212817 0 42
1.9801719 -5.6870103 0.63933718 0 43
1.9768534 -5.6774797 0.6942395 0 44
1.9791061 -5.6839495 0.75118732 0 45
1.9751954 -5.672718 0.80587751 0 46
1.973599 -5.6681333 0.861494 0 47
1.9753002 -5.6730189 0.91870189 0 48
1.9762261 -5.6756783 0.97578341 0 49
1.9765887 -5.6767197 1.0327933 0 50
1.9713547 -5.6616879 1.0869181 0 51
1.9731008 -5.6667023 1.1449809 0 52
1.9739701 -5.669199 1.2028116 0 53
1.9751887 -5.672699 1.2611277 0 54
1.9789312 -5.6834474 1.3214229 0 55
1.9819578 -5.6921396 1.381673 0 56
1.9771026 -5.678196 1.4366201 0 57
1.9803618 -5.6875563 1.4976737 0 58
1.9762369 -5.6757092 1.5533859 0 59
1.9748832 -5.6718216 1.6113933 0 60
1.9753065 -5.6730375 1.6711154 0 61
1.9752851 -5.6729755 1.7307777 0 62
0 0 0 0 63
0.83932221 -2.3183224 -0.73502201 0 0
0.87009794 -2.4033291 -0.73644429 0 1
0.90488648 -2.4994197 -0.73947972 0 2
0.93152755 -2.5730062 -0.73420292 0 3
0.97220242 -2.6853557 -0.73817152 0 4
1.0060053 -2.778724 -0.73490834 0 5
1.0496372 -2.899241 -0.73673648 0 6
1.089299 -3.0087924 -0.73353052 0 7
1.1386138 -3.1450067 -0.73442566 0 8
1.1927561 -3.2945549 -0.73563492 0 9
1.240152 -3.4254689 -0.72994852 0 10
1.3124284 -3.6251061 -0.73567307 0 11
1.3817859 -3.8166811 -0.73592412 0 12
1.4487162 -4.0015516 -0.73120743 0 13
1.5423281 -4.2601204 -0.7356205 0 14
1.6410409 -4.5327787 -0.73726082 0 15
1.7440598 -4.8173308 -0.73538536 0 16
1.8676035 -5.1585755 -0.73604423 0 17
2.0006757 -5.5261388 -0.73352695 0 18
2.0530853 -5.6709013 -0.69646949 0 19
2.0542791 -5.6741991 -0.6406883 0 20
2.0464163 -5.6524806 -0.5823741 0 21
2.0575595 -5.68326 -0.52947915 0 22
2.0608456 -5.6923361 -0.47425956 0 23
2.0500255 -5.6624498 -0.41607898 0 24
2.0570745 -5.6819205 -0.36169866 0 25
2.0557368 -5.6782255 -0.30575004 0 26
2.0552316 -5.6768293 -0.25002706 0 27
2.0579202 -5.6842566 -0.19467595 0 28
2.0561333 -5.6793203 -0.13890998 0 29
2.0533667 -5.671679 -0.08322446 0 30
2.0550661 -5.676373 -0.027762881 0 31
2.053417 -5.6718178 0.027740601 0 32
2.0583699 -5.6854982 0.083427235 0 33
2.0577102 -5.6836758 0.13901652 0 34
2.0530534 -5.6708136 0.19421555 0 35
2.0538225 -5.6729379 0.24985565 0 36
2.0537329 -5.6726899 0.30545199 0 37
2.0560942 -5.6792121 0.36152625 0 38
2.058495 -5.6858439 0.41779801 0 39
2.0532293 -5.6712995 0.47250688 0 40
2.0505104 -5.6637893 0.5276652 0 41
2.0544465 -5.6746612 0.58465934 0 42
2.0515254 -5.6665931 0.63982946 0 43
2.0564737 -5.6802607 0.69761896 0 44
2.0523407 -5.6688452 0.75246948 0 45
2.0520144 -5.667943 0.80872267 0 46
2.0535405 -5.6721587 0.86587834 0 47
2.0581901 -5.6850019 0.92467099 0 48
2.0521765 -5.6683912 0.97879499 0 49
2.0593414 -5.6881819 1.0394071 0 50
2.0526617 -5.6697311 1.0932252 0 51
2.0558755 -5.6786089 1.1524075 0 52
2.0544705 -5.6747274 1.2092531 0 53
2.0567474 -5.6810169 1.2685035 0 54
2.054951 -5.6760545 1.3254789 0 55
2.0582225 -5.685091 1.3860005 0 56
2.0528247 -5.6701818 1.4408702 0 57
2.058075 -5.6846838 1.5034677 0 58
2.0543518 -5.6743999 1.5598234 0 59
2.0536373 -5.6724262 1.6186172 0 60
2.0507743 -5.6645184 1.6759076 0 61
2.0549912 -5.6761661 1.7393291 0 62
0 0 0 0 63
0.86730844 -2.3066161 -0.73463625 0 0
0.89901149 -2.3909309 -0.73597693 0 1
0.92971647 -2.4725909 -0.73486894 0 2
0.96428871 -2.5645363 -0.73511398 0 3
1.0005397 -2.6609461 -0.73478806 0 4
1.0370109 -2.757942 -0.73272908 0 5
1.0787313 -2.8688977 -0.73234117 0 6
1.1229565 -2.986515 -0.73141056 0 7
1.1731055 -3.1198866 -0.73187286 0 8
1.2295822 -3.2700872 -0.73349214 0 9
1.287047 -3.4229155 -0.73272145 0 10
1.351488 -3.5942969 -0.73273784 0 11
1.4291624 -3.8008728 -0.73620892 0 12
1.5061458 -4.0056109 -0.73527789 0 13
1.5903363 -4.2295165 -0.73365724 0 14
1.69488 -4.5075517 -0.7364918 0 15
1.7985188 -4.7831802 -0.73349267 0 16
1.9274243 -5.1260061 -0.73472321 0 17
2.0777001 -5.5256658 -0.73679972 0 18
2.1312685 -5.6681318 -0.69929504 0 19
2.1315782 -5.6689553 -0.6430071 0 20
2.1328275 -5.6722779 -0.58707154 0 21
2.1258805 -5.6538024 -0.52913016 0 22
2.1341221 -5.6757207 -0.47502568 0 23
2.1325758 -5.6716084 -0.41864723 0 24
2.1327474 -5.6720648 -0.36271331 0 25
2.1337914 -5.6748414 -0.30695742 0 26
2.1313717 -5.6684065 -0.2507914 0 27
2.1321471 -5.6704683 -0.19508691 0 28
2.1361039 -5.6809912 -0.13958275 0 29
2.1367486 -5.6827059 -0.083765477 0 30
2.1378419 -5.6856136 -0.027934536 0 31
2.1332691 -5.6734519 0.027874785 0 32
2.1289752 -5.6620321 0.083460741 0 33
2.1316793 -5.6692243 0.13929363 0 34
2.1341009 -5.6756644 0.19526567 0 35
2.1330152 -5.6727772 0.25098479 0 36
2.1386125 -5.6876631 0.30765098 0 37
2.1381018 -5.686305 0.36362392 0 38
2.1354916 -5.6793633 0.41921964 0 39
2.1320691 -5.6702609 0.47456872 0 40
2.1372404 -5.6840143 0.53195763 0 41
2.1358154 -5.6802239 0.5878939 0 42
2.1320887 -5.6703129 0.64316112 0 43
2.1354802 -5.6793327 0.70067698 0 44
2.1371171 -5.6836867 0.75787044 0 45
2.1326401 -5.6717792 0.81295025 0 46
2.1337092 -5.674623 0.8701939 0 47
2.1346309 -5.677074 0.92758077 0 48
2.1373315 -5.6842561 0.98599815 0 49
2.133235 -5.6733613 1.0414134 0 50
2.1333919 -5.673779 1.0989808 0 51
2.1344059 -5.676475 1.1572133 0 52
2.1355817 -5.6796026 1.2157959 0 53
2.1325083 -5.6714292 1.2721215 0 54
2.1278708 -5.6590953 1.3275284 0 55
2.1279421 -5.6592846 1.3859835 0 56
2.1302423 -5.6654024 1.4462028 0 57
2.135679 -5.6798615 1.5090238 0 58
2.132937 -5.6725693 1.5664113 0 59
2.1338019 -5.6748691 1.6266783 0 60
2.1374671 -5.684617 1.6895024 0 61
2.1338124 -5.6748972 1.7468482 0 62
0 0 0 0 63
0.89909577 -2.3047285 -0.73750049 0 0
0.92662692 -2.3753016 -0.73461777 0 1
0.96377915 -2.4705369 -0.7377249 0 2
0.99431169 -2.5488036 -0.73405349 0 3
1.0342909 -2.6512859 -0.73557687 0 4
1.0761393 -2.7585592 -0.73635316 0 5
1.1112914 -2.8486676 -0.73061007 0 6
1.1657575 -2.9882853 -0.73529917 0 7
1.2142167 -3.112505 -0.73358822 0 8
1.2673339 -3.2486646 -0.73212707 0 9
1.3271171 -3.4019122 -0.73166335 0 10
1.4017973 -3.5933464 -0.73600239 0 11
1.4783756 -3.7896457 -0.73749959 0 12
1.5462519 -3.9636388 -0.73100829 0 13
1.6412362 -4.2071199 -0.7332176 0 14
1.7416339 -4.464478 -0.7328977 0 15
1.8531592 -4.7503605 -0.7318989 0 16
1.988066 -5.0961785 -0.73389637 0 17
2.143321 -5.4941573 -0.73605692 0 18
2.2124269 -5.6713018 -0.7029894 0 19
2.2125373 -5.6715846 -0.64634246 0 20
2.2102776 -5.6657925 -0.58916867 0 21
2.2114422 -5.6687779 -0.53303635 0 22
2.213316 -5.6735811 -0.47708839 0 23
2.2085073 -5.6612549 -0.4198558 0 24
2.2141998 -5.6758461 -0.36466861 0 25
2.2152941 -5.6786513 -0.30861366 0 26
2.2172825 -5.6837487 -0.25265741 0 27
2.2155802 -5.6793852 -0.19631612 0 28
2.2113206 -5.6684661 -0.13993253 0 29
2.2205076 -5.6920161 -0.084298819 0 30
2.2115939 -5.6691666 -0.027985226 0 31
2.2116303 -5.66926 0.02798569 0 32
2.2143869 -5.6763263 0.084066451 0 33
2.216361 -5.6813869 0.14025149 0 34
2.2152004 -5.6784115 0.19628246 0 35
2.2089088 -5.6622839 0.25170323 0 36
2.2166185 -5.6820469 0.30879819 0 37
2.2113628 -5.6685743 0.3642014 0 38
2.2131755 -5.6732211 0.42074326 0 39
2.2149203 -5.6776934 0.47743419 0 40
2.2206919 -5.6924887 0.53526586 0 41
2.2095704 -5.6639795 0.58898014 0 42
2.2125685 -5.6716652 0.64635158 0 43
2.2093494 -5.663413 0.70201153 0 44
2.213228 -5.6733551 0.76006424 0 45
2.2094278 -5.6636143 0.81561238 0 46
2.2159183 -5.6802521 0.8751694 0 47
2.2121189 -5.6705127 0.93088275 0 48
2.2142725 -5.676033 0.98921996 0 49
2.2115035 -5.6689348 1.0455135 0 50
2.2125342 -5.671577 1.1037407 0 51
2.2122953 -5.6709647 1.1615478 0 52
2.2171774 -5.6834793 1.2223694 0 53
2.2152066 -5.6784272 1.2797045 0 54
2.2101905 -5.6655693 1.3353215 0 55
2.210778 -5.6670752 1.3944436 0 56
2.2132063 -5.6732998 1.4550557 0 57
2.2115254 -5.6689911 1.5132462 0 58
2.214936 -5.6777339 1.5752392 0 59
2.2203493 -5.6916099 1.6391792 0 60
2.2097299 -5.6643887 1.6914382 0 61
2.2136724 -5.6744947 1.7549708 0 62
0 0 0 0 63
0.92676973 -2.2920256 -0.73702651 0 0
0.95348221 -2.3580892 -0.7328651 0 1
0.98810083 -2.4437058 -0.73328555 0 2
1.0205363 -2.5239229 -0.73044676 0 3
1.0660479 -2.6364791 -0.7350502 0 4
1.1047981 -2.7323136 -0.7329182 0 5
1.1511579 -2.8469677 -0.73374903 0 6
1.2058153 -2.9821427 -0.73738033 0 7
1.2588893 -3.1134019 -0.73739231 0 8
1.3122995 -3.2454925 -0.73499322 0 9
1.3804849 -3.4141243 -0.73788494 0 10
1.4435714 -3.5701454 -0.73483056 0 11
1.5223856 -3.7650635 -0.73630309 0 12
1.6040848 -3.9671166 -0.73523188 0 13
1.6978607 -4.1990371 -0.7353918 0 14
1.8029777 -4.4590054 -0.73558319 0 15
1.921805 -4.7528811 -0.73587257 0 16
2.0535514 -5.0787077 -0.73496133 0 17
2.2053246 -5.4540629 -0.73426294 0 18
2.2924292 -5.6694841 -0.70620489 0 19
2.2964292 -5.6793771 -0.65039933 0 20
2.2944787 -5.6745529 -0.5929687 0 21
2.2952969 -5.6765766 -0.53638303 0 22
2.2938595 -5.6730218 -0.47937694 0 23
2.2986562 -5.684885 -0.4236725 0 24
2.2908158 -5.665494 -0.36578569 0 25
2.2921648 -5.6688309 -0.30958831 0 26
2.2951179 -5.6761336 -0.25355428 0 27
2.2993972 -5.6867175 -0.197532 0 28
2.2940531 -5.6735005 -0.14074253 0 29
2.2877038 -5.6577978 -0.084202297 0 30
2.2915397 -5.6672845 -0.028112909 0 31
2.292954 -5.6707821 0.028130259 0 32
2.2980206 -5.6833124 0.084582016 0 33
2.2917824 -5.6678848 0.14060321 0 34
2.2890973 -5.6612439 0.19664715 0 35
2.2952809 -5.676537 0.25357229 0 36
2.2947853 -5.6753111 0.30994225 0 37
2.2910819 -5.6661525 0.36582819 0 38
2.2930923 -5.671124 0.42264697 0 39
2.2917264 -5.6677461 0.47893116 0 40
2.2940361 -5.6734586 0.53608841 0 41
2.2958798 -5.6780186 0.59333086 0 42
2.2970066 -5.6808047 0.65056282 0 43
2.2935696 -5.6723046 0.7065562 0 44
2.2956178 -5.6773701 0.7643261 0 45
2.2870739 -5.65624 0.81853849 0 46
2.2912071 -5.6664619 0.87731922 0 47
2.295702 -5.6775784 0.93660599 0 48
2.2956104 -5.677352 0.99429423 0 49
2.2944388 -5.6744547 1.0516554 0 50
2.2958412 -5.6779227 1.1103855 0 51
2.2944436 -5.6744661 1.1679555 0 52
2.2921667 -5.6688352 1.2251893 0 53
2.2924252 -5.6694741 1.2839423 0 54
2.2926476 -5.6700244 1.3429145 0 55
2.292897 -5.6706414 1.4021527 0 56
2.2901793 -5.6639199 1.4597623 0 57
2.2928162 -5.6704412 1.5210441 0 58
2.2926106 -5.6699333 1.5807769 0 59
2.290756 -5.6653461 1.6396037 0 60
2.2931702 -5.6713171 1.7017987 0 61
2.2928641 -5.6705594 1.7623402 0 62
0 0 0 0 63
0.94774312 -2.2634096 -0.7315169 0 0
0.9884395 -2.3606012 -0.73736745 0 1
1.018638 -2.4327216 -0.73369265 0 2
1.0609154 -2.5336885 -0.73699278 0 3
1.0963371 -2.6182833 -0.73368019 0 4
1.1399795 -2.7225106 -0.73399323 0 5
1.1894764 -2.8407195 -0.73585272 0 6
1.2342925 -2.9477499 -0.73257363 0 7
1.2933308 -3.0887456 -0.73526365 0 8
1.3461277 -3.2148359 -0.73174387 0 9
1.4159361 -3.3815527 -0.73455286 0 10
1.4844023 -3.5450644 -0.73336971 0 11
1.5696694 -3.7487001 -0.73682195 0 12
1.6497023 -3.9398355 -0.73387992 0 13
1.7528993 -4.1862917 -0.73687887 0 14
1.8572189 -4.4354286 -0.73540562 0 15
1.980458 -4.7297497 -0.73600602 0 16
2.111656 -5.0430779 -0.73350739 0 17
2.2690475 -5.418962 -0.73323822 0 18
2.3722403 -5.6654081 -0.70927703 0 19
2.3813732 -5.6872196 -0.6546014 0 20
2.3762701 -5.6750321 -0.59602708 0 21
2.3694985 -5.6588597 -0.53742146 0 22
2.3781629 -5.6795526 -0.4823634 0 23
2.3768685 -5.6764612 -0.42519075 0 24
2.3712204 -5.662972 -0.3674776 0 25
2.374676 -5.6712251 -0.31129023 0 26
2.3805077 -5.6851521 -0.25524542 0 27
2.3769615 -5.6766829 -0.19818372 0 28
2.3750165 -5.6720381 -0.14142002 0 29
2.3740203 -5.6696591 -0.084806859 0 30
2.3763611 -5.6752491 -0.02829523 0 31
2.3734586 -5.6683178 0.028260672 0 32
2.3766382 -5.6759109 0.084900379 0 33
2.3766932 -5.6760426 0.14151987 0 34
2.3769403 -5.6766324 0.19818196 0 35
2.3743293 -5.6703968 0.25458294 0 36
2.3812976 -5.6870384 0.31215823 0 37
2.3725336 -5.6661086 0.36768112 0 38
2.375375 -5.6728945 0.42492357 0 39
2.3709016 -5.6622109 0.48089057 0 40
2.379154 -5.6819196 0.5396114 0 41
2.370167 -5.6604567 0.59449625 0 42
2.3755584 -5.6733322 0.65300298 0 43
2.3790495 -5.6816702 0.71131295 0 44
2.379838 -5.6835532 0.76903999 0 45
2.3773885 -5.6777029 0.82581258 0 46
2.3664966 -5.6516905 0.87947112 0 47
2.373425 -5.6682372 0.93980843 0 48
2.3710251 -5.6625056 0.99672484 0 49
2.3758929 -5.6741309 1.0569301 0 50
2.3768766 -5.6764803 1.1157349 0 51
2.3691056 -5.6579218 1.1704578 0 52
2.3751652 -5.6723933 1.2321774 0 53
2.3727376 -5.6665955 1.2898004 0 54
2.3720145 -5.6648684 1.3484995 0 55
2.3802791 -5.6846061 1.4127362 0 56
2.3739967 -5.6696029 1.4686395 0 57
2.3717856 -5.6643219 1.5271105 0 58
2.3727889 -5.666718 1.5878949 0 59
2.3732691 -5.6678648 1.6486539 0 60
2.3750873 -5.6722074 1.7106999 0 61
0 0 0 0 62
0 0 0 0 63
0.98304838 -2.2690051 -0.73717636 0 0
1.0153085 -2.3434658 -0.73585916 0 1
1.0485195 -2.420121 -0.73372543 0 2
1.0960592 -2.5298491 -0.73974031 0 3
1.1347408 -2.6191313 -0.73777193 0 4
1.1710927 -2.7030363 -0.73256993 0 5
1.221002 -2.8182333 -0.73386168 0 6
1.2757617 -2.9446261 -0.73564035 0 7
1.3254229 -3.0592506 -0.73206687 0 8
1.3916674 -3.2121515 -0.73497242 0 9
1.4583173 -3.3659885 -0.73501164 0 10
1.5358515 -3.5449474 -0.73719662 0 11
1.6130133 -3.7230468 -0.73562264 0 12
1.705376 -3.9362323 -0.73705912 0 13
1.8006101 -4.1560454 -0.73539656 0 14
1.910143 -4.4088616 -0.73483956 0 15
2.0321188 -4.6903977 -0.7337153 0 16
2.1831908 -5.0390921 -0.73677659 0 17
2.335748 -5.3912139 -0.73331445 0 18
2.4573336 -5.6718493 -0.71381241 0 19
2.4514511 -5.6582718 -0.65468955 0 20
2.4545102 -5.6653328 -0.59813303 0 21
2.4556026 -5.6678543 -0.54110235 0 22
2.4595435 -5.67695 -0.48467433 0 23
2.4578588 -5.6730618 -0.42716765 0 24
2.4540586 -5.6642904 -0.3694934 0 25
2.4607265 -5.6796808 -0.31339154 0 26
2.460577 -5.6793356 -0.25632331 0 27
2.4561574 -5.6691351 -0.19895957 0 28
2.4582517 -5.6739683 -0.14221108 0 29
2.4609437 -5.680182 -0.085410446 0 30
2.455863 -5.6684551 -0.02840977 0 31
2.4603636 -5.678843 0.028461834 0 32
2.451426 -5.6582141 0.085080124 0 33
2.4600546 -5.6781301 0.14231539 0 34
2.4548478 -5.6661124 0.19885349 0 35
2.4559281 -5.6686053 0.25583902 0 36
2.4523025 -5.6602373 0.31231865 0 37
2.4561989 -5.6692305 0.36981565 0 38
2.4585233 -5.6745954 0.42728314 0 39
2.4531682 -5.6622353 0.48341805 0 40
2.4596288 -5.6771474 0.54198962 0 41
2.4587409 -5.6750979 0.59916401 0 42
2.4545755 -5.6654835 0.65552402 0 43
2.4516141 -5.6586485 0.71215105 0 44
2.4521022 -5.6597748 0.76984423 0 45
2.4590311 -5.6757679 0.82986635 0 46
2.4580095 -5.6734095 0.88748711 0 47
2.4613073 -5.6810212 0.94687456 0 48
2.4538951 -5.6639128 1.0022081 0 49
2.454689 -5.6657453 1.0609103 0 50
2.4588945 -5.6754522 1.1213909 0 51
2.4575474 -5.6723428 1.1796035 0 52
2.4541006 -5.6643872 1.2368999 0 53
2.4497988 -5.654458 1.2937965 0 54
2.454072 -5.6643214 1.3554502 0 55
2.4633415 -5.6857166 1.4204326 0 56
2.4531095 -5.6620998 1.4743983 0 57
2.456419 -5.6697383 1.5365978 0 58
2.4567752 -5.6705604 1.5973161 0 59
2.4562223 -5.6692843 1.6577266 0 60
2.4552095 -5.6669469 1.7180889 0 61
0 0 0 0 62
0 0 0 0 63
1.0092963 -2.253227 -0.7360267 0 0
1.0421866 -2.326654 -0.73454863 0 1
1.0785267 -2.4077823 -0.7339499 0 2
1.1188887 -2.4978895 -0.73436272 0 3
1.1589967 -2.5874293 -0.73280102 0 4
1.2047062 -2.6894746 -0.73285377 0 5
1.2630785 -2.8197889 -0.73825532 0 6
1.312822 -2.93084 -0.73617357 0 7
1.3655071 -3.0484586 -0.7334469 0 8
1.4316061 -3.1960223 -0.73525417 0 9
1.4983011 -3.3449175 -0.7343781 0 10
1.5740768 -3.5140846 -0.73474807 0 11
1.6558475 -3.6966357 -0.73437166 0 12
1.7466644 -3.8993819 -0.73412514 0 13
1.8446547 -4.1181426 -0.73264807 0 14
1.968088 -4.3937044 -0.73629111 0 15
2.091964 -4.6702542 -0.73453271 0 16
2.2512455 -5.025846 -0.73883146 0 17
2.4072442 -5.3741083 -0.73495853 0 18
2.5400584 -5.6706128 -0.71753335 0 19
2.5380743 -5.6661835 -0.65916628 0 20
2.5409534 -5.6726112 -0.60215467 0 21
2.5432525 -5.6777434 -0.5449909 0 22
2.5358851 -5.6612959 -0.48596334 0 23
2.5404425 -5.6714706 -0.42936754 0 24
2.5444891 -5.6805043 -0.3725639 0 25
2.5368776 -5.6635118 -0.31419685 0 26
2.5375161 -5.664937 -0.25706229 0 27
2.5453758 -5.6824837 -0.20051134 0 28
2.5387475 -5.6676865 -0.14282526 0 29
2.5418162 -5.6745372 -0.085789062 0 30
2.5389385 -5.6681128 -0.028562367 0 31
2.5408008 -5.6722698 0.028583316 0 32
2.5348785 -5.659049 0.085554905 0 33
2.539928 -5.6703215 0.14289166 0 34
2.5371768 -5.6641798 0.19986548 0 35
2.5362248 -5.6620545 0.25693148 0 36
2.5424619 -5.6759787 0.31488848 0 37
2.5367205 -5.6631613 0.3714264 0 38
2.5339894 -5.6570644 0.4282769 0 39
2.535135 -5.6596217 0.48581964 0 40
2.5431502 -5.677515 0.54496896 0 41
2.5396316 -5.6696601 0.60184145 0 42
2.543031 -5.6772494 0.66045356 0 43
2.5357983 -5.6611023 0.71632993 0 44
2.5417614 -5.6744146 0.77602816 0 45
2.5343387 -5.6578441 0.83173925 0 46
2.5454659 -5.6826849 0.89376676 0 47
2.5345125 -5.6582322 0.94819903 0 48
2.5413175 -5.6734238 1.0093441 0 49
2.5413978 -5.6736031 1.0681524 0 50
2.5394258 -5.6692009 1.1262405 0 51
2.5397134 -5.6698422 1.1854882 0 52
2.5382044 -5.6664739 1.2440768 0 53
2.5384865 -5.6671033 1.3037336 0 54
2.5405045 -5.6716089 1.3645663 0 55
2.5393431 -5.6690159 1.4239534 0 56
2.5387697 -5.6677356 1.4838827 0 57
2.5365393 -5.6627564 1.5430422 0 58
2.5401394 -5.6707935 1.6060588 0 59
2.5390184 -5.6682911 1.6664395 0 60
2.5403514 -5.671267 1.7287383 0 61
0 0 0 0 62
0 0 0 0 63
1.0347321 -2.2359092 -0.73447043 0 0
1.0741898 -2.3211718 -0.73693228 0 1
1.1077642 -2.3937213 -0.73376048 0 2
1.1469806 -2.4784622 -0.73274231 0 3
1.1918586 -2.5754373 -0.7335 0 4
1.2411584 -2.681967 -0.73491126 0 5
1.2912358 -2.7901773 -0.73460406 0 6
1.3460683 -2.9086626 -0.73470497 0 7
1.4069984 -3.0403237 -0.73559666 0 8
1.4636967 -3.1628406 -0.7317059 0 9
1.5393691 -3.3263581 -0.73440367 0 10
1.6178477 -3.4959393 -0.73505813 0 11
1.7043428 -3.682843 -0.73573941 0 12
1.799767 -3.8890412 -0.73628914 0 13
1.8960447 -4.0970836 -0.73299396 0 14
2.0261202 -4.3781581 -0.73780525 0 15
2.1505539 -4.6470418 -0.73498541 0 16
2.2943523 -4.9577694 -0.73291582 0 17
2.4729874 -5.3437748 -0.73491329 0 18
2.6232264 -5.6684198 -0.7212829 0 19
2.6218896 -5.6655312 -0.66279083 0 20
2.6216786 -5.6650753 -0.60473108 0 21
2.6268942 -5.6763458 -0.54791582 0 22
2.6287382 -5.6803298 -0.49033484 0 23
2.6230359 -5.6680083 -0.43151465 0 24
2.6276798 -5.6780434 -0.37449333 0 25
2.6222301 -5.6662669 -0.31611463 0 26
2.6207421 -5.6630516 -0.25841951 0 27
2.6230974 -5.6681409 -0.20112818 0 28
2.628089 -5.6789269 -0.143912 0 29
2.6196182 -5.6606231 -0.086059183 0 30
2.6278622 -5.6784372 -0.028775049 0 31
2.6243167 -5.6707759 0.028736226 0 32
2.6224852 -5.6668181 0.086153373 0 33
2.626714 -5.6759562 0.14383672 0 34
2.6165631 -5.6540213 0.20062716 0 35
2.6210976 -5.6638198 0.25845456 0 36
2.6171641 -5.6553202 0.31550393 0 37
2.6224902 -5.6668291 0.3737537 0 38
2.6216745 -5.6650662 0.43129069 0 39
2.6323621 -5.6881609 0.49101081 0 40
2.6261811 -5.6748047 0.5477671 0 41
2.6272533 -5.6771216 0.60601699 0 42
2.6263897 -5.6752558 0.66392851 0 43
2.6263287 -5.6751237 0.72213596 0 44
2.6241806 -5.6704817 0.77984428 0 45
2.6280866 -5.6789222 0.8395251 0 46
2.6166849 -5.654285 0.89429301 0 47
2.6278436 -5.6783967 0.95692086 0 48
2.621866 -5.6654801 1.01359 0 49
2.6301451 -5.6833701 1.0759988 0 50
2.6162519 -5.6533489 1.129397 0 51
2.6256156 -5.6735826 1.1929306 0 52
2.6174748 -5.6559916 1.2487473 0 53
2.6238065 -5.6696734 1.3116479 0 54
2.6176126 -5.6562891 1.3685212 0 55
2.6256685 -5.673697 1.4331306 0 56
2.6222906 -5.666398 1.4918617 0 57
2.6245415 -5.6712613 1.5540361 0 58
2.6215265 -5.6647468 1.6133538 0 59
2.6234434 -5.668889 1.6759725 0 60
2.6223881 -5.6666083 1.7370164 0 61
0 0 0 0 62
0 0 0 0 63
1.0714823 -2.242559 -0.74092674 0 0
1.1081277 -2.3192561 -0.74059415 0 1
1.1451696 -2.3967826 -0.73895949 0 2
1.1821114 -2.4740999 -0.73569441 0 3
1.2227674 -2.5591908 -0.73309976 0 4
1.2703159 -2.6587076 -0.73276258 0 5
1.3194246 -2.7614896 -0.73126739 0 6
1.3822397 -2.8929586 -0.73497593 0 7
1.4410629 -3.0160728 -0.73396099 0 8
1.5075945 -3.1553197 -0.73419917 0 9
1.5812173 -3.3094087 -0.73489875 0 10
1.6562246 -3.4663954 -0.73307288 0 11
1.7530863 -3.669122 -0.73724908 0 12
1.8387755 -3.8484652 -0.73283243 0 13
1.9472224 -4.075439 -0.73334992 0 14
2.0722175 -4.3370476 -0.73511577 0 15
2.2057123 -4.6164455 -0.73438048 0 16
2.3631628 -4.9459815 -0.73541337 0 17
2.5404618 -5.317059 -0.73547971 0 18
2.7047384 -5.660882 -0.72450101 0 19
2.7100816 -5.6720653 -0.66740334 0 20
2.7027695 -5.6567616 -0.6073454 0 21
2.7040317 -5.6594028 -0.54944837 0 22
2.7085683 -5.6688981 -0.4921858 0 23
2.7084794 -5.6687121 -0.43407097 0 24
2.7019408 -5.6550269 -0.37513825 0 25
2.7079356 -5.6675739 -0.31802115 0 26
2.702914 -5.657064 -0.25964332 0 27
2.7127645 -5.67768 -0.20263501 0 28
2.7113342 -5.6746869 -0.14463849 0 29
2.7085857 -5.6689343 -0.086685352 0 30
2.7073998 -5.6664524 -0.028880836 0 31
2.7142732 -5.6808381 0.028954158 0 32
2.7032888 -5.6578479 0.086515822 0 33
2.7092986 -5.6704264 0.14452991 0 34
2.699017 -5.6489077 0.20160812 0 35
2.7073202 -5.6662855 0.26006657 0 36
2.7149549 -5.6822648 0.31884551 0 37
2.708745 -5.6692677 0.37608293 0 38
2.7063694 -5.6642962 0.43373281 0 39
2.7087011 -5.6691761 0.49220994 0 40
2.7103298 -5.6725845 0.55072814 0 41
2.7058539 -5.6632171 0.60803849 0 42
2.7055292 -5.6625376 0.66628224 0 43
2.7127917 -5.6777372 0.72665823 0 44
2.7063015 -5.6641536 0.78349143 0 45
2.7060926 -5.6637163 0.84213269 0 46
2.7089016 -5.6695952 0.90191478 0 47
2.7087753 -5.6693311 0.96093363 0 48
2.7050498 -5.6615338 1.0187578 0 49
2.7050683 -5.6615725 1.0780879 0 50
2.7026839 -5.6565824 1.1365962 0 51
2.7089386 -5.669673 1.1990218 0 52
2.7072189 -5.6660738 1.2582279 0 53
2.7082126 -5.6681533 1.3189007 0 54
2.7090933 -5.6699967 1.3797932 0 55
2.7148309 -5.6820054 1.4435523 0 56
2.7099478 -5.6717854 1.5019399 0 57
2.7101729 -5.6722565 1.5633224 0 58
2.7100773 -5.6720562 1.6248037 0 59
2.7137473 -5.6797371 1.6889175 0 60
2.714251 -5.6807914 1.7514625 0 61
0 0 0 0 62
0 0 0 0 63
1.095275 -2.2217102 -0.73843235 0 0
1.1235728 -2.2791107 -0.73213118 0 1
1.1633298 -2.3597558 -0.73189867 0 2
1.2138333 -2.4621997 -0.73653841 0 3
1.2537649 -2.5431988 -0.73287958 0 4
1.299673 -2.6363211 -0.73094201 0 5
1.3624516 -2.763664 -0.73622394 0 6
1.4140346 -2.8682976 -0.7330727 0 7
1.4752016 -2.992372 -0.73255235 0 8
1.5490487 -3.1421671 -0.73551524 0 9
1.6219547 -3.2900531 -0.73497391 0 10
1.6999415 -3.4482455 -0.73359972 0 11
1.7883059 -3.6274881 -0.73324651 0 12
1.8849055 -3.8234355 -0.73242438 0 13
1.9963317 -4.049458 -0.73303664 0 14
2.1266248 -4.3137512 -0.73554385 0 15
2.2544596 -4.5730572 -0.73183298 0 16
2.4162576 -4.9012566 -0.73312557 0 17
2.5977266 -5.2693572 -0.73324442 0 18
2.7907457 -5.6608868 -0.7288385 0 19
2.7960792 -5.6717052 -0.67135572 0 20
2.7894886 -5.6583371 -0.6111511 0 21
2.7879877 -5.655292 -0.55233586 0 22
2.7931843 -5.665833 -0.49486434 0 23
2.7938435 -5.6671705 -0.43655056 0 24
2.7865148 -5.6523042 -0.37720209 0 25
2.7859786 -5.651217 -0.3190015 0 26
2.7949793 -5.6694741 -0.26177055 0 27
2.7896159 -5.6585951 -0.20316274 0 28
2.7962162 -5.6719837 -0.14543499 0 29
2.7946248 -5.6687555 -0.087201491 0 30
2.7895885 -5.6585393 -0.029013142 0 31
2.7886198 -5.6565742 0.029003067 0 32
2.7970338 -5.6736417 0.087276652 0 33
2.7938139 -5.6671104 0.14531003 0 34
2.7904088 -5.6602035 0.2032205 0 35
2.7931826 -5.6658301 0.26160228 0 36
2.7934864 -5.6664462 0.31986114 0 37
2.7954113 -5.6703506 0.37840644 0 38
2.7920508 -5.6635342 0.43627045 0 39
2.7960296 -5.6716046 0.49536842 0 40
2.7910821 -5.6615691 0.55294889 0 41
2.7937422 -5.666965 0.61208302 0 42
2.7959619 -5.6714673 0.67132759 0 43
2.7892661 -5.6578856 0.72845209 0 44
2.7898884 -5.6591477 0.78748477 0 45
2.7959621 -5.6714683 0.84833312 0 46
2.7951705 -5.6698627 0.90735632 0 47
2.7937264 -5.6669331 0.96627682 0 48
2.7847149 -5.648654 1.0225245 0 49
2.7914653 -5.6623464 1.0846895 0 50
2.7945886 -5.6686816 1.1458455 0 51
2.7924302 -5.6643033 1.2050567 0 52
2.7934139 -5.6662989 1.26581 0 53
2.7974975 -5.6745825 1.3283005 0 54
2.8029611 -5.6856651 1.3918883 0 55
2.7922983 -5.6640363 1.4476008 0 56
2.7957404 -5.6710181 1.5107261 0 57
2.7898612 -5.6590929 1.5690308 0 58
2.7945743 -5.668653 1.633549 0 59
2.8022611 -5.6842451 1.7003758 0 60
2.7873509 -5.6540008 1.7536372 0 61
0 0 0 0 62
0 0 0 0 63
1.1153449 -2.1939819 -0.73371929 0 0
1.1621901 -2.2861304 -0.73892111 0 1
1.1955061 -2.351666 -0.73389357 0 2
1.2362463 -2.4318058 -0.73193848 0 3
1.2901536 -2.5378463 -0.73585314 0 4
1.3363789 -2.6287754 -0.73335063 0 5
1.3984299 -2.7508352 -0.73733151 0 6
1.4540124 -2.8601711 -0.73550963 0 7
1.5183724 -2.9867728 -0.73569673 0 8
1.5806175 -3.1092143 -0.73229593 0 9
1.6672722 -3.2796719 -0.73717904 0 10
1.7364806 -3.4158108 -0.73118675 0 11
1.8276483 -3.5951457 -0.7311964 0 12
1.9403952 -3.8169291 -0.73569304 0 13
2.0474613 -4.0275373 -0.73357052 0 14
2.1738293 -4.2761145 -0.73362869 0 15
2.3161795 -4.5561299 -0.73362643 0 16
2.4871433 -4.8924308 -0.73632437 0 17
2.6787229 -5.2692847 -0.73776209 0 18
2.8864582 -5.6779184 -0.73554546 0 19
2.8845816 -5.6742272 -0.67580175 0 20
2.8736994 -5.6528211 -0.61432552 0 21
2.8747385 -5.6548648 -0.55570453 0 22
2.8831441 -5.6713996 -0.49840933 0 23
2.8832173 -5.6715431 -0.43958518 0 24
2.8834448 -5.6719909 -0.38085324 0 25
2.8787153 -5.6626878 -0.32162285 0 26
2.8850672 -5.6751823 -0.26365215 0 27
2.879658 -5.6645417 -0.20463212 0 28
2.8888564 -5.6826358 -0.14660788 0 29
2.8838723 -5.672832 -0.087803058 0 30
2.8798726 -5.6649642 -0.029225444 0 31
2.8728328 -5.6511159 0.029154003 0 32
2.8811359 -5.667449 0.087719746 0 33
2.8833094 -5.6717243 0.14632636 0 34
2.8908823 -5.6866212 0.20542973 0 35
2.8863668 -5.6777387 0.26377094 0 36
2.8786418 -5.6625433 0.32161462 0 37
2.8837099 -5.6725125 0.38088825 0 38
2.8853681 -5.6757741 0.43991312 0 39
2.880378 -5.6659584 0.49793112 0 40
2.8815074 -5.66818 0.55701303 0 41
2.8838663 -5.6728201 0.61649895 0 42
2.8824973 -5.6701269 0.67531341 0 43
2.8820784 -5.6693029 0.73442936 0 44
2.887116 -5.6792126 0.79515684 0 45
2.8816676 -5.6684947 0.85312414 0 46
2.8833406 -5.6717858 0.91326898 0 47
2.8795688 -5.6643667 0.97180331 0 48
2.8804431 -5.6660862 1.0320138 0 49
2.8863697 -5.6777444 1.0943555 0 50
2.8782794 -5.6618304 1.1515276 0 51
2.8733389 -5.6521115 1.2098882 0 52
2.879035 -5.6633162 1.2729559 0 53
2.8843114 -5.6736956 1.3362939 0 54
2.8771749 -5.6596575 1.3940771 0 55
2.8772857 -5.6598754 1.4554698 0 56
2.8855124 -5.6760583 1.5214058 0 57
2.8833978 -5.6718984 1.5822918 0 58
2.8864408 -5.6778841 1.6463128 0 59
2.8808606 -5.6669073 1.7056574 0 60
0 0 0 0 61
0 0 0 0 62
0 0 0 0 63
1.1427424 -2.1810675 -0.73404408 0 0
1.1879997 -2.2674468 -0.73754805 0 1
1.2266847 -2.3412819 -0.73530465 0 2
1.2705786 -2.4250588 -0.73455465 0 3
1.323156 -2.5254095 -0.73690897 0 4
1.3712599 -2.6172218 -0.73477584 0 5
1.4285207 -2.7265112 -0.73546445 0 6
1.4855955 -2.8354456 -0.73379344 0 7
1.5479494 -2.9544561 -0.73236966 0 8
1.6252561 -3.1020052 -0.73524934 0 9
1.7045938 -3.2534313 -0.73593658 0 10
1.7817929 -3.4007757 -0.73260295 0 11
1.8825759 -3.5931325 -0.73543948 0 12
1.9881494 -3.7946329 -0.73605204 0 13
2.1051908 -4.0180211 -0.73649645 0 14
2.2294922 -4.2552662 -0.73469979 0 15
2.3720541 -4.5273633 -0.73363554 0 16
2.5476971 -4.8626003 -0.736494 0 17
2.7310145 -5.2124839 -0.73445565 0 18
2.9456687 -5.622179 -0.7329616 0 19
2.9766977 -5.6814013 -0.68096411 0 20
2.9698422 -5.6683168 -0.6199314 0 21
2.9710615 -5.6706438 -0.56080294 0 22
2.9657066 -5.6604238 -0.50061172 0 23
2.9679189 -5.6646461 -0.44184583 0 24
2.9659433 -5.6608758 -0.38252681 0 25
2.9774292 -5.6827974 -0.32481989 0 26
2.974658 -5.6775084 -0.26543945 0 27
2.9642015 -5.6575508 -0.20568074 0 28
2.9677389 -5.6643023 -0.14706525 0 29
2.9633207 -5.65587 -0.088097848 0 30
2.9716296 -5.6717286 -0.029446628 0 31
2.9712389 -5.6709828 0.029442757 0 32
2.9659734 -5.6609325 0.088176705 0 33
2.9613068 -5.6520262 0.14674652 0 34
2.9685061 -5.6657667 0.20597944 0 35
2.9642613 -5.6576653 0.2645117 0 36
2.9628 -5.6548762 0.32322395 0 37
2.9692938 -5.6672702 0.38295892 0 38
2.9627864 -5.65485 0.44108173 0 39
2.9762623 -5.6805706 0.50239354 0 40
2.9740088 -5.6762695 0.56135929 0 41
2.9629788 -5.6552172 0.61849868 0 42
2.9634604 -5.6561365 0.6779359 0 43
2.9696689 -5.6679859 0.73893344 0 44
2.9641976 -5.6575437 0.79716599 0 45
2.964699 -5.6585007 0.85704184 0 46
2.9681139 -5.6650186 0.91798663 0 47
2.972604 -5.6735883 0.97958243 0 48
2.9666464 -5.6622171 1.0378749 0 49
2.9638219 -5.656826 1.0972651 0 50
2.9697514 -5.6681433 1.1601511 0 51
2.9755301 -5.6791735 1.2234206 0 52
2.9693892 -5.6674523 1.2819958 0 53
2.9688704 -5.6664619 1.3430868 0 54
2.9731865 -5.6747003 1.4066813 0 55
2.9662161 -5.661396 1.4651296 0 56
2.9760168 -5.6801019 1.5321826 0 57
2.9689298 -5.6665754 1.5908712 0 58
2.9704878 -5.669549 1.654362 0 59
2.9701092 -5.6688266 1.7170976 0 60
0 0 0 0 61
0 0 0 0 62
0 0 0 0 63
1.1739242 -2.1750984 -0.73683769 0 0
1.2142106 -2.249743 -0.73659027 0 1
1.2563514 -2.3278232 -0.735874 0 2
1.3005506 -2.4097176 -0.73469627 0 3
1.3459134 -2.4937675 -0.73244977 0 4
1.4042591 -2.6018732 -0.73525894 0 5
1.4584341 -2.702251 -0.73370242 0 6
1.526328 -2.8280478 -0.73668045 0 7
1.5884711 -2.9431891 -0.73436308 0 8
1.6630783 -3.081425 -0.73516291 0 9
1.7424028 -3.2284009 -0.73506552 0 10
1.8273519 -3.3857982 -0.7341615 0 11
1.9281428 -3.5725482 -0.73602343 0 12
2.0301414 -3.7615354 -0.73441875 0 13
2.1456645 -3.9755819 -0.73349816 0 14
2.2899253 -4.2428746 -0.7373662 0 15
2.4316976 -4.5055566 -0.73489171 0 16
2.604749 -4.8261938 -0.73577541 0 17
2.7913628 -5.1719599 -0.73352659 0 18
3.0183816 -5.5925908 -0.73388737 0 19
3.051362 -5.653698 -0.68208933 0 20
3.0552199 -5.6608462 -0.62317598 0 21
3.0645576 -5.6781478 -0.565229 0 22
3.0556128 -5.6615739 -0.50399834 0 23
3.0623744 -5.6741023 -0.44548696 0 24
3.0600963 -5.6698813 -0.38564891 0 25
3.0548933 -5.6602411 -0.32565311 0 26
3.0532441 -5.6571851 -0.26622444 0 27
3.0590029 -5.6678553 -0.20740718 0 28
3.0535586 -5.6577678 -0.14785929 0 29
3.0600598 -5.6698136 -0.088894427 0 30
3.0591474 -5.6681232 -0.029620972 0 31
3.0564713 -5.6631651 0.02959506 0 32
3.0661893 -5.6811709 0.089072488 0 33
3.0562892 -5.6628275 0.14799151 0 34
3.0537672 -5.6581545 0.2070522 0 35
3.0546432 -5.6597776 0.26634645 0 36
3.0638528 -5.6768413 0.32660818 0 37
3.0604415 -5.6705213 0.38569242 0 38
3.0597947 -5.6693225 0.44511169 0 39
3.0568604 -5.6638861 0.50420415 0 40
3.0568321 -5.6638336 0.56380409 0 41
3.0552833 -5.660964 0.62318897 0 42
3.0635328 -5.676249 0.68480992 0 43
3.0532601 -5.6572151 0.74236774 0 44
3.0604157 -5.6704731 0.8042295 0 45
3.0573342 -5.6647635 0.86361921 0 46
3.051537 -5.6540222 0.92221546 0 47
3.0521603 -5.6551771 0.98280931 0 48
3.0586052 -5.6671185 1.045588 0 49
3.0582802 -5.6665163 1.1063557 0 50
3.0545132 -5.6595368 1.165989 0 51
3.0550556 -5.660542 1.2274069 0 52
3.0629642 -5.6751947 1.2921692 0 53
3.053153 -5.6570168 1.3496447 0 54
3.0550666 -5.660562 1.4123821 0 55
3.0509989 -5.6530252 1.472561 0 56
3.0498741 -5.6509414 1.5343169 0 57
3.0552633 -5.6609263 1.5997117 0 58
3.0556791 -5.6616969 1.662909 0 59
3.0641747 -5.6774378 1.730988 0 60
0 0 0 0 61
0 0 0 0 62
0 0 0 0 63
1.1918761 -2.1448379 -0.7314961 0 0
1.2394161 -2.2303886 -0.73518771 0 1
1.2804625 -2.3042533 -0.73334503 0 2
1.3199021 -2.3752267 -0.72907364 0 3
1.3790553 -2.4816756 -0.73382342 0 4
1.4336838 -2.5799823 -0.73399919 0 5
1.4903435 -2.6819441 -0.73310912 0 6
1.5624013 -2.8116157 -0.73734879 0 7
1.6282437 -2.9301021 -0.73603773 0 8
1.7053367 -3.0688348 -0.73710632 0 9
1.787484 -3.2166629 -0.7373417 0 10
1.8717235 -3.3682559 -0.73529273 0 11
1.9709471 -3.5468135 -0.73565906 0 12
2.0668573 -3.7194085 -0.73110062 0 13
2.1908822 -3.9425972 -0.73232758 0 14
2.325315 -4.1845155 -0.73213786 0 15
2.4968305 -4.4931655 -0.73782259 0 16
2.6696298 -4.8041263 -0.73736 0 17
2.8506734 -5.1299229 -0.7324807 0 18
3.0851233 -5.551827 -0.7334609 0 19
3.149668 -5.6679778 -0.68843257 0 20
3.1448672 -5.6593385 -0.62721968 0 21
3.1412911 -5.6529031 -0.56651831 0 22
3.1476922 -5.6644225 -0.50765914 0 23
3.1477129 -5.6644597 -0.44773492 0 24
3.1386826 -5.6482091 -0.3867707 0 25
3.1476796 -5.6643996 -0.32809442 0 26
3.1428311 -5.6556745 -0.26795176 0 27
3.1444612 -5.658608 -0.20846795 0 28
3.1529825 -5.6739426 -0.14928393 0 29
3.1464248 -5.6621413 -0.089373983 0 30
3.1508741 -5.6701488 -0.029831775 0 31
3.1455226 -5.6605182 0.029781107 0 32
3.1496637 -5.6679702 0.089465991 0 33
3.1481266 -5.665204 0.14905402 0 34
3.1440299 -5.6578317 0.20843935 0 35
3.1475203 -5.664113 0.26835155 0 36
3.1472745 -5.6636705 0.32805219 0 37
3.1496339 -5.6679163 0.38812017 0 38
3.1428523 -5.6557131 0.44704357 0 39
3.1453238 -5.6601601 0.50727713 0 40
3.1440601 -5.6578865 0.56701773 0 41
3.1447093 -5.6590543 0.62718821 0 42
3.1413326 -5.6529779 0.6866107 0 43
3.1458211 -5.6610551 0.74789125 0 44
3.1493771 -5.6674542 0.80923259 0 45
3.1477196 -5.6644716 0.86940992 0 46
3.1485527 -5.6659708 0.93040895 0 47
3.1456218 -5.6606965 0.99041575 0 48
3.1509655 -5.6703124 1.0532464 0 49
3.1491187 -5.6669893 1.1139243 0 50
3.1443634 -5.658432 1.1736385 0 51
3.1574531 -5.6819878 1.2403821 0 52
3.1466954 -5.6626287 1.2980198 0 53
3.1412051 -5.6527481 1.357739 0 54
3.1520896 -5.6723356 1.4248831 0 55
3.1458533 -5.6611133 1.4846321 0 56
3.1459773 -5.6613359 1.5475256 0 57
3.1490407 -5.6668491 1.6122059 0 58
3.1483357 -5.6655803 1.6752936 0 59
3.1503799 -5.6692586 1.7401738 0 60
0 0 0 0 61
0 0 0 0 62
0 0 0 0 63
1.2118758 -2.1190364 -0.72772372 0 0
1.2663978 -2.2143714 -0.73498547 0 1
1.3139063 -2.2974427 -0.73626369 0 2
1.3552687 -2.3697672 -0.73245782 0 3
1.4103467 -2.4660745 -0.73428273 0 4
1.4634582 -2.558943 -0.73307776 0 5
1.521004 -2.6595652 -0.73204893 0 6
1.5883137 -2.7772603 -0.73340553 0 7
1.6610954 -2.9045234 -0.73468769 0 8
1.73478 -3.0333652 -0.73365504 0 9
1.8151697 -3.1739314 -0.73260748 0 10
1.9099523 -3.3396642 -0.73412257 0 11
2.0121739 -3.518405 -0.73484313 0 12
2.1186292 -3.7045484 -0.73324496 0 13
2.2400081 -3.9167864 -0.73259413 0 14
2.3759112 -4.1544213 -0.73192871 0 15
2.5334532 -4.4298921 -0.73249269 0 16
2.7093384 -4.7374382 -0.73218244 0 17
2.9127283 -5.0930772 -0.73227835 0 18
3.1454399 -5.4999871 -0.73166674 0 19
3.2425096 -5.6697192 -0.69343448 0 20
3.2383287 -5.6624088 -0.6319254 0 21
3.2379405 -5.6617303 -0.57134992 0 22
3.239388 -5.6642609 -0.51117599 0 23
3.2365928 -5.6593733 -0.45044464 0 24
3.2375164 -5.6609883 -0.39034232 0 25
3.2316935 -5.6508064 -0.32958388 0 26
3.2341502 -5.6551023 -0.26978838 0 27
3.2397847 -5.6649547 -0.21015355 0 28
3.2326941 -5.6525564 -0.14975581 0 29
3.2345817 -5.6558566 -0.0898958 0 30
3.2274857 -5.6434488 -0.029897843 0 31
3.2371454 -5.6603398 0.029987326 0 32
3.2370174 -5.6601157 0.089963496 0 33
3.2328582 -5.652843 0.14976339 0 34
3.2395403 -5.6645274 0.2101377 0 35
3.2381945 -5.6621737 0.27012575 0 36
3.2362957 -5.658854 0.33005327 0 37
3.2353318 -5.6571684 0.39007893 0 38
3.2356288 -5.6576881 0.4503105 0 39
3.2378957 -5.6616516 0.51094049 0 40
3.2383814 -5.6625009 0.5714277 0 41
3.2422104 -5.6691961 0.63268286 0 42
3.2401917 -5.6656666 0.69293875 0 43
3.2442594 -5.6727786 0.75465333 0 44
3.240911 -5.666924 0.8147856 0 45
3.236443 -5.6591115 0.87462932 0 46
3.2315567 -5.6505671 0.9343341 0 47
3.2409766 -5.6670389 0.99842274 0 48
3.2385206 -5.6627445 1.0591575 0 49
3.2360542 -5.658432 1.1199791 0 50
3.2366846 -5.659534 1.1820326 0 51
3.2396708 -5.6647553 1.2452224 0 52
3.2361622 -5.6586204 1.306124 0 53
3.2304847 -5.6486931 1.3662028 0 54
3.2403569 -5.6659551 1.4331809 0 55
3.2383285 -5.6624084 1.4953016 0 56
3.2328665 -5.6528578 1.555957 0 57
3.238796 -5.6632257 1.6223826 0 58
3.2386382 -5.6629496 1.686164 0 59
3.2373061 -5.6606207 1.749609 0 60
0 0 0 0 61
0 0 0 0 62
0 0 0 0 63
1.2511293 -2.1265655 -0.73553717 0 0
1.2888105 -2.1906128 -0.73230439 0 1
1.3384383 -2.274966 -0.73427939 0 2
1.3862898 -2.3562999 -0.73350865 0 3
1.4401809 -2.4478996 -0.73408854 0 4
1.4965631 -2.5437334 -0.73393691 0 5
1.551304 -2.6367772 -0.73097187 0 6
1.6206666 -2.7546742 -0.73264837 0 7
1.6937237 -2.8788505 -0.73340648 0 8
1.7722005 -3.0122387 -0.73376054 0 9
1.8546458 -3.1523726 -0.73283988 0 10
1.960049 -3.3315282 -0.73757637 0 11
2.0487201 -3.482244 -0.7324968 0 12
2.1722004 -3.6921253 -0.73601729 0 13
2.2973022 -3.904763 -0.73557335 0 14
2.4412048 -4.1493568 -0.73626947 0 15
2.5960543 -4.4125571 -0.73484915 0 16
2.7811806 -4.7272191 -0.73583293 0 17
2.9753354 -5.0572271 -0.73232883 0 18
3.2200232 -5.4731269 -0.73330539 0 19
3.3291681 -5.6586428 -0.69703388 0 20
3.3355331 -5.6694617 -0.63724166 0 21
3.3306792 -5.6612115 -0.57538706 0 22
3.3282626 -5.6571035 -0.51418453 0 23
3.3251905 -5.6518822 -0.45306852 0 24
3.3319421 -5.6633577 -0.39330107 0 25
3.3323634 -5.6640735 -0.33272249 0 26
3.3368943 -5.6717749 -0.27252069 0 27
3.3326879 -5.6646256 -0.21164557 0 28
3.3217261 -5.6459932 -0.15065266 0 29
3.3358605 -5.6700177 -0.09076599 0 30
3.3336875 -5.6663246 -0.030233916 0 31
3.3319085 -5.6633005 0.030217782 0 32
3.3372443 -5.67237 0.090803638 0 33
3.3309817 -5.6617255 0.15107244 0 34
3.3337312 -5.6663985 0.21171182 0 35
3.3249652 -5.6514988 0.27154648 0 36
3.3317208 -5.662982 0.33265835 0 37
3.3210225 -5.6447978 0.39201212 0 38
3.3273997 -5.6556368 0.45336953 0 39
3.3366201 -5.671309 0.51547569 0 40
3.3347139 -5.6680694 0.57608408 0 41
3.3353162 -5.6690927 0.63720018 0 42
3.3326247 -5.6645179 0.69775754 0 43
3.3410106 -5.6787715 0.76085824 0 44
3.3257375 -5.652812 0.81857449 0 45
3.3313951 -5.6624279 0.88140637 0 46
3.3319099 -5.6633029 0.94314325 0 47
3.3269575 -5.6548853 1.0034132 0 48
3.324821 -5.6512537 1.0645746 0 49
3.3244421 -5.65061 1.1264369 0 50
3.3269241 -5.6548285 1.1895041 0 51
3.3304603 -5.6608391 1.2532691 0 52
3.3337615 -5.66645 1.3172938 0 53
3.3336573 -5.6662731 1.3802649 0 54
3.3351574 -5.6688228 1.4441706 0 55
3.3342512 -5.6672826 1.5073018 0 56
3.3287709 -5.6579676 1.5685115 0 57
3.3298309 -5.6597691 1.6329988 0 58
3.3300712 -5.6601777 1.6974028 0 59
3.3309152 -5.6616125 1.7624419 0 60
0 0 0 0 61
0 0 0 0 62
0 0 0 0 63
1.2790228 -2.114064 -0.73659724 0 0
1.3231604 -2.1870179 -0.73648602 0 1
1.3707811 -2.265729 -0.73668277 0 2
1.4174311 -2.3428354 -0.73468739 0 3
1.4789777 -2.4445643 -0.73848629 0 4
1.5365176 -2.5396705 -0.73816025 0 5
1.5818399 -2.6145825 -0.73015612 0 6
1.6587299 -2.741672 -0.73455948 0 7
1.730368 -2.860081 -0.73398989 0 8
1.8137883 -2.9979641 -0.73566061 0 9
1.90233 -3.1443126 -0.73634845 0 10
1.995808 -3.2988198 -0.73571265 0 11
2.1006181 -3.4720578 -0.73573196 0 12
2.2153213 -3.6616476 -0.73531634 0 13
2.3424962 -3.8718519 -0.73474419 0 14
2.4826772 -4.1035533 -0.73350352 0 15
2.6519594 -4.3833556 -0.73536116 0 16
2.8447182 -4.7019615 -0.73729056 0 17
3.0411885 -5.0267024 -0.73326838 0 18
3.2855294 -5.4305668 -0.73296064 0 19
3.421319 -5.6550107 -0.70171559 0 20
3.4262788 -5.6632085 -0.64122581 0 21
3.4228802 -5.6575909 -0.57925314 0 22
3.4275324 -5.6652803 -0.51871932 0 23
3.419441 -5.6519065 -0.45640656 0 24
3.4174683 -5.6486454 -0.3951678 0 25
3.4254129 -5.661777 -0.33503652 0 26
3.4215312 -5.6553612 -0.27373287 0 27
3.4217243 -5.6556802 -0.21286732 0 28
3.4277039 -5.6655641 -0.15228802 0 29
3.4262047 -5.6630855 -0.091322534 0 30
3.4209454 -5.6543932 -0.030392407 0 31
3.4181001 -5.6496902 0.030367129 0 32
3.419487 -5.6519823 0.091143489 0 33
3.4239705 -5.6593928 0.15212214 0 34
3.4245439 -5.6603408 0.21304272 0 35
3.4209292 -5.654366 0.27368471 0 36
3.4234705 -5.6585665 0.33484656 0 37
3.4267473 -5.6639829 0.39624077 0 38
3.4287007 -5.6672115 0.4576425 0 39
3.4210188 -5.6545143 0.51773357 0 40
3.4212959 -5.6549721 0.57898504 0 41
3.4244134 -5.6601253 0.64087671 0 42
3.4269328 -5.6642895 0.70286697 0 43
3.4208443 -5.6542258 0.76314771 0 44
3.4170201 -5.6479049 0.8238861 0 45
3.4222364 -5.656527 0.88697106 0 46
3.4236426 -5.6588507 0.949341 0 47
3.4257929 -5.662405 1.0121458 0 48
3.4208462 -5.6542287 1.0729779 0 49
3.4262114 -5.6630969 1.1372389 0 50
3.4271398 -5.6646314 1.20034 0 51
3.4179769 -5.6494861 1.2599653 0 52
3.429466 -5.6684766 1.3274679 0 53
3.4262128 -5.6630988 1.3896494 0 54
3.4235651 -5.6587229 1.4522126 0 55
3.4188519 -5.6509323 1.5140198 0 56
3.4258218 -5.6624532 1.5813134 0 57
3.421392 -5.6551309 1.643675 0 58
3.4227462 -5.6573691 1.7090528 0 59
0 0 0 0 60
0 0 0 0 61
0 0 0 0 62
0 0 0 0 63
1.3033561 -2.0956638 -0.73571467 0 0
1.3422234 -2.1581585 -0.73227012 0 1
1.4052255 -2.2594595 -0.7402066 0 2
1.4440882 -2.3219466 -0.73364985 0 3
1.5052778 -2.4203331 -0.73670214 0 4
1.5643182 -2.5152643 -0.73660171 0 5
1.6238662 -2.6110113 -0.73467952 0 6
1.6933166 -2.7226806 -0.73499429 0 7
1.7660987 -2.8397069 -0.73427892 0 8
1.8473899 -2.9704149 -0.73441917 0 9
1.9415318 -3.1217854 -0.73660821 0 10
2.0290339 -3.2624795 -0.73311692 0 11
2.1388381 -3.4390337 -0.73425162 0 12
2.2646306 -3.641295 -0.73676568 0 13
2.3836808 -3.832716 -0.73282433 0 14
2.5357709 -4.077261 -0.73432189 0 15
2.6974473 -4.3372202 -0.73313051 0 16
2.895541 -4.655735 -0.73556942 0 17
3.0988505 -4.982636 -0.73234338 0 18
3.3638558 -5.4087377 -0.73554152 0 19
3.5184021 -5.6572323 -0.70730633 0 20
3.5243568 -5.6668067 -0.64649129 0 21
3.5284002 -5.6733079 -0.58526027 0 22
3.5281773 -5.6729498 -0.52335429 0 23
3.5256834 -5.6689396 -0.4612481 0 24
3.5212705 -5.6618443 -0.39909011 0 25
3.5186665 -5.6576571 -0.33732757 0 26
3.5213945 -5.6620436 -0.2761313 0 27
3.5244985 -5.6670346 -0.21490958 0 28
3.5175815 -5.6559129 -0.15317966 0 29
3.5213492 -5.6619706 -0.091995858 0 30
3.5116694 -5.6464067 -0.030579267 0 31
3.5205669 -5.6607132 0.030656746 0 32
3.5168188 -5.654686 0.091877498 0 33
3.5179639 -5.6565275 0.15319632 0 34
3.520076 -5.6599236 0.21463993 0 35
3.5138872 -5.6499729 0.27554262 0 36
3.5175076 -5.6557937 0.33721647 0 37
3.5244951 -5.6670289 0.39945558 0 38
3.5181046 -5.6567535 0.46025658 0 39
3.524652 -5.6672812 0.52283132 0 40
3.523881 -5.6660414 0.58451062 0 41
3.5193563 -5.6587663 0.64557403 0 42
3.5212142 -5.6617537 0.70787162 0 43
3.5194409 -5.6589026 0.76956183 0 44
3.5195417 -5.6590643 0.83176428 0 45
3.5194664 -5.6589437 0.89406848 0 46
3.5218496 -5.6627755 0.95719218 0 47
3.5211527 -5.6616545 1.0196739 0 48
3.5149536 -5.6516876 1.080616 0 49
3.5163004 -5.6538529 1.1439788 0 50
3.5218499 -5.662776 1.2090322 0 51
3.5196588 -5.6592526 1.2716995 0 52
3.5158246 -5.6530876 1.3338875 0 53
3.5208275 -5.6611319 1.3996845 0 54
3.5141318 -5.6503658 1.4610468 0 55
3.5187216 -5.6577458 1.5273223 0 56
3.5221648 -5.6632819 1.5935194 0 57
3.51794 -5.6564894 1.6565176 0 58
3.5238667 -5.6660185 1.7246253 0 59
0 0 0 0 60
0 0 0 0 61
0 0 0 0 62
0 0 0 0 63
1.3233581 -2.0706131 -0.73257768 0 0
1.384984 -2.1670372 -0.74100518 0 1
1.4227779 -2.226172 -0.73497736 0 2
1.4792688 -2.3145614 -0.73700798 0 3
1.5312412 -2.3958809 -0.73493493 0 4
1.5970418 -2.498837 -0.73748618 0 5
1.6471505 -2.5772402 -0.73082089 0 6
1.7193103 -2.6901462 -0.73186338 0 7
1.8030429 -2.8211596 -0.73516041 0 8
1.8887278 -2.9552281 -0.73635083 0 9
1.9794708 -3.0972106 -0.73649722 0 10
2.0805545 -3.2553725 -0.73721308 0 11
2.1833558 -3.4162223 -0.73505777 0 12
2.2924836 -3.586971 -0.73142242 0 13
2.4457054 -3.8267119 -0.73737073 0 14
2.5841732 -4.0433679 -0.73388511 0 15
2.7559948 -4.312211 -0.73457593 0 16
2.9592228 -4.6301951 -0.73722762 0 17
3.1645803 -4.9515109 -0.73343265 0 18
3.4336281 -5.3724809 -0.73629701 0 19
3.6109948 -5.6500006 -0.71189988 0 20
3.6146133 -5.6556625 -0.65024143 0 21
3.6156518 -5.6572871 -0.58814955 0 22
3.6167209 -5.6589599 -0.52612668 0 23
3.6154785 -5.6570158 -0.46386009 0 24
3.6170161 -5.6594214 -0.402024 0 25
3.6189375 -5.6624284 -0.34023955 0 26
3.6170375 -5.6594553 -0.27815315 0 27
3.6201746 -5.6643639 -0.21648009 0 28
3.6096356 -5.6478739 -0.15415239 0 29
3.6251731 -5.6721845 -0.092879079 0 30
3.6143138 -5.6551938 -0.030865213 0 31
3.6156878 -5.6573434 0.030876946 0 32
3.6147406 -5.6558614 0.092611797 0 33
3.6118636 -5.65136 0.15424754 0 34
3.622633 -5.6682105 0.21662711 0 35
3.6169014 -5.6592422 0.27814266 0 36
3.6155629 -5.6571479 0.33992228 0 37
3.621506 -5.6664472 0.40252307 0 38
3.6145566 -5.6555734 0.46374181 0 39
3.6206336 -5.665082 0.52669591 0 40
3.6129699 -5.6530905 0.5877133 0 41
3.6115699 -5.6509004 0.64969391 0 42
3.6148148 -5.6559772 0.71265292 0 43
