# .PCD v0.7 - Point Cloud Data file format
VERSION 0.7
FIELDS x y z intensity ring
SIZE 4 4 4 4 2
TYPE F F F F U
COUNT 1 1 1 1 1
WIDTH 1290
HEIGHT 1
VIEWPOINT 0 0 0 1 0 0 0
POINTS 1290
DATA ascii
-2.4242749 1.2606894 -0.73314041 0 3
-2.5276737 1.3144596 -0.73638761 0 4
-2.6228278 1.3639423 -0.73516965 0 5
-2.7279446 1.4186059 -0.73467189 0 6
-2.849472 1.4818034 -0.73624158 0 7
-2.9769213 1.5480806 -0.73675591 0 8
-3.1064689 1.615449 -0.73512739 0 9
-3.2641664 1.6974559 -0.73718154 0 10
-3.4166229 1.7767375 -0.73483729 0 11
-3.5556552 1.8490381 -0.72660238 0 12
-3.5473135 1.8447001 -0.68697625 0 13
-3.559123 1.8508415 -0.65133578 0 14
-3.5486381 1.845389 -0.61171389 0 15
-3.5402319 1.8410176 -0.57275677 0 16
-3.5457222 1.8438727 -0.53617781 0 17
-3.5687232 1.8558338 -0.50203866 0 18
-3.5523062 1.8472966 -0.46237078 0 19
-3.5468152 1.8444409 -0.42443457 0 20
-3.5550549 1.8487259 -0.38818547 0 21
-3.5555623 1.8489897 -0.35106671 0 22
-3.5642347 1.8534998 -0.31471819 0 23
-3.5456035 1.8438109 -0.27611601 0 24
-3.5443335 1.8431504 -0.23912022 0 25
-3.5539134 1.8481323 -0.20281063 0 26
-3.5455425 1.8437792 -0.16549841 0 27
-3.5649917 1.8538934 -0.12939788 0 28
-3.5456724 1.8438467 -0.091910616 0 29
-3.5659359 1.8543843 -0.055455275 0 30
-3.5509312 1.8465816 -0.018406274 0 31
-3.5493515 1.84576 0.018398084 0 32
-3.5471702 1.8446257 0.055163443 0 33
-3.5499377 1.8460648 0.092021182 0 34
-3.5478897 1.8449999 0.12877713 0 35
-3.543046 1.842481 0.16538188 0 36
-3.5593562 1.8509626 0.20312124 0 37
-3.5451138 1.8435563 0.23917288 0 38
-3.5709999 1.8570178 0.27809379 0 39
-3.5413709 1.8416098 0.31269932 0 40
-3.5596845 1.8511335 0.35147372 0 41
-3.5496538 1.8459172 0.38759571 0 42
-3.553618 1.8479787 0.42524868 0 43
-3.5564826 1.8494684 0.46291438 0 44
-3.5519278 1.8470997 0.4996759 0 45
-3.5375342 1.8396147 0.53493959 0 46
-3.5452082 1.8436053 0.57356185 0 47
-3.5597677 1.8511766 0.61363238 0 48
-3.5577893 1.850148 0.65109169 0 49
-3.557847 1.850178 0.68901628 0 50
-3.5628049 1.8527561 0.7280634 0 51
-3.5456336 1.8438265 0.76258451 0 52
-3.5439775 1.8429654 0.80037427 0 53
-3.5663326 1.8545905 0.84395134 0 54
-3.5523455 1.8473169 0.87916714 0 55
-3.5458815 1.8439555 0.9161787 0 56
-3.5458903 1.8439602 0.95495558 0 57
-3.5609386 1.8517855 0.99811888 0 58
-3.5636981 1.8532206 1.0382128 0 59
-3.5446939 1.8433379 1.0719734 0 60
-3.5504005 1.8463055 1.1132543 0 61
-3.5554547 1.8489338 1.1546539 0 62
-3.5499673 1.8460803 1.1928363 0 63
-2.1991079 1.1094606 -0.73429 0 0
-2.2716224 1.1460445 -0.73309016 0 1
-2.3440328 1.1825759 -0.73037404 0 2
-2.447979 1.2350173 -0.73566067 0 3
-2.5334487 1.2781372 -0.73343587 0 4
-2.6464739 1.3351589 -0.73714 0 5
-2.7366714 1.380664 -0.73239452 0 6
-2.8726528 1.4492673 -0.73757076 0 7
-2.9901555 1.508548 -0.7353847 0 8
-3.1341863 1.5812122 -0.73702961 0 9
-3.2601731 1.6447731 -0.73165679 0 10
-3.4398296 1.7354107 -0.7351833 0 11
-3.6364148 1.8345889 -0.73843986 0 12
-3.6494641 1.8411723 -0.70232135 0 13
-3.661123 1.8470544 -0.66579545 0 14
-3.6504531 1.8416713 -0.62531376 0 15
-3.6658032 1.8494155 -0.58934855 0 16
-3.6513815 1.8421397 -0.54868853 0 17
-3.6668627 1.8499501 -0.51260579 0 18
-3.6512949 1.8420961 -0.47227123 0 19
-3.6444638 1.8386496 -0.43338156 0 20
-3.6471751 1.8400176 -0.39574382 0 21
-3.6564915 1.8447177 -0.35876536 0 22
-3.6605761 1.8467784 -0.32119557 0 23
-3.6588717 1.8459185 -0.28314778 0 24
-3.671195 1.8521358 -0.2461239 0 25
-3.6529799 1.8429461 -0.20715515 0 26
-3.6535187 1.843218 -0.16946773 0 27
-3.6675603 1.8503021 -0.13228497 0 28
-3.6609144 1.8469492 -0.094302073 0 29
-3.6395829 1.8361872 -0.056245208 0 30
-3.6538961 1.8434083 -0.018821074 0 31
-3.650733 1.8418125 0.018804779 0 32
-3.6544075 1.8436663 0.056474306 0 33
-3.6616616 1.8473262 0.094321318 0 34
-3.6364491 1.8346062 0.13116281 0 35
-3.6507895 1.8418411 0.16934116 0 36
-3.6422992 1.8375577 0.20654948 0 37
-3.6445646 1.8387007 0.24433854 0 38
-3.6478064 1.8403361 0.2822915 0 39
-3.6464155 1.8396343 0.31995305 0 40
-3.6517754 1.8423383 0.35830262 0 41
-3.6512723 1.8420846 0.39618841 0 42
-3.6729486 1.8530204 0.43676883 0 43
-3.6582789 1.8456194 0.47317454 0 44
-3.6437199 1.8382745 0.50937057 0 45
-3.657383 1.8451675 0.54959041 0 46
-3.6525133 1.8427107 0.58721191 0 47
-3.6493766 1.8411283 0.6251294 0 48
-3.645956 1.8394026 0.66303724 0 49
-3.6565189 1.8447317 0.70367903 0 50
-3.6549563 1.8439432 0.74220508 0 51
-3.6624537 1.8477256 0.78276402 0 52
-3.6661756 1.8496034 0.82277298 0 53
-3.6494417 1.841161 0.8581962 0 54
-3.6654894 1.8492572 0.90147316 0 55
-3.6581268 1.8455428 0.93924588 0 56
-3.6560633 1.8445016 0.97844434 0 57
-3.6527314 1.8428208 1.0174196 0 58
-3.6603587 1.8466688 1.0596775 0 59
-3.6658676 1.849448 1.1016576 0 60
-3.6531103 1.8430119 1.1382678 0 61
-3.6516738 1.8422872 1.1784556 0 62
-3.6634097 1.848208 1.2232256 0 63
-2.2067344 1.0794765 -0.73234898 0 0
-2.3046312 1.1273651 -0.73921311 0 1
-2.3751783 1.1618749 -0.73557138 0 2
-2.4582024 1.2024881 -0.73423392 0 3
-2.5498636 1.2473264 -0.73369229 0 4
-2.6681728 1.3052001 -0.73865777 0 5
-2.7554903 1.3479135 -0.73293972 0 6
-2.886457 1.411979 -0.73660147 0 7
-3.0077786 1.4713264 -0.73521382 0 8
-3.134716 1.5334208 -0.73266476 0 9
-3.2825217 1.6057234 -0.73218584 0 10
-3.4502244 1.6877592 -0.73291397 0 11
-3.651289 1.7861147 -0.73694474 0 12
-3.7484932 1.8336644 -0.71698564 0 13
-3.7507231 1.8347552 -0.6779356 0 14
-3.7585993 1.8386081 -0.63991779 0 15
-3.7536416 1.836183 -0.59979498 0 16
-3.7531333 1.8359342 -0.56054389 0 17
-3.7539461 1.8363318 -0.5215835 0 18
-3.7613342 1.8399459 -0.48354113 0 19
-3.7766902 1.8474576 -0.44637012 0 20
-3.7583978 1.8385096 -0.4053286 0 21
-3.7620647 1.8403033 -0.36687589 0 22
-3.752919 1.8358294 -0.32729265 0 23
-3.7608693 1.8397185 -0.28926852 0 24
-3.751467 1.8351191 -0.24997374 0 25
-3.7613811 1.8399689 -0.21200338 0 26
-3.7448564 1.8318853 -0.17264652 0 27
-3.7398045 1.8294141 -0.13406922 0 28
-3.754921 1.8368087 -0.096134529 0 29
-3.759984 1.8392855 -0.05775198 0 30
-3.7589421 1.8387758 -0.019244241 0 31
-3.7612073 1.8398838 0.019255837 0 32
-3.7527695 1.8357563 0.057641167 0 33
-3.7620668 1.8403044 0.096317485 0 34
-3.7475679 1.8332118 0.13434753 0 35
-3.7540646 1.8363898 0.17307103 0 36
-3.7608469 1.8397075 0.21197325 0 37
-3.7702367 1.8443009 0.25122443 0 38
-3.7455485 1.8322239 0.28809014 0 39
-3.7589502 1.8387798 0.32781863 0 40
-3.7673388 1.8428832 0.36739022 0 41
-3.7540309 1.8363734 0.40485764 0 42
-3.7593184 1.8389598 0.44431692 0 43
-3.7529786 1.8358586 0.48246697 0 44
-3.755739 1.8372089 0.52183259 0 45
-3.7583838 1.8385026 0.56132811 0 46
-3.7572703 1.837958 0.60037482 0 47
-3.7582841 1.8384539 0.63986415 0 48
-3.7506783 1.8347334 0.67792749 0 49
-3.7592881 1.838945 0.71905041 0 50
-3.7718272 1.8450788 0.76127309 0 51
-3.7570205 1.8378358 0.79808515 0 52
-3.7572858 1.8379655 0.83808476 0 53
-3.7603886 1.8394834 0.87890071 0 54
-3.7590888 1.8388475 0.91886216 0 55
-3.7591298 1.8388675 0.95930082 0 56
-3.7521052 1.8354313 0.99803185 0 57
-3.7605128 1.8395441 1.0410615 0 58
-3.7547596 1.8367298 1.0803865 0 59
-3.7640262 1.8412628 1.124267 0 60
-3.776808 1.8475153 1.1696435 0 61
-3.7505455 1.8346684 1.2029917 0 62
-3.7461991 1.8325422 1.2432512 0 63
-2.23406 1.0590024 -0.73704022 0 0
-2.3058619 1.0930383 -0.73524112 0 1
-2.3911819 1.1334822 -0.73615545 0 2
-2.4814587 1.1762758 -0.73680437 0 3
-2.5616159 1.2142725 -0.73272222 0 4
-2.6560285 1.2590264 -0.73095453 0 5
-2.7726715 1.3143183 -0.73315555 0 6
-2.8850594 1.3675931 -0.73189807 0 7
-3.0223963 1.4326943 -0.73442513 0 8
-3.1701579 1.5027372 -0.73657387 0 9
-3.3087626 1.5684394 -0.73368162 0 10
-3.4948301 1.6566402 -0.73800629 0 11
-3.6722672 1.74075 -0.73680282 0 12
-3.8713329 1.8351123 -0.73610973 0 13
-3.8724923 1.8356619 -0.6958127 0 14
-3.8763118 1.8374723 -0.65606248 0 15
-3.8614037 1.8304056 -0.61337149 0 16
-3.869267 1.834133 -0.57447702 0 17
-3.8664916 1.8328173 -0.53404915 0 18
-3.8640389 1.8316548 -0.49381167 0 19
-3.8889794 1.8434771 -0.45692793 0 20
-3.8515654 1.8257419 -0.41292396 0 21
-3.8623319 1.8308455 -0.37443015 0 22
-3.8652461 1.8322269 -0.33509853 0 23
-3.8717964 1.8353319 -0.29604229 0 24
-3.8772738 1.8379284 -0.25683138 0 25
-3.8706851 1.8348051 -0.21687604 0 26
-3.8688056 1.8339143 -0.17730783 0 27
-3.8708122 1.8348655 -0.13794647 0 28
-3.8676531 1.8333679 -0.098436117 0 29
-3.8784661 1.8384936 -0.059220109 0 30
-3.8747499 1.836732 -0.01972001 0 31
-3.8740854 1.836417 0.019716628 0 32
-3.8659551 1.832563 0.05902908 0 33
-3.8631864 1.8312505 0.098322429 0 34
-3.8566566 1.8281553 0.13744199 0 35
-3.8778265 1.8381903 0.17772125 0 36
-3.8775828 1.8380749 0.21726254 0 37
-3.8686278 1.8338299 0.25625864 0 38
-3.8771179 1.8378545 0.29644921 0 39
-3.8744702 1.8365993 0.33589822 0 40
-3.859792 1.8296416 0.37418392 0 41
-3.8725691 1.8356982 0.41517577 0 42
-3.8751125 1.8369038 0.45529866 0 43
-3.8706698 1.834798 0.49465907 0 44
-3.8767459 1.8376782 0.53546548 0 45
-3.8633227 1.8313153 0.57359445 0 46
-3.8735328 1.8361551 0.61529815 0 47
-3.8805776 1.8394945 0.65678442 0 48
-3.8754179 1.8370486 0.69633836 0 49
-3.8703015 1.8346233 0.73591363 0 50
-3.8760593 1.8373528 0.77769166 0 51
-3.8724751 1.8356537 0.81775391 0 52
-3.8674915 1.8332913 0.85757357 0 53
-3.855608 1.8276583 0.89583558 0 54
-3.8643951 1.8318236 0.93902606 0 55
-3.864881 1.8320539 0.9804647 0 56
-3.8693757 1.8341845 1.0231483 0 57
-3.8685315 1.8337843 1.0646424 0 58
-3.8639185 1.8315977 1.1052316 0 59
-3.8719909 1.8354242 1.1496866 0 60
-3.8695188 1.8342524 1.1912801 0 61
-3.8719094 1.8353854 1.234587 0 62
-3.8746185 1.8366697 1.278278 0 63
-2.2416737 1.0290487 -0.73532194 0 0
-2.3151126 1.0627611 -0.73396838 0 1
-2.3961861 1.0999782 -0.73347652 0 2
-2.4968188 1.146174 -0.73712462 0 3
-2.5852451 1.1867664 -0.73525125 0 4
-2.6800992 1.2303096 -0.73336011 0 5
-2.7971978 1.2840641 -0.73541015 0 6
-2.8953609 1.3291262 -0.73031002 0 7
-3.0552249 1.4025123 -0.73815578 0 8
-3.2033732 1.4705204 -0.74003404 0 9
-3.3325653 1.5298265 -0.73473287 0 10
-3.5015295 1.6073902 -0.73519158 0 11
-3.6964293 1.6968597 -0.73740858 0 12
-3.873971 1.7783608 -0.73239803 0 13
-3.9726083 1.8236406 -0.7097187 0 14
-3.9891052 1.8312136 -0.67129087 0 15
-3.991581 1.8323501 -0.63042301 0 16
-3.9708564 1.8228365 -0.58618796 0 17
-3.9755549 1.8249933 -0.54597235 0 18
-3.9765897 1.8254683 -0.50528848 0 19
-3.9809785 1.8274831 -0.46506178 0 20
-3.9835644 1.8286701 -0.42463267 0 21
-3.9967844 1.8347389 -0.38524827 0 22
-3.9845097 1.8291041 -0.34346226 0 23
-3.9887538 1.8310523 -0.30324054 0 24
-3.9810259 1.8275048 -0.26219556 0 25
-3.9919198 1.8325056 -0.2223895 0 26
-3.9879875 1.8307006 -0.18172452 0 27
-3.9945602 1.8337177 -0.14154229 0 28
-3.9810936 1.8275359 -0.10074374 0 29
-3.9770005 1.8256569 -0.060377285 0 30
-4.0010948 1.8367175 -0.02024655 0 31
-3.9898648 1.8315623 0.020189723 0 32
-3.9830775 1.8284466 0.060469545 0 33
-3.9926293 1.8328313 0.10103565 0 34
-3.9784622 1.8263279 0.14097187 0 35
-3.9899616 1.8316067 0.18181448 0 36
-3.987042 1.8302665 0.22211777 0 37
-3.9929821 1.8329934 0.26298302 0 38
-3.99546 1.8341309 0.30375037 0 39
-3.99087 1.8320237 0.3440105 0 40
-3.9830711 1.8284436 0.38392642 0 41
-4.0011253 1.8367314 0.42650458 0 42
-3.9793146 1.8267192 0.46486738 0 43
-4.0045285 1.8382938 0.50883853 0 44
-3.980695 1.8273529 0.54667825 0 45
-3.9924808 1.8327632 0.5893802 0 46
-3.9927676 1.8328948 0.63061041 0 47
-4.0001078 1.8362645 0.67314237 0 48
-3.9845097 1.8291041 0.71184498 0 49
-3.9945161 1.8336976 0.75518781 0 50
-3.969177 1.8220655 0.79181957 0 51
-3.9867585 1.8301363 0.83707166 0 52
-3.9942846 1.8335912 0.88062251 0 53
-3.9837201 1.8287416 0.92030758 0 54
-3.974215 1.8243783 0.96018791 0 55
-3.9910223 1.8320937 1.0066737 0 56
-3.9851372 1.8293921 1.0477308 0 57
-3.9815764 1.8277575 1.0894854 0 58
-3.9948449 1.8338485 1.1361456 0 59
-3.9926519 1.8328418 1.1787328 0 60
-3.9966581 1.8346808 1.2233837 0 61
-3.9893813 1.8313403 1.2647678 0 62
-3.9887009 1.831028 1.308388 0 63
-2.2505293 0.99979675 -0.73413855 0 0
-2.3348753 1.0372674 -0.73613459 0 1
-2.4113867 1.0712576 -0.73404181 0 2
-2.5061069 1.1133369 -0.73576939 0 3
-2.5990722 1.1546367 -0.73509026 0 4
-2.6925471 1.1961629 -0.73268604 0 5
-2.7976265 1.2428445 -0.73144966 0 6
-2.9261758 1.2999524 -0.7339952 0 7
-3.0547917 1.35709 -0.73396391 0 8
-3.1899695 1.4171426 -0.73285651 0 9
-3.3507636 1.4885752 -0.73465389 0 10
-3.5069401 1.5579567 -0.73224992 0 11
-3.6884522 1.6385933 -0.73174232 0 12
-3.8929195 1.7294279 -0.73190457 0 13
-4.0962543 1.8197592 -0.72775578 0 14
-4.1073265 1.8246782 -0.6873576 0 15
-4.1073256 1.8246777 -0.64511102 0 16
-4.1073303 1.8246797 -0.6029768 0 17
-4.1031933 1.8228418 -0.56038058 0 18
-4.1055474 1.8238877 -0.5187856 0 19
-4.1112323 1.8264132 -0.4776184 0 20
-4.1116872 1.8266153 -0.43586287 0 21
-4.0962915 1.8197758 -0.39265314 0 22
-4.106801 1.8244447 -0.35204327 0 23
-4.104558 1.8234481 -0.31031635 0 24
-4.0913391 1.8175757 -0.26796868 0 25
-4.112186 1.8268369 -0.22782086 0 26
-4.0970645 1.8201191 -0.18566103 0 27
-4.1139007 1.8275987 -0.14496371 0 28
-4.1169248 1.8289421 -0.10360408 0 29
-4.0994868 1.8211954 -0.061892167 0 30
-4.0946054 1.8190267 -0.020604992 0 31
-4.10535 1.8238 0.020659063 0 32
-4.107574 1.8247881 0.062014263 0 33
-4.1051779 1.8237234 0.10330846 0 34
-4.1002178 1.82152 0.14448154 0 35
-4.118608 1.8296899 0.1866373 0 36
-4.0945873 1.8190187 0.22684588 0 37
-4.1091423 1.8254848 0.26913473 0 38
-4.1174664 1.8291829 0.31129229 0 39
-4.1050243 1.8236552 0.35189095 0 40
-4.0991616 1.8210509 0.39292824 0 41
-4.1157956 1.8284404 0.43629837 0 42
-4.1086054 1.8252462 0.47731325 0 43
-4.1257806 1.8328763 0.52134228 0 44
-4.1036339 1.8230376 0.56044084 0 45
-4.1126943 1.8270627 0.60376424 0 46
-4.1180711 1.8294513 0.64679873 0 47
-4.115489 1.8283044 0.68872356 0 48
-4.1175799 1.8292332 0.73154461 0 49
-4.1029158 1.8227186 0.77138579 0 50
-4.101615 1.8221407 0.81370854 0 51
-4.1057434 1.8239748 0.85728019 0 52
-4.098475 1.8207458 0.89858949 0 53
-4.1038494 1.8231333 0.94280922 0 54
-4.1113815 1.8264796 0.987827 0 55
-4.1108203 1.8262302 1.0311487 0 56
-4.1078467 1.8249092 1.0740114 0 57
-4.1051488 1.8237106 1.1170781 0 58
-4.1164451 1.828729 1.1642457 0 59
-4.1170745 1.8290086 1.2087343 0 60
-4.1073971 1.8247095 1.2503184 0 61
-4.1086774 1.8252782 1.295375 0 62
-4.1113172 1.8264508 1.3411406 0 63
-2.266042 0.97350597 -0.73523837 0 0
-2.3249631 0.99881876 -0.72908205 0 1
-2.4241328 1.0414227 -0.73396814 0 2
-2.5025361 1.0751053 -0.73078454 0 3
-2.6060853 1.1195906 -0.73312461 0 4
-2.7234118 1.169995 -0.73711425 0 5
-2.8341999 1.2175902 -0.73704171 0 6
-2.9293606 1.2584717 -0.73085713 0 7
-3.0613973 1.3151956 -0.73161006 0 8
-3.2172821 1.3821646 -0.73517108 0 9
-3.3723271 1.448773 -0.73542029 0 10
-3.5383255 1.5200869 -0.7348448 0 11
-3.7086463 1.5932578 -0.73180652 0 12
-3.9268491 1.6869991 -0.73432803 0 13
-4.1381593 1.7777793 -0.73126173 0 14
-4.1680694 1.7906288 -0.69378555 0 15
-4.173789 1.7930862 -0.65203774 0 16
-4.1676364 1.7904428 -0.60855192 0 17
-4.1626172 1.7882866 -0.56545037 0 18
-4.1711817 1.791966 -0.52425528 0 19
-4.163857 1.7888192 -0.48114029 0 20
-4.1642814 1.7890015 -0.439073 0 21
-4.1727285 1.7926306 -0.39783704 0 22
-4.1552229 1.78511 -0.35428566 0 23
-4.1712656 1.792002 -0.31366998 0 24
-4.1717677 1.7922177 -0.27177253 0 25
-4.1705661 1.7917014 -0.22981724 0 26
-4.1715331 1.792117 -0.18802282 0 27
-4.1725645 1.7925599 -0.1462431 0 28
-4.158092 1.7863425 -0.10407943 0 29
-4.175137 1.7936652 -0.062696569 0 30
-4.1707549 1.7917825 -0.020875745 0 31
-4.152112 1.7837735 0.020782432 0 32
-4.1572585 1.7859844 0.062428094 0 33
-4.1750283 1.7936183 0.10450335 0 34
-4.174088 1.7932144 0.14629649 0 35
-4.1571116 1.7859213 0.18737279 0 36
-4.1666389 1.7900141 0.22960083 0 37
-4.1709757 1.7918774 0.27172095 0 38
-4.1702108 1.7915488 0.31359068 0 39
-4.1644444 1.7890716 0.3550719 0 40
-4.1573439 1.7860211 0.39637023 0 41
-4.1627679 1.7883514 0.43891343 0 42
-4.1585474 1.7865381 0.48052675 0 43
-4.160521 1.7873859 0.52291536 0 44
-4.1706262 1.7917272 0.56653827 0 45
-4.1713681 1.7920461 0.60909683 0 46
-4.1644096 1.7890567 0.65057242 0 47
-4.1774349 1.7946523 0.69534451 0 48
-4.160192 1.7872447 0.73515517 0 49
-4.1690383 1.7910451 0.77961785 0 50
-4.1749067 1.7935662 0.82381111 0 51
-4.1726017 1.792576 0.8665722 0 52
-4.166914 1.7901325 0.90869981 0 53
-4.1717591 1.792214 0.95327574 0 54
-4.1573019 1.7860031 0.9935084 0 55
-4.165216 1.7894031 1.0391954 0 56
-4.1677036 1.7904718 1.0838231 0 57
-4.1546235 1.7848524 1.1244837 0 58
-4.1551557 1.7850811 1.1688976 0 59
-4.153275 1.784273 1.2128292 0 60
-4.164628 1.7891505 1.2609475 0 61
-4.1736455 1.7930243 1.3088078 0 62
-4.158144 1.7863649 1.3491485 0 63
-2.2783992 0.94580209 -0.73541874 0 0
-2.3530757 0.97680157 -0.73407584 0 1
-2.4392133 1.0125587 -0.73470873 0 2
-2.5377419 1.0534596 -0.73722678 0 3
-2.6266668 1.0903739 -0.73508716 0 4
-2.7221932 1.1300285 -0.73296815 0 5
-2.8384378 1.1782836 -0.7343204 0 6
-2.9770181 1.2358106 -0.73890024 0 7
-3.0851977 1.2807177 -0.7334789 0 8
-3.2362242 1.3434113 -0.73566908 0 9
-3.4007022 1.411689 -0.73776686 0 10
-3.5547118 1.475621 -0.734424 0 11
-3.734355 1.5501939 -0.73306268 0 12
-3.9525113 1.6407543 -0.73529851 0 13
-4.1577744 1.7259625 -0.73092228 0 14
-4.1680288 1.7302192 -0.69018531 0 15
-4.1596603 1.7267455 -0.64646459 0 16
-4.1680508 1.7302283 -0.60545999 0 17
-4.1674972 1.7299986 -0.56318098 0 18
-4.1832447 1.7365357 -0.5230481 0 19
-4.1597099 1.7267659 -0.47817141 0 20
-4.1676087 1.730045 -0.43714777 0 21
-4.1513605 1.7233 -0.39374962 0 22
-4.1602397 1.7269858 -0.3528761 0 23
-4.1585221 1.7262728 -0.31109196 0 24
-4.1564593 1.7254167 -0.26937273 0 25
-4.1586604 1.7263304 -0.22797422 0 26
-4.1637998 1.7284638 -0.18670216 0 27
-4.1836905 1.7367208 -0.14587355 0 28
-4.1589069 1.7264326 -0.10356061 0 29
-4.1551652 1.7248794 -0.062073469 0 30
-4.1600337 1.7269003 -0.020714231 0 31
-4.1621895 1.7277952 0.020724963 0 32
-4.1599746 1.7268759 0.062145315 0 33
-4.1516542 1.7234219 0.10338002 0 34
-4.1714029 1.73162 0.14544511 0 35
-4.1651936 1.7290422 0.18676464 0 36
-4.1687908 1.7305355 0.22852953 0 37
-4.1555414 1.7250355 0.26931325 0 38
-4.1689672 1.7306087 0.31187335 0 39
-4.1771212 1.7339936 0.35430801 0 40
-4.1714482 1.7316388 0.39565492 0 41
-4.1547036 1.7246877 0.43579412 0 42
-4.1510563 1.7231736 0.47717667 0 43
-4.1630239 1.7281415 0.52051979 0 44
-4.1736908 1.7325697 0.56401795 0 45
-4.1623707 1.7278705 0.60463488 0 46
-4.1567202 1.7255248 0.6460076 0 47
-4.1808991 1.7355618 0.69231647 0 48
-4.1675844 1.7300347 0.73264682 0 49
-4.1688986 1.7305803 0.7755537 0 50
-4.1554446 1.7249953 0.81572354 0 51
-4.1561923 1.7253058 0.85869342 0 52
-4.1590123 1.7264763 0.90227872 0 53
-4.1513662 1.7233024 0.94370222 0 54
-4.156117 1.7252744 0.98808062 0 55
-4.1725631 1.7321016 1.0356363 0 56
-4.1739187 1.7326643 1.0798172 0 57
-4.1563559 1.7253736 1.1191257 0 58
-4.1724987 1.7320747 1.1676966 0 59
-4.1618266 1.7276447 1.2090316 0 60
-4.1592441 1.7265725 1.2527944 0 61
-4.1585016 1.7262645 1.2973045 0 62
-4.1633425 1.7282739 1.3438382 0 63
-2.2895896 0.91760963 -0.73533314 0 0
-2.3664293 0.94840497 -0.73454797 0 1
-2.4494143 0.98166329 -0.73408997 0 2
-2.5409198 1.0183363 -0.73445672 0 3
-2.6392534 1.0577461 -0.73491406 0 4
-2.7330511 1.0953377 -0.73220974 0 5
-2.8512943 1.1427265 -0.73395574 0 6
-2.9809151 1.1946753 -0.73616564 0 7
-3.1086004 1.2458484 -0.73534495 0 8
-3.2467093 1.301199 -0.73435992 0 9
-3.3985353 1.362047 -0.73360783 0 10
-3.5794647 1.4345589 -0.735838 0 11
-3.7746994 1.512804 -0.73727506 0 12
-3.9811559 1.5955465 -0.73692167 0 13
-4.1621943 1.668102 -0.72803831 0 14
-4.161243 1.6677209 -0.68561405 0 15
-4.1618652 1.6679702 -0.64357102 0 16
-4.1615 1.6678239 -0.60148388 0 17
-4.165638 1.6694824 -0.56011319 0 18
-4.1586781 1.666693 -0.51737481 0 19
-4.1682205 1.6705173 -0.4767524 0 20
-4.1637607 1.6687299 -0.43455896 0 21
-4.165103 1.6692679 -0.39307651 0 22
-4.1528921 1.6643741 -0.35049042 0 23
-4.1609874 1.6676185 -0.30971897 0 24
-4.1653051 1.6693488 -0.26859537 0 25
-4.1694775 1.6710211 -0.22742359 0 26
-4.1610818 1.6676563 -0.18564676 0 27
-4.1638355 1.6687599 -0.14445487 0 28
-4.1650267 1.6692374 -0.1031941 0 29
-4.1730342 1.6724465 -0.062028494 0 30
-4.1619682 1.6680115 -0.020620175 0 31
-4.1623349 1.6681585 0.020621991 0 32
-4.1588001 1.6667418 0.06181692 0 33
-4.1573753 1.6661708 0.10300453 0 34
-4.1552501 1.665319 0.14415701 0 35
-4.158668 1.666689 0.18553908 0 36
-4.1443377 1.6609457 0.22605234 0 37
-4.151731 1.6639087 0.26772004 0 38
-4.144311 1.660935 0.3084777 0 39
-4.1634464 1.668604 0.35138118 0 40
-4.1588826 1.6667749 0.39248946 0 41
-4.1615329 1.6678371 0.43432647 0 42
-4.1581016 1.6664618 0.475595 0 43
-4.1725445 1.6722502 0.51909989 0 44
-4.1589379 1.666797 0.55921227 0 45
-4.1622648 1.6681304 0.60159439 0 46
-4.1624212 1.6681931 0.64365697 0 47
-4.1548119 1.6651434 0.6845544 0 48
-4.1482196 1.6625013 0.72559386 0 49
-4.1471934 1.6620903 0.76765573 0 50
-4.1617589 1.6679276 0.81287557 0 51
-4.1641607 1.6688904 0.85603517 0 52
-4.1715455 1.6718498 0.90046978 0 53
-4.1531806 1.6644896 0.9393909 0 54
-4.1545548 1.6650405 0.9827674 0 55
-4.1707668 1.6715378 1.0300109 0 56
-4.1656923 1.6695042 1.0722969 0 57
-4.1686993 1.6707093 1.1168332 0 58
-4.1580329 1.6664344 1.1578262 0 59
-4.1562357 1.665714 1.2013663 0 60
-4.1654592 1.6694107 1.248389 0 61
-4.1674323 1.6702015 1.2935857 0 62
-4.1604986 1.6674225 1.3362012 0 63
-2.309392 0.89274895 -0.7381115 0 0
-2.3727965 0.91725945 -0.73296791 0 1
-2.4555109 0.9492346 -0.73236358 0 2
-2.5603149 0.98974901 -0.73648936 0 3
-2.6560278 1.026749 -0.73601371 0 4
-2.753932 1.0645962 -0.73424137 0 5
-2.8620939 1.1064086 -0.7331782 0 6
-2.9780958 1.1512519 -0.73191804 0 7
-3.122009 1.2068849 -0.73495078 0 8
-3.2660582 1.2625705 -0.73516923 0 9
-3.4227538 1.3231447 -0.735268 0 10
-3.5925131 1.3887691 -0.73495424 0 11
-3.7571204 1.4524019 -0.73029798 0 12
-4.0014644 1.5468588 -0.73710436 0 13
-4.1519265 1.6050234 -0.72273552 0 14
-4.1587801 1.6076728 -0.68189955 0 15
-4.151268 1.6047688 -0.63883263 0 16
-4.1606259 1.6083862 -0.5984537 0 17
-4.1563802 1.606745 -0.55616975 0 18
-4.15415 1.6058829 -0.51431596 0 19
-4.1730061 1.6131722 -0.47499505 0 20
-4.1606412 1.6083921 -0.43213657 0 21
-4.1468005 1.6030418 -0.38945952 0 22
-4.1568923 1.6069429 -0.34913397 0 23
-4.1548548 1.6061553 -0.30776915 0 24
-4.1500416 1.6042947 -0.26631892 0 25
-4.1588569 1.6077024 -0.22574893 0 26
-4.163496 1.6094958 -0.1848575 0 27
-4.1540155 1.6058308 -0.1434183 0 28
-4.1514502 1.6048391 -0.10236105 0 29
-4.1555147 1.6064104 -0.061469823 0 30
-4.149138 1.6039453 -0.020457344 0 31
-4.1453695 1.6024886 0.020438766 0 32
-4.1636672 1.6095619 0.061590418 0 33
-4.1566939 1.6068662 0.10249034 0 34
-4.1529617 1.6054235 0.14338191 0 35
-4.170084 1.6120425 0.18515003 0 36
-4.1531191 1.6054844 0.22543748 0 37
-4.1481113 1.6035485 0.26619506 0 38
-4.1623611 1.6090569 0.30832517 0 39
-4.1528378 1.6053755 0.34879345 0 40
-4.1442981 1.6020744 0.3892245 0 41
-4.1528282 1.6053718 0.43132511 0 42
-4.1475668 1.603338 0.47209939 0 43
-4.1601052 1.6081849 0.51505321 0 44
-4.1605606 1.608361 0.55672914 0 45
-4.1482511 1.6036024 0.59667379 0 46
-4.1494946 1.6040833 0.63855976 0 47
-4.157742 1.6072713 0.68172932 0 48
-4.1505771 1.6045016 0.72250062 0 49
-4.1684613 1.6114151 0.76786655 0 50
-4.1650343 1.6100904 0.80958706 0 51
-4.1713257 1.6125226 0.85336745 0 52
-4.1508474 1.6046063 0.89167541 0 53
-4.1649299 1.6100501 0.93749964 0 54
-4.1560464 1.6066159 0.97837293 0 55
-4.1484089 1.6036634 1.0195425 0 56
-4.1574106 1.6071433 1.0649974 0 57
-4.1604795 1.6083297 1.1092489 0 58
-4.1626806 1.6091806 1.1535233 0 59
-4.1461921 1.6028066 1.1926762 0 60
-4.1540833 1.605857 1.2389679 0 61
-4.1495757 1.6041145 1.2818233 0 62
-4.1576867 1.60725 1.3288503 0 63
-2.2917902 0.85370559 -0.72907549 0 0
-2.3998902 0.89397347 -0.73788583 0 1
-2.4796007 0.92366606 -0.73610526 0 2
-2.557035 0.95251077 -0.73212135 0 3
-2.680891 0.99864799 -0.73944479 0 4
-2.7535129 1.0257 -0.73071164 0 5
-2.8818345 1.0735006 -0.73479807 0 6
-2.9981863 1.1168424 -0.73342502 0 7
-3.1351092 1.1678469 -0.73459852 0 8
-3.2850502 1.2237009 -0.73600149 0 9
-3.4280581 1.2769722 -0.73297894 0 10
-3.6301618 1.3522569 -0.73919874 0 11
-3.8018365 1.4162068 -0.73554921 0 12
-4.0081167 1.4930475 -0.73489231 0 13
-4.1462979 1.5445209 -0.71839547 0 14
-4.1486564 1.5453994 -0.67707258 0 15
-4.1582613 1.5489771 -0.63692951 0 16
-4.1479654 1.5451419 -0.5938549 0 17
-4.1647892 1.5514088 -0.55470031 0 18
-4.1519771 1.5466363 -0.51165366 0 19
-4.1545568 1.5475972 -0.47069332 0 20
-4.1538501 1.547334 -0.42942259 0 21
-4.1541705 1.5474534 -0.38833526 0 22
-4.160305 1.5497385 -0.34779379 0 23
-4.1491747 1.5455923 -0.30591744 0 24
-4.1537428 1.5472941 -0.26531541 0 25
-4.1565309 1.5483326 -0.22457223 0 26
-4.1625829 1.5505871 -0.1839565 0 27
-4.166307 1.5519743 -0.14317296 0 28
-4.1503763 1.5460401 -0.10185813 0 29
-4.1437211 1.5435609 -0.061009996 0 30
-4.1637459 1.5510203 -0.020433791 0 31
-4.1473646 1.5449182 0.020353399 0 32
-4.1478171 1.5450866 0.061070301 0 33
-4.150794 1.5461955 0.10186838 0 34
-4.1533108 1.5471331 0.14272635 0 35
-4.1541524 1.5474465 0.18358393 0 36
-4.1480637 1.5451784 0.22411473 0 37
-4.1628652 1.5506922 0.26589808 0 38
-4.1603084 1.5497397 0.30673835 0 39
-4.1496177 1.5457574 0.34690037 0 40
-4.1514645 1.5464453 0.38808227 0 41
-4.1464777 1.5445877 0.42866045 0 42
-4.1522927 1.5467539 0.47043681 0 43
-4.1476059 1.5450079 0.51111495 0 44
-4.1560431 1.5481509 0.55353546 0 45
-4.153861 1.547338 0.59469897 0 46
-4.1534371 1.5471802 0.63619065 0 47
-4.1516132 1.5465008 0.67755514 0 48
-4.1525083 1.5468341 0.71947145 0 49
-4.1536727 1.5472679 0.76158011 0 50
-4.1587811 1.5491707 0.80460799 0 51
-4.1531281 1.547065 0.84568876 0 52
-4.1584544 1.5490493 0.8891505 0 53
-4.1525497 1.5468496 0.93036109 0 54
-4.1491756 1.5455927 0.97220802 0 55
-4.1596346 1.5494887 1.0175418 0 56
-4.151608 1.5464988 1.0585595 0 57
-4.1614337 1.550159 1.1043377 0 58
-4.1552706 1.5478632 1.146109 0 59
-4.15446 1.5475612 1.1894906 0 60
-4.1574092 1.5486598 1.234187 0 61
-4.1483192 1.5452737 1.2754692 0 62
-4.1471162 1.5448254 1.3193008 0 63
-2.3073306 0.82733279 -0.73072761 0 0
-2.4005332 0.86075222 -0.7347737 0 1
-2.4680691 0.8849684 -0.72939634 0 2
-2.5681279 0.9208461 -0.73200005 0 3
-2.6746075 0.95902628 -0.73440355 0 4
-2.7828426 0.99783581 -0.73518336 0 5
-2.8982885 1.0392308 -0.73567957 0 6
-3.0051062 1.0775322 -0.73182124 0 7
-3.1667624 1.1354967 -0.73868781 0 8
-3.2814078 1.1766049 -0.73188865 0 9
-3.4547646 1.2387649 -0.73537672 0 10
-3.6279852 1.3008761 -0.73544276 0 11
-3.8286328 1.3728217 -0.7374118 0 12
-4.0163956 1.4401472 -0.73310781 0 13
-4.1542597 1.4895808 -0.71654713 0 14
-4.1534815 1.4893018 -0.6748203 0 15
-4.1618657 1.492308 -0.63462293 0 16
-4.1463981 1.4867618 -0.59096843 0 17
-4.1457653 1.486535 -0.54969049 0 18
-4.1524792 1.4889424 -0.50942081 0 19
-4.1507397 1.4883187 -0.46815205 0 20
-4.1491537 1.4877501 -0.42701361 0 21
-4.1453199 1.4863752 -0.38577014 0 22
-4.1519079 1.4887376 -0.34553534 0 23
-4.1486654 1.4875748 -0.30450824 0 24
-4.1437974 1.4858294 -0.26349321 0 25
-4.146996 1.4869764 -0.22305232 0 26
-4.1498256 1.4879909 -0.18257032 0 27
-4.1523614 1.4889001 -0.14205384 0 28
-4.148304 1.4874452 -0.10135072 0 29
-4.1556921 1.4900943 -0.060911864 0 30
-4.1492863 1.4877974 -0.020271514 0 31
-4.1479011 1.4873008 0.020264747 0 32
-4.1676359 1.494377 0.06108693 0 33
-4.1536074 1.4893469 0.1014803 0 34
-4.1561985 1.490276 0.14218511 0 35
-4.1521926 1.4888397 0.18267447 0 36
-4.1574383 1.4907205 0.22361396 0 37
-4.1416864 1.4850725 0.26335898 0 38
-4.1576109 1.4907824 0.30516481 0 39
-4.1497211 1.4879534 0.34535334 0 40
-4.1397748 1.4843869 0.38525409 0 41
-4.1478276 1.4872744 0.42687708 0 42
-4.1562152 1.4902821 0.46876964 0 43
-4.1437397 1.4858087 0.50834864 0 44
-4.1601467 1.4916917 0.55159736 0 45
-4.1567307 1.4904668 0.59244114 0 46
-4.1592236 1.4913607 0.63422 0 47
-4.1462393 1.4867049 0.67364365 0 48
-4.1585345 1.4911137 0.7172845 0 49
-4.1599879 1.4916347 0.75931764 0 50
-4.1634369 1.4928714 0.80189651 0 51
-4.1484356 1.4874926 0.84094524 0 52
-4.1575971 1.4907775 0.88498068 0 53
-4.1582994 1.4910294 0.92747146 0 54
-4.1543999 1.4896309 0.96906686 0 55
-4.1550922 1.4898794 1.0118726 0 56
-4.1501522 1.488108 1.0534432 0 57
-4.1498857 1.4880123 1.0963346 0 58
-4.1540599 1.4895091 1.1406369 0 59
-4.1551747 1.4899089 1.1843601 0 60
-4.1459188 1.4865901 1.2252567 0 61
-4.1536498 1.489362 1.271381 0 62
-4.1626086 1.4925745 1.3182909 0 63
-2.3262188 0.8019653 -0.733531 0 0
-2.419801 0.83422774 -0.73747569 0 1
-2.4933064 0.85956877 -0.73367566 0 2
-2.5877259 0.89212 -0.73440385 0 3
-2.6899912 0.92737597 -0.73544079 0 4
-2.7968342 0.96421021 -0.73569179 0 5
-2.9047918 1.0014287 -0.7341491 0 6
-3.023875 1.0424826 -0.7332148 0 7
-3.1580961 1.0887555 -0.73348796 0 8
-3.3032515 1.1387979 -0.7335819 0 9
-3.444586 1.187523 -0.73004663 0 10
-3.6577601 1.2610149 -0.7382794 0 11
-3.8318312 1.321026 -0.73484361 0 12
-4.0235515 1.3871218 -0.73124546 0 13
-4.1476855 1.4299171 -0.71232659 0 14
-4.1602645 1.4342536 -0.67300606 0 15
-4.138238 1.4266599 -0.62829751 0 16
-4.1646218 1.4357558 -0.59100491 0 17
-4.1537275 1.432 -0.54837 0 18
-4.1480665 1.4300483 -0.50668389 0 19
-4.1529636 1.4317366 -0.46638197 0 20
-4.1428232 1.4282407 -0.42452252 0 21
-4.144217 1.4287211 -0.38400352 0 22
-4.1570144 1.4331331 -0.34446767 0 23
-4.1479354 1.430003 -0.30314109 0 24
-4.1420732 1.4279821 -0.2622472 0 25
-4.1527457 1.4316614 -0.22239786 0 26
-4.1459422 1.429316 -0.18161252 0 27
-4.1449032 1.4289577 -0.14118691 0 28
-4.1524401 1.4315561 -0.10101406 0 29
-4.160223 1.4342394 -0.060715191 0 30
-4.1418405 1.4279019 -0.020147834 0 31
-4.1490817 1.4303982 0.020183058 0 32
-4.1423883 1.4280907 0.060454905 0 33
-4.1595583 1.4340101 0.10118723 0 34
-4.157393 1.4332635 0.14161234 0 35
-4.1509271 1.4310344 0.18183088 0 36
-4.1615047 1.4346812 0.22286695 0 37
-4.1402183 1.4273425 0.26212978 0 38
-4.1506252 1.4309305 0.30333766 0 39
-4.1542592 1.4321833 0.34423935 0 40
-4.1351538 1.4255966 0.38316375 0 41
-4.1466951 1.4295756 0.42491931 0 42
-4.1450872 1.4290212 0.46549743 0 43
-4.1336856 1.4250904 0.50492722 0 44
-4.1437359 1.4285554 0.54705095 0 45
-4.1575298 1.4333107 0.58999848 0 46
-4.163547 1.4353853 0.63214016 0 47
-4.1456795 1.4292253 0.67064661 0 48
-4.1412311 1.4276918 0.71121812 0 49
-4.1444612 1.4288054 0.75321972 0 50
-4.1441903 1.428712 0.7947458 0 51
-4.1396203 1.4271365 0.83553767 0 52
-4.1579905 1.4334697 0.88124585 0 53
-4.1600461 1.4341782 0.92385775 0 54
-4.1512675 1.4311519 0.96415836 0 55
-4.1554523 1.4325945 1.0075942 0 56
-4.1552176 1.4325137 1.0501783 0 57
-4.1555581 1.432631 1.0930966 0 58
-4.1439214 1.4286193 1.1329437 0 59
-4.1429305 1.4282777 1.1757753 0 60
-4.1521854 1.4314682 1.2218143 0 61
-4.1601882 1.4342273 1.2678884 0 62
-4.1360059 1.4258904 1.3042146 0 63
-2.3362412 0.77341431 -0.73363698 0 0
-2.4213052 0.80157477 -0.73487461 0 1
-2.5108378 0.83121461 -0.73577118 0 2
-2.6016214 0.86126864 -0.73528624 0 3
-2.6989949 0.8935042 -0.73484308 0 4
-2.8066902 0.92915678 -0.73522341 0 5
-2.9222903 0.96742624 -0.73550946 0 6
-3.046931 1.0086887 -0.73574215 0 7
-3.190203 1.056119 -0.73787296 0 8
-3.3210943 1.0994506 -0.73448652 0 9
-3.4780076 1.1513969 -0.73407382 0 10
-3.6573486 1.2107679 -0.73513573 0 11
-3.8309398 1.2682353 -0.73162669 0 12
-4.0641928 1.3454539 -0.73556918 0 13
-4.1534162 1.3749913 -0.71035331 0 14
-4.1408496 1.3708311 -0.66708797 0 15
-4.1407833 1.3708093 -0.62607741 0 16
-4.1527829 1.3747817 -0.58688146 0 17
-4.1441169 1.3719128 -0.54483294 0 18
-4.1399379 1.3705294 -0.5035944 0 19
-4.1492958 1.3736273 -0.46403813 0 20
-4.1388049 1.3701543 -0.4223524 0 21
-4.1559291 1.3758233 -0.38349223 0 22
-4.1405883 1.3707447 -0.34168398 0 23
-4.1472931 1.3729644 -0.3018375 0 24
-4.150135 1.3739052 -0.26166826 0 25
-4.1401334 1.3705941 -0.22080316 0 26
-4.1511793 1.3742509 -0.18108802 0 27
-4.1427369 1.371456 -0.14052805 0 28
-4.1625571 1.3780174 -0.10084035 0 29
-4.1431026 1.3715771 -0.060214642 0 30
-4.1354771 1.3690525 -0.020033473 0 31
-4.160605 1.3773712 0.020155201 0 32
-4.1563001 1.3759462 0.060406446 0 33
-4.1565619 1.3760327 0.10069511 0 34
-4.1405368 1.3707277 0.14045343 0 35
-4.15695 1.3761612 0.18133973 0 36
-4.1460729 1.3725603 0.22111991 0 37
-4.1462622 1.372623 0.26142403 0 38
-4.1545391 1.3753631 0.30236489 0 39
-4.1480403 1.3732116 0.34229892 0 40
-4.1442943 1.3719715 0.38241857 0 41
-4.1461425 1.3725834 0.42310119 0 42
-4.1555529 1.3756987 0.46473786 0 43
-4.1365919 1.3694216 0.50318736 0 44
-4.1565681 1.3760347 0.54646987 0 45
-4.1404481 1.3706982 0.58513826 0 46
-4.1433082 1.3716451 0.62645918 0 47
-4.1566739 1.3760698 0.66963726 0 48
-4.1412988 1.3709799 0.70828092 0 49
-4.1534357 1.3749979 0.75172108 0 50
-4.1363802 1.3693515 0.78995919 0 51
-4.1444612 1.3720267 0.8330465 0 52
-4.1392636 1.3703061 0.87363958 0 53
-4.1289606 1.3668953 0.91315264 0 54
-4.1553755 1.37564 0.96111107 0 55
-4.1392689 1.3703079 0.99950892 0 56
-4.138763 1.3701404 1.0416827 0 57
-4.1515737 1.3743814 1.0875208 0 58
-4.1392655 1.3703067 1.1269789 0 59
-4.1354728 1.3690512 1.1687927 0 60
-4.1412482 1.3709632 1.2135437 0 61
-4.1417952 1.3711442 1.2570493 0 62
-4.1506133 1.3740635 1.3033944 0 63
-2.3526056 0.74686271 -0.73583621 0 0
-2.4234998 0.76936889 -0.73261398 0 1
-2.5165293 0.79890227 -0.73450482 0 2
-2.5991712 0.82513785 -0.7316708 0 3
-2.7075832 0.85955453 -0.7342481 0 4
-2.8071473 0.8911624 -0.73241723 0 5
-2.9377894 0.93263632 -0.73646837 0 6
-3.0594428 0.97125655 -0.73582387 0 7
-3.1877778 1.0119981 -0.73437834 0 8
-3.3305879 1.0573349 -0.73365527 0 9
-3.5081758 1.1137123 -0.73749506 0 10
-3.6811447 1.1686232 -0.73697472 0 11
-3.8680091 1.2279456 -0.73576683 0 12
-4.0559106 1.2875972 -0.73114938 0 13
-4.1502295 1.3175398 -0.70698404 0 14
-4.1421494 1.3149748 -0.66464227 0 15
-4.1472354 1.3165894 -0.62455797 0 16
-4.1470842 1.3165413 -0.58374411 0 17
-4.1330113 1.3120737 -0.54121077 0 18
-4.1414742 1.3147604 -0.50177675 0 19
-4.1464233 1.3163315 -0.46187177 0 20
-4.1296415 1.3110039 -0.4197405 0 21
-4.1249223 1.3095058 -0.37911651 0 22
-4.142272 1.3150136 -0.34046283 0 23
-4.1346207 1.3125846 -0.29971787 0 24
-4.1476917 1.3167342 -0.26047361 0 25
-4.1446891 1.315781 -0.22016659 0 26
-4.1488285 1.317095 -0.18026532 0 27
-4.1501832 1.317525 -0.14022048 0 28
-4.1458616 1.3161532 -0.10003626 0 29
-4.1540051 1.3187385 -0.060132869 0 30
-4.1362686 1.3131078 -0.019957582 0 31
-4.1543059 1.3188339 0.02004461 0 32
-4.1402202 1.3143622 0.05993332 0 33
-4.1374078 1.3134695 0.099832281 0 34
-4.1650777 1.3222536 0.14072372 0 35
-4.1480918 1.3168613 0.18023331 0 36
-4.1521711 1.3181562 0.22056404 0 37
-4.151247 1.3178629 0.26069692 0 38
-4.1485176 1.3169965 0.30072528 0 39
-4.1525092 1.3182636 0.34130427 0 40
-4.151319 1.3178858 0.38154259 0 41
-4.1391287 1.3140157 0.42070478 0 42
-4.1461463 1.3162435 0.4618409 0 43
-4.1360044 1.3130239 0.50111401 0 44
-4.1545663 1.3189167 0.54403341 0 45
-4.1346536 1.3125951 0.58199441 0 46
-4.1353617 1.31282 0.62276983 0 47
-4.1486301 1.3170321 0.6656822 0 48
-4.1432643 1.3153287 0.70579755 0 49
-4.1492577 1.3172313 0.74797684 0 50
-4.1412306 1.314683 0.78773862 0 51
-4.1612277 1.3210313 0.83308858 0 52
-4.137836 1.3136054 0.86986333 0 53
-4.1443906 1.3156863 0.91291815 0 54
-4.1374292 1.3134762 0.95315248 0 55
-4.1498823 1.3174297 0.99808449 0 56
-4.1397095 1.3142002 1.0377752 0 57
-4.1429305 1.3152226 1.0809385 0 58
-4.1520524 1.3181186 1.1259624 0 59
-4.1348658 1.3126624 1.1639712 0 60
-4.1447768 1.3158089 1.2097448 0 61
-4.1495099 1.3173114 1.2543797 0 62
-4.134264 1.3124715 1.2930945 0 63
-2.3592551 0.71716356 -0.73510224 0 0
-2.4469671 0.74382621 -0.7368874 0 1
-2.5323858 0.76979166 -0.73631442 0 2
-2.6214144 0.79685444 -0.73511845 0 3
-2.7195332 0.82668048 -0.73467654 0 4
-2.8342509 0.8615523 -0.73666912 0 5
-2.9400899 0.8937251 -0.73423457 0 6
-3.0669675 0.93229318 -0.7348209 0 7
-3.2010956 0.97306532 -0.7346344 0 8
-3.3593369 1.0211673 -0.73716635 0 9
-3.5153847 1.0686024 -0.73619252 0 10
-3.6972499 1.1238856 -0.73737651 0 11
-3.8691068 1.1761265 -0.7331692 0 12
-4.094389 1.2446076 -0.73527139 0 13
-4.1392312 1.2582387 -0.70242178 0 14
-4.1409216 1.2587525 -0.66191161 0 15
-4.1471705 1.2606521 -0.62216669 0 16
-4.1483054 1.2609971 -0.58168948 0 17
-4.1382899 1.2579526 -0.53983563 0 18
-4.136487 1.2574044 -0.49926144 0 19
-4.1423225 1.2591784 -0.45965555 0 20
-4.1475644 1.2607718 -0.41995469 0 21
-4.1409292 1.2587547 -0.37913641 0 22
-4.1441507 1.259734 -0.33931842 0 23
-4.147119 1.2606364 -0.29947758 0 24
-4.1382546 1.2579418 -0.25889003 0 25
-4.1416492 1.2589736 -0.21916619 0 26
-4.1364098 1.257381 -0.1790404 0 27
-4.1336517 1.2565426 -0.13912939 0 28
-4.1383743 1.2579781 -0.099474832 0 29
-4.1425304 1.2592415 -0.0597381 0 30
-4.1335974 1.256526 -0.019868638 0 31
-4.1434946 1.2595346 0.01991621 0 32
-4.1437664 1.2596172 0.059755921 0 33
-4.1353364 1.2570547 0.099401809 0 34
-4.1390753 1.2581913 0.13931194 0 35
-4.1435142 1.2595406 0.1793479 0 36
-4.1301975 1.2554926 0.2185602 0 37
-4.1429996 1.2593843 0.25918686 0 38
-4.1474743 1.2607443 0.29950321 0 39
-4.132997 1.2563436 0.33840519 0 40
-4.1366806 1.2574632 0.3787474 0 41
-4.1522751 1.2622037 0.42043164 0 42
-4.1368871 1.257526 0.45905235 0 43
-4.1319375 1.2560216 0.49871233 0 44
-4.1203408 1.2524965 0.53749424 0 45
-4.1338811 1.2566124 0.57966685 0 46
-4.1402569 1.2585504 0.62112945 0 47
-4.1376958 1.2577718 0.66139597 0 48
-4.1465683 1.260469 0.70366687 0 49
-4.1400514 1.2584879 0.74347138 0 50
-4.1463413 1.2604001 0.7857033 0 51
-4.1418319 1.2590293 0.82604361 0 52
-4.1490088 1.2612108 0.86888617 0 53
-4.1393099 1.2582625 0.90832204 0 54
-4.1407695 1.2587063 0.9502846 0 55
-4.13972 1.2583872 0.99184376 0 56
-4.1388388 1.2581193 1.0336004 0 57
-4.1337566 1.2565745 1.0744324 0 58
-4.1392779 1.2582529 1.1182178 0 59
-4.1444249 1.2598175 1.1622136 0 60
-4.143754 1.2596135 1.2048345 0 61
-4.1481185 1.2609402 1.2491776 0 62
-4.1374397 1.2576941 1.2891532 0 63
-2.3586166 0.6854049 -0.7322219 0 0
-2.4422967 0.70972198 -0.73279744 0 1
-2.5485477 0.74059814 -0.73830992 0 2
-2.6350746 0.76574248 -0.73625296 0 3
-2.7200344 0.79043144 -0.73213089 0 4
-2.8324871 0.82310981 -0.73352444 0 5
-2.9606683 0.86035883 -0.73667598 0 6
-3.0641549 0.89043158 -0.73146838 0 7
-3.2124214 0.93351728 -0.73454368 0 8
-3.3527968 0.97430986 -0.73304677 0 9
-3.5087402 1.0196264 -0.73212004 0 10
-3.7194777 1.0808659 -0.73910302 0 11
-3.8814621 1.1279379 -0.73282689 0 12
-4.1093311 1.1941557 -0.7352621 0 13
-4.1345868 1.2014951 -0.69907367 0 14
-4.1304579 1.2002952 -0.65783006 0 15
-4.1495743 1.2058504 -0.62025595 0 16
-4.1375561 1.2023578 -0.57806528 0 17
-4.1412621 1.2034348 -0.53825229 0 18
-4.1314135 1.2005728 -0.49682966 0 19
-4.1385322 1.2026415 -0.45755935 0 20
-4.1477447 1.2053187 -0.41844064 0 21
-4.1270561 1.1993066 -0.37648755 0 22
-4.1267567 1.1992197 -0.33666137 0 23
-4.148881 1.2056488 -0.29851165 0 24
-4.1371851 1.20225 -0.25787875 0 25
-4.1485543 1.205554 -0.21873061 0 26
-4.1500702 1.2059944 -0.17897627 0 27
-4.1272349 1.1993585 -0.13840656 0 28
-4.1235409 1.1982851 -0.098756634 0 29
-4.1269526 1.1992766 -0.059296314 0 30
-4.1182742 1.1967547 -0.019722763 0 31
-4.1501288 1.2060114 0.019875316 0 32
-4.1395564 1.2029392 0.059477407 0 33
-4.1426339 1.2038335 0.099213898 0 34
-4.1408062 1.2033023 0.13886167 0 35
-4.1384468 1.2026167 0.17847499 0 36
-4.1392741 1.202857 0.2182413 0 37
-4.1446643 1.2044234 0.25834495 0 38
-4.1505709 1.2061399 0.29863322 0 39
-4.1404519 1.2031993 0.3377786 0 40
-4.1355743 1.201782 0.37726462 0 41
-4.1477752 1.2053275 0.41844374 0 42
-4.127974 1.1995734 0.45639205 0 43
-4.1324692 1.2008796 0.49695662 0 44
-4.1380725 1.202508 0.53783774 0 45
-4.1432261 1.2040056 0.57885742 0 46
-4.141861 1.2036088 0.61910295 0 47
-4.141212 1.2034202 0.65954274 0 48
-4.1486001 1.2055672 0.70144302 0 49
-4.1341009 1.2013538 0.73969406 0 50
-4.1427655 1.2038717 0.78216141 0 51
-4.1320786 1.2007661 0.82109153 0 52
-4.1337118 1.2012408 0.86252421 0 53
-4.145793 1.2047514 0.90642536 0 54
-4.133184 1.2010872 0.94508278 0 55
-4.1554151 1.2075477 0.99197167 0 56
-4.1366272 1.202088 1.029279 0 57
-4.1446342 1.2044147 1.073329 0 58
-4.1398764 1.2030321 1.1142989 0 59
-4.1362948 1.2019913 1.1557014 0 60
-4.1399736 1.2030603 1.1993432 0 61
-4.1432905 1.2040243 1.2431712 0 62
-4.1300836 1.2001864 1.2821659 0 63
-2.3850276 0.66138911 -0.73784059 0 0
-2.4522879 0.68004096 -0.73323083 0 1
-2.5309482 0.70185411 -0.73065591 0 2
-2.6477997 0.73425806 -0.73723006 0 3
-2.742559 0.76053566 -0.73562086 0 4
-2.8359351 0.78642964 -0.73185772 0 5
-2.9593399 0.82065088 -0.73377901 0 6
-3.0907004 0.85707831 -0.73523384 0 7
-3.216841 0.89205819 -0.73299068 0 8
-3.3625715 0.93247056 -0.73262161 0 9
-3.5329421 0.97971582 -0.73460066 0 10
-3.7178645 1.0309964 -0.7362076 0 11
-3.9101026 1.0843056 -0.73566133 0 12
-4.1177993 1.1419017 -0.73420942 0 13
-4.1335611 1.1462727 -0.6964643 0 14
-4.1460152 1.1497264 -0.65800643 0 15
-4.130795 1.1455055 -0.6152969 0 16
-4.1375165 1.1473696 -0.5760451 0 17
-4.1163764 1.1415073 -0.53315318 0 18
-4.1440415 1.149179 -0.49661142 0 19
-4.1431761 1.148939 -0.4564763 0 20
-4.1306925 1.1454772 -0.41526794 0 21
-4.1377063 1.1474222 -0.37614354 0 22
-4.1360226 1.1469554 -0.3362413 0 23
-4.1364017 1.1470604 -0.29657647 0 24
-4.1359396 1.1469322 -0.25690261 0 25
-4.1284089 1.1448441 -0.21690983 0 26
-4.122715 1.143265 -0.17717688 0 27
-4.1312962 1.1456447 -0.13805991 0 28
-4.1541066 1.1519701 -0.099141918 0 29
-4.1386595 1.1476865 -0.059257269 0 30
-4.1244507 1.1437464 -0.019683501 0 31
-4.1421175 1.1486454 0.019767812 0 32
-4.1415415 1.1484857 0.059298534 0 33
-4.1418133 1.1485611 0.098848529 0 34
-4.1425161 1.148756 0.13843486 0 35
-4.1401105 1.1480889 0.17792447 0 36
-4.1334596 1.1462445 0.21717517 0 37
-4.1267328 1.1443793 0.25633076 0 38
-4.1407824 1.1482753 0.29689059 0 39
-4.1326861 1.1460301 0.33597004 0 40
-4.1347885 1.1466131 0.37587833 0 41
-4.1341705 1.1464417 0.41561761 0 42
-4.1419568 1.1486009 0.45634195 0 43
-4.139029 1.147789 0.49601072 0 44
-4.1471992 1.1500547 0.53714532 0 45
-4.1386337 1.1476793 0.5762006 0 46
-4.1434836 1.1490244 0.61718696 0 47
-4.125289 1.1439787 0.65471697 0 48
-4.1363382 1.1470429 0.69693232 0 49
-4.1272974 1.1445358 0.73590302 0 50
-4.1421008 1.1486408 0.77931029 0 51
-4.1287651 1.1449428 0.81757367 0 52
-4.1473761 1.1501038 0.86235923 0 53
-4.1389537 1.1477681 0.90177613 0 54
-4.1341596 1.1464387 0.94201124 0 55
-4.1273828 1.1445595 0.98184592 0 56
-4.137403 1.147338 1.025884 0 57
-4.1412845 1.1484145 1.0687238 0 58
-4.1441684 1.1492143 1.1115665 0 59
-4.1324468 1.1459637 1.1506021 0 60
-4.1374474 1.1473504 1.194434 0 61
-4.1371083 1.1472564 1.2369899 0 62
-4.1422281 1.1486762 1.2814542 0 63
-2.386313 0.63025314 -0.73578501 0 0
-2.4711823 0.65266812 -0.73642492 0 1
-2.5529542 0.67426503 -0.73455977 0 2
-2.6611142 0.70283139 -0.73847508 0 3
-2.7440515 0.72473609 -0.73357546 0 4
-2.8591635 0.75513852 -0.73540038 0 5
-2.9815185 0.78745395 -0.73682171 0 6
-3.104043 0.81981409 -0.73595417 0 7
-3.2348831 0.85437047 -0.7346524 0 8
-3.3882999 0.89488959 -0.73577404 0 9
-3.5460348 0.93654925 -0.73487288 0 10
-3.7406943 0.98796111 -0.73826689 0 11
-3.9269068 1.037142 -0.73636782 0 12
-4.1341257 1.0918709 -0.73467106 0 13
-4.1295614 1.0906655 -0.69347835 0 14
-4.1471152 1.0953016 -0.65599388 0 15
-4.1305275 1.0909207 -0.61321265 0 16
-4.1469073 1.0952467 -0.57543391 0 17
-4.1466193 1.0951706 -0.53528553 0 18
-4.1448307 1.0946983 -0.49505544 0 19
-4.1276879 1.0901706 -0.45325866 0 20
-4.1381917 1.0929449 -0.41463944 0 21
-4.1329017 1.0915477 -0.37445831 0 22
-4.1277995 1.0902001 -0.3344577 0 23
-4.1300812 1.0908028 -0.29513931 0 24
-4.1387868 1.093102 -0.2562252 0 25
-4.1301317 1.090816 -0.21627924 0 26
-4.1203556 1.0882341 -0.17648706 0 27
-4.1405172 1.093559 -0.13790826 0 28
-4.1391234 1.0931909 -0.09845607 0 29
-4.14288 1.094183 -0.059120584 0 30
-4.1365085 1.0925002 -0.019675445 0 31
-4.1344705 1.091962 0.019665752 0 32
-4.1314063 1.0911527 0.058956854 0 33
-4.1404805 1.0935494 0.098488353 0 34
-4.1397686 1.0933614 0.13788334 0 35
-4.1316185 1.0912087 0.17696948 0 36
-4.1379218 1.0928736 0.21668719 0 37
-4.1276774 1.0901679 0.25553742 0 38
-4.1272202 1.0900471 0.29493487 0 39
-4.1348491 1.092062 0.33502886 0 40
-4.1402659 1.0934927 0.37512556 0 41
-4.1339769 1.0918317 0.41421714 0 42
-4.1412044 1.0937406 0.45474291 0 43
-4.1360936 1.0923907 0.49401188 0 44
-4.1483588 1.0956302 0.53551012 0 45
-4.1285205 1.0903906 0.57288259 0 46
-4.1298757 1.0907484 0.61311579 0 47
-4.1279354 1.0902361 0.65296 0 48
-4.1435528 1.0943608 0.69582796 0 49
-4.1364594 1.0924873 0.73508579 0 50
-4.1321368 1.0913457 0.77485228 0 51
-4.1186957 1.0877957 0.81286967 0 52
-4.1301212 1.0908133 0.85591769 0 53
-4.1365399 1.0925086 0.89825541 0 54
-4.147944 1.0955205 0.94201142 0 55
-4.130631 1.090948 0.97935337 0 56
-4.1312871 1.0911213 1.0209637 0 57
-4.1366053 1.0925258 1.0639688 0 58
-4.142025 1.0939573 1.1072999 0 59
-4.1253843 1.0895623 1.1448188 0 60
-4.1159763 1.0870774 1.184287 0 61
-4.1354461 1.0922196 1.2323841 0 62
-4.1195822 1.0880297 1.2702135 0 63
-2.3860052 0.5988875 -0.73336405 0 0
-2.4737928 0.62092215 -0.73487198 0 1
-2.5756147 0.64647943 -0.73873669 0 2
-2.6507952 0.66534978 -0.73328567 0 3
-2.7597818 0.69270545 -0.735448 0 4
-2.8538046 0.71630514 -0.7317012 0 5
-2.986114 0.74951482 -0.73562413 0 6
-3.1051872 0.7794022 -0.73389763 0 7
-3.2384887 0.81286091 -0.73314583 0 8
-3.4128985 0.85663778 -0.73877245 0 9
-3.5534203 0.89190871 -0.73407513 0 10
-3.7483337 0.94083196 -0.73743558 0 11
-3.926235 0.9854852 -0.73391402 0 12
-4.1417956 1.0395911 -0.73370689 0 13
-4.1155782 1.0330105 -0.688945 0 14
-4.1218982 1.0345967 -0.64994347 0 15
-4.1310382 1.0368909 -0.61134928 0 16
-4.134788 1.0378321 -0.57193822 0 17
-4.1292448 1.0364406 -0.53135729 0 18
-4.1218805 1.0345923 -0.49075773 0 19
-4.1189537 1.0338577 -0.45086953 0 20
-4.1422005 1.0396925 -0.41372883 0 21
-4.1245875 1.0352718 -0.37252343 0 22
-4.1274858 1.0359992 -0.33337486 0 23
-4.1354418 1.0379962 -0.294588 0 24
-4.1284132 1.036232 -0.2547749 0 25
-4.1373425 1.0384731 -0.21597181 0 26
-4.1173296 1.0334499 -0.17579985 0 27
-4.1174955 1.0334916 -0.13670787 0 28
-4.1289306 1.0363618 -0.097903088 0 29
-4.1426086 1.039795 -0.058929805 0 30
-4.1351323 1.0379184 -0.019606709 0 31
-4.1267724 1.0358202 0.019567072 0 32
-4.1136241 1.0325199 0.05851749 0 33
-4.1296711 1.0365477 0.097920649 0 34
-4.1312094 1.0369338 0.13716319 0 35
-4.1470823 1.0409179 0.17707022 0 36
-4.1332736 1.0374519 0.21575943 0 37
-4.1310673 1.0368981 0.25493869 0 38
-4.1194272 1.0339764 0.2934472 0 39
-4.1384597 1.0387536 0.33426121 0 40
-4.1254535 1.0354891 0.37260166 0 41
-4.1370988 1.0384121 0.4132193 0 42
-4.1418452 1.0396035 0.45337525 0 43
-4.121932 1.0346051 0.49076381 0 44
-4.1162252 1.0331727 0.52968192 0 45
-4.1423526 1.0397308 0.57298452 0 46
-4.1398058 1.0390916 0.61264688 0 47
-4.1243162 1.0352037 0.65032482 0 48
-4.1237922 1.0350722 0.69032001 0 49
-4.1202669 1.0341873 0.72989315 0 50
-4.132297 1.0372069 0.77243233 0 51
-4.1313229 1.0369623 0.81278372 0 52
-4.1322546 1.0371963 0.8536523 0 53
-4.1327739 1.0373266 0.89460015 0 54
-4.1267939 1.0358255 0.93424493 0 55
-4.1407785 1.0393357 0.97865522 0 56
-4.1293135 1.036458 1.0172495 0 57
-4.1272283 1.0359346 1.0582006 0 58
-4.1248536 1.0353385 1.0992228 0 59
-4.1296272 1.0365367 1.1423728 0 60
-4.1415887 1.039539 1.1878887 0 61
-4.1266532 1.0357902 1.2258755 0 62
-4.121191 1.0344193 1.2666919 0 63
-2.3805602 0.56649977 -0.72949421 0 0
-2.4805894 0.59030366 -0.73467922 0 1
-2.5761271 0.61303872 -0.7366659 0 2
-2.6642587 0.63401127 -0.73479789 0 3
-2.7545581 0.65549976 -0.73185259 0 4
-2.8635454 0.68143541 -0.73199493 0 5
-2.9839315 0.71008354 -0.73288006 0 6
-3.1198404 0.74242568 -0.7351476 0 7
-3.2508659 0.7736057 -0.7337389 0 8
-3.4084442 0.81110448 -0.73559368 0 9
-3.5821517 0.85244149 -0.73778933 0 10
-3.7429698 0.89071125 -0.73417008 0 11
-3.9406824 0.93776077 -0.73440361 0 12
