# .PCD v0.7 - Point Cloud Data file format
VERSION 0.7
FIELDS x y z intensity ring
SIZE 4 4 4 4 2
TYPE F F F F U
COUNT 1 1 1 1 1
WIDTH 1273
HEIGHT 1
VIEWPOINT 0 0 0 1 0 0 0
POINTS 1273
DATA ascii
0.70317328 3.9719985 0.092768833 0 34
0.70419675 3.9777796 0.13008742 0 35
0.70283836 3.9701066 0.1669703 0 36
0.70403844 3.9768853 0.20448096 0 37
0.70289594 3.9704318 0.24134895 0 38
0.70247048 3.9680283 0.2784211 0 39
0.70274264 3.9695656 0.31580895 0 40
0.70323044 3.972321 0.35338786 0 41
0.70411634 3.9773254 0.39130014 0 42
0.70405692 3.9769895 0.42879784 0 43
0.70388472 3.976017 0.46628791 0 44
0.70547575 3.9850042 0.50510192 0 45
0.70738375 3.9957821 0.5444172 0 46
0.70343077 3.9734528 0.57920527 0 47
0.70163816 3.9633269 0.61556292 0 48
0.70306969 3.9714129 0.65483654 0 49
0.70606214 3.9883165 0.69591749 0 50
0.70526981 3.9838409 0.73350841 0 51
0.70378149 3.9754338 0.7703793 0 52
0.70314956 3.9718645 0.80820686 0 53
0.70270467 3.9693511 0.84633255 0 54
0.70412314 3.9773638 0.88690579 0 55
0.70383352 3.9757278 0.92554712 0 56
0.70522207 3.9835713 0.96662134 0 57
0.70295745 3.9707792 1.0028118 0 58
0.70431024 3.9784205 1.0442923 0 59
0.7037859 3.9754586 1.0832244 0 60
0.70291442 3.9705362 1.1217399 0 61
0.70588869 3.9873369 1.1667169 0 62
0.70191789 3.9649069 1.2003708 0 63
0.40091503 2.4389775 -0.73684931 0 0
0.41164732 2.5042677 -0.73122627 0 1
0.42748591 2.6006222 -0.73317683 0 2
0.44307002 2.6954286 -0.73290473 0 3
0.45931688 2.7942667 -0.73192692 0 4
0.47957662 2.9175174 -0.73526794 0 5
0.49860066 3.0332506 -0.73448098 0 6
0.51986223 3.1625962 -0.73470688 0 7
0.54211634 3.2979796 -0.73386908 0 8
0.56832308 3.4574091 -0.73563218 0 9
0.59426761 3.6152432 -0.73409808 0 10
0.62263638 3.7878253 -0.73248452 0 11
0.6546039 3.9823008 -0.73168749 0 12
0.65905309 4.0093675 -0.69812375 0 13
0.65632886 3.9927945 -0.65698171 0 14
0.65941817 4.0115886 -0.62175226 0 15
0.65620434 3.9920371 -0.58069414 0 16
0.65630609 3.992656 -0.54285067 0 17
0.6604476 4.0178509 -0.50819749 0 18
0.65750211 3.9999321 -0.46810901 0 19
0.65927511 4.0107183 -0.43152776 0 20
0.65960544 4.0127277 -0.39395538 0 21
0.65846145 4.0057683 -0.35561624 0 22
0.65654826 3.9941292 -0.31709692 0 23
0.65783089 4.0019321 -0.28021124 0 24
0.65983802 4.0141425 -0.24349436 0 25
0.65791363 4.0024357 -0.20536321 0 26
0.65619308 3.9919686 -0.16753773 0 27
0.65673709 3.9952779 -0.13038571 0 28
0.65958816 4.0126224 -0.093521141 0 29
0.65589339 3.9901454 -0.055792067 0 30
0.65736085 3.9990728 -0.018637914 0 31
0.65583277 3.9897766 0.018594589 0 32
0.65952063 4.0122118 0.056100611 0 33
0.65920514 4.0102925 0.093466833 0 34
0.65731668 3.9988041 0.13050079 0 35
0.66153359 4.0244579 0.16890126 0 36
0.65800935 4.0030179 0.20539308 0 37
0.65549022 3.9876926 0.24188994 0 38
0.65650433 3.9938622 0.27964619 0 39
0.65642029 3.9933507 0.31703511 0 40
0.65682441 3.9958091 0.3547321 0 41
0.65932113 4.0109978 0.39378557 0 42
0.65770572 4.0011706 0.43050054 0 43
0.65868402 4.007122 0.46895045 0 44
0.65792781 4.0025215 0.50625855 0 45
0.65685815 3.9960146 0.5433073 0 46
0.65777498 4.0015922 0.58208406 0 47
0.65729284 3.9986591 0.61974835 0 48
0.65740585 3.9993465 0.65805978 0 49
0.65647435 3.9936795 0.69539219 0 50
0.65604657 3.9910769 0.73329997 0 51
0.65741384 3.9993949 0.77339756 0 52
0.6560865 3.9913201 0.81046289 0 53
0.65904498 4.0093179 0.85306174 0 54
0.65738738 3.9992342 0.88991284 0 55
0.65708727 3.9974084 0.92864317 0 56
0.65736508 3.9990983 0.9683544 0 57
0.65831429 4.0048733 1.0093015 0 58
0.65822649 4.0043387 1.0488918 0 59
0.65772384 4.0012808 1.0879745 0 60
0.65679967 3.9956589 1.1264706 0 61
0.65826929 4.0045991 1.1693112 0 62
0.65794456 4.0026236 1.2092487 0 63
0.36908963 2.4318199 -0.73326033 0 0
0.38163745 2.5144937 -0.73278654 0 1
0.39609402 2.6097436 -0.73431969 0 2
0.41095731 2.7076733 -0.73480451 0 3
0.42501777 2.8003135 -0.73208648 0 4
0.44437245 2.9278357 -0.73643553 0 5
0.46037218 3.033253 -0.73305535 0 6
0.48182181 3.174578 -0.73605835 0 7
0.50245821 3.310545 -0.73523474 0 8
0.52504784 3.4593813 -0.7346226 0 9
0.55040509 3.6264524 -0.73494434 0 10
0.57835889 3.8106318 -0.73546398 0 11
0.60730028 4.0013175 -0.73375398 0 12
0.61177707 4.0308137 -0.70049524 0 13
0.6110397 4.0259557 -0.66115177 0 14
0.61077231 4.0241938 -0.62249488 0 15
0.61203218 4.0324945 -0.58544028 0 16
0.61062449 4.0232201 -0.54594409 0 17
0.61104286 4.0259767 -0.50823647 0 18
0.61138153 4.0282078 -0.47050273 0 19
0.60890603 4.0118976 -0.4308165 0 20
0.61025178 4.0207644 -0.39397788 0 21
0.61114901 4.0266762 -0.3567782 0 22
0.61237639 4.0347629 -0.31970087 0 23
0.61067671 4.0235639 -0.28117883 0 24
0.61139822 4.0283179 -0.24387977 0 25
0.6101315 4.0199718 -0.20586248 0 26
0.61069536 4.0236869 -0.168541 0 27
0.60825861 4.0076318 -0.13053493 0 28
0.61114854 4.0266728 -0.093666375 0 29
0.61045671 4.0221148 -0.056129873 0 30
0.61041963 4.0218701 -0.018707765 0 31
0.61141503 4.0284286 0.018738274 0 32
0.61154747 4.0293012 0.056230165 0 33
0.61049712 4.0223808 0.093566529 0 34
0.61104423 4.0259857 0.13113274 0 35
0.61083114 4.0245814 0.16857848 0 36
0.61459017 4.0493484 0.20736685 0 37
0.61150312 4.0290089 0.24392159 0 38
0.61140394 4.0283551 0.28151366 0 39
0.61040711 4.0217876 0.31867275 0 40
0.6112361 4.0272493 0.35682902 0 41
0.61088622 4.0249443 0.39438745 0 42
0.6115737 4.0294738 0.43270391 0 43
0.61105871 4.0260811 0.4702543 0 44
0.61102939 4.0258875 0.50822526 0 45
0.61226988 4.034061 0.5474152 0 46
0.6101262 4.019937 0.58361709 0 47
0.61082679 4.0245528 0.62255043 0 48
0.61264718 4.0365467 0.66289109 0 49
0.60798931 4.0058575 0.69615829 0 50
0.61188155 4.0315022 0.73928922 0 51
0.60923958 4.0140953 0.77473307 0 52
0.61199987 4.0322819 0.81719059 0 53
0.61215872 4.0333285 0.85650408 0 54
0.61051333 4.0224872 0.89334911 0 55
0.61175132 4.0306444 0.93454605 0 56
0.61052066 4.0225358 0.97213835 0 57
0.61134654 4.027977 1.0131531 0 58
0.61065698 4.0234337 1.0518471 0 59
0.61191905 4.0317492 1.0941304 0 60
0.60877109 4.0110083 1.1286023 0 61
0.61144525 4.0286279 1.1740432 0 62
0.61049318 4.0223546 1.2128502 0 63
0.34035289 2.4447341 -0.73583674 0 0
0.35166979 2.5260227 -0.73483062 0 1
0.3639321 2.6141021 -0.73423141 0 2
0.37854028 2.7190318 -0.73656809 0 3
0.39050356 2.8049631 -0.73199141 0 4
0.40782642 2.9293926 -0.73551017 0 5
0.4244388 3.048718 -0.7354759 0 6
0.44165742 3.1723983 -0.73423827 0 7
0.46022078 3.3057377 -0.7328549 0 8
0.48482072 3.4824378 -0.73819703 0 9
0.50706178 3.6421938 -0.73681521 0 10
0.53227597 3.8233058 -0.73659116 0 11
0.55690122 4.0001874 -0.73223561 0 12
0.56599414 4.0655017 -0.70526063 0 13
0.56584221 4.0644102 -0.66627383 0 14
0.56513089 4.0593009 -0.62680322 0 15
0.56546175 4.0616775 -0.58862305 0 16
0.56489712 4.057622 -0.5496282 0 17
0.56284857 4.0429072 -0.50946152 0 18
0.56471628 4.0563226 -0.47293976 0 19
0.56472909 4.0564146 -0.43481839 0 20
0.56330663 4.0461974 -0.39576131 0 21
0.56398463 4.0510674 -0.35829782 0 22
0.56356686 4.0480666 -0.3201817 0 23
0.56513464 4.0593276 -0.28317106 0 24
0.56354219 4.0478892 -0.2446266 0 25
0.56378835 4.0496573 -0.207012 0 26
0.56475347 4.0565896 -0.16961551 0 27
0.56480306 4.0569458 -0.13190497 0 28
0.56413239 4.0521288 -0.094090044 0 29
0.56428939 4.0532565 -0.056463365 0 30
0.56400836 4.0512376 -0.018810686 0 31
0.56348765 4.0474973 0.01879332 0 32
0.56562299 4.0628357 0.056596808 0 33
0.56089675 4.0288873 0.093550377 0 34
0.56516379 4.0595374 0.13198923 0 35
0.56466585 4.0559602 0.16958919 0 36
0.56580698 4.064157 0.20775321 0 37
0.56450754 4.0548234 0.24504566 0 38
0.56428802 4.0532465 0.28274685 0 39
0.56457782 4.0553284 0.32075608 0 40
0.564623 4.0556526 0.35870335 0 41
0.56596512 4.0652928 0.39762911 0 42
0.56338352 4.0467496 0.43378237 0 43
0.56501025 4.058434 0.47318596 0 44
0.56494713 4.0579805 0.511361 0 45
0.56524736 4.0601373 0.54996896 0 46
0.56670833 4.0706315 0.58992064 0 47
0.56351751 4.0477123 0.62501377 0 48
0.56411797 4.0520248 0.66424358 0 49
0.56436056 4.0537672 0.70322508 0 50
0.56445616 4.0544543 0.7421692 0 51
0.56494242 4.0579472 0.78179669 0 52
0.56291419 4.0433784 0.81797475 0 53
0.56462997 4.0557027 0.85971606 0 54
0.56403637 4.0514388 0.89817071 0 55
0.56365383 4.0486908 0.93705255 0 56
0.56549168 4.061892 0.97989506 0 57
0.56335682 4.0465579 1.0160074 0 58
0.56314254 4.0450182 1.0555998 0 59
0.56552261 4.0621147 1.1004006 0 60
0.56495661 4.0580487 1.1397974 0 61
0.5632664 4.045908 1.1769717 0 62
0.56413496 4.0521474 1.2196496 0 63
0.30987227 2.4456122 -0.73489863 0 0
0.32078531 2.5317416 -0.73529118 0 1
0.33279279 2.6265082 -0.73651087 0 2
0.34528556 2.7251053 -0.7370075 0 3
0.3569631 2.8172684 -0.73400164 0 4
0.37050977 2.9241831 -0.7330029 0 5
0.38922054 3.0718546 -0.73984683 0 6
0.4033812 3.183615 -0.73563069 0 7
0.4197484 3.3127902 -0.73321867 0 8
0.44026735 3.4747324 -0.73536044 0 9
0.46148118 3.6421587 -0.73560452 0 10
0.48189694 3.8032866 -0.73153734 0 11
0.50793105 4.0087562 -0.73260546 0 12
0.51755071 4.0846777 -0.70742971 0 13
0.51932687 4.0986958 -0.67079675 0 14
0.51820296 4.0898252 -0.630485 0 15
0.51746738 4.0840201 -0.59089416 0 16
0.51790279 4.0874562 -0.55276501 0 17
0.51711619 4.0812483 -0.51345295 0 18
0.51638991 4.0755162 -0.47440138 0 19
0.51849574 4.0921359 -0.43793091 0 20
0.51660544 4.0772171 -0.39814398 0 21
0.51664972 4.0775666 -0.36005247 0 22
0.51463366 4.061655 -0.32073173 0 23
0.51682293 4.0789342 -0.28407398 0 24
0.51815182 4.0894222 -0.24673286 0 25
0.51814842 4.089395 -0.20870185 0 26
0.51732445 4.0828919 -0.1704364 0 27
0.51750326 4.0843034 -0.13257754 0 28
0.51918763 4.0975966 -0.09499038 0 29
0.51667136 4.0777373 -0.056711607 0 30
0.51648575 4.076273 -0.018896013 0 31
0.51554549 4.0688515 0.018861612 0 32
0.51817858 4.089633 0.056877043 0 33
0.51623273 4.0742755 0.094449751 0 34
0.51649642 4.0763569 0.1323196 0 35
0.51785797 4.0871029 0.17061219 0 36
0.51649606 4.076354 0.2080363 0 37
0.51685625 4.0791969 0.24611594 0 38
0.51646364 4.076098 0.28387645 0 39
0.5161742 4.0738134 0.32169184 0 40
0.51785582 4.0870857 0.36089298 0 41
0.51836669 4.0911179 0.39950135 0 42
0.51704681 4.0807009 0.43670717 0 43
0.51760274 4.0850883 0.4755156 0 44
0.51732832 4.0829225 0.51366359 0 45
0.51804149 4.088551 0.55291307 0 46
0.51823175 4.0900526 0.59176695 0 47
0.51793909 4.0877428 0.63016397 0 48
0.51698744 4.0802321 0.66777498 0 49
0.51667857 4.0777946 0.70623761 0 50
0.51925087 4.0980959 0.74893236 0 51
0.51719743 4.0818892 0.78512478 0 52
0.51649487 4.076345 0.82329684 0 53
0.51720917 4.0819821 0.86387324 0 54
0.51751673 4.0844097 0.90400094 0 55
0.51730764 4.0827594 0.94339395 0 56
0.51780182 4.0866594 0.98425949 0 57
0.51745582 4.0839291 1.0237156 0 58
0.51854885 4.092555 1.0662606 0 59
0.51657683 4.0769916 1.1026266 0 60
0.51657605 4.0769849 1.1432456 0 61
0.51786935 4.0871921 1.1870393 0 62
0.51715946 4.0815897 1.2265046 0 63
0.27969912 2.4485407 -0.73468953 0 0
0.28820029 2.5229614 -0.73165661 0 1
0.29891601 2.6167688 -0.73269373 0 2
0.31135923 2.7256994 -0.73607707 0 3
0.32410714 2.837297 -0.73812568 0 4
0.33546078 2.9366891 -0.73504817 0 5
0.34938413 3.0585766 -0.73555857 0 6
0.36342257 3.1814718 -0.73404741 0 7
0.37745205 3.3042886 -0.73025459 0 8
0.39809749 3.4850228 -0.73644662 0 9
0.41784167 3.6578672 -0.73768371 0 10
0.43930936 3.8457997 -0.73861963 0 11
0.4616192 4.0411043 -0.73742402 0 12
0.47051615 4.1189899 -0.71231645 0 13
0.46944836 4.1096425 -0.67159277 0 14
0.46926975 4.108079 -0.63236153 0 15
0.4708986 4.1223383 -0.59555537 0 16
0.47001982 4.114645 -0.55561829 0 17
0.46875447 4.1035681 -0.51549679 0 18
0.47015041 4.1157885 -0.47838005 0 19
0.47007412 4.1151204 -0.43973881 0 20
0.46933925 4.1086874 -0.4006232 0 21
0.4688876 4.1047335 -0.36191481 0 22
0.46961823 4.1111293 -0.32415798 0 23
0.46875364 4.1035604 -0.28536606 0 24
0.47076777 4.1211929 -0.2482817 0 25
0.46893707 4.1051664 -0.20919664 0 26
0.46942005 4.1093946 -0.17128882 0 27
0.46943551 4.10953 -0.13319896 0 28
0.46976769 4.1124377 -0.095193326 0 29
0.47181064 4.130322 -0.057357911 0 30
0.47145295 4.1271911 -0.019103732 0 31
0.47135937 4.1263719 0.01909994 0 32
0.46922067 4.1076488 0.057043049 0 33
0.46943349 4.1095119 0.095125601 0 34
0.46978268 4.1125693 0.13329747 0 35
0.4685626 4.1018882 0.17097595 0 36
0.46919289 4.1074057 0.20931077 0 37
0.4698565 4.1132154 0.24780111 0 38
0.46746603 4.0922885 0.2845822 0 39
0.47020316 4.11625 0.32456174 0 40
0.46938393 4.1090784 0.36229789 0 41
0.46958557 4.1108437 0.40083343 0 42
0.47044933 4.1184053 0.44008982 0 43
0.46922719 4.1077061 0.47744069 0 44
0.46876702 4.1036777 0.51551062 0 45
0.4698455 4.1131191 0.55541223 0 46
0.4690713 4.1063414 0.59324437 0 47
0.46881947 4.1041369 0.63175476 0 48
0.47039041 4.1178889 0.67294043 0 49
0.47045425 4.1184478 0.7122227 0 50
0.46966067 4.1115007 0.75027007 0 51
0.46851107 4.1014371 0.78771704 0 52
0.46800154 4.0969768 0.82623905 0 53
0.46959999 4.1109695 0.86872017 0 54
0.46964392 4.1113544 0.90861773 0 55
0.46869758 4.1030698 0.94668376 0 56
0.46974418 4.1122317 0.98895264 0 57
0.47033823 4.1174326 1.0305862 0 58
0.47005901 4.1149879 1.0705183 0 59
0.46862066 4.1023965 1.1078552 0 60
0.46931478 4.1084728 1.15037 0 61
0.47065565 4.1202111 1.1948577 0 62
0.46963128 4.1112437 1.2335869 0 63
0.24932481 2.4493675 -0.7339623 0 0
0.25942367 2.548579 -0.73810482 0 1
0.26807299 2.6335497 -0.73641372 0 2
0.27728266 2.7240257 -0.73464876 0 3
0.28916949 2.840802 -0.73805666 0 4
0.30046538 2.9517727 -0.73784304 0 5
0.31013775 3.0467939 -0.73175251 0 6
0.32355991 3.1786535 -0.73242378 0 7
0.33873704 3.3277538 -0.73446435 0 8
0.35346574 3.4724483 -0.7328155 0 9
0.37218091 3.6563063 -0.73639023 0 10
0.38985521 3.8299387 -0.73459715 0 11
0.41187215 4.0462332 -0.73738003 0 12
0.42094302 4.1353455 -0.71419573 0 13
0.41945469 4.1207242 -0.67251003 0 14
0.42092189 4.135138 -0.63568199 0 15
0.42137477 4.1395869 -0.59725362 0 16
0.42037526 4.1297679 -0.55692023 0 17
0.42099079 4.1358147 -0.51885819 0 18
0.42038569 4.1298704 -0.47937974 0 19
0.42253307 4.1509662 -0.44298059 0 20
0.420739 4.1333413 -0.40249223 0 21
0.42099163 4.1358228 -0.36417201 0 22
0.42117932 4.1376667 -0.32581747 0 23
0.42218372 4.1475339 -0.28804123 0 24
0.42192423 4.1449852 -0.24938366 0 25
0.42145422 4.1403675 -0.21071045 0 26
0.42047644 4.1307616 -0.17195094 0 27
0.42276719 4.153266 -0.13443789 0 28
0.42211452 4.1468544 -0.09586259 0 29
0.42147258 4.1405478 -0.057423603 0 30
0.42078218 4.1337652 -0.019108769 0 31
0.42045462 4.1305475 0.019093893 0 32
0.42074117 4.1333628 0.057323951 0 33
0.42072782 4.1332316 0.095547669 0 34
0.42127311 4.1385884 0.13396278 0 35
0.4200536 4.1266079 0.17177802 0 36
0.42175993 4.1433706 0.21086329 0 37
0.42253616 4.1509967 0.24974534 0 38
0.41958579 4.1220121 0.28626877 0 39
0.42030612 4.1290884 0.32514197 0 40
0.42186362 4.1443896 0.36492634 0 41
0.42176044 4.1433759 0.40346935 0 42
0.42169389 4.1427221 0.44210079 0 43
0.42091507 4.1350708 0.47998342 0 44
0.42106682 4.1365619 0.51895189 0 45
0.42214784 4.1471815 0.55926859 0 46
0.42142004 4.1400318 0.59731781 0 47
0.42022884 4.1283293 0.63463533 0 48
0.42203429 4.1460662 0.67664587 0 49
0.41896164 4.1158805 0.71083403 0 50
0.41972029 4.1233335 0.75143063 0 51
0.42079529 4.133894 0.79289699 0 52
0.42247492 4.1503949 0.83590108 0 53
0.42085612 4.1344914 0.87253124 0 54
0.42038727 4.1298857 0.91150188 0 55
0.42110768 4.1369634 0.95323706 0 56
0.42100766 4.1359806 0.99334389 0 57
0.42059848 4.1319604 1.03285 0 58
0.42163554 4.142149 1.076154 0 59
0.41925573 4.1187696 1.1108005 0 60
0.42154327 4.141242 1.1580064 0 61
0.42096302 4.1355419 1.1977118 0 62
0.42060855 4.1320596 1.2381873 0 63
0.21953411 2.4561017 -0.73511571 0 0
0.22758269 2.5461476 -0.73653448 0 1
0.23546521 2.6343355 -0.7357682 0 2
0.24299413 2.7185674 -0.73231554 0 3
0.25162539 2.8151321 -0.73052841 0 4
0.26238623 2.9355221 -0.73291904 0 5
0.27304521 3.0547726 -0.73280698 0 6
0.28505173 3.1890993 -0.73396754 0 7
0.29659462 3.3182385 -0.73150402 0 8
0.31128159 3.4825535 -0.73408478 0 9
0.32697517 3.6581297 -0.73589212 0 10
0.34243456 3.8310862 -0.73395413 0 11
0.3601191 4.0289373 -0.7333656 0 12
0.37315902 4.1748252 -0.72016716 0 13
0.37175658 4.1591349 -0.67798144 0 14
0.37201059 4.1619763 -0.63905627 0 15
0.37202084 4.1620913 -0.59979516 0 16
0.37198165 4.161653 -0.56056094 0 17
0.37271461 4.1698532 -0.52251399 0 18
0.37194392 4.161231 -0.48245263 0 19
0.37339225 4.1774344 -0.44528157 0 20
0.37295753 4.1725707 -0.40583503 0 21
0.37128958 4.1539102 -0.36533502 0 22
0.37257275 4.1682658 -0.3278414 0 23
0.37089688 4.1495166 -0.28784043 0 24
0.37198085 4.161644 -0.25009185 0 25
0.37195823 4.1613908 -0.21153159 0 26
0.37269646 4.1696501 -0.17336588 0 27
0.37352127 4.1788778 -0.13510802 0 28
0.37310737 4.1742473 -0.096382484 0 29
0.37306893 4.1738172 -0.057817008 0 30
0.3715246 4.1565394 -0.019191476 0 31
0.37312856 4.1744843 0.01927433 0 32
0.37376866 4.1816459 0.057925452 0 33
0.37193215 4.161099 0.096078895 0 34
0.37263167 4.1689253 0.13478625 0 35
0.37317684 4.1750245 0.17358933 0 36
0.3725279 4.1677642 0.21185558 0 37
0.37238708 4.1661887 0.25036496 0 38
0.37212238 4.1632276 0.28879151 0 39
0.37184015 4.1600699 0.32719678 0 40
0.3727434 4.1701751 0.36676553 0 41
0.37161836 4.1575885 0.40437782 0 42
0.37267384 4.1693969 0.44442484 0 43
0.37184215 4.1600924 0.48232061 0 44
0.37140033 4.155149 0.52067143 0 45
0.37155312 4.1568589 0.55991518 0 46
0.372805 4.1708641 0.60105944 0 47
0.37298238 4.1728487 0.64072573 0 48
0.3709034 4.1495895 0.67642546 0 49
0.37194389 4.1612306 0.71782207 0 50
0.37254328 4.1679363 0.75866681 0 51
0.37268642 4.1695375 0.79879421 0 52
0.37196195 4.1614327 0.83713967 0 53
0.37230456 4.1652656 0.87799317 0 54
0.37270451 4.1697402 0.91921711 0 55
0.37292126 4.1721649 0.96021903 0 56
0.37234718 4.1657424 0.99931663 0 57
0.3720274 4.1621647 1.0391779 0 58
0.37207595 4.1627078 1.0802251 0 59
0.37258956 4.1684537 1.1228795 0 60
0.371966 4.161478 1.1622981 0 61
0.37182757 4.1599293 1.2033597 0 62
0.37299496 4.1729894 1.2489834 0 63
0.18823832 2.4445887 -0.73092175 0 0
0.19670777 2.5545785 -0.73821783 0 1
0.2040052 2.6493475 -0.73920453 0 2
0.21093746 2.7393746 -0.73716605 0 3
0.21836103 2.8357823 -0.73513478 0 4
0.22782785 2.9587245 -0.73795682 0 5
0.23582892 3.0626318 -0.7339412 0 6
0.24656624 3.2020738 -0.73620021 0 7
0.25719276 3.3400769 -0.73556548 0 8
0.26940918 3.4987273 -0.73674005 0 9
0.28118485 3.651654 -0.73383838 0 10
0.29540426 3.8363171 -0.73420483 0 11
0.31046751 4.0319386 -0.73316151 0 12
0.32278162 4.1918578 -0.72236609 0 13
0.323966 4.2072387 -0.68512166 0 14
0.32332775 4.1989498 -0.64407426 0 15
0.32312098 4.1962647 -0.6041016 0 16
0.32318017 4.1970334 -0.56474859 0 17
0.32262757 4.189857 -0.52448386 0 18
0.32271042 4.1909332 -0.48539951 0 19
0.3233676 4.1994677 -0.44717246 0 20
0.32327217 4.1982284 -0.40791309 0 21
0.32275933 4.1915679 -0.36827013 0 22
0.32379985 4.205081 -0.33039886 0 23
0.32304275 4.1952486 -0.29071522 0 24
0.32394081 4.2069116 -0.2525537 0 25
0.3239474 4.2069974 -0.21363123 0 26
0.32377708 4.2047853 -0.17464799 0 27
0.32239783 4.1868734 -0.13522814 0 28
0.32283279 4.192522 -0.096705474 0 29
0.32238206 4.1866689 -0.057935741 0 30
0.32327777 4.1983008 -0.019364478 0 31
0.32307246 4.1956344 0.019352179 0 32
0.32305834 4.1954513 0.058057275 0 33
0.3231515 4.196661 0.096800946 0 34
0.32288748 4.1932321 0.13543352 0 35
0.32300881 4.194808 0.17423357 0 36
0.3222993 4.1855941 0.21254437 0 37
0.32318941 4.1971531 0.25196788 0 38
0.32219583 4.1842499 0.28995305 0 39
0.32145369 4.1746125 0.3280049 0 40
0.32340962 4.2000132 0.36901215 0 41
0.32324475 4.1978722 0.40787846 0 42
0.32305717 4.1954365 0.44674322 0 43
0.3235912 4.2023716 0.48672432 0 44
0.32360893 4.2026019 0.52607924 0 45
0.32346445 4.2007251 0.56524539 0 46
0.32385254 4.2057652 0.60546929 0 47
0.32331258 4.1987529 0.64404404 0 48
0.32316563 4.1968446 0.68342906 0 49
0.32291749 4.1936221 0.72267008 0 50
0.32389107 4.2062659 0.76486099 0 51
0.32287502 4.1930704 0.80248129 0 52
0.32235023 4.1862555 0.84127218 0 53
0.32270321 4.1908393 0.88248068 0 54
0.32277474 4.1917682 0.92312843 0 55
0.32221273 4.1844697 0.96206629 0 56
0.32242149 4.1871805 1.0034325 0 57
0.32236797 4.1864853 1.0441815 0 58
0.32341203 4.2000446 1.0887997 0 59
0.3233915 4.1997776 1.1301607 0 60
0.32276344 4.1916213 1.1695203 0 61
0.32433322 4.2120075 1.2171789 0 62
0.32236645 4.1864662 1.2517358 0 63
0.15922704 2.4631233 -0.7358225 0 0
0.16430612 2.5416927 -0.73385483 0 1
0.16982922 2.6271307 -0.73236775 0 2
0.17577262 2.7190709 -0.73106539 0 3
0.18226022 2.8194292 -0.73025924 0 4
0.19021311 2.9424546 -0.73325998 0 5
0.1990307 3.078856 -0.73718697 0 6
0.20600383 3.1867251 -0.73203355 0 7
0.21633536 3.3465462 -0.73634869 0 8
0.22622067 3.4994645 -0.73625386 0 9
0.23695077 3.665451 -0.7359699 0 10
0.24769811 3.8317044 -0.73268378 0 11
0.26109537 4.03895 -0.73379719 0 12
0.26905221 4.1620364 -0.7166028 0 13
0.26931453 4.1660943 -0.67783105 0 14
0.2696048 4.1705847 -0.63916647 0 15
0.2705853 4.1857524 -0.60206372 0 16
0.26943663 4.1679831 -0.56035143 0 17
0.26861775 4.1553154 -0.5197072 0 18
0.26934335 4.1665401 -0.48215422 0 19
0.26776233 4.1420827 -0.44067806 0 20
0.26923326 4.1648374 -0.40431646 0 21
0.26935422 4.1667085 -0.36576733 0 22
0.26963654 4.1710758 -0.32744172 0 23
0.26877907 4.1578112 -0.28787014 0 24
0.26937449 4.1670218 -0.24994126 0 25
0.26942694 4.1678333 -0.21145827 0 26
0.26958862 4.1703343 -0.17306627 0 27
0.26954815 4.1697078 -0.1345565 0 28
0.26851872 4.1537838 -0.095728531 0 29
0.26939023 4.1672649 -0.057617035 0 30
0.26960611 4.1706047 -0.019219985 0 31
0.27039796 4.1828537 0.019276435 0 32
0.26882729 4.1585569 0.057496633 0 33
0.26945278 4.1682329 0.096061535 0 34
0.26846272 4.1529174 0.13401467 0 35
0.26957837 4.1701756 0.17305969 0 36
0.2695066 4.1690655 0.21152079 0 37
0.26892963 4.1601405 0.2495285 0 38
0.26831862 4.1506886 0.287377 0 39
0.26915658 4.1636505 0.32685885 0 40
0.26933309 4.1663814 0.3657386 0 41
0.26983693 4.1741757 0.40522301 0 42
0.2693359 4.1664248 0.44326782 0 43
0.2685653 4.1545043 0.48076144 0 44
0.269705 4.1721349 0.52181077 0 45
0.26948604 4.1687474 0.56045419 0 46
0.26908433 4.1625333 0.59872395 0 47
0.26895341 4.1605082 0.63762218 0 48
0.26814699 4.1480331 0.67489243 0 49
0.26893407 4.1602087 0.71628809 0 50
0.2680718 4.1468701 0.75340414 0 51
0.26942042 4.1677322 0.7969377 0 52
0.26956558 4.1699777 0.83727157 0 53
0.26950312 4.1690116 0.8771202 0 54
0.2697044 4.1721253 0.91800284 0 55
0.26992497 4.1755371 0.95917702 0 56
0.26906046 4.1621642 0.99656928 0 57
0.26955676 4.1698413 1.039125 0 58
0.26856521 4.1545029 1.0760562 0 59
0.26984751 4.1743388 1.1223373 0 60
0.26872855 4.1570296 1.158859 0 61
0.26796895 4.1452789 1.1968532 0 62
0.26975402 4.1728926 1.2465914 0 63
0.12922622 2.470566 -0.73751551 0 0
0.13349074 2.5520957 -0.73632884 0 1
0.13817705 2.6416893 -0.73589694 0 2
0.14347258 2.7429304 -0.73695034 0 3
0.1485796 2.8405669 -0.73520535 0 4
0.15473101 2.9581704 -0.73664653 0 5
0.16000323 3.0589657 -0.73189813 0 6
0.16710311 3.1947021 -0.73333853 0 7
0.17445093 3.3351789 -0.73332006 0 8
0.18315537 3.5015919 -0.73617196 0 9
0.19191596 3.6690779 -0.73616862 0 10
0.20027876 3.8289592 -0.73163259 0 11
0.2114125 4.0418158 -0.73379016 0 12
0.21222869 4.0574198 -0.69808817 0 13
0.21177405 4.048728 -0.6582619 0 14
0.2121812 4.0565114 -0.62123734 0 15
0.212071 4.0544047 -0.58275205 0 16
0.21263759 4.065237 -0.54614526 0 17
0.21272102 4.0668321 -0.50827497 0 18
0.21305856 4.0732851 -0.47102398 0 19
0.21267875 4.0660238 -0.43227521 0 20
0.21217038 4.0563049 -0.39349726 0 21
0.21235131 4.0597639 -0.35612324 0 22
0.21206756 4.0543389 -0.3180488 0 23
0.21286906 4.0696626 -0.28156456 0 24
0.21301785 4.0725069 -0.24409661 0 25
0.21220526 4.0569715 -0.20568568 0 26
0.21206985 4.0543828 -0.16813344 0 27
0.21280733 4.0684819 -0.13119559 0 28
0.21219072 4.0566936 -0.093423791 0 29
0.21273986 4.0671921 -0.056192998 0 30
0.21304218 4.0729723 -0.018756561 0 31
0.21225394 4.0579023 0.018687163 0 32
0.21255428 4.0636444 0.05614398 0 33
0.21218537 4.0565915 0.093421437 0 34
0.21256191 4.0637903 0.13104428 0 35
0.21255843 4.063724 0.16852079 0 36
0.21240474 4.0607853 0.20587903 0 37
0.21240355 4.0607624 0.24339269 0 38
0.21205844 4.0541649 0.28049237 0 39
0.21292 4.0706363 0.31932727 0 40
0.21278816 4.0681157 0.35685587 0 41
0.21254857 4.0635352 0.39419869 0 42
0.21275887 4.0675559 0.43243808 0 43
0.21281551 4.0686388 0.47048664 0 44
0.21253534 4.0632825 0.50783134 0 45
0.21242999 4.0612679 0.54561204 0 46
0.2123455 4.0596528 0.58350635 0 47
0.21263437 4.0651755 0.6225642 0 48
0.21228269 4.0584521 0.65984285 0 49
0.21239911 4.0606775 0.69864875 0 50
0.21278709 4.0680952 0.73856115 0 51
0.21262655 4.0650258 0.7767399 0 52
0.21201487 4.0533319 0.81326586 0 53
0.21288742 4.0700135 0.85567647 0 54
0.21224907 4.0578094 0.89220792 0 55
0.21253306 4.0632386 0.93270963 0 56
0.21217953 4.0564799 0.97056663 0 57
0.21183388 4.0498714 1.0085031 0 58
0.21199183 4.0528913 1.0489835 0 59
0.21298739 4.0719247 1.0940148 0 60
0.21226965 4.0582027 1.1304959 0 61
0.21218506 4.0565858 1.1704031 0 62
0.21195553 4.0521975 1.2096654 0 63
0.098988771 2.4757013 -0.73862928 0 0
0.10188968 2.5482531 -0.73480314 0 1
0.10552526 2.6391785 -0.73478049 0 2
0.10875265 2.7198954 -0.73034704 0 3
0.11297264 2.8254368 -0.7308746 0 4
0.11797664 2.9505868 -0.73434126 0 5
0.12278391 3.0708163 -0.73431677 0 6
0.12825043 3.2075336 -0.73586637 0 7
0.13332076 3.334342 -0.73272026 0 8
0.13969211 3.4936888 -0.73409384 0 9
0.14685744 3.6728933 -0.73651612 0 10
0.15446721 3.8632128 -0.73775899 0 11
0.15864238 3.9676337 -0.71991384 0 12
0.15849814 3.9640262 -0.68163282 0 13
0.15871367 3.9694164 -0.64500093 0 14
0.15870975 3.9693186 -0.6075393 0 15
0.15831934 3.9595544 -0.5687961 0 16
0.15834065 3.9600873 -0.53171712 0 17
0.15849565 3.963964 -0.49513742 0 18
0.15918151 3.981117 -0.46010473 0 19
0.15877995 3.9710741 -0.42194125 0 20
0.15862575 3.9672177 -0.38463673 0 21
0.15849465 3.963939 -0.34752023 0 22
0.15842196 3.9621208 -0.31063831 0 23
0.1586729 3.9683969 -0.27440265 0 24
0.15868224 3.9686303 -0.23773557 0 25
0.15828444 3.9586816 -0.2005886 0 26
0.15918399 3.9811795 -0.16500407 0 27
0.15861304 3.9668999 -0.12784733 0 28
0.15857887 3.9660454 -0.091284394 0 29
0.15873252 3.9698877 -0.054817516 0 30
0.15884185 3.9726224 -0.01828406 0 31
0.15879789 3.9715226 0.018278999 0 32
0.15882161 3.9721162 0.054848284 0 33
0.15858257 3.9661376 0.091286518 0 34
0.15849049 3.963835 0.12774855 0 35
0.15847737 3.9635065 0.16427159 0 36
0.1594474 3.9877672 0.20206238 0 37
0.15863645 3.9674854 0.23766698 0 38
0.15855481 3.9654436 0.27419844 0 39
0.15870936 3.9693089 0.31120187 0 40
0.15888195 3.9736252 0.34836942 0 41
0.15877356 3.9709144 0.38499516 0 42
0.15896329 3.9756596 0.42242849 0 43
0.15921892 3.9820528 0.46021289 0 44
0.15908062 3.9785938 0.49696484 0 45
0.15854636 3.9652321 0.53240788 0 46
0.1587469 3.9702477 0.57033217 0 47
0.15869494 3.9689479 0.60748255 0 48
0.15859413 3.9664268 0.64451516 0 49
0.15875708 3.9705021 0.68274635 0 50
0.15877748 3.9710124 0.72052687 0 51
0.15935424 3.9854369 0.76110023 0 52
0.15877035 3.970834 0.79626149 0 53
0.15858515 3.9662023 0.83337831 0 54
0.15852441 3.9646833 0.87123746 0 55
0.15860628 3.9667306 0.9100399 0 56
0.15853477 3.9649422 0.94812691 0 57
0.15900502 3.9767032 0.98972088 0 58
0.1588612 3.9731064 1.0277499 0 59
0.15889524 3.9739575 1.0670881 0 60
0.15889327 3.9739082 1.1063859 0 61
0.15871164 3.9693661 1.1445891 0 62
0.158796 3.9714756 1.1848959 0 63
0.068138614 2.462184 -0.7342909 0 0
0.070107974 2.5333467 -0.73020095 0 1
0.073433466 2.6535132 -0.73846424 0 2
0.07569056 2.7350731 -0.73411715 0 3
0.078629121 2.8412576 -0.7346614 0 4
0.081647523 2.9503276 -0.73397142 0 5
0.084951378 3.0697122 -0.73374754 0 6
0.088731237 3.2062972 -0.73527682 0 7
0.092753924 3.3516567 -0.73621881 0 8
0.096434489 3.4846535 -0.73189086 0 9
0.1017447 3.6765375 -0.73694032 0 10
0.1065141 3.8488796 -0.73471618 0 11
0.1075296 3.8855748 -0.70473129 0 12
0.10767027 3.8906577 -0.66873848 0 13
0.10727724 3.8764555 -0.62963355 0 14
0.10747861 3.8837323 -0.59419233 0 15
0.10743606 3.8821948 -0.55745131 0 16
0.10748434 3.883939 -0.52127588 0 17
0.1074922 3.8842232 -0.48497528 0 18
0.10762125 3.888886 -0.44925854 0 19
0.10724226 3.8751917 -0.41158217 0 20
0.10747087 3.8834524 -0.37635881 0 21
0.10742348 3.8817401 -0.34017229 0 22
0.10787683 3.8981218 -0.30549356 0 23
0.10741478 3.8814256 -0.26827723 0 24
0.10770142 3.8917835 -0.23303519 0 25
0.10734806 3.8790145 -0.19647008 0 26
0.10718653 3.8731775 -0.16046107 0 27
0.10755541 3.8865073 -0.12520431 0 28
0.10722078 3.8744154 -0.089138314 0 29
0.10732526 3.878191 -0.053529065 0 30
0.1071237 3.8709075 -0.017808508 0 31
0.10768747 3.8912792 0.017902229 0 32
0.10759725 3.8880193 0.053664722 0 33
0.10743309 3.8820872 0.089314811 0 34
0.10747492 3.8835988 0.12511061 0 35
0.1073458 3.878933 0.1606995 0 36
0.10751347 3.8849916 0.19677283 0 37
0.10742808 3.8819063 0.23244376 0 38
0.10727468 3.876363 0.26792732 0 39
0.10748568 3.8839877 0.30438587 0 40
0.10731088 3.8776712 0.33981574 0 41
0.10750318 3.8846197 0.37647194 0 42
0.10735555 3.8792853 0.41201693 0 43
0.1073419 3.878792 0.44809243 0 44
0.10707384 3.8691058 0.48308775 0 45
0.10738296 3.880276 0.52078426 0 46
0.10745486 3.882874 0.55754882 0 47
0.10724407 3.8752573 0.59289569 0 48
0.10735276 3.8791842 0.63007677 0 49
0.10741133 3.8813012 0.66713029 0 50
0.10742306 3.8817248 0.70403302 0 51
0.10767265 3.890744 0.74270767 0 52
0.10737823 3.880105 0.77774423 0 53
0.10727957 3.8765397 0.81419969 0 54
0.10736582 3.8796566 0.8521983 0 55
0.10759637 3.8879874 0.89160383 0 56
0.10718606 3.8731611 0.92579436 0 57
0.10689542 3.8626587 0.96093774 0 58
0.10780605 3.8955641 1.0072725 0 59
0.10729005 3.8769186 1.0405983 0 60
0.10716984 3.8725748 1.0777252 0 61
0.10709092 3.8697231 1.1153923 0 62
0.10743408 3.882123 1.1577557 0 63
0.037895877 2.4651971 -0.73499489 0 0
0.039457429 2.5667789 -0.73964161 0 1
0.040379338 2.6267509 -0.73082292 0 2
0.041939583 2.7282476 -0.73209137 0 3
0.043709528 2.8433859 -0.73501712 0 4
0.045579005 2.964999 -0.7374261 0 5
0.047058433 3.0612385 -0.7315284 0 6
0.049260322 3.2044754 -0.73466456 0 7
0.05161 3.3573263 -0.73726904 0 8
0.053548604 3.4834361 -0.73144156 0 9
0.05647466 3.6737814 -0.736193 0 10
0.058394141 3.7986474 -0.72493541 0 11
0.058525383 3.8071847 -0.69033092 0 12
0.058252148 3.7894104 -0.65116346 0 13
0.058402784 3.7992096 -0.61692357 0 14
0.058198627 3.7859285 -0.57907557 0 15
0.058281224 3.7913017 -0.54425579 0 16
0.058132522 3.7816286 -0.50741017 0 17
0.058419235 3.8002799 -0.47436875 0 18
0.058380067 3.7977316 -0.43861195 0 19
0.058231425 3.7880621 -0.40222171 0 20
0.058344178 3.795397 -0.36772773 0 21
0.058324751 3.7941334 -0.332407 0 22
0.058314484 3.7934654 -0.29721305 0 23
0.058229819 3.7879577 -0.26174763 0 24
0.058066454 3.7773304 -0.22612205 0 25
0.058214605 3.786968 -0.19175722 0 26
0.058394741 3.7986863 -0.15733334 0 27
0.058227681 3.7878187 -0.12199274 0 28
0.058464285 3.8032103 -0.087476946 0 29
0.058219995 3.7873187 -0.052260961 0 30
0.058538448 3.8080347 -0.017514618 0 31
0.058271561 3.7906733 0.017434767 0 32
0.058215875 3.7870507 0.052257262 0 33
0.058164217 3.7836902 0.087027974 0 34
0.058194347 3.7856503 0.1219229 0 35
0.058192477 3.7855287 0.15678838 0 36
0.058290549 3.7919083 0.19200738 0 37
0.058414362 3.7999628 0.22747688 0 38
0.058353599 3.7960098 0.26230404 0 39
0.058406983 3.7994826 0.29768449 0 40
0.058222264 3.7874665 0.3318229 0 41
0.058434632 3.8012812 0.36829782 0 42
0.058571436 3.8101807 0.40457028 0 43
0.058155939 3.7831519 0.43692806 0 44
0.058387455 3.7982123 0.47411066 0 45
0.058372848 3.797262 0.50950783 0 46
0.058359653 3.7964036 0.54498816 0 47
0.058199145 3.7859623 0.57908076 0 48
0.058446862 3.8020768 0.6173892 0 49
0.058206413 3.7864354 0.65065223 0 50
0.058368802 3.796999 0.68848395 0 51
0.058068924 3.7774911 0.72089791 0 52
0.0582982 3.7924061 0.75996435 0 53
0.058273558 3.7908032 0.79598159 0 54
0.058214866 3.7869849 0.83162212 0 55
0.058258891 3.789849 0.86886853 0 56
0.058333024 3.7946715 0.90679318 0 57
0.058455102 3.802613 0.94574946 0 58
0.058359046 3.7963641 0.98136264 0 59
0.058179356 3.7846751 1.0155705 0 60
0.05830235 3.792676 1.0552102 0 61
0.058208719 3.7865853 1.0911403 0 62
0.058561414 3.8095288 1.1358055 0 63
0.0075226841 2.4461632 -0.72923732 0 0
0.0078523867 2.5533731 -0.73569512 0 1
0.0081562158 2.6521697 -0.73781133 0 2
0.0084658721 2.7528613 -0.73861229 0 3
0.0087342337 2.8401248 -0.73409086 0 4
0.0090910522 2.956152 -0.73514247 0 5
0.0094637685 3.0773487 -0.73529482 0 6
0.0098210154 3.1935153 -0.73206878 0 7
0.010294258 3.3474002 -0.73500592 0 8
0.010679327 3.4726138 -0.7290864 0 9
0.011288086 3.6705651 -0.73546511 0 10
0.011390351 3.7038186 -0.70675808 0 11
0.011444574 3.7214506 -0.67470878 0 12
0.011422033 3.7141209 -0.63815349 0 13
0.011444253 3.7213461 -0.60421145 0 14
0.011408898 3.7098496 -0.56737459 0 15
0.011431032 3.717047 -0.53353572 0 16
0.011387999 3.703054 -0.49681088 0 17
0.011412338 3.7109685 -0.46316797 0 18
0.011400468 3.7071085 -0.42809704 0 19
0.011389479 3.7035351 -0.39320192 0 20
0.011409163 3.7099357 -0.3594068 0 21
0.011401108 3.7073169 -0.3247641 0 22
0.011423048 3.7144508 -0.29098934 0 23
0.011421261 3.7138698 -0.25659904 0 24
0.011450531 3.7233875 -0.22286758 0 25
0.011415645 3.7120438 -0.18794203 0 26
0.0114089 3.7098501 -0.15363652 0 27
0.011405437 3.7087243 -0.11943185 0 28
0.011441058 3.7203074 -0.085560404 0 29
0.011429731 3.7166238 -0.051279631 0 30
0.011418475 3.7129638 -0.017075414 0 31
0.011416538 3.7123337 0.017072517 0 32
0.011432636 3.7175686 0.051292665 0 33
0.011388543 3.7032309 0.085167676 0 34
0.011442055 3.7206314 0.11981528 0 35
0.011410661 3.710423 0.15366024 0 36
0.011417778 3.7127371 0.18797714 0 37
0.011419713 3.7133663 0.22226775 0 38
0.01139838 3.7064295 0.25608498 0 39
0.011418072 3.7128327 0.29086259 0 40
0.011435929 3.7186391 0.32575595 0 41
0.011380326 3.7005589 0.35849839 0 42
0.011415046 3.7118485 0.39408454 0 43
0.011370103 3.6972346 0.4269568 0 44
0.011438646 3.719523 0.46423566 0 45
0.011433339 3.7177973 0.49878886 0 46
0.0113708 3.6974614 0.53072447 0 47
0.011440355 3.7200785 0.56893897 0 48
0.011438924 3.7196133 0.60393006 0 49
0.01144938 3.7230132 0.63968134 0 50
0.011384458 3.7019026 0.67116469 0 51
0.011433154 3.717737 0.70941395 0 52
0.011411192 3.7105954 0.74348593 0 53
0.011404685 3.7084796 0.77860719 0 54
0.011408104 3.7095914 0.81453413 0 55
0.011397144 3.7060275 0.84955508 0 56
0.011417014 3.7124884 0.88705367 0 57
0.011456416 3.7253013 0.92641616 0 58
0.011417855 3.7127621 0.95964265 0 59
0.011443682 3.7211604 0.99841386 0 60
0.01145649 3.7253251 1.0363541 0 61
0.011411957 3.7108445 1.0691936 0 62
0.011390243 3.7037835 1.1041524 0 63
-0.022876307 2.4809399 -0.73963267 0 0
-0.023462813 2.5445466 -0.73317969 0 1
-0.024353368 2.6411273 -0.7347672 0 2
-0.02514326 2.7267914 -0.73164523 0 3
-0.026168874 2.8380191 -0.73357439 0 4
-0.027208257 2.9507406 -0.73382443 0 5
-0.028365724 3.076268 -0.73506439 0 6
-0.029490871 3.1982906 -0.73319119 0 7
-0.030755226 3.3354099 -0.73240083 0 8
-0.032114007 3.48277 -0.73124635 0 9
-0.033467803 3.6295893 -0.72728235 0 10
-0.033570539 3.6407311 -0.69474608 0 11
-0.033553053 3.6388347 -0.65975523 0 12
-0.03351099 3.6342733 -0.62445784 0 13
-0.033634514 3.6476693 -0.59227139 0 14
-0.033453252 3.6280115 -0.55487943 0 15
-0.033631619 3.6473553 -0.52355212 0 16
-0.033696759 3.6544201 -0.49030456 0 17
-0.03359431 3.6433094 -0.45474055 0 18
-0.033521298 3.6353912 -0.41983098 0 19
-0.033609606 3.6449683 -0.38699853 0 20
-0.03357473 3.6411858 -0.35275984 0 21
-0.033502985 3.633405 -0.31830138 0 22
-0.033642326 3.6485167 -0.28583488 0 23
-0.033395488 3.6217473 -0.25024354 0 24
-0.033447504 3.6273882 -0.21712965 0 25
-0.033642828 3.6485713 -0.18473539 0 26
-0.033576939 3.6414254 -0.15080853 0 27
-0.033628806 3.6470506 -0.1174502 0 28
-0.033510424 3.634212 -0.083583526 0 29
-0.033402476 3.6225047 -0.049982924 0 30
-0.033607196 3.644707 -0.016762143 0 31
-0.033620484 3.646148 0.016768772 0 32
-0.033675522 3.6521168 0.05039151 0 33
-0.033580534 3.6418152 0.083758391 0 34
-0.03351615 3.6348329 0.11705674 0 35
-0.033581439 3.6419134 0.15082875 0 36
-0.033548329 3.6383228 0.18421647 0 37
-0.033483189 3.631258 0.21736129 0 38
-0.033494819 3.6325197 0.25098789 0 39
-0.03357286 3.6409831 0.28524467 0 40
-0.03356836 3.6404951 0.31892249 0 41
-0.033573668 3.6410706 0.35274869 0 42
-0.033530984 3.6364417 0.38609323 0 43
-0.033561982 3.6398034 0.42034054 0 44
-0.033574723 3.641185 0.45447543 0 45
-0.033598572 3.6437714 0.48887587 0 46
-0.033623818 3.6465094 0.52343071 0 47
-0.033546865 3.638164 0.55643219 0 48
-0.033430859 3.6255829 0.58868521 0 49
-0.033483051 3.6312432 0.62393719 0 50
-0.033445403 3.6271601 0.65763855 0 51
-0.033607304 3.6447184 0.69550693 0 52
-0.033642888 3.6485775 0.73108709 0 53
-0.033599645 3.643888 0.76507485 0 54
-0.033467837 3.6295934 0.79699862 0 55
-0.033531111 3.6364553 0.83363813 0 56
-0.033502478 3.6333501 0.86817735 0 57
-0.033489268 3.6319177 0.90322745 0 58
-0.033560131 3.6396027 0.9407686 0 59
-0.033603296 3.644284 0.97782433 0 60
-0.033537835 3.6371846 1.0118724 0 61
-0.033459138 3.62865 1.0455507 0 62
-0.033500988 3.6331885 1.0831479 0 63
-0.053166986 2.4706154 -0.73669386 0 0
-0.054521807 2.5335724 -0.73015559 0 1
-0.056667887 2.6332986 -0.73272771 0 2
-0.058659691 2.7258558 -0.73153245 0 3
-0.06126181 2.8467736 -0.73597628 0 4
-0.063649587 2.9577312 -0.73570198 0 5
-0.066466734 3.0886409 -0.73816031 0 6
-0.06889084 3.2012868 -0.73401678 0 7
-0.071942501 3.3430943 -0.73422694 0 8
-0.075139225 3.491643 -0.73324788 0 9
-0.076542132 3.5568345 -0.71283871 0 10
-0.076523669 3.5559766 -0.67870092 0 11
-0.076425165 3.5513992 -0.64402407 0 12
-0.076392137 3.5498643 -0.61006957 0 13
-0.076727904 3.5654671 -0.57903361 0 14
-0.077106044 3.5830388 -0.54810476 0 15
-0.076769248 3.5673883 -0.5121702 0 16
-0.076802112 3.5689156 -0.47892311 0 17
-0.076481134 3.5539999 -0.44367722 0 18
-0.076622002 3.5605459 -0.41126525 0 19
-0.076692775 3.5638347 -0.37845582 0 20
-0.076744743 3.5662496 -0.34556529 0 21
-0.076603241 3.5596743 -0.31190118 0 22
-0.076654337 3.5620487 -0.27911347 0 23
-0.076588869 3.5590062 -0.24595498 0 24
-0.076132663 3.5378067 -0.21180746 0 25
-0.07649149 3.5544813 -0.1800054 0 26
-0.076766685 3.5672693 -0.14776529 0 27
-0.076583251 3.5587451 -0.11462806 0 28
-0.076654613 3.5620613 -0.081939615 0 29
-0.076686308 3.5635343 -0.049178548 0 30
-0.076757461 3.5668406 -0.016407134 0 31
-0.076598354 3.5594471 0.016373124 0 32
-0.076994769 3.5778682 0.049376365 0 33
-0.076605685 3.5597878 0.081887312 0 34
-0.076698735 3.5641117 0.11480092 0 35
-0.076539047 3.5566912 0.14732713 0 36
-0.076638438 3.5613096 0.18035121 0 37
-0.076446116 3.5523727 0.21267952 0 38
-0.076625653 3.5607157 0.24607311 0 39
-0.076657079 3.562176 0.27912346 0 40
-0.076565921 3.55794 0.31174925 0 41
-0.076428086 3.5515349 0.34413946 0 42
-0.076557033 3.5575271 0.37778598 0 43
-0.076592147 3.5591588 0.41110501 0 44
-0.076648086 3.5617578 0.44464573 0 45
-0.076830111 3.5702167 0.47909772 0 46
-0.076637007 3.5612435 0.51128799 0 47
-0.076458722 3.5529587 0.54350334 0 48
-0.07671582 3.5649054 0.57894242 0 49
-0.076885737 3.5728014 0.61401147 0 50
-0.076751366 3.5665574 0.64677286 0 51
-0.076736882 3.5658846 0.680592 0 52
-0.07667248 3.5628917 0.71405268 0 53
-0.076473899 3.5536637 0.74627233 0 54
-0.076458052 3.5529275 0.78031152 0 55
-0.076664045 3.5624995 0.8168385 0 56
-0.076886229 3.5728245 0.85387629 0 57
-0.076751299 3.5665543 0.8871398 0 58
-0.076753303 3.5666475 0.92208529 0 59
-0.076606072 3.5598056 0.95533788 0 60
-0.076572105 3.5582273 0.99009347 0 61
-0.076560453 3.5576861 1.025297 0 62
-0.076779969 3.5678864 1.0638807 0 63
-0.08372137 2.4751215 -0.73828864 0 0
-0.086751491 2.5647035 -0.73937881 0 1
-0.089793809 2.6546459 -0.73891902 0 2
-0.092530824 2.7355623 -0.73438722 0 3
-0.09566842 2.8283217 -0.73145473 0 4
-0.099536002 2.942662 -0.73220277 0 5
-0.10407484 3.0768476 -0.73559201 0 6
-0.1076456 3.1824126 -0.72993743 0 7
-0.11308362 3.3431809 -0.73449582 0 8
-0.11827259 3.4965868 -0.73453599 0 9
-0.1183207 3.4980092 -0.70128787 0 10
-0.11772984 3.4805408 -0.66452914 0 11
-0.11795229 3.4871175 -0.63258213 0 12
-0.11803282 3.4894981 -0.59989929 0 13
-0.11776873 3.4816906 -0.56562072 0 14
-0.11783458 3.4836373 -0.53308046 0 15
-0.11784765 3.484024 -0.50037181 0 16
-0.11791767 3.486094 -0.46796826 0 17
-0.1180955 3.4913514 -0.43600458 0 18
-0.11769079 3.4793863 -0.40202758 0 19
-0.1181411 3.4926994 -0.37102795 0 20
-0.11785295 3.4841805 -0.33772779 0 21
-0.11798462 3.4880731 -0.30573145 0 22
-0.11812756 3.4922991 -0.27374119 0 23
-0.11770906 3.4799263 -0.24057178 0 24
-0.11813191 3.4924278 -0.2091618 0 25
-0.11829498 3.4972486 -0.17716733 0 26
-0.11793691 3.4866626 -0.14447552 0 27
-0.11816651 3.4934506 -0.1125632 0 28
-0.11832277 3.49807 -0.080494978 0 29
-0.11835144 3.4989181 -0.048303243 0 30
-0.11843807 3.5014791 -0.016111959 0 31
-0.11836953 3.4994526 0.016102633 0 32
-0.11829727 3.4973164 0.048281133 0 33
-0.11759036 3.4764173 0.07999672 0 34
-0.11823722 3.4955411 0.11263055 0 35
-0.11790484 3.4857147 0.14443624 0 36
-0.11840998 3.5006485 0.17733955 0 37
-0.11768591 3.4792421 0.2083721 0 38
-0.11814435 3.4927955 0.24146143 0 39
-0.11801511 3.4889746 0.27348059 0 40
-0.11815284 3.4930465 0.30616736 0 41
-0.11804815 3.4899514 0.33828717 0 42
-0.11774692 3.481046 0.36978999 0 43
-0.11831499 3.4978402 0.40415981 0 44
-0.11823173 3.4953787 0.43650752 0 45
-0.11823746 3.495548 0.46923736 0 46
-0.11859064 3.5059896 0.50352645 0 47
-0.1180759 3.4907718 0.53417218 0 48
-0.11821805 3.4949744 0.56777871 0 49
-0.11804534 3.4898686 0.59996295 0 50
-0.11821608 3.494916 0.63399684 0 51
-0.11811414 3.4919024 0.6666984 0 52
-0.11834587 3.4987531 0.701437 0 53
-0.11822198 3.4950905 0.73422164 0 54
-0.11827929 3.4967849 0.76824254 0 55
-0.11796723 3.4875593 0.79992777 0 56
-0.1174776 3.473084 0.83032161 0 57
-0.11815393 3.4930787 0.86915922 0 58
-0.11810374 3.4915946 0.90298903 0 59
-0.11846827 3.5023718 0.94024432 0 60
-0.11838148 3.4998057 0.97416878 0 61
-0.11808784 3.4911246 1.006457 0 62
-0.11816134 3.4932978 1.0419942 0 63
-0.1139054 2.4686472 -0.73671961 0 0
-0.11747295 2.5459659 -0.73433793 0 1
-0.12241986 2.6531792 -0.7388739 0 2
-0.12595482 2.7297916 -0.73319834 0 3
-0.13151249 2.8502419 -0.73748618 0 4
-0.13564242 2.9397492 -0.73183769 0 5
-0.14176449 3.0724313 -0.73489743 0 6
-0.14701249 3.1861699 -0.73115861 0 7
-0.15367512 3.3305681 -0.73208457 0 8
-0.15823221 3.4293327 -0.72076201 0 9
-0.15753941 3.4143178 -0.68484586 0 10
-0.15812013 3.4269035 -0.6546101 0 11
-0.15711321 3.4050806 -0.61800396 0 12
-0.15779318 3.4198174 -0.58820921 0 13
-0.15768978 3.4175768 -0.55547804 0 14
-0.15837288 3.4323812 -0.52549529 0 15
-0.1577048 3.417902 -0.49111682 0 16
-0.1578538 3.4211311 -0.45947358 0 17
-0.15726495 3.4083693 -0.42585096 0 18
-0.15706205 3.4039719 -0.39350718 0 19
-0.15732256 3.4096179 -0.36238033 0 20
-0.1575138 3.4137628 -0.33106479 0 21
-0.15730847 3.4093125 -0.29897499 0 22
-0.15699197 3.4024534 -0.26682985 0 23
-0.15760344 3.4157057 -0.23624822 0 24
-0.15732141 3.4095931 -0.20430122 0 25
-0.15736747 3.4105911 -0.17286229 0 26
-0.15797389 3.4237339 -0.14193772 0 27
-0.15779613 3.4198816 -0.1102469 0 28
-0.15803501 3.4250588 -0.078853652 0 29
-0.15771808 3.4181898 -0.047211979 0 30
-0.15726277 3.4083221 -0.01569101 0 31
-0.15814471 3.4274361 0.015779007 0 32
-0.15756924 3.4149644 0.047167432 0 33
-0.15742581 3.4118557 0.078549683 0 34
-0.15769915 3.4177797 0.11017914 0 35
-0.15794794 3.4231718 0.14191443 0 36
-0.15749797 3.4134197 0.17300566 0 37
-0.15804426 3.4252591 0.20523994 0 38
-0.1575076 3.4136281 0.23610453 0 39
-0.15779856 3.419934 0.26820073 0 40
-0.15844023 3.433841 0.30112597 0 41
-0.1574042 3.4113872 0.33083442 0 42
-0.1578107 3.4201972 0.36350474 0 43
-0.15779471 3.4198508 0.39534283 0 44
-0.15766028 3.4169374 0.42692149 0 45
-0.15777253 3.4193699 0.45923704 0 46
-0.15721595 3.4073074 0.48959449 0 47
-0.15812592 3.4270291 0.52467591 0 48
-0.15834464 3.4317694 0.55778486 0 49
-0.15725075 3.4080615 0.58618718 0 50
-0.15712202 3.4052715 0.61803859 0 51
-0.15801266 3.4245744 0.65416515 0 52
-0.15769266 3.417639 0.68551201 0 53
-0.15778564 3.4196541 0.71872783 0 54
-0.15790811 3.4223084 0.75224984 0 55
-0.15764093 3.416518 0.78401864 0 56
-0.15782259 3.420455 0.81814152 0 57
-0.15796798 3.4236062 0.85229176 0 58
-0.15805554 3.4255037 0.88633239 0 59
-0.15743841 3.4121289 0.9164682 0 60
-0.15752472 3.4139991 0.95075184 0 61
-0.15783235 3.4206665 0.98662949 0 62
-0.15826081 3.4299524 1.0236024 0 63
-0.14388449 2.4608064 -0.73485214 0 0
-0.14745039 2.5217927 -0.72783351 0 1
-0.15415509 2.6364608 -0.73469043 0 2
-0.15941153 2.7263601 -0.73274779 0 3
-0.16663772 2.849947 -0.73788422 0 4
-0.17229767 2.9467471 -0.7340517 0 5
-0.17942315 3.0686119 -0.73445606 0 6
-0.18727185 3.2028451 -0.73545808 0 7
-0.19545941 3.3428743 -0.73526233 0 8
-0.1958614 3.3497493 -0.70448846 0 9
-0.19595768 3.3513958 -0.67265743 0 10
-0.19585174 3.3495843 -0.64025217 0 11
-0.19618715 3.3553207 -0.60936457 0 12
-0.19578715 3.3484795 -0.57630956 0 13
-0.19532348 3.3405497 -0.54330766 0 14
-0.19586076 3.3497384 -0.51317269 0 15
-0.19625708 3.3565168 -0.48260668 0 16
-0.19578013 3.3483593 -0.44998929 0 17
-0.19693238 3.3680661 -0.4210861 0 18
-0.19590051 3.3504183 -0.38756543 0 19
-0.19591519 3.3506694 -0.35634428 0 20
-0.1963594 3.3582666 -0.32589233 0 21
-0.19577764 3.3483169 -0.29381499 0 22
-0.1961773 3.3551524 -0.26328963 0 23
-0.19582376 3.3491056 -0.23179084 0 24
-0.19694166 3.3682246 -0.20195229 0 25
-0.19560529 3.3453693 -0.16966566 0 26
-0.19562361 3.3456824 -0.13879117 0 27
-0.19645466 3.3598957 -0.10838281 0 28
-0.1967224 3.364475 -0.077508688 0 29
-0.19657366 3.3619308 -0.046464805 0 30
-0.1963392 3.3579214 -0.015468924 0 31
-0.19620429 3.3556137 0.015458294 0 32
-0.19647573 3.3602562 0.046441659 0 33
-0.19483359 3.3321712 0.076764494 0 34
-0.19673721 3.364728 0.10853869 0 35
-0.19595724 3.3513885 0.13902788 0 36
-0.1959299 3.3509209 0.16994722 0 37
-0.19544613 3.3426473 0.20041873 0 38
-0.1961631 3.3549094 0.23219252 0 39
-0.19530891 3.3403003 0.26212415 0 40
-0.19576469 3.3480954 0.29379553 0 41
-0.19663855 3.3630409 0.32635564 0 42
-0.19615664 3.3547988 0.35678345 0 43
-0.19580171 3.3487287 0.38736996 0 44
-0.19574815 3.3478124 0.41855392 0 45
-0.1965472 3.3614783 0.45175233 0 46
-0.19562824 3.3457618 0.4810603 0 47
-0.19647795 3.3602941 0.51478976 0 48
-0.19655095 3.3615425 0.54672199 0 49
-0.195875 3.3499823 0.57656819 0 50
-0.19508451 3.3364627 0.60593975 0 51
-0.19659665 3.362324 0.64268726 0 52
-0.19586456 3.3498034 0.67233777 0 53
-0.19612221 3.3542101 0.70542663 0 54
-0.19583009 3.3492138 0.73665667 0 55
-0.19651277 3.3608894 0.77174926 0 56
-0.19538683 3.3416328 0.79980218 0 57
-0.19595103 3.3512824 0.83482379 0 58
-0.19648361 3.3603909 0.87004411 0 59
-0.19607453 3.3533945 0.90127212 0 60
-0.19528629 3.3399134 0.93071836 0 61
-0.19659764 3.3623412 0.97043049 0 62
-0.19620191 3.3555729 1.0020496 0 63
-0.17385939 2.4550221 -0.73370773 0 0
-0.17984267 2.5395105 -0.73352998 0 1
-0.18644479 2.6327372 -0.73423618 0 2
-0.19324943 2.7288237 -0.73399311 0 3
-0.19975999 2.8207576 -0.7309075 0 4
-0.20797268 2.9367268 -0.73213732 0 5
-0.21823786 3.0816789 -0.73817003 0 6
-0.22557516 3.1852868 -0.7320078 0 7
-0.23169899 3.2717595 -0.72019291 0 8
-0.23374583 3.3006628 -0.69471699 0 9
-0.23201649 3.276243 -0.65809637 0 10
-0.23307468 3.2911856 -0.6295898 0 11
-0.23304786 3.2908068 -0.59812331 0 12
-0.23284471 3.2879381 -0.56633973 0 13
-0.23168266 3.271529 -0.53250527 0 14
-0.23327653 3.2940359 -0.50504041 0 15
-0.23338655 3.2955892 -0.47422317 0 16
-0.23253456 3.2835586 -0.44163153 0 17
-0.23352519 3.2975469 -0.41259739 0 18
-0.23278825 3.2871408 -0.38054806 0 19
-0.23373593 3.3005228 -0.35129029 0 20
-0.23192659 3.2749736 -0.31806213 0 21
-0.23134369 3.2667425 -0.28688475 0 22
-0.23369816 3.2999895 -0.25916675 0 23
-0.23126216 3.2655914 -0.22619055 0 24
-0.23389688 3.3027954 -0.19818676 0 25
-0.23386204 3.3023036 -0.1676147 0 26
