# .PCD v0.7 - Point Cloud Data file format
VERSION 0.7
FIELDS x y z intensity ring
SIZE 4 4 4 4 2
TYPE F F F F U
COUNT 1 1 1 1 1
WIDTH 1285
HEIGHT 1
VIEWPOINT 0 0 0 1 0 0 0
POINTS 1285
DATA ascii
-0.87766212 3.7391996 0.15905967 0 36
-0.87372148 3.7224109 0.19358802 0 37
-0.87626195 3.7332344 0.22952884 0 38
-0.87837434 3.742234 0.26558444 0 39
-0.87884223 3.7442274 0.3012923 0 40
-0.87601906 3.7321994 0.33582768 0 41
-0.87790519 3.7402351 0.37218782 0 42
-0.87776214 3.7396257 0.40782201 0 43
-0.87705439 3.7366104 0.44322893 0 44
-0.88095206 3.753216 0.48116958 0 45
-0.88016385 3.7498581 0.51676041 0 46
-0.87860793 3.7432292 0.55189341 0 47
-0.87743843 3.7382467 0.5872525 0 48
-0.87703669 3.7365351 0.62316245 0 49
-0.87765324 3.7391617 0.65991306 0 50
-0.87848216 3.7426934 0.69699824 0 51
-0.88025433 3.7502437 0.73506188 0 52
-0.87950075 3.7470329 0.77118748 0 53
-0.87613159 3.7326791 0.8049826 0 54
-0.87957305 3.7473409 0.84518105 0 55
-0.87977129 3.7481856 0.88256627 0 56
-0.87658876 3.7346265 0.91659045 0 57
-0.87685907 3.7357783 0.95426536 0 58
-0.8737762 3.7226439 0.98834199 0 59
-0.87663281 3.7348144 1.0293062 0 60
-0.87999845 3.7491534 1.0713233 0 61
-0.87927771 3.7460825 1.1086751 0 62
-0.8793357 3.7463298 1.1471832 0 63
-0.59579611 2.405015 -0.73863977 0 0
-0.61099201 2.4663556 -0.73210055 0 1
-0.63711691 2.5718122 -0.73708016 0 2
-0.66044968 2.6659982 -0.73692542 0 3
-0.68354499 2.7592258 -0.73473567 0 4
-0.70464635 2.8444045 -0.72873145 0 5
-0.73936516 2.9845517 -0.73467517 0 6
-0.76920509 3.105005 -0.73329151 0 7
-0.80691057 3.2572083 -0.73681796 0 8
-0.8425324 3.4010007 -0.73563218 0 9
-0.88553393 3.5745826 -0.73788029 0 10
-0.9254511 3.735714 -0.73438895 0 11
-0.92528737 3.7350531 -0.69764155 0 12
-0.92475945 3.7329218 -0.66076875 0 13
-0.92961627 3.7525272 -0.62768847 0 14
-0.92340481 3.7274537 -0.58729637 0 15
-0.92223668 3.7227383 -0.55050266 0 16
-0.92914993 3.7506447 -0.51840413 0 17
-0.92551702 3.73598 -0.48038256 0 18
-0.92528033 3.7350247 -0.44435683 0 19
-0.93022072 3.7549672 -0.41071141 0 20
-0.92613828 3.738488 -0.37311897 0 21
-0.92447048 3.7317555 -0.33678517 0 22
-0.92418259 3.7305932 -0.30108687 0 23
-0.92713946 3.7425292 -0.26639435 0 24
-0.92719942 3.7427714 -0.23079874 0 25
-0.92244488 3.7235789 -0.19422399 0 26
-0.92473137 3.7328086 -0.15925947 0 27
-0.92477649 3.7329907 -0.12384656 0 28
-0.92636645 3.739409 -0.088598922 0 29
-0.92668253 3.7406847 -0.053171493 0 30
-0.92729276 3.7431481 -0.017734502 0 31
-0.92416662 3.7305288 0.017674714 0 32
-0.92627168 3.7390263 0.053147919 0 33
-0.92425394 3.7308812 0.088396877 0 34
-0.92561293 3.7363672 0.12395857 0 35
-0.9256264 3.7364213 0.15941361 0 36
-0.92489952 3.7334874 0.19474082 0 37
-0.92419708 3.7306519 0.23005138 0 38
-0.92453122 3.7320006 0.26564494 0 39
-0.92567843 3.7366314 0.3015742 0 40
-0.92513883 3.7344534 0.33702862 0 41
-0.92454726 3.7320654 0.37247798 0 42
-0.9221645 3.7224472 0.40715441 0 43
-0.9293415 3.7514181 0.44630715 0 44
-0.92780465 3.7452145 0.48156995 0 45
-0.92582268 3.7372136 0.51654768 0 46
-0.92699254 3.7419362 0.55334151 0 47
-0.92310482 3.7262428 0.58710551 0 48
-0.92179346 3.7209494 0.62240642 0 49
-0.92806822 3.746278 0.66313297 0 50
-0.92564732 3.7365057 0.69791293 0 51
-0.92724907 3.7429717 0.7358157 0 52
-0.92578101 3.7370455 0.7714166 0 53
-0.92340899 3.7274704 0.80624712 0 54
-0.9249112 3.7335343 0.84456837 0 55
-0.92678326 3.7410913 0.88351244 0 56
-0.92375553 3.7288694 0.91789591 0 57
-0.92407799 3.7301712 0.95566338 0 58
-0.92704803 3.7421601 0.99647456 0 59
-0.92454916 3.7320731 1.031606 0 60
-0.92587274 3.737416 1.0711416 0 61
-0.92346901 3.7277129 1.1065155 0 62
-0.92465407 3.7324965 1.1463423 0 63
-0.62110364 2.3813341 -0.73365694 0 0
-0.6432451 2.4662254 -0.73435426 0 1
-0.6633237 2.5432074 -0.7311644 0 2
-0.69084245 2.6487153 -0.73444074 0 3
-0.71730465 2.7501724 -0.73461801 0 4
-0.74735504 2.8653867 -0.73640585 0 5
-0.77616519 2.9758458 -0.73482597 0 6
-0.80906105 3.1019697 -0.73486865 0 7
-0.84183961 3.227644 -0.73241645 0 8
-0.88197339 3.3815181 -0.73370844 0 9
-0.92406505 3.5428991 -0.73363018 0 10
-0.97188616 3.7262473 -0.73482174 0 11
-0.9744485 3.7360713 -0.70001692 0 12
-0.97474515 3.7372086 -0.66359901 0 13
-0.9755311 3.740222 -0.62758929 0 14
-0.97273177 3.7294891 -0.58945704 0 15
-0.97319603 3.7312691 -0.55349189 0 16
-0.9711588 3.7234585 -0.51625806 0 17
-0.97422421 3.7352114 -0.48178765 0 18
-0.97184205 3.726078 -0.44468057 0 19
-0.97268385 3.7293055 -0.40918186 0 20
-0.97003722 3.7191582 -0.37235209 0 21
-0.97155571 3.7249801 -0.33722636 0 22
-0.97264802 3.7291682 -0.3019143 0 23
-0.97355103 3.7326303 -0.26652172 0 24
-0.97154981 3.7249577 -0.23041952 0 25
-0.98104841 3.7613754 -0.19680983 0 26
-0.97699201 3.7458231 -0.16031517 0 27
-0.97323412 3.7314153 -0.12418193 0 28
-0.97547114 3.7399921 -0.088890217 0 29
-0.97465152 3.7368495 -0.053283304 0 30
-0.97281528 3.7298095 -0.017726641 0 31
-0.97118956 3.7235763 0.017697018 0 32
-0.9752512 3.7391486 0.05331609 0 33
-0.97119826 3.7236097 0.08850085 0 34
-0.9722811 3.7277613 0.12406033 0 35
-0.97422725 3.7352228 0.15986149 0 36
-0.97048563 3.7208776 0.19469082 0 37
-0.97262347 3.729074 0.23067415 0 38
-0.96847022 3.7131503 0.26513079 0 39
-0.97340387 3.7320659 0.30214894 0 40
-0.97442621 3.7359858 0.33822271 0 41
-0.97493368 3.7379315 0.37423164 0 42
-0.97212005 3.727144 0.4089447 0 43
-0.97363454 3.7329504 0.44550073 0 44
-0.97407514 3.7346396 0.48171395 0 45
-0.97270429 3.7293839 0.51707959 0 46
-0.97206289 3.7269247 0.55284745 0 47
-0.9699167 3.7186961 0.58775121 0 48
-0.97370648 3.7332263 0.62641543 0 49
-0.97374624 3.7333786 0.66291898 0 50
-0.97505766 3.7384067 0.70045447 0 51
-0.97786868 3.7491844 0.73934495 0 52
-0.97260988 3.7290218 0.77217066 0 53
-0.97203904 3.7268331 0.80863351 0 54
-0.97321016 3.7313235 0.84671128 0 55
-0.97469366 3.7370112 0.88531244 0 56
-0.97239381 3.7281933 0.92060322 0 57
-0.96923214 3.7160714 0.95503229 0 58
-0.97819626 3.7504401 1.0018066 0 59
-0.97323149 3.7314053 1.034651 0 60
-0.97584236 3.7414153 1.0756456 0 61
-0.97602129 3.7421014 1.1142648 0 62
-0.97224212 3.727612 1.148427 0 63
-0.65363574 2.3855586 -0.7373789 0 0
-0.67511433 2.4639485 -0.73609251 0 1
-0.69456953 2.5349536 -0.73119164 0 2
-0.72324497 2.6396096 -0.73432636 0 3
-0.74871147 2.7325542 -0.73231578 0 4
-0.78243262 2.8556254 -0.73631412 0 5
-0.8117556 2.9626446 -0.73397547 0 6
-0.84871882 3.0975485 -0.736238 0 7
-0.8879081 3.2405767 -0.73777288 0 8
-0.92329907 3.3697424 -0.73356128 0 9
-0.97180235 3.5467634 -0.73684907 0 10
-1.0139573 3.7006152 -0.7321704 0 11
-1.0231446 3.7341461 -0.70196038 0 12
-1.0243154 3.7384191 -0.66600013 0 13
-1.0206825 3.7251601 -0.62712049 0 14
-1.0246439 3.7396181 -0.59300452 0 15
-1.0231372 3.7341189 -0.55573887 0 16
-1.0234981 3.7354362 -0.51962441 0 17
-1.0223155 3.7311201 -0.48284489 0 18
-1.0259025 3.7442114 -0.44831625 0 19
-1.0251081 3.7413123 -0.41185117 0 20
-1.0279363 3.7516341 -0.3768405 0 21
-1.0196683 3.7214589 -0.33801714 0 22
-1.0229405 3.7334013 -0.30325246 0 23
-1.0247869 3.74014 -0.26793745 0 24
-1.0245998 3.7394571 -0.23207824 0 25
-1.0222354 3.7308278 -0.19585437 0 26
-1.0225374 3.7319298 -0.16024657 0 27
-1.0215939 3.7284865 -0.12449311 0 28
-1.023645 3.7359726 -0.089087114 0 29
-1.0269315 3.747967 -0.053617831 0 30
-1.0216211 3.7285857 -0.017779185 0 31
-1.0266851 3.7470679 0.017867316 0 32
-1.0232146 3.7344015 0.053423766 0 33
-1.0231658 3.7342236 0.089045413 0 34
-1.0231848 3.7342927 0.12468699 0 35
-1.0239458 3.7370703 0.1604673 0 36
-1.0231959 3.7343333 0.19603838 0 37
-1.0229863 3.7335682 0.23171277 0 38
-1.0228436 3.7330475 0.26742935 0 39
-1.0226965 3.7325106 0.3031801 0 40
-1.0226952 3.732506 0.33902052 0 41
-1.0226917 3.7324929 0.37491783 0 42
-1.0238076 3.7365661 0.4113287 0 43
-1.0251042 3.741298 0.44796741 0 44
-1.0208199 3.7256618 0.48213854 0 45
-1.0229917 3.733588 0.51936734 0 46
-1.02838 3.7532537 0.55858666 0 47
-1.0195946 3.7211897 0.59008229 0 48
-1.023621 3.7358844 0.62892592 0 49
-1.0206972 3.7252138 0.66364759 0 50
-1.0234702 3.7353342 0.70218372 0 51
-1.0215995 3.7285068 0.73768884 0 52
-1.0256618 3.7433329 0.77768689 0 53
-1.0239559 3.7371073 0.81353319 0 54
-1.0217214 3.7289515 0.8489598 0 55
-1.0194694 3.7207329 0.884359 0 56
-1.0216076 3.7285364 0.92372006 0 57
-1.0255526 3.7429345 0.96510404 0 58
-1.0185223 3.7172759 0.99621803 0 59
-1.0228842 3.7331958 1.0385566 0 60
-1.0221931 3.7306733 1.0760895 0 61
-1.0238456 3.7367041 1.116322 0 62
-1.0205133 3.7245426 1.1512604 0 63
-0.67707288 2.3569934 -0.73106754 0 0
-0.70492071 2.4539359 -0.73563528 0 1
-0.73342693 2.5531704 -0.73899162 0 2
-0.75386029 2.6243019 -0.73259127 0 3
-0.78701919 2.7397332 -0.73677754 0 4
-0.81231087 2.8277774 -0.73165381 0 5
-0.84563047 2.943768 -0.73181969 0 6
-0.88338298 3.0751903 -0.73345017 0 7
-0.92299467 3.2130845 -0.73404223 0 8
-0.96974933 3.3758447 -0.7374298 0 9
-1.0136391 3.5286317 -0.73561603 0 10
-1.0668555 3.713886 -0.73733586 0 11
-1.0677886 3.717134 -0.70117766 0 12
-1.0708059 3.7276378 -0.6663748 0 13
-1.0673003 3.7154343 -0.62764513 0 14
-1.0704474 3.7263901 -0.59294939 0 15
-1.0702735 3.7257843 -0.55641508 0 16
-1.0727849 3.7345271 -0.52129358 0 17
-1.0703677 3.7261121 -0.4838635 0 18
-1.070345 3.7260337 -0.44768178 0 19
-1.07108 3.7285919 -0.41186959 0 20
-1.0664383 3.7124338 -0.37419185 0 21
-1.0698901 3.7244499 -0.33945808 0 22
-1.0712017 3.7290154 -0.30394316 0 23
-1.0706568 3.7271185 -0.2679275 0 24
-1.0726275 3.7339792 -0.23253927 0 25
-1.0732549 3.7361634 -0.19681238 0 26
-1.0733597 3.7365279 -0.16099858 0 27
-1.0722991 3.7328358 -0.12506914 0 28
-1.0698321 3.7242477 -0.089114487 0 29
-1.0722965 3.7328267 -0.053585812 0 30
-1.0687212 3.7203803 -0.017801376 0 31
-1.0727495 3.7344036 0.017868476 0 32
-1.0686402 3.7200987 0.053403102 0 33
-1.0712186 3.7290745 0.089229979 0 34
-1.0710133 3.7283597 0.12491917 0 35
-1.0709789 3.72824 0.16064146 0 36
-1.0708544 3.7278066 0.19637217 0 37
-1.0702801 3.7258074 0.23203035 0 38
-1.0709175 3.7280262 0.26799273 0 39
-1.0698436 3.724288 0.30355784 0 40
-1.077296 3.7502308 0.34180781 0 41
-1.0696669 3.7236726 0.37532467 0 42
-1.0705322 3.726685 0.41165894 0 43
-1.0685792 3.7198861 0.44694316 0 44
-1.0725795 3.7338119 0.48486337 0 45
-1.0711322 3.7287736 0.52049047 0 46
-1.0718011 3.731102 0.55720919 0 47
-1.0696661 3.7236702 0.5925166 0 48
-1.0690886 3.7216597 0.6286968 0 49
-1.0706658 3.72715 0.6662876 0 50
-1.0731063 3.7356455 0.70466954 0 51
-1.0701776 3.7254503 0.73963177 0 52
-1.0723945 3.7331679 0.77825582 0 53
-1.0701241 3.7252643 0.81375808 0 54
-1.0692626 3.7222652 0.85036671 0 55
-1.0709258 3.728055 0.88916212 0 56
-1.0710323 3.7284257 0.92688531 0 57
-1.0661159 3.7113109 0.96025765 0 58
-1.0696033 3.7234514 1.0013222 0 59
-1.0701475 3.7253456 1.0399549 0 60
-1.0695729 3.7233458 1.0776881 0 61
-1.065622 3.7095916 1.1120528 0 62
-1.0720049 3.7318118 1.1574943 0 63
-0.70927799 2.3593872 -0.7344597 0 0
-0.73182893 2.4344018 -0.7324217 0 1
-0.76438034 2.5426829 -0.73862082 0 2
-0.79134017 2.6323638 -0.73750246 0 3
-0.82125884 2.7318871 -0.73732758 0 4
-0.85072356 2.8299005 -0.73485428 0 5
-0.88612074 2.9476478 -0.73543739 0 6
-0.92351317 3.0720325 -0.73534989 0 7
-0.96433693 3.2078311 -0.73549551 0 8
-1.0031658 3.3369942 -0.73158246 0 9
-1.0537056 3.5051126 -0.73335862 0 10
-1.1121829 3.6996353 -0.73716605 0 11
-1.1215765 3.7308831 -0.70631927 0 12
-1.1210178 3.7290242 -0.66903627 0 13
-1.1160743 3.71258 -0.62943369 0 14
-1.1199343 3.7254202 -0.59494138 0 15
-1.1181848 3.7196007 -0.55750281 0 16
-1.1214862 3.7305825 -0.52262843 0 17
-1.1225991 3.7342846 -0.48668054 0 18
-1.1199461 3.7254596 -0.44923347 0 19
-1.1200413 3.725776 -0.41304865 0 20
-1.1171558 3.7161775 -0.37592539 0 21
-1.1215872 3.7309184 -0.34127885 0 22
-1.1207441 3.7281139 -0.30496988 0 23
-1.120854 3.7284796 -0.26899579 0 24
-1.1196947 3.7246232 -0.23279645 0 25
-1.1199203 3.7253733 -0.19695453 0 26
-1.1230413 3.7357552 -0.16154808 0 27
-1.1214504 3.7304635 -0.12544221 0 28
-1.1240599 3.7391438 -0.089794867 0 29
-1.1213603 3.7301638 -0.053741466 0 30
-1.1176534 3.7178326 -0.017853595 0 31
-1.1192193 3.7230418 0.017878611 0 32
-1.1235237 3.7373602 0.053845149 0 33
-1.1204395 3.7271006 0.08950565 0 34
-1.1188366 3.7217686 0.12514983 0 35
-1.1242486 3.7397714 0.16172175 0 36
-1.1207526 3.728142 0.19710089 0 37
-1.1136028 3.7043586 0.23152986 0 38
-1.1145881 3.7076361 0.267492 0 39
-1.120181 3.7262406 0.30481666 0 40
-1.1199 3.725306 0.34076548 0 41
-1.1209493 3.7287962 0.37720191 0 42
-1.1181566 3.7195063 0.41235361 0 43
-1.1207772 3.7282243 0.44956684 0 44
-1.1178039 3.7183335 0.48460168 0 45
-1.1159688 3.7122293 0.52005726 0 46
-1.1196864 3.7245953 0.55825144 0 47
-1.1225644 3.7341692 0.59633857 0 48
-1.1213143 3.7300107 0.63238895 0 49
-1.1167479 3.7148204 0.66648787 0 50
-1.1199801 3.7255723 0.70531386 0 51
-1.1213498 3.7301285 0.74324191 0 52
-1.1176904 3.7179561 0.77789092 0 53
-1.1224204 3.7336903 0.81855172 0 54
-1.118354 3.7201631 0.85296363 0 55
-1.1186024 3.7209895 0.89069021 0 56
-1.1143675 3.706902 0.92487115 0 57
-1.121487 3.7305849 0.96873945 0 58
-1.1145471 3.7074997 1.0006423 0 59
-1.118432 3.720423 1.0423411 0 60
-1.1213076 3.7299883 1.0835197 0 61
-1.1151832 3.7096157 1.1160865 0 62
-1.1180484 3.7191467 1.1577427 0 63
-0.73364872 2.3358874 -0.7298975 0 0
-0.75928235 2.4175034 -0.73009133 0 1
-0.79323602 2.5256095 -0.73643887 0 2
-0.81969285 2.6098461 -0.73396212 0 3
-0.84935325 2.704283 -0.73264074 0 4
-0.88081962 2.8044696 -0.73100775 0 5
-0.91835749 2.9239876 -0.73229629 0 6
-0.95773906 3.0493758 -0.73269022 0 7
-1.0041146 3.1970327 -0.73579496 0 8
-1.0503722 3.3443136 -0.73596311 0 9
-1.1036514 3.5139511 -0.73799151 0 10
-1.1453828 3.6468208 -0.72939372 0 11
-1.1709175 3.7281215 -0.70846874 0 12
-1.1676406 3.7176881 -0.66952777 0 13
-1.1681142 3.7191958 -0.6329428 0 14
-1.1671792 3.7162192 -0.59571892 0 15
-1.1673696 3.7168252 -0.55919605 0 16
-1.17344 3.7361526 -0.52539045 0 17
-1.170086 3.7254741 -0.48737058 0 18
-1.1676754 3.7177987 -0.45000705 0 19
-1.1663287 3.713511 -0.41324764 0 20
-1.1692758 3.7228944 -0.37803078 0 21
-1.1703552 3.726331 -0.34214976 0 22
-1.168269 3.7196889 -0.30543277 0 23
-1.1704594 3.7266631 -0.26988268 0 24
-1.1673499 3.7167623 -0.23318467 0 25
-1.1690754 3.7222562 -0.1975348 0 26
-1.1675013 3.7172444 -0.16135623 0 27
-1.1651882 3.7098796 -0.12522237 0 28
-1.1648661 3.7088542 -0.089404695 0 29
-1.1680166 3.7188852 -0.05378183 0 30
-1.1641822 3.7066767 -0.017867418 0 31
-1.1685498 3.720583 0.017934449 0 32
-1.1661755 3.7130232 0.053697053 0 33
-1.1665263 3.7141402 0.089532115 0 34
-1.1686391 3.7208672 0.12559325 0 35
-1.1706202 3.727175 0.16178729 0 36
-1.1693478 3.7231236 0.19758083 0 37
-1.1679686 3.7187324 0.23330827 0 38
-1.1645945 3.7079895 0.26853037 0 39
-1.1700701 3.7254233 0.30590364 0 40
-1.1668882 3.7152925 0.34113622 0 41
-1.1657892 3.7117937 0.37690356 0 42
-1.1615534 3.6983066 0.41155568 0 43
-1.1690567 3.7221968 0.45053941 0 44
-1.1682595 3.7196586 0.48660979 0 45
-1.171165 3.7289093 0.52437186 0 46
-1.1649594 3.7091513 0.55804151 0 47
-1.1656555 3.7113678 0.59494126 0 48
-1.1672188 3.7163451 0.63245761 0 49
-1.1691802 3.72259 0.67041057 0 50
-1.1652224 3.7099886 0.70502287 0 51
-1.1705425 3.7269275 0.74541575 0 52
-1.1665078 3.7140813 0.78002238 0 53
-1.1666476 3.7145262 0.81743354 0 54
-1.1721288 3.7319782 0.85891229 0 55
-1.1688135 3.7214224 0.89416653 0 56
-1.1708585 3.7279334 0.93364 0 57
-1.1667998 3.7150111 0.96834779 0 58
-1.169499 3.7236052 1.0087942 0 59
-1.1678665 3.7184072 1.0457207 0 60
-1.1679575 3.7186971 1.0843296 0 61
-1.170813 3.7277887 1.1258005 0 62
-1.1707225 3.7275004 1.1647364 0 63
-0.76500154 2.3348923 -0.73247051 0 0
-0.79414135 2.423831 -0.73489583 0 1
-0.81948912 2.5011961 -0.73220319 0 2
-0.85376489 2.6058104 -0.73572397 0 3
-0.88515085 2.7016048 -0.73480839 0 4
-0.92211735 2.8144319 -0.73650438 0 5
-0.96045822 2.9314535 -0.73706818 0 6
-0.99800098 3.0460393 -0.73478162 0 7
-1.0419513 3.180182 -0.73480994 0 8
-1.0899203 3.3265901 -0.7349565 0 9
-1.1428189 3.488044 -0.73544627 0 10
-1.1964144 3.6516247 -0.73324156 0 11
-1.2196319 3.7224882 -0.71019447 0 12
-1.2173427 3.7155011 -0.67177898 0 13
-1.2168618 3.7140336 -0.63456273 0 14
-1.2193744 3.7217021 -0.59895617 0 15
-1.2178187 3.7169542 -0.56142598 0 16
-1.2152169 3.7090125 -0.52363569 0 17
-1.2161678 3.711915 -0.48751628 0 18
-1.218878 3.7201872 -0.45207617 0 19
-1.215637 3.710295 -0.4145219 0 20
-1.2105626 3.6948073 -0.37666178 0 21
-1.216009 3.7114303 -0.34212869 0 22
-1.2179434 3.7173345 -0.30644602 0 23
-1.2154797 3.709815 -0.26972458 0 24
-1.2194157 3.7218282 -0.2344255 0 25
-1.2191004 3.7208657 -0.19824156 0 26
-1.215194 3.7089429 -0.16163228 0 27
-1.2174076 3.7156992 -0.12591457 0 28
-1.2170925 3.7147374 -0.089900479 0 29
-1.2180257 3.7175858 -0.05397556 0 30
-1.2189025 3.7202618 -0.018003788 0 31
-1.2181331 3.7179136 0.017992424 0 32
-1.2177249 3.7166677 0.053962227 0 33
-1.2150983 3.7086506 0.089753173 0 34
-1.2213553 3.7277482 0.12632287 0 35
-1.2226099 3.7315774 0.16261867 0 36
-1.2156202 3.7102437 0.19767563 0 37
-1.2153491 3.7094164 0.23364373 0 38
-1.2184191 3.7187862 0.27037683 0 39
-1.2190177 3.7206135 0.30671632 0 40
-1.2197539 3.7228603 0.34318233 0 41
-1.2216549 3.7286627 0.38011312 0 42
-1.2196449 3.7225275 0.41588852 0 43
-1.215432 3.7096696 0.45079803 0 44
-1.215681 3.7104292 0.48732114 0 45
-1.218275 3.7183464 0.52495342 0 46
-1.2190655 3.7207594 0.56200075 0 47
-1.2170177 3.7145088 0.59779853 0 48
-1.2228686 3.7323668 0.63769501 0 49
-1.2187445 3.7197797 0.67255253 0 50
-1.2216922 3.7287765 0.71139419 0 51
-1.215819 3.7108505 0.74513406 0 52
-1.2175049 3.7159958 0.78350943 0 53
-1.2166994 3.7135375 0.82044637 0 54
-1.2152443 3.7090964 0.85702044 0 55
-1.2179866 3.7174661 0.89674675 0 56
-1.2203461 3.7246678 0.93650955 0 57
-1.2179689 3.7174122 0.97280395 0 58
-1.2180213 3.7175722 1.0111409 0 59
-1.2170082 3.7144802 1.0487455 0 60
-1.2159865 3.7113616 1.0864685 0 61
-1.2169222 3.7142174 1.1261358 0 62
-1.2206999 3.7257476 1.1687907 0 63
-0.79420561 2.3269303 -0.73298103 0 0
-0.82225621 2.4091153 -0.73344421 0 1
-0.85331023 2.5000999 -0.73489833 0 2
-0.88531071 2.5938578 -0.73536724 0 3
-0.91905606 2.6927276 -0.73541206 0 4
-0.95500362 2.7980497 -0.7352348 0 5
-0.99293423 2.9091821 -0.73448277 0 6
-1.0329531 3.0264328 -0.7330606 0 7
-1.0863407 3.1828523 -0.73845762 0 8
-1.1275929 3.3037164 -0.73291093 0 9
-1.1779102 3.4511404 -0.7306639 0 10
-1.2461413 3.6510494 -0.73614722 0 11
-1.2676672 3.7141175 -0.71151763 0 12
-1.2666174 3.7110419 -0.67373776 0 13
-1.2683643 3.7161601 -0.63754261 0 14
-1.264782 3.7056642 -0.59883279 0 15
-1.267556 3.7137918 -0.56326002 0 16
-1.2634043 3.701628 -0.52474672 0 17
-1.2693245 3.7189734 -0.49045619 0 18
-1.2698568 3.7205331 -0.45398137 0 19
-1.2666417 3.7111135 -0.41632193 0 20
-1.2665349 3.7108004 -0.3798511 0 21
-1.2691753 3.7185361 -0.34419632 0 22
-1.2687491 3.7172878 -0.30770501 0 23
-1.2629838 3.7003961 -0.27014846 0 24
-1.267375 3.7132616 -0.23484978 0 25
-1.2666155 3.7110364 -0.19853266 0 26
-1.2663203 3.7101717 -0.16235213 0 27
-1.2710742 3.7240996 -0.12671931 0 28
-1.2655829 3.7080112 -0.090107508 0 29
-1.2646604 3.705308 -0.054018997 0 30
-1.2714074 3.725076 -0.018101376 0 31
-1.2675545 3.7137878 0.018046523 0 32
-1.2697111 3.7201061 0.054234736 0 33
-1.2666172 3.7110415 0.090181142 0 34
-1.2685558 3.7167213 0.12646824 0 35
-1.265615 3.7081051 0.16226171 0 36
-1.267578 3.7138565 0.19868353 0 37
-1.2695837 3.7197328 0.23525906 0 38
-1.270129 3.7213304 0.27167678 0 39
-1.2670764 3.7123866 0.30729932 0 40
-1.2638618 3.7029681 0.34275532 0 41
-1.2662302 3.7099078 0.37975973 0 42
-1.2728539 3.7293141 0.41836375 0 43
-1.269385 3.7191508 0.45381269 0 44
-1.2696642 3.7199688 0.49058744 0 45
-1.269699 3.7200708 0.52736121 0 46
-1.268562 3.7167394 0.56370705 0 47
-1.2706333 3.7228084 0.60160327 0 48
-1.2691686 3.7185168 0.6379469 0 49
-1.2726042 3.7285826 0.67692226 0 50
-1.2684122 3.7163007 0.71193582 0 51
-1.2685421 3.716681 0.74938029 0 52
-1.2692732 3.7188232 0.78733683 0 53
-1.265034 3.7064028 0.82224464 0 54
-1.270563 3.7226021 0.86368573 0 55
-1.2677381 3.7143254 0.89968145 0 56
-1.2636358 3.702306 0.9347232 0 57
-1.2671169 3.7125056 0.97552353 0 58
-1.2653542 3.7073407 1.0125135 0 59
-1.2664225 3.7104712 1.0519309 0 60
-1.2709992 3.7238801 1.0946256 0 61
-1.2650793 3.7065356 1.128438 0 62
-1.2660277 3.7093143 1.1684308 0 63
-0.82349181 2.3190601 -0.73363614 0 0
-0.85220313 2.399915 -0.73377806 0 1
-0.8815878 2.4826658 -0.73290479 0 2
-0.91919929 2.5885849 -0.73702109 0 3
-0.95222586 2.6815917 -0.73551303 0 4
-0.99217725 2.7941003 -0.73734713 0 5
-1.0283327 2.8959188 -0.73427111 0 6
-1.0703192 3.014158 -0.7332198 0 7
-1.1220237 3.1597648 -0.73624647 0 8
-1.1736583 3.3051744 -0.73638034 0 9
-1.2287713 3.4603798 -0.73576337 0 10
-1.2881458 3.6275861 -0.73455459 0 11
-1.3185453 3.7131953 -0.71439296 0 12
-1.3175617 3.7104254 -0.67651606 0 13
-1.3176916 3.7107906 -0.63935286 0 14
-1.3180138 3.7116983 -0.60238135 0 15
-1.3198397 3.7168403 -0.56614101 0 16
-1.3191384 3.7148654 -0.52888274 0 17
-1.3184654 3.71297 -0.49176538 0 18
-1.316795 3.708266 -0.4544259 0 19
-1.3176498 3.7106733 -0.4180586 0 20
-1.3148133 3.7026854 -0.38064662 0 21
-1.317083 3.7090771 -0.3447938 0 22
-1.3181291 3.712023 -0.30858755 0 23
-1.3188031 3.7139208 -0.27229914 0 24
-1.3213446 3.7210784 -0.2363539 0 25
-1.3213718 3.7211547 -0.1999281 0 26
-1.3177903 3.7110686 -0.16308813 0 27
-1.3227509 3.7250385 -0.12729508 0 28
-1.3200589 3.7174578 -0.090724662 0 29
-1.3156158 3.7049451 -0.054245453 0 30
-1.3198169 3.7167761 -0.018138535 0 31
-1.319734 3.7165425 0.018137395 0 32
-1.3187402 3.7137442 0.054374281 0 33
-1.3119801 3.6947067 0.090169422 0 34
-1.3166444 3.7078419 0.12670742 0 35
-1.3198411 3.7168443 0.16334194 0 36
-1.3225267 3.7244072 0.20010285 0 37
-1.3224185 3.7241025 0.23654598 0 38
-1.314224 3.701026 0.27135372 0 39
-1.3159826 3.7059782 0.30808505 0 40
-1.3200563 3.7174504 0.34557217 0 41
-1.3147578 3.7025292 0.38063058 0 42
-1.3159769 3.7059619 0.41752779 0 43
-1.314413 3.7015579 0.45360386 0 44
-1.3151934 3.7037559 0.490545 0 45
-1.3144497 3.7016611 0.52700287 0 46
-1.3203014 3.7181406 0.56633908 0 47
-1.3190176 3.7145255 0.60284019 0 48
-1.313633 3.6993613 0.63738358 0 49
-1.3150246 3.7032802 0.67521328 0 50
-1.3206666 3.7191689 0.71554226 0 51
-1.3140318 3.7004845 0.74931586 0 52
-1.3169805 3.7087884 0.78858125 0 53
-1.317138 3.7092316 0.82640278 0 54
-1.3218694 3.7225561 0.86738068 0 55
-1.3168006 3.7082818 0.90207142 0 56
-1.313169 3.6980548 0.93765575 0 57
-1.3126447 3.6965783 0.97550595 0 58
-1.3127538 3.6968856 1.01399 0 59
-1.3152844 3.7040117 1.0546051 0 60
-1.3144976 3.7017963 1.0928028 0 61
-1.3140522 3.7005422 1.1314471 0 62
-1.3196211 3.7162244 1.17563 0 63
-0.85188681 2.3086054 -0.73358715 0 0
-0.87930226 2.3829012 -0.7318266 0 1
-0.914635 2.4786525 -0.73498458 0 2
-0.95049948 2.5758448 -0.73666579 0 3
-0.98286402 2.6635525 -0.73382455 0 4
-1.0223912 2.7706709 -0.73442632 0 5
-1.0657805 2.8882556 -0.73559535 0 6
-1.1040493 2.9919636 -0.73106802 0 7
-1.1600769 3.1437974 -0.73579419 0 8
-1.2099621 3.2789862 -0.733805 0 9
-1.2745171 3.4539294 -0.7376684 0 10
-1.3316907 3.6088693 -0.73402494 0 11
-1.3688523 3.7095771 -0.71688104 0 12
-1.3692718 3.7107139 -0.67958719 0 13
-1.3690557 3.7101285 -0.64209074 0 14
-1.3671573 3.7049839 -0.60397434 0 15
-1.3655819 3.7007143 -0.5661996 0 16
-1.3680091 3.7072921 -0.53015935 0 17
-1.3671412 3.7049401 -0.49289116 0 18
-1.3644013 3.697515 -0.45513001 0 19
-1.3710859 3.7156301 -0.42048472 0 20
-1.3708811 3.7150753 -0.38362429 0 21
-1.370253 3.7133729 -0.34673321 0 22
-1.370911 3.7151563 -0.31022596 0 23
-1.3667213 3.7038021 -0.27276883 0 24
-1.366394 3.7029154 -0.23624958 0 25
-1.3654144 3.7002604 -0.19969247 0 26
-1.3673456 3.7054939 -0.16356966 0 27
-1.3689406 3.7098165 -0.12734051 0 28
-1.3646872 3.6982899 -0.090659551 0 29
-1.3677763 3.7066612 -0.054512709 0 30
-1.3624172 3.6921382 -0.018098686 0 31
-1.3703324 3.7135882 0.018203834 0 32
-1.3704892 3.7140131 0.054620832 0 33
-1.3717866 3.7175288 0.091131173 0 34
-1.3712487 3.7160714 0.12755521 0 35
-1.3629166 3.6934915 0.16303985 0 36
-1.3690565 3.7101305 0.20022514 0 37
-1.3672861 3.7053325 0.23640381 0 38
-1.3669777 3.7044969 0.27282 0 39
-1.3677845 3.7066834 0.30951846 0 40
-1.3696504 3.71174 0.34658074 0 41
-1.3665551 3.7033517 0.38241372 0 42
-1.3634701 3.6949914 0.41814911 0 43
-1.3660675 3.7020307 0.45568582 0 44
-1.3630192 3.6937697 0.49140507 0 45
-1.3760524 3.7290893 0.53327644 0 46
-1.3680563 3.7074199 0.56722558 0 47
-1.36264 3.6927419 0.60197866 0 48
-1.3659216 3.7016351 0.64062083 0 49
-1.3700353 3.7127831 0.67996615 0 50
-1.3661147 3.7021582 0.71544737 0 51
-1.3659744 3.7017782 0.75292206 0 52
-1.3691106 3.7102771 0.79241747 0 53
-1.3694322 3.7111487 0.83051878 0 54
-1.3661579 3.7022753 0.86650383 0 55
-1.3683738 3.7082803 0.90609562 0 56
-1.3678374 3.7068269 0.94407326 0 57
-1.3666453 3.7035961 0.98171842 0 58
-1.3682691 3.7079966 1.0215752 0 59
-1.3689126 3.7097404 1.0609486 0 60
-1.3703487 3.7136323 1.1011881 0 61
-1.3671058 3.7048442 1.1378163 0 62
-1.3697959 3.7121346 1.1795754 0 63
-0.88250214 2.303946 -0.7354992 0 0
-0.91119856 2.3788636 -0.73397225 0 1
-0.94250977 2.4606075 -0.733015 0 2
-0.97261029 2.539191 -0.72954839 0 3
-1.0103939 2.6378324 -0.73010629 0 4
-1.0547307 2.7535825 -0.73327911 0 5
-1.1014534 2.8755615 -0.73575622 0 6
-1.148948 2.9995553 -0.73631948 0 7
-1.204567 3.1447597 -0.73943019 0 8
-1.2486063 3.259733 -0.7328769 0 9
-1.3117791 3.4246583 -0.7348063 0 10
-1.3770406 3.595036 -0.73459983 0 11
-1.4260899 3.723089 -0.72282642 0 12
-1.420283 3.7079289 -0.68222404 0 13
-1.4153286 3.6949944 -0.6424349 0 14
-1.4173543 3.7002833 -0.60600334 0 15
-1.4205844 3.7087157 -0.57005334 0 16
-1.4179366 3.701803 -0.53182757 0 17
-1.4193699 3.7055452 -0.49525613 0 18
-1.4218796 3.7120974 -0.45904237 0 19
-1.4179202 3.7017603 -0.42085642 0 20
-1.4196131 3.7061799 -0.38447922 0 21
-1.4187915 3.704035 -0.34746405 0 22
-1.4172802 3.7000895 -0.31039962 0 23
-1.4228554 3.7146444 -0.27483505 0 24
-1.415977 3.6966872 -0.23694517 0 25
-1.4233737 3.7159977 -0.20147111 0 26
-1.4228269 3.7145703 -0.16473018 0 27
-1.4171863 3.6998441 -0.12758672 0 28
-1.4185373 3.703371 -0.091204815 0 29
-1.4201941 3.7076969 -0.054780629 0 30
-1.4209191 3.7095892 -0.0182685 0 31
-1.4267756 3.7248793 0.018343797 0 32
-1.4200035 3.7071993 0.054773279 0 33
-1.42005 3.7073209 0.091302082 0 34
-1.4154892 3.6954138 0.12743394 0 35
-1.4169598 3.6992528 0.16405089 0 36
-1.4158373 3.6963224 0.20040436 0 37
-1.4202281 3.7077856 0.23765655 0 38
-1.4198917 3.7069075 0.27426261 0 39
-1.4170982 3.699614 0.31035975 0 40
-1.421405 3.7108579 0.34810409 0 41
-1.4173576 3.7002914 0.38386837 0 42
-1.419594 3.7061303 0.42135322 0 43
-1.4214983 3.7111015 0.45891923 0 44
-1.4155933 3.6956854 0.49393833 0 45
-1.4175971 3.7009165 0.53170019 0 46
-1.4205358 3.7085891 0.57003385 0 47
-1.416711 3.6986036 0.60572827 0 48
-1.4173023 3.7001469 0.64333081 0 49
-1.4213598 3.7107399 0.68274122 0 50
-1.4179772 3.7019093 0.71871442 0 51
-1.417299 3.7001386 0.75607616 0 52
-1.4173521 3.7002773 0.79394406 0 53
-1.4199824 3.7071443 0.83346719 0 54
-1.4201452 3.7075689 0.871764 0 55
-1.4216501 3.711498 0.91108441 0 56
-1.4211773 3.7102635 0.94932747 0 57
-1.4183189 3.7028012 0.98605609 0 58
-1.4196316 3.7062283 1.0258198 0 59
-1.4217985 3.7118855 1.0664814 0 60
-1.4181392 3.7023323 1.1029247 0 61
-1.4160602 3.6969044 1.1406392 0 62
-1.4172834 3.700098 1.1811992 0 63
-0.91423875 2.3016696 -0.73830551 0 0
-0.94235581 2.3724566 -0.73551506 0 1
-0.97088504 2.4442813 -0.73165256 0 2
-1.0158817 2.557564 -0.73836046 0 3
-1.0538998 2.6532774 -0.7379123 0 4
-1.0907203 2.7459762 -0.73476964 0 5
-1.1348666 2.8571179 -0.7345522 0 6
-1.1874082 2.9893956 -0.73735398 0 7
-1.2368445 3.1138556 -0.7356841 0 8
-1.2969069 3.2650676 -0.73760587 0 9
-1.3484244 3.394767 -0.73189503 0 10
-1.4291158 3.5979137 -0.73872286 0 11
-1.4702408 3.7014496 -0.72208053 0 12
-1.4690534 3.6984601 -0.68375385 0 13
-1.467539 3.6946476 -0.64546335 0 14
-1.4673843 3.694258 -0.60792571 0 15
-1.4694039 3.6993425 -0.57134664 0 16
-1.4753305 3.7142632 -0.53618348 0 17
-1.4702263 3.7014129 -0.4970825 0 18
-1.4691744 3.6987648 -0.45959294 0 19
-1.4736053 3.7099199 -0.42381215 0 20
-1.4720688 3.7060518 -0.38631454 0 21
-1.4703779 3.7017949 -0.34892359 0 22
-1.4773064 3.7192376 -0.31350619 0 23
-1.4729896 3.7083697 -0.27569005 0 24
-1.47006 3.7009943 -0.23836188 0 25
-1.4711491 3.7037361 -0.20177184 0 26
-1.4742613 3.7115715 -0.16538861 0 27
-1.4710653 3.7035253 -0.12832774 0 28
-1.4723917 3.7068646 -0.091729805 0 29
-1.4726287 3.7074614 -0.055040531 0 30
-1.4702523 3.7014785 -0.018316204 0 31
-1.4653772 3.6892052 0.01825547 0 32
-1.4753762 3.7143784 0.055143218 0 33
-1.4727631 3.7077994 0.091752931 0 34
-1.4722116 3.7064111 0.12842774 0 35
-1.4639407 3.6855886 0.16423081 0 36
-1.4711101 3.7036381 0.20176651 0 37
-1.4730997 3.7086473 0.23885475 0 38
-1.4745659 3.7123382 0.27598509 0 39
-1.4711763 3.7038045 0.31220526 0 40
-1.4690814 3.6985304 0.34861591 0 41
-1.4703338 3.7016835 0.38585922 0 42
-1.4707783 3.7028027 0.42299908 0 43
-1.4671377 3.6936374 0.45895582 0 44
-1.4772999 3.7192216 0.49947411 0 45
-1.4689125 3.6981056 0.53385097 0 46
-1.4664447 3.6918926 0.57019603 0 47
-1.4676708 3.6949794 0.60804439 0 48
-1.4679298 3.6956315 0.64563525 0 49
-1.4689431 3.6981823 0.68370247 0 50
-1.4657425 3.6901245 0.71987128 0 51
-1.4706272 3.7024224 0.76018053 0 52
-1.4681537 3.6961951 0.79688144 0 53
-1.4696984 3.700084 0.83587974 0 54
-1.4730669 3.7085645 0.8761909 0 55
-1.4725482 3.7072587 0.91441953 0 56
-1.4692934 3.6990643 0.95101279 0 57
-1.4684868 3.6970336 0.98925406 0 58
-1.4702061 3.7013624 1.0293989 0 59
-1.4650174 3.6882994 1.0648001 0 60
-1.4660363 3.6908646 1.1047952 0 61
-1.468491 3.6970441 1.146167 0 62
-1.4656192 3.6898143 1.18358 0 63
-0.93746758 2.2780986 -0.7343868 0 0
-0.96923155 2.3552868 -0.73383147 0 1
-1.0042964 2.4404967 -0.73416072 0 2
-1.0430146 2.534584 -0.73537326 0 3
-1.0808018 2.6264091 -0.73408049 0 4
-1.1242031 2.7318764 -0.73464018 0 5
-1.1691813 2.8411758 -0.73409426 0 6
-1.2201653 2.9650698 -0.734999 0 7
-1.2753913 3.099272 -0.73588818 0 8
-1.3299841 3.2319357 -0.73376018 0 9
-1.3911438 3.3805573 -0.73246408 0 10
-1.4647474 3.559418 -0.73446143 0 11
-1.5249928 3.7058177 -0.72653592 0 12
-1.5215274 3.6973968 -0.68696421 0 13
-1.5187904 3.6907456 -0.64799535 0 14
-1.5195851 3.6926768 -0.61069417 0 15
-1.5222676 3.6991954 -0.57417148 0 16
-1.5197119 3.6929848 -0.53576893 0 17
-1.5241215 3.7037003 -0.49986878 0 18
-1.5178934 3.688566 -0.46061003 0 19
-1.523342 3.7018063 -0.42499298 0 20
-1.5245003 3.7046208 -0.38809013 0 21
-1.5230227 3.70103 -0.35059026 0 22
-1.5196427 3.6928165 -0.31283054 0 23
-1.5220343 3.6986284 -0.27633634 0 24
-1.520241 3.6942708 -0.23911473 0 25
-1.5203613 3.6945629 -0.20227529 0 26
-1.5198921 3.6934228 -0.16540021 0 27
-1.5237381 3.702769 -0.12894103 0 28
-1.524466 3.7045376 -0.092129134 0 29
-1.5191052 3.6915107 -0.055076879 0 30
-1.5255803 3.7072453 -0.018436175 0 31
-1.5237139 3.7027099 0.018413618 0 32
-1.5224844 3.6997223 0.0551994 0 33
-1.5325247 3.7241209 0.092616148 0 34
-1.5188812 3.6909661 0.12853001 0 35
-1.5223299 3.699347 0.16566549 0 36
-1.517589 3.6878262 0.20190644 0 37
-1.5227035 3.7002547 0.23950204 0 38
-1.5183383 3.6896472 0.27566531 0 39
-1.5261208 3.7085588 0.3141641 0 40
-1.5218904 3.6982787 0.35032961 0 41
-1.5205865 3.6951103 0.38709381 0 42
-1.524226 3.7039542 0.42523959 0 43
-1.5240782 3.7035954 0.46248683 0 44
-1.5284908 3.714318 0.50130177 0 45
-1.5186797 3.6904767 0.53540504 0 46
-1.5149598 3.681437 0.57141513 0 47
-1.5185379 3.6901319 0.61027336 0 48
-1.5192951 3.691972 0.64821064 0 49
-1.5183713 3.6897273 0.68553925 0 50
-1.5129325 3.6765106 0.72079015 0 51
-1.5198228 3.6932545 0.76207769 0 52
-1.5254682 3.7069728 0.8031885 0 53
-1.5211742 3.6965382 0.83924091 0 54
-1.5212469 3.6967149 0.87774444 0 55
-1.5258638 3.7079344 0.91914469 0 56
-1.5217763 3.6980016 0.95547825 0 57
-1.519088 3.691469 0.99268824 0 58
-1.5200828 3.6938863 1.0324401 0 59
-1.5235604 3.702337 1.0741801 0 60
-1.5248916 3.7055719 1.1147261 0 61
-1.5165883 3.6853943 1.1482501 0 62
-1.5224352 3.6996028 1.1926347 0 63
-0.95923442 2.2519085 -0.72969121 0 0
-0.99799311 2.3428988 -0.73373979 0 1
-1.0320704 2.422899 -0.73262924 0 2
-1.072485 2.5177767 -0.73426759 0 3
-1.1109346 2.6080413 -0.73270947 0 4
-1.1615217 2.7268002 -0.73706025 0 5
-1.2086977 2.8375509 -0.73694217 0 6
-1.2534832 2.9426899 -0.7332167 0 7
-1.3123364 3.0808547 -0.73529112 0 8
-1.3738532 3.2252719 -0.73602706 0 9
-1.4390136 3.3782432 -0.73574102 0 10
-1.5084248 3.5411932 -0.73447269 0 11
-1.576162 3.7002139 -0.72918189 0 12
-1.5738417 3.694767 -0.69001913 0 13
-1.5704235 3.6867423 -0.65063375 0 14
-1.5707767 3.6875715 -0.61299789 0 15
-1.5743818 3.6960349 -0.57664222 0 16
-1.5761018 3.7000728 -0.53956807 0 17
-1.5709181 3.6879034 -0.50030601 0 18
-1.5811594 3.711946 -0.4659223 0 19
-1.5687566 3.6828289 -0.42499679 0 20
-1.5793563 3.7077131 -0.39041901 0 21
-1.576895 3.7019348 -0.3524861 0 22
-1.5742171 3.6956482 -0.31468645 0 23
-1.5737936 3.694654 -0.27746427 0 24
-1.5735755 3.6941419 -0.24034062 0 25
-1.5737096 3.6944566 -0.20331356 0 26
-1.579167 3.7072687 -0.16687723 0 27
-1.574903 3.6972585 -0.12941372 0 28
-1.571853 3.6900983 -0.092243738 0 29
-1.5718782 3.6901574 -0.055340886 0 30
-1.5754524 3.6985481 -0.018487865 0 31
-1.5715941 3.6894906 0.018442588 0 32
-1.5745221 3.6963644 0.055433974 0 33
-1.5735373 3.6940525 0.092342585 0 34
-1.5748825 3.6972103 0.12941203 0 35
-1.5808769 3.711283 0.16705792 0 36
-1.5696706 3.6849744 0.20279174 0 37
-1.5814184 3.712554 0.24153851 0 38
-1.5774624 3.7032669 0.2781111 0 39
-1.5732391 3.6933522 0.31449094 0 40
-1.5743663 3.6959984 0.35192087 0 41
-1.5705955 3.6871462 0.38825333 0 42
-1.5714195 3.6890805 0.42571819 0 43
-1.5764836 3.700969 0.4645445 0 44
-1.5681667 3.6814442 0.49942973 0 45
-1.5737833 3.6946297 0.53877431 0 46
-1.5781465 3.7048728 0.57802111 0 47
-1.5761406 3.7001638 0.61509115 0 48
-1.571699 3.6897366 0.65116215 0 49
-1.570402 3.6866918 0.68851101 0 50
-1.5721591 3.6908166 0.72733003 0 51
-1.5755765 3.6988397 0.76716983 0 52
-1.5692432 3.6839714 0.80232501 0 53
-1.5736183 3.6942425 0.84304905 0 54
-1.5722636 3.691062 0.88092607 0 55
-1.573648 3.6943121 0.92049497 0 56
-1.5724125 3.6914115 0.95869881 0 57
-1.5774044 3.7031307 1.0009645 0 58
-1.5771911 3.70263 1.0402259 0 59
-1.5684603 3.6821337 1.0738329 0 60
-1.5721856 3.6908791 1.1160374 0 61
-1.5724114 3.6914091 1.1560609 0 62
-1.5729871 3.6927605 1.1965739 0 63
-0.9934991 2.2550354 -0.7346074 0 0
-1.0315107 2.3413136 -0.73715991 0 1
-1.0664263 2.4205649 -0.73583299 0 2
-1.0991763 2.4949005 -0.73148257 0 3
-1.148126 2.6060061 -0.73604834 0 4
-1.1902415 2.7015994 -0.73414898 0 5
-1.2381541 2.8103507 -0.73377657 0 6
-1.2953358 2.9401414 -0.73649478 0 7
-1.349331 3.0626993 -0.73486251 0 8
-1.4052056 3.189523 -0.73175681 0 9
-1.4735687 3.3446929 -0.73232508 0 10
-1.560051 3.5409896 -0.73835331 0 11
-1.6221652 3.6819761 -0.72946352 0 12
-1.6260607 3.6908181 -0.69296336 0 13
-1.6210647 3.6794779 -0.65282017 0 14
-1.6285286 3.6964195 -0.61775082 0 15
-1.6275733 3.6942511 -0.5794425 0 16
-1.6255554 3.6896708 -0.5409252 0 17
-1.6230406 3.6839626 -0.50244087 0 18
-1.6320884 3.7044995 -0.46747133 0 19
-1.6284702 3.6962872 -0.42882824 0 20
-1.6247903 3.6879342 -0.3904106 0 21
-1.6235969 3.6852257 -0.3527694 0 22
-1.6309067 3.7018173 -0.31689543 0 23
-1.6220827 3.6817887 -0.27797499 0 24
-1.6243982 3.6870444 -0.24116015 0 25
-1.6252117 3.6888909 -0.20409162 0 26
-1.6295117 3.6986511 -0.1673786 0 27
-1.6214918 3.6804476 -0.1295134 0 28
-1.6239991 3.6861386 -0.092636943 0 29
-1.6270076 3.6929672 -0.055678848 0 30
-1.6259037 3.6904614 -0.018545978 0 31
-1.6256876 3.689971 0.018543512 0 32
-1.621848 3.6812558 0.055502281 0 33
-1.6243193 3.6868653 0.092655204 0 34
-1.622733 3.6832647 0.12961254 0 35
-1.6284546 3.6962514 0.16727002 0 36
-1.6249514 3.6882999 0.20405892 0 37
-1.6262215 3.6911829 0.24143085 0 38
-1.6204658 3.6781185 0.27769792 0 39
-1.6197534 3.6765015 0.31472826 0 40
-1.6270602 3.6930866 0.35352188 0 41
-1.6200088 3.6770813 0.38926169 0 42
-1.6226506 3.6830778 0.42729574 0 43
-1.6280248 3.695276 0.46630743 0 44
-1.6254114 3.6893442 0.50317484 0 45
-1.625576 3.6897175 0.54093206 0 46
-1.6264007 3.6915896 0.57902509 0 47
-1.6290215 3.6975384 0.61793786 0 48
-1.6218905 3.6813526 0.65315282 0 49
-1.6279036 3.6950009 0.69374871 0 50
-1.6263545 3.6914847 0.73134732 0 51
-1.6235324 3.6850793 0.76839834 0 52
-1.628569 3.6965113 0.80935615 0 53
-1.6237631 3.6856027 0.84556997 0 54
-1.6235228 3.6850572 0.88419074 0 55
-1.6199621 3.6769755 0.92106897 0 56
-1.62693 3.692791 0.96417981 0 57
-1.6256392 3.6898611 1.0027052 0 58
-1.6263322 3.6914341 1.0426201 0 59
-1.6235828 3.6851938 1.0804659 0 60
-1.6218615 3.6812863 1.1190826 0 61
-1.6279545 3.6951163 1.1634032 0 62
-1.6252983 3.6890872 1.2017686 0 63
-1.0205214 2.241267 -0.73415458 0 0
-1.0554165 2.317903 -0.73381972 0 1
-1.0920769 2.398417 -0.73312694 0 2
-1.1373496 2.4978445 -0.73639041 0 3
-1.180527 2.5926707 -0.73632622 0 4
-1.2195544 2.6783826 -0.7318598 0 5
-1.275824 2.8019617 -0.7356267 0 6
-1.3318567 2.9250207 -0.73675376 0 7
-1.3892789 3.051131 -0.73613012 0 8
-1.4415089 3.1658385 -0.73033446 0 9
-1.5154413 3.3282087 -0.73274046 0 10
-1.5993319 3.512449 -0.73644716 0 11
-1.6783036 3.6858866 -0.73427135 0 12
-1.679853 3.6892893 -0.69650197 0 13
-1.6759896 3.6808047 -0.6566624 0 14
-1.6733742 3.6750605 -0.61757338 0 15
-1.6771277 3.6833041 -0.58091623 0 16
-1.6727672 3.6737273 -0.54156238 0 17
-1.674491 3.6775134 -0.50433141 0 18
-1.6783868 3.6860693 -0.46771461 0 19
-1.6783451 3.6859777 -0.42999399 0 20
-1.6753596 3.6794209 -0.3916606 0 21
-1.6741575 3.6767809 -0.3539049 0 22
-1.6818848 3.6937513 -0.31795132 0 23
-1.6764655 3.6818497 -0.27951488 0 24
-1.6795082 3.6885321 -0.24258992 0 25
-1.6817114 3.6933708 -0.20546804 0 26
-1.6759329 3.6806798 -0.16748528 0 27
-1.6784973 3.686312 -0.13043621 0 28
-1.6721874 3.6724541 -0.09280277 0 29
-1.679459 3.6884239 -0.055917483 0 30
-1.6711661 3.6702111 -0.018546078 0 31
-1.6791824 3.6878166 0.018635042 0 32
-1.6821465 3.6943264 0.056006968 0 33
-1.680719 3.6911912 0.093276247 0 34
-1.6738994 3.676214 0.1300789 0 35
-1.6836145 3.6975503 0.16825294 0 36
-1.6718233 3.6716542 0.20425992 0 37
-1.6744184 3.6773539 0.24185474 0 38
-1.6804057 3.6905031 0.28017184 0 39
-1.6844351 3.6993527 0.31843346 0 40
-1.6773484 3.6837885 0.35457939 0 41
-1.6767538 3.6824827 0.39198652 0 42
-1.6763842 3.6816711 0.42949158 0 43
-1.6840945 3.6986046 0.46930519 0 44
-1.669351 3.6662247 0.5027833 0 45
-1.6830261 3.6962578 0.54488373 0 46
-1.6835773 3.6974685 0.58315021 0 47
-1.6794813 3.688473 0.61982727 0 48
-1.6833898 3.6970568 0.65956181 0 49
-1.6759804 3.6807845 0.69489634 0 50
-1.6748633 3.6783311 0.73276621 0 51
-1.6758969 3.6806009 0.77170324 0 52
-1.6836902 3.6977165 0.81409156 0 53
-1.6741092 3.6766748 0.84818047 0 54
-1.6746042 3.6777618 0.88731396 0 55
-1.6788563 3.6871004 0.92870629 0 56
-1.6763847 3.6816723 0.96658587 0 57
-1.676862 3.6827207 1.006292 0 58
-1.6849153 3.7004073 1.0509267 0 59
-1.6807904 3.6913481 1.0882477 0 60
-1.6798331 3.6892455 1.127696 0 61
-1.6725041 3.6731496 1.1628742 0 62
-1.6773089 3.683702 1.206642 0 63
-1.048654 2.2299361 -0.73461139 0 0
-1.0891914 2.316138 -0.73744535 0 1
-1.1257501 2.3938792 -0.7359156 0 2
-1.1636051 2.4743767 -0.73363465 0 3
-1.2105001 2.5740979 -0.73522329 0 4
-1.2532251 2.6649516 -0.73234516 0 5
-1.3115722 2.7890253 -0.73640889 0 6
-1.3705075 2.9143496 -0.7382549 0 7
-1.432278 3.0457032 -0.73901379 0 8
-1.486923 3.1619041 -0.73358935 0 9
-1.555477 3.3076825 -0.73237705 0 10
-1.6425215 3.4927804 -0.73650235 0 11
-1.7187068 3.6547866 -0.73223066 0 12
-1.7322836 3.6836572 -0.69940722 0 13
-1.7347114 3.6888199 -0.66184777 0 14
-1.7262096 3.6707411 -0.62036759 0 15
-1.7272097 3.6728678 -0.58257592 0 16
-1.7360605 3.6916888 -0.54731572 0 17
-1.7359185 3.6913867 -0.50912285 0 18
-1.735106 3.6896591 -0.47084174 0 19
-1.7307057 3.6803021 -0.43178189 0 20
-1.734429 3.6882195 -0.39483756 0 21
-1.7366641 3.6929724 -0.35749185 0 22
-1.7309264 3.6807711 -0.31864205 0 23
-1.7312205 3.6813965 -0.28107536 0 24
-1.7288002 3.67625 -0.24316189 0 25
-1.7342432 3.6878242 -0.20633022 0 26
-1.7297524 3.6782749 -0.16833098 0 27
-1.7278289 3.6741846 -0.13074899 0 28
-1.7389578 3.6978498 -0.093977757 0 29
-1.7311112 3.6811643 -0.056125894 0 30
-1.7316926 3.6824005 -0.018713858 0 31
-1.7338512 3.6869907 0.018737186 0 32
-1.7302101 3.6792481 0.056096677 0 33
-1.7254633 3.6691539 0.093248479 0 34
-1.7340395 3.6873913 0.13121895 0 35
-1.7310846 3.6811075 0.16846061 0 36
-1.7339327 3.6871641 0.20629328 0 37
-1.7322669 3.6836219 0.24364948 0 38
-1.7354788 3.6904519 0.28176671 0 39
-1.7389355 3.6978025 0.32011643 0 40
-1.7360184 3.6915994 0.35735893 0 41
-1.7440237 3.7086225 0.39702174 0 42
-1.7307782 3.6804562 0.43179995 0 43
-1.7295368 3.6778164 0.46933049 0 44
-1.7351965 3.6898515 0.50891107 0 45
-1.7346715 3.688735 0.5468778 0 46
-1.7311949 3.6813421 0.58392006 0 47
-1.7319955 3.6830444 0.62244695 0 48
-1.7392045 3.6983745 0.66356206 0 49
-1.7276767 3.673861 0.69754726 0 50
-1.7341993 3.687731 0.73883098 0 51
-1.7321306 3.683332 0.77668285 0 52
-1.7326912 3.6845241 0.81581616 0 53
-1.7303568 3.6795602 0.85369003 0 54
-1.7273365 3.6731374 0.89125538 0 55
-1.7329447 3.6850631 0.93348992 0 56
-1.7288942 3.67645 0.97072285 0 57
-1.732584 3.6842961 1.0124674 0 58
-1.7307584 3.680414 1.0512134 0 59
-1.7330621 3.685313 1.0926684 0 60
-1.7352515 3.6899688 1.1343536 0 61
-1.7263163 3.6709681 1.1688156 0 62
-1.7357002 3.6909227 1.2159065 0 63
-1.069594 2.2036901 -0.73024267 0 0
-1.113107 2.29334 -0.73448896 0 1
-1.1581875 2.3862197 -0.73788327 0 2
-1.1965135 2.465183 -0.73521549 0 3
-1.2432072 2.5613861 -0.7359032 0 4
-1.2954811 2.6690862 -0.73780328 0 5
-1.3400375 2.760886 -0.7332744 0 6
-1.395636 2.8754358 -0.73268932 0 7
-1.4649669 3.0182788 -0.73667479 0 8
-1.5273621 3.146832 -0.73439437 0 9
-1.5997943 3.2960644 -0.73410475 0 10
-1.6851436 3.47191 -0.73641527 0 11
-1.773069 3.6530633 -0.73619783 0 12
-1.7857466 3.6791828 -0.70267379 0 13
-1.7834493 3.6744497 -0.66315401 0 14
-1.7899655 3.687875 -0.62693572 0 15
-1.778855 3.664984 -0.58475071 0 16
-1.7809545 3.6693096 -0.54720324 0 17
-1.7847633 3.6771572 -0.51014858 0 18
-1.7858437 3.679383 -0.47229698 0 19
-1.789044 3.6859765 -0.43499571 0 20
-1.7817767 3.6710038 -0.39531016 0 21
-1.7870325 3.6818323 -0.35851353 0 22
-1.7841108 3.6758127 -0.32008779 0 23
-1.7911664 3.6903493 -0.28341907 0 24
-1.7868425 3.6814408 -0.24494001 0 25
-1.7849638 3.6775701 -0.20696887 0 26
-1.7919462 3.691956 -0.1699526 0 27
-1.7904148 3.6888011 -0.13204259 0 28
-1.7879733 3.6837707 -0.094171576 0 29
-1.7848203 3.6772745 -0.056396943 0 30
-1.786832 3.6814191 -0.018819109 0 31
-1.7892118 3.6863222 0.018844172 0 32
-1.7847681 3.6771669 0.056395292 0 33
-1.7881612 3.6841576 0.094181471 0 34
-1.785439 3.6785493 0.13167563 0 35
-1.7848072 3.6772475 0.16927552 0 36
-1.789006 3.6858981 0.20743756 0 37
-1.7898322 3.6876004 0.24534984 0 38
-1.7866647 3.6810744 0.28270677 0 39
-1.7864919 3.6807184 0.32051498 0 40
-1.7861973 3.6801114 0.35834596 0 41
-1.7870864 3.6819432 0.39648816 0 42
-1.7873251 3.6824353 0.43457776 0 43
-1.7890302 3.6859481 0.4731397 0 44
-1.7889957 3.6858771 0.51135832 0 45
-1.7845591 3.6767366 0.54831082 0 46
-1.7881858 3.6842084 0.58781797 0 47
-1.7919742 3.6920135 0.62763929 0 48
-1.7841944 3.6759849 0.66343111 0 49
-1.7856011 3.6788833 0.70261651 0 50
-1.7816122 3.6706648 0.73974508 0 51
-1.7916188 3.6912816 0.78294539 0 52
-1.7829642 3.6734505 0.81815684 0 53
-1.7880638 3.6839571 0.85974628 0 54
-1.7904998 3.6889758 0.90037256 0 55
-1.7856991 3.679085 0.93746698 0 56
-1.7871501 3.6820745 0.97793639 0 57
-1.7819252 3.6713095 1.0148432 0 58
-1.7861301 3.6799731 1.0572807 0 59
-1.7843417 3.6762884 1.0964152 0 60
-1.7836827 3.6749306 1.1363873 0 61
-1.7835536 3.6746647 1.1768864 0 62
-1.7894006 3.6867113 1.2216754 0 63
-1.0985625 2.1942747 -0.73154366 0 0
-1.1379762 2.2729998 -0.73240083 0 1
-1.1771644 2.3512745 -0.73149806 0 2
-1.2256664 2.4481528 -0.73457569 0 3
-1.2689304 2.5345685 -0.73262596 0 4
-1.3229122 2.6423919 -0.73486543 0 5
-1.3744887 2.7454112 -0.73359782 0 6
-1.4327161 2.8617151 -0.73362666 0 7
-1.4986161 2.9933438 -0.73503095 0 8
-1.5789111 3.1537254 -0.7404781 0 9
-1.6372511 3.2702544 -0.73278487 0 10
-1.7215337 3.4386008 -0.73378468 0 11
-1.8128657 3.6210279 -0.73417872 0 12
-1.8429127 3.6810439 -0.7073037 0 13
-1.8380958 3.6714225 -0.66663647 0 14
-1.8376911 3.6706142 -0.6277954 0 15
-1.8470752 3.6893582 -0.59221864 0 16
-1.8408613 3.6769464 -0.55167609 0 17
-1.8422832 3.6797867 -0.5136174 0 18
-1.8425559 3.6803312 -0.47529107 0 19
-1.8433564 3.6819301 -0.4371601 0 20
-1.8352281 3.6656945 -0.39713851 0 21
-1.842611 3.6804411 -0.36055705 0 22
-1.8408709 3.6769655 -0.32213494 0 23
-1.8460982 3.6874065 -0.28491494 0 24
-1.8420234 3.6792676 -0.24628381 0 25
-1.8364842 3.6682034 -0.20769693 0 26
-1.8390156 3.6732597 -0.17012006 0 27
-1.8395066 3.6742404 -0.13232106 0 28
-1.8439431 3.6831021 -0.094726965 0 29
-1.8383588 3.671948 -0.056657657 0 30
-1.8369375 3.6691091 -0.018870221 0 31
-1.8353467 3.6659317 0.018853879 0 32
-1.8406295 3.6764834 0.05672764 0 33
-1.8445314 3.6842773 0.094757184 0 34
-1.8367223 3.668679 0.13212077 0 35
-1.8489367 3.6930761 0.17103782 0 36
-1.8352237 3.6656857 0.20755437 0 37
-1.8422074 3.6796353 0.24630843 0 38
-1.8447343 3.6846824 0.28470445 0 39
-1.8417187 3.678659 0.32228333 0 40
-1.8375916 3.6704156 0.35957491 0 41
-1.838912 3.6730528 0.39793569 0 42
-1.8337365 3.6627154 0.43487871 0 43
-1.8396684 3.6745636 0.47454625 0 44
-1.8410461 3.6773155 0.51327246 0 45
-1.8477836 3.690773 0.55375057 0 46
-1.8369181 3.6690702 0.58896202 0 47
-1.8424168 3.6800532 0.62940979 0 48
-1.8407861 3.6767962 0.66761214 0 49
-1.8431184 3.6814547 0.70738268 0 50
-1.8441449 3.6835053 0.74684626 0 51
-1.8373863 3.6700053 0.78316557 0 52
-1.8361149 3.6674659 0.82179034 0 53
-1.8371207 3.6694748 0.86157334 0 54
-1.837781 3.6707938 0.90138227 0 55
-1.839924 3.6750743 0.94213873 0 56
-1.8418707 3.6789625 0.98305082 0 57
-1.8434643 3.6821456 1.0240272 0 58
-1.8366816 3.6685979 1.060421 0 59
-1.842044 3.6793087 1.1039878 0 60
-1.8413743 3.6779711 1.1442426 0 61
-1.84067 3.6765645 1.1846542 0 62
-1.8377962 3.6708243 1.2238067 0 63
-1.1289787 2.1874204 -0.73383129 0 0
-1.162517 2.2524014 -0.73031449 0 1
-1.2107813 2.3459148 -0.73440689 0 2
-1.2585474 2.4384625 -0.736256 0 3
-1.3092434 2.5366871 -0.737836 0 4
-1.3566964 2.6286283 -0.73562151 0 5
-1.417783 2.746985 -0.73862094 0 6
-1.4663365 2.8410585 -0.73289812 0 7
-1.5390602 2.9819622 -0.73682755 0 8
-1.6102991 3.1199889 -0.73715043 0 9
-1.6775872 3.2503612 -0.73289418 0 10
-1.7638547 3.4175062 -0.73385614 0 11
-1.8698994 3.6229703 -0.73917866 0 12
-1.8964943 3.6744983 -0.71047318 0 13
-1.8958296 3.6732104 -0.67114323 0 14
-1.8945175 3.6706681 -0.63174129 0 15
-1.8912187 3.6642768 -0.5918808 0 16
-1.8948021 3.6712196 -0.55427074 0 17
-1.8890338 3.6600435 -0.51406497 0 18
-1.8908532 3.6635685 -0.47609299 0 19
-1.9000393 3.6813669 -0.439834 0 20
-1.9013652 3.6839356 -0.40161735 0 21
-1.8957095 3.6729777 -0.36208215 0 22
-1.8968596 3.6752062 -0.32399979 0 23
-1.8945994 3.6708272 -0.2854124 0 24
-1.9030815 3.6872613 -0.24836656 0 25
-1.8955083 3.6725879 -0.20924909 0 26
-1.8958679 3.6732848 -0.17118795 0 27
-1.8912077 3.6642554 -0.13278893 0 28
-1.8958651 3.6732793 -0.095066719 0 29
-1.901777 3.6847339 -0.057211448 0 30
-1.8954655 3.6725049 -0.01900612 0 31
-1.8941239 3.6699057 0.018992668 0 32
-1.8928597 3.6674562 0.056943186 0 33
-1.9025882 3.6863055 0.09540385 0 34
-1.8945701 3.6707702 0.13302501 0 35
-1.8969417 3.6753652 0.17128491 0 36
-1.8982171 3.6778362 0.20954812 0 37
-1.9006358 3.6825228 0.24804738 0 38
-1.8882887 3.6585999 0.28446171 0 39
-1.897287 3.6760342 0.32407278 0 40
