# .PCD v0.7 - Point Cloud Data file format
VERSION 0.7
FIELDS x y z intensity ring
SIZE 4 4 4 4 2
TYPE F F F F U
COUNT 1 1 1 1 1
WIDTH 1220
HEIGHT 1
VIEWPOINT 0 0 0 1 0 0 0
POINTS 1220
DATA ascii
-0.87202424 -1.741786 -0.37169069 0 11
-0.86951017 -1.7367644 -0.35213634 0 12
-0.8728705 -1.7434764 -0.33500478 0 13
-0.8681547 -1.7340569 -0.3148604 0 14
-0.86966437 -1.7370723 -0.29709634 0 15
-0.8742187 -1.7461692 -0.28029644 0 16
-0.8659451 -1.7296435 -0.25950962 0 17
-0.86646014 -1.7306721 -0.24156381 0 18
-0.87063426 -1.7390096 -0.2245819 0 19
-0.86881757 -1.7353809 -0.20604391 0 20
-0.87096161 -1.7396635 -0.18847379 0 21
-0.86961931 -1.7369823 -0.17016472 0 22
-0.87202466 -1.7417868 -0.15259606 0 23
-0.86945862 -1.7366613 -0.13418666 0 24
-0.87031102 -1.738364 -0.11636309 0 25
-0.87196565 -1.7416689 -0.098614842 0 26
-0.87665796 -1.7510414 -0.081096165 0 27
-0.87586033 -1.7494482 -0.063003182 0 28
-0.87091035 -1.7395611 -0.044740368 0 29
-0.86948174 -1.7367076 -0.026797162 0 30
-0.86591965 -1.7295926 -0.008895291 0 31
-0.87174106 -1.7412204 0.0089550931 0 32
-0.87241483 -1.7425662 0.02688756 0 33
-0.87123197 -1.7402035 0.044756889 0 34
-0.86755019 -1.7328495 0.062405411 0 35
-0.8687728 -1.7352916 0.080366738 0 36
-0.87488329 -1.7474967 0.098944813 0 37
-0.8802321 -1.7581804 0.11768956 0 38
-0.87009138 -1.7379253 0.13428432 0 39
-0.86850661 -1.7347598 0.15198041 0 40
-0.87749422 -1.7527117 0.17170566 0 41
-0.86971802 -1.7371795 0.18820469 0 42
-0.8715148 -1.7407684 0.20668358 0 43
-0.87198961 -1.7417169 0.22493151 0 44
-0.86691928 -1.7315892 0.24169181 0 45
-0.8666532 -1.7310578 0.25972182 0 46
-0.87250125 -1.7427387 0.27974579 0 47
-0.87162578 -1.7409902 0.29776642 0 48
-0.86835009 -1.7344472 0.31493127 0 49
-0.87640262 -1.7505314 0.33636039 0 50
-0.8713395 -1.7404183 0.35287717 0 51
-0.86984235 -1.7374278 0.37076068 0 52
-0.87177587 -1.7412899 0.39018092 0 53
-0.86868465 -1.7351154 0.40739596 0 54
-0.87211114 -1.7419596 0.4277471 0 55
-0.87151599 -1.7407708 0.44626242 0 56
-0.87084121 -1.739423 0.46478897 0 57
-0.87400705 -1.7457464 0.48550278 0 58
-0.87243658 -1.7426096 0.50370741 0 59
-0.87125367 -1.7402469 0.52216637 0 60
-0.87110555 -1.739951 0.54131097 0 61
-0.87025368 -1.7382494 0.56009477 0 62
-0.86643165 -1.7306153 0.57696545 0 63
-0.8542105 -1.7599343 -0.58319408 0 0
-0.85480565 -1.7611605 -0.56404763 0 1
-0.85697603 -1.7656322 -0.54598093 0 2
-0.85064268 -1.7525835 -0.52269 0 3
-0.8564406 -1.764529 -0.50696087 0 4
-0.85200614 -1.7553926 -0.48523512 0 5
-0.8512159 -1.7537645 -0.46578908 0 6
-0.85098922 -1.7532974 -0.44675741 0 7
-0.85507149 -1.7617083 -0.42998216 0 8
-0.85236895 -1.7561402 -0.40984055 0 9
-0.85487568 -1.7613049 -0.39228064 0 10
-0.85673296 -1.7651314 -0.37439612 0 11
-0.85074556 -1.7527955 -0.35323894 0 12
-0.86088282 -1.7736813 -0.33874893 0 13
-0.85410905 -1.7597253 -0.31759012 0 14
-0.85504824 -1.7616602 -0.2994808 0 15
-0.85103953 -1.753401 -0.27975634 0 16
-0.85477263 -1.7610924 -0.26263127 0 17
-0.85210925 -1.755605 -0.24356298 0 18
-0.84891701 -1.7490281 -0.22451065 0 19
-0.85169053 -1.7547424 -0.20708363 0 20
-0.85636193 -1.7643669 -0.18999493 0 21
-0.85419619 -1.7599049 -0.17136839 0 22
-0.8563177 -1.7642757 -0.15363218 0 23
-0.84649593 -1.7440399 -0.13394238 0 24
-0.8574298 -1.7665671 -0.11753631 0 25
-0.85020876 -1.7516894 -0.098582812 0 26
-0.85330564 -1.75807 -0.080929615 0 27
-0.85712212 -1.7659332 -0.063212514 0 28
-0.85150385 -1.7543578 -0.044848245 0 29
-0.85898274 -1.7697666 -0.02714223 0 30
-0.85318708 -1.7578257 -0.0089858593 0 31
-0.85682708 -1.7653253 0.0090241954 0 32
-0.85059553 -1.7524863 0.026877208 0 33
-0.85035664 -1.7519943 0.04478782 0 34
-0.85614336 -1.7639166 0.063140333 0 35
-0.85220432 -1.755801 0.080825165 0 36
-0.85448986 -1.7605098 0.099079214 0 37
-0.85333157 -1.7581234 0.11697452 0 38
-0.85600221 -1.7636257 0.13544658 0 39
-0.84849292 -1.7481543 0.15222833 0 40
-0.85336179 -1.7581857 0.17120099 0 41
-0.85474825 -1.7610422 0.18963693 0 42
-0.85381144 -1.7591121 0.20759931 0 43
-0.85570532 -1.7630141 0.22630593 0 44
-0.85540456 -1.7623944 0.24450491 0 45
-0.85601741 -1.7636571 0.26301372 0 46
-0.85291052 -1.7572559 0.28037137 0 47
-0.85637057 -1.7643846 0.29994392 0 48
-0.84746212 -1.7460306 0.31511855 0 49
-0.85707009 -1.765826 0.33724868 0 50
-0.85998911 -1.77184 0.35707697 0 51
-0.85481077 -1.7611711 0.37355611 0 52
-0.85577232 -1.7631521 0.39269209 0 53
-0.85296112 -1.7573602 0.41012529 0 54
-0.86189491 -1.7757665 0.43341336 0 55
-0.86118472 -1.7743033 0.4521099 0 56
-0.85777754 -1.7672834 0.46937963 0 57
-0.85499203 -1.7615445 0.48693565 0 58
-0.85341448 -1.7582942 0.50516957 0 59
-0.85685295 -1.7653786 0.52650601 0 60
-0.85322708 -1.7579081 0.54359245 0 61
-0.85006773 -1.751399 0.56092131 0 62
-0.84715283 -1.7453934 0.57837564 0 63
-0.84124267 -1.7888814 -0.58931398 0 0
-0.83537906 -1.7764125 -0.56559974 0 1
-0.83806777 -1.7821299 -0.54785436 0 2
-0.83659983 -1.7790084 -0.52746302 0 3
-0.84051567 -1.7873353 -0.51050526 0 4
-0.83714813 -1.7801743 -0.48920292 0 5
-0.83433598 -1.7741945 -0.4684549 0 6
-0.83977926 -1.7857695 -0.45236614 0 7
-0.83596861 -1.7776662 -0.43133548 0 8
-0.83669227 -1.779205 -0.41279107 0 9
-0.83744138 -1.780798 -0.39429891 0 10
-0.8362174 -1.7781951 -0.37495771 0 11
-0.83789879 -1.7817707 -0.35697493 0 12
-0.83519614 -1.7760235 -0.33720937 0 13
-0.83686686 -1.7795763 -0.31929144 0 14
-0.83626711 -1.778301 -0.30053884 0 15
-0.83650678 -1.7788105 -0.28214794 0 16
-0.83768946 -1.7813255 -0.26409253 0 17
-0.83514714 -1.7759193 -0.24493805 0 18
-0.84091622 -1.7881871 -0.22819266 0 19
-0.8341341 -1.7737651 -0.20810238 0 20
-0.83408785 -1.7736667 -0.18987758 0 21
-0.83495307 -1.7755066 -0.17187487 0 22
-0.83136553 -1.7678778 -0.15304407 0 23
-0.83935034 -1.7848573 -0.1362742 0 24
-0.83631051 -1.7783931 -0.11763003 0 25
-0.83792281 -1.7818217 -0.099691212 0 26
-0.84007132 -1.7863904 -0.081751592 0 27
-0.8368423 -1.779524 -0.063325875 0 28
-0.8390525 -1.784224 -0.045344561 0 29
-0.84485215 -1.7965568 -0.027391702 0 30
-0.83819109 -1.7823921 -0.0090580685 0 31
-0.83920324 -1.7845446 0.0090690069 0 32
-0.83498275 -1.7755698 0.027071718 0 33
-0.83500177 -1.7756102 0.045125648 0 34
-0.83680254 -1.7794396 0.063322872 0 35
-0.8367458 -1.7793188 0.081427976 0 36
-0.83897984 -1.7840694 0.099816971 0 37
-0.83751816 -1.7809613 0.1177999 0 38
-0.83486778 -1.7753252 0.13554643 0 39
-0.82710421 -1.7588162 0.1522596 0 40
-0.83966172 -1.7855195 0.17284416 0 41
-0.83524573 -1.7761289 0.19014117 0 42
-0.83635861 -1.7784956 0.20865737 0 43
-0.83928978 -1.7847286 0.22775131 0 44
-0.83385873 -1.7731795 0.24456017 0 45
-0.83315319 -1.7716793 0.26266241 0 46
-0.84077299 -1.7878826 0.28358692 0 47
-0.8411445 -1.7886724 0.30229166 0 48
-0.83969712 -1.7855947 0.32037127 0 49
-0.83450776 -1.7745596 0.33693144 0 50
-0.84072584 -1.7877822 0.3581793 0 51
-0.83865416 -1.7833769 0.37605035 0 52
-0.83851707 -1.7830855 0.39480537 0 53
-0.83664274 -1.7790997 0.41276664 0 54
-0.83575398 -1.7772098 0.43122473 0 55
-0.84091073 -1.7881755 0.45297563 0 56
-0.83878732 -1.7836601 0.47095418 0 57
-0.83165491 -1.7684932 0.48599285 0 58
-0.83908284 -1.7842885 0.50963503 0 59
-0.83555424 -1.776785 0.52680379 0 60
-0.84119558 -1.7887812 0.5498991 0 61
-0.8424598 -1.7914695 0.5703938 0 62
-0.82877833 -1.7623762 0.58058238 0 63
-0.81987774 -1.8006136 -0.58981323 0 0
-0.81798232 -1.7964509 -0.56873435 0 1
-0.81716895 -1.7946646 -0.54857731 0 2
-0.82299626 -1.8074626 -0.53285867 0 3
-0.81671172 -1.7936604 -0.50940496 0 4
-0.81996167 -1.8007979 -0.49206245 0 5
-0.82527101 -1.8124584 -0.47584262 0 6
-0.81936848 -1.7994951 -0.45325658 0 7
-0.81904781 -1.7987909 -0.43398467 0 8
-0.82304406 -1.8075675 -0.41699183 0 9
-0.8150804 -1.7900778 -0.39410463 0 10
-0.82083637 -1.8027189 -0.37797198 0 11
-0.81734586 -1.7950531 -0.35759541 0 12
-0.81936175 -1.7994803 -0.33972442 0 13
-0.82340175 -1.8083531 -0.32261357 0 14
-0.82164514 -1.8044952 -0.30323535 0 15
-0.82196522 -1.8051981 -0.28470874 0 16
-0.82148844 -1.8041511 -0.26595885 0 17
-0.81871182 -1.798053 -0.24658363 0 18
-0.8194434 -1.7996597 -0.22835359 0 19
-0.820503 -1.8019868 -0.21021383 0 20
-0.8219707 -1.8052101 -0.19215788 0 21
-0.8182134 -1.7969584 -0.17296445 0 22
-0.8197 -1.8002234 -0.15495992 0 23
-0.82262343 -1.8066436 -0.13715492 0 24
-0.81829929 -1.797147 -0.118196 0 25
-0.82048148 -1.8019395 -0.10024473 0 26
-0.82493657 -1.8117238 -0.082440495 0 27
-0.82383317 -1.8093005 -0.064020164 0 28
-0.81801617 -1.7965252 -0.04539812 0 29
-0.8298502 -1.822515 -0.027629811 0 30
-0.81657964 -1.7933704 -0.0090621458 0 31
-0.81920826 -1.7991432 0.0090913167 0 32
-0.82405972 -1.8097981 0.02743702 0 33
-0.81715971 -1.7946444 0.045350589 0 34
-0.81523907 -1.7904261 0.063352317 0 35
-0.82562095 -1.8132268 0.082508892 0 36
-0.82288188 -1.8072114 0.10053802 0 37
-0.81713027 -1.7945796 0.11802715 0 38
-0.82065189 -1.8023138 0.1368262 0 39
-0.81758702 -1.7955828 0.15456046 0 40
-0.81713837 -1.7945974 0.17273718 0 41
-0.81592488 -1.7919323 0.1907445 0 42
-0.81530285 -1.7905663 0.20888154 0 43
-0.81883663 -1.7983272 0.22818451 0 44
-0.81959337 -1.7999891 0.24684913 0 45
-0.81926942 -1.7992777 0.26524046 0 46
-0.82448131 -1.810724 0.28558028 0 47
-0.82076287 -1.8025575 0.30290973 0 48
-0.82031399 -1.8015717 0.32140374 0 49
-0.81815779 -1.7968363 0.33922523 0 50
-0.81758082 -1.7955692 0.3576982 0 51
-0.81656039 -1.793328 0.376003 0 52
-0.82172966 -1.8046807 0.39731961 0 53
-0.8201555 -1.8012236 0.41552836 0 54
-0.8183654 -1.7972921 0.43362308 0 55
-0.82094765 -1.8029634 0.45413014 0 56
-0.81944561 -1.7996646 0.47248375 0 57
-0.82435036 -1.8104364 0.49469614 0 58
-0.82165146 -1.804509 0.51248598 0 59
-0.81824642 -1.7970309 0.52978337 0 60
-0.81822497 -1.7969838 0.54928619 0 61
-0.82050085 -1.801982 0.57048547 0 62
-0.81542885 -1.790843 0.5866127 0 63
-0.80164224 -1.8195603 -0.59274572 0 0
-0.80353254 -1.8238509 -0.57423735 0 1
-0.79935306 -1.8143644 -0.55155271 0 2
-0.8044576 -1.8259506 -0.53535241 0 3
-0.80439174 -1.8258011 -0.5156849 0 4
-0.79944521 -1.8145735 -0.49310321 0 5
-0.80027306 -1.8164526 -0.47427189 0 6
-0.80296797 -1.8225695 -0.45654702 0 7
-0.79618394 -1.8071712 -0.43361172 0 8
-0.79845285 -1.8123211 -0.41579205 0 9
-0.80210167 -1.8206031 -0.39862353 0 10
-0.80244976 -1.8213933 -0.37978983 0 11
-0.80068058 -1.8173776 -0.36005411 0 12
-0.803716 -1.8242673 -0.34251225 0 13
-0.80491525 -1.8269893 -0.32414803 0 14
-0.79904819 -1.8136723 -0.30310348 0 15
-0.80649799 -1.8305818 -0.28712639 0 16
-0.80400389 -1.8249208 -0.26754299 0 17
-0.79969656 -1.8151439 -0.2475602 0 18
-0.8023783 -1.821231 -0.22982141 0 19
-0.79779857 -1.810836 -0.21008584 0 20
-0.80115676 -1.8184583 -0.1925049 0 21
-0.80021793 -1.8163275 -0.17386852 0 22
-0.80385321 -1.8245788 -0.15619373 0 23
-0.80072993 -1.8174896 -0.13722044 0 24
-0.7996791 -1.8151045 -0.11872134 0 25
-0.80329806 -1.8233187 -0.10087695 0 26
-0.8005172 -1.8170067 -0.082226746 0 27
-0.79951304 -1.8147275 -0.0638595 0 28
-0.79754633 -1.8102635 -0.045494024 0 29
-0.79959184 -1.8149064 -0.027363336 0 30
-0.80527502 -1.827806 -0.0091854222 0 31
-0.80341673 -1.823588 0.0091642262 0 32
-0.80330026 -1.8233236 0.027490243 0 33
-0.79615694 -1.8071098 0.045414768 0 34
-0.79827273 -1.8119122 0.06376043 0 35
-0.80257982 -1.8216885 0.082438618 0 36
-0.80170882 -1.8197114 0.10067737 0 37
-0.8040027 -1.824918 0.11936323 0 38
-0.80401713 -1.8249508 0.13778377 0 39
-0.80407792 -1.8250889 0.15623739 0 40
-0.80532116 -1.8279107 0.17497733 0 41
-0.79912573 -1.8138484 0.19201688 0 42
-0.80583608 -1.8290794 0.21220237 0 43
-0.80088139 -1.8178333 0.22939266 0 44
-0.79932749 -1.8143063 0.24744596 0 45
-0.7973426 -1.809801 0.26532635 0 46
-0.80747098 -1.8327904 0.28747278 0 47
-0.80589974 -1.829224 0.30570248 0 48
-0.79662585 -1.8081743 0.32080981 0 49
-0.7979334 -1.811142 0.34004793 0 50
-0.79758197 -1.8103443 0.35866073 0 51
-0.7994718 -1.8146338 0.37838036 0 52
-0.79599375 -1.8067393 0.39558804 0 53
-0.80318868 -1.8230704 0.41825822 0 54
-0.80646634 -1.83051 0.43921161 0 55
-0.8022781 -1.8210036 0.45615476 0 56
-0.80097592 -1.8180479 0.47468841 0 57
-0.80441737 -1.8258593 0.49617004 0 58
-0.80586189 -1.829138 0.51662737 0 59
-0.80427754 -1.825542 0.5352326 0 60
-0.80571347 -1.8288012 0.5559414 0 61
-0.79980224 -1.8153839 0.57157153 0 62
-0.81392705 -1.8474443 0.60182929 0 63
-0.78642941 -1.8462297 -0.59823811 0 0
-0.78746653 -1.8486644 -0.57895738 0 1
-0.7832607 -1.8387908 -0.55600828 0 2
-0.7818293 -1.8354304 -0.53527272 0 3
-0.77789491 -1.826194 -0.51305538 0 4
-0.78289884 -1.8379413 -0.49679968 0 5
-0.78782034 -1.8494951 -0.48033351 0 6
-0.78361827 -1.8396302 -0.45837232 0 7
-0.78283584 -1.8377935 -0.43861637 0 8
-0.78637975 -1.8461132 -0.42129448 0 9
-0.7865724 -1.8465654 -0.40215987 0 10
-0.77888596 -1.8285207 -0.37925026 0 11
-0.7777155 -1.8257729 -0.35979554 0 12
-0.78066558 -1.8326986 -0.34226707 0 13
-0.77890426 -1.8285636 -0.32270363 0 14
-0.78512049 -1.8431568 -0.3063944 0 15
-0.78673375 -1.8469442 -0.28815365 0 16
-0.78408194 -1.8407189 -0.26842529 0 17
-0.7850253 -1.8429335 -0.25001487 0 18
-0.78672916 -1.8469334 -0.2318265 0 19
-0.78213328 -1.8361441 -0.21189019 0 20
-0.78719079 -1.8480172 -0.19459462 0 21
-0.78580856 -1.8447722 -0.17565317 0 22
-0.78044176 -1.8321731 -0.15601052 0 23
-0.78600091 -1.8452238 -0.13857418 0 24
-0.78462201 -1.8419868 -0.11983953 0 25
-0.78315347 -1.8385391 -0.10117859 0 26
-0.78691345 -1.8473661 -0.083156459 0 27
-0.78813934 -1.8502439 -0.064763382 0 28
-0.78075838 -1.8329164 -0.045818578 0 29
-0.78650177 -1.8463995 -0.027690252 0 30
-0.78642368 -1.8462163 -0.0092286477 0 31
-0.7893694 -1.8531317 0.0092632156 0 32
-0.78797811 -1.8498654 0.027742229 0 33
-0.78937966 -1.8531559 0.046324518 0 34
-0.78526521 -1.8434966 0.064527206 0 35
-0.77974838 -1.8305453 0.082399294 0 36
-0.78456861 -1.8418612 0.10136142 0 37
-0.7865476 -1.8465072 0.12013363 0 38
-0.78506118 -1.8430176 0.13840851 0 39
-0.78342539 -1.8391775 0.15660696 0 40
-0.78711396 -1.8478369 0.17594497 0 41
-0.78836805 -1.8507808 0.19488564 0 42
-0.78236085 -1.8366784 0.21195185 0 43
-0.77863687 -1.8279358 0.22944194 0 44
-0.78407246 -1.8406966 0.24971141 0 45
-0.78473514 -1.8422523 0.26864892 0 46
-0.78382385 -1.8401129 0.28708786 0 47
-0.78082377 -1.8330699 0.3047176 0 48
-0.78140837 -1.8344423 0.32374111 0 49
-0.77976787 -1.830591 0.34187344 0 50
-0.78272271 -1.8375279 0.36211205 0 51
-0.78438193 -1.841423 0.3819263 0 52
-0.78129208 -1.8341693 0.39946017 0 53
-0.78214467 -1.8361709 0.41902557 0 54
-0.78349185 -1.8393334 0.43898392 0 55
-0.78313673 -1.8384998 0.45809066 0 56
-0.7792142 -1.8292912 0.47508636 0 57
-0.78776741 -1.8493708 0.49988911 0 58
-0.77768344 -1.8256975 0.51291591 0 59
-0.78743297 -1.8485856 0.53910917 0 60
-0.78786427 -1.8495983 0.55927622 0 61
-0.7829473 -1.838055 0.57563484 0 62
-0.78229547 -1.8365248 0.59509349 0 63
-0.76361006 -1.8556151 -0.5981915 0 0
-0.77544367 -1.8843714 -0.58710939 0 1
-0.76115423 -1.8496473 -0.5564189 0 2
-0.76827949 -1.8669621 -0.54167235 0 3
-0.76695424 -1.8637416 -0.52091521 0 4
-0.76853073 -1.8675727 -0.5022167 0 5
-0.7650485 -1.8591106 -0.48035127 0 6
-0.76734966 -1.8647026 -0.46223348 0 7
-0.76453435 -1.8578613 -0.44112879 0 8
-0.76664674 -1.8629946 -0.42296362 0 9
-0.76875859 -1.8681264 -0.40476626 0 10
-0.76817918 -1.8667184 -0.3851845 0 11
-0.76719654 -1.8643305 -0.36550722 0 12
-0.76978564 -1.870622 -0.34755546 0 13
-0.77029991 -1.8718719 -0.32865021 0 14
-0.76885545 -1.8683617 -0.30898932 0 15
-0.76441503 -1.8575712 -0.28832337 0 16
-0.76037133 -1.8477448 -0.26806614 0 17
-0.76575309 -1.8608228 -0.25114536 0 18
-0.76540726 -1.8599824 -0.23226549 0 19
-0.76531386 -1.8597555 -0.21351281 0 20
-0.76765853 -1.8654531 -0.19542187 0 21
-0.7667821 -1.8633235 -0.17650844 0 22
-0.76958203 -1.8701273 -0.15842459 0 23
-0.7686767 -1.8679274 -0.13955882 0 24
-0.77401841 -1.880908 -0.12174332 0 25
-0.76717466 -1.8642774 -0.10206816 0 26
-0.7615298 -1.8505599 -0.082872443 0 27
-0.76650965 -1.8626614 -0.064863205 0 28
-0.76509196 -1.8592162 -0.046237342 0 29
-0.76129556 -1.8499908 -0.027601633 0 30
-0.76540017 -1.8599652 -0.0092496285 0 31
-0.76006323 -1.8469962 0.0091851335 0 32
-0.76910484 -1.8689678 0.027884768 0 33
-0.77181578 -1.8755555 0.046643689 0 34
-0.76752996 -1.8651407 0.064949542 0 35
-0.76244771 -1.8527905 0.082972333 0 36
-0.76544231 -1.8600677 0.10183768 0 37
-0.77000749 -1.8711612 0.12111245 0 38
-0.77019638 -1.8716203 0.13983473 0 39
-0.76583171 -1.8610139 0.15765256 0 40
-0.7649644 -1.8589063 0.17609 0 41
-0.77191544 -1.8757976 0.19650555 0 42
-0.77109158 -1.8737956 0.21512471 0 43
-0.77225375 -1.8766197 0.23434308 0 44
-0.76406866 -1.8567295 0.25059292 0 45
-0.76689142 -1.863589 0.27036479 0 46
-0.75926358 -1.8450528 0.28638032 0 47
-0.76243353 -1.8527561 0.30640846 0 48
-0.76425052 -1.8571715 0.32606921 0 49
-0.76216054 -1.8520927 0.34411275 0 50
-0.76839745 -1.8672487 0.36607933 0 51
-0.75868642 -1.8436505 0.38042459 0 52
-0.76169395 -1.8509588 0.40104657 0 53
-0.76280361 -1.8536555 0.42084333 0 54
-0.76376623 -1.8559946 0.44068557 0 55
-0.76607692 -1.8616097 0.46146682 0 56
-0.76718932 -1.864313 0.48169544 0 57
-0.76761883 -1.8653567 0.50162083 0 58
-0.76611757 -1.8617085 0.520347 0 59
-0.76247883 -1.8528663 0.53758264 0 60
-0.76524287 -1.859583 0.55940777 0 61
-0.76506275 -1.8591453 0.57924974 0 62
-0.76276529 -1.8535624 0.59752977 0 63
-0.75301677 -1.8957803 -0.60810858 0 0
-0.74554551 -1.8769708 -0.58190328 0 1
-0.74683404 -1.8802147 -0.56280917 0 2
-0.74350393 -1.8718311 -0.54039156 0 3
-0.74628752 -1.8788389 -0.5225305 0 4
-0.74779034 -1.8826224 -0.50375301 0 5
-0.74390554 -1.8728422 -0.48149931 0 6
-0.75043076 -1.8892698 -0.46600071 0 7
-0.74517542 -1.8760391 -0.44323575 0 8
-0.75338244 -1.896701 -0.42848051 0 9
-0.74982375 -1.8877416 -0.40698779 0 10
-0.75302911 -1.8958114 -0.38924757 0 11
-0.74980891 -1.8877044 -0.36825424 0 12
-0.74532396 -1.876413 -0.34690237 0 13
-0.75041515 -1.8892305 -0.33005288 0 14
-0.74689758 -1.8803748 -0.30943376 0 15
-0.74706399 -1.8807937 -0.29048005 0 16
-0.74654669 -1.8794914 -0.27131954 0 17
-0.74704719 -1.8807515 -0.25257614 0 18
-0.74743038 -1.8817161 -0.23381412 0 19
-0.74734586 -1.8815033 -0.21493833 0 20
-0.74731642 -1.8814292 -0.19611801 0 21
-0.74246186 -1.8692074 -0.17618766 0 22
-0.74848348 -1.8843673 -0.15883921 0 23
-0.74282849 -1.8701305 -0.13903047 0 24
-0.75013328 -1.8885208 -0.12162985 0 25
-0.74918711 -1.8861388 -0.10275292 0 26
-0.74801302 -1.8831829 -0.083915129 0 27
-0.7455377 -1.8769512 -0.065036662 0 28
-0.74860519 -1.8846738 -0.046638001 0 29
-0.74735302 -1.8815215 -0.027932843 0 30
-0.74661022 -1.8796513 -0.0093011688 0 31
-0.7485618 -1.8845646 0.009325482 0 32
-0.75014311 -1.8885456 0.028037123 0 33
-0.7448597 -1.8752441 0.046404656 0 34
-0.74634504 -1.8789837 0.065107092 0 35
-0.74404293 -1.8731879 0.083469748 0 36
-0.74645323 -1.879256 0.10237797 0 37
-0.7430827 -1.8707705 0.12048663 0 38
-0.74264842 -1.8696772 0.13899677 0 39
-0.74703544 -1.8807218 0.15853192 0 40
-0.7477206 -1.8824468 0.17743558 0 41
-0.74848121 -1.8843616 0.19642368 0 42
-0.75152242 -1.8920182 0.21613951 0 43
-0.74628389 -1.8788298 0.23345548 0 44
-0.74539661 -1.8765959 0.25201809 0 45
-0.74778742 -1.882615 0.27177045 0 46
-0.74577546 -1.8775498 0.28997901 0 47
-0.74458444 -1.8745512 0.30847543 0 48
-0.74802113 -1.8832034 0.32899994 0 49
-0.74850291 -1.8844163 0.34838197 0 50
-0.75073242 -1.8900293 0.36870781 0 51
-0.74595642 -1.8780053 0.3855916 0 52
-0.7527011 -1.8949856 0.40854955 0 53
-0.74764556 -1.8822579 0.42521772 0 54
-0.74712348 -1.8809435 0.44439447 0 55
-0.74751365 -1.8819258 0.46418929 0 56
-0.74714816 -1.8810055 0.48359808 0 57
-0.74878669 -1.8851308 0.50442421 0 58
-0.74769962 -1.8823941 0.52351922 0 59
-0.75135386 -1.8915938 0.54609704 0 60
-0.75333577 -1.8965833 0.56770879 0 61
-0.7496497 -1.8873035 0.58510667 0 62
-0.74506694 -1.875766 0.60168862 0 63
-0.7314055 -1.9094782 -0.60957146 0 0
-0.73360831 -1.9152292 -0.59092289 0 1
-0.7277109 -1.8998328 -0.56596023 0 2
-0.72999406 -1.9057935 -0.54756361 0 3
-0.73504746 -1.9189863 -0.53114218 0 4
-0.7339589 -1.9161444 -0.51026934 0 5
-0.72807997 -1.9007963 -0.48634771 0 6
-0.73012 -1.9061223 -0.46790767 0 7
-0.72883141 -1.9027581 -0.44739723 0 8
-0.72770089 -1.8998067 -0.42712837 0 9
-0.72985405 -1.9054279 -0.40883508 0 10
-0.73286498 -1.9132886 -0.39095613 0 11
-0.73009008 -1.9060441 -0.37005267 0 12
-0.72528982 -1.893512 -0.3483884 0 13
-0.73339617 -1.9146752 -0.33289745 0 14
-0.72978628 -1.905251 -0.31202707 0 15
-0.73551673 -1.9202114 -0.29514876 0 16
-0.72491276 -1.8925278 -0.27189413 0 17
-0.73155844 -1.9098777 -0.25526029 0 18
-0.7317183 -1.910295 -0.23622935 0 19
-0.73504007 -1.9189671 -0.21816908 0 20
-0.72915232 -1.9035959 -0.19747911 0 21
-0.72805208 -1.9007235 -0.17830098 0 22
-0.73288327 -1.9133363 -0.16050933 0 23
-0.73232722 -1.9118847 -0.14145443 0 24
-0.73187685 -1.9107089 -0.12246999 0 25
-0.72522348 -1.8933389 -0.1026516 0 26
-0.72506207 -1.8929175 -0.083945274 0 27
-0.72723156 -1.8985814 -0.065471351 0 28
-0.72973001 -1.905104 -0.046917971 0 29
-0.73078179 -1.90785 -0.028188178 0 30
-0.72383159 -1.8897051 -0.0093061719 0 31
-0.73007733 -1.9060109 0.0093864724 0 32
-0.72846889 -1.9018117 0.028098963 0 33
-0.72548175 -1.8940132 0.046644829 0 34
-0.73034525 -1.9067104 0.065751672 0 35
-0.72480428 -1.8922446 0.083915435 0 36
-0.73132968 -1.9092804 0.10351589 0 37
-0.73484397 -1.9184551 0.1229665 0 38
-0.7279734 -1.9005182 0.14061345 0 39
-0.73017281 -1.9062601 0.1599157 0 40
-0.72728133 -1.8987113 0.17811222 0 41
-0.73167908 -1.9101926 0.19816343 0 42
-0.72873384 -1.9025034 0.2162973 0 43
-0.73208642 -1.9112561 0.2363482 0 44
-0.73183304 -1.9105945 0.2553561 0 45
-0.72896314 -1.903102 0.27341327 0 46
-0.72530127 -1.8935419 0.29104951 0 47
-0.73305374 -1.9137814 0.31342411 0 48
-0.72617918 -1.895834 0.32962158 0 49
-0.73160601 -1.9100019 0.35142237 0 50
-0.72828817 -1.9013399 0.36913937 0 51
-0.7275508 -1.8994149 0.38812122 0 52
-0.72598934 -1.8953384 0.40667021 0 53
-0.72777098 -1.8999897 0.42716953 0 54
-0.72398722 -1.8901114 0.44442359 0 55
-0.73002315 -1.9058695 0.46784562 0 56
-0.72907001 -1.9033811 0.48700905 0 57
-0.73007929 -1.906016 0.50757211 0 58
-0.7290287 -1.9032731 0.526793 0 59
-0.73189056 -1.9107445 0.54898614 0 60
-0.72526675 -1.8934519 0.56405932 0 61
-0.72738409 -1.8989795 0.58590931 0 62
-0.7293281 -1.9040549 0.60784018 0 63
-0.71033359 -1.9249974 -0.61169112 0 0
-0.70831352 -1.9195231 -0.58951592 0 1
-0.71175349 -1.9288455 -0.57195258 0 2
-0.70657992 -1.9148251 -0.54762077 0 3
-0.71008068 -1.9243122 -0.53015947 0 4
-0.71091926 -1.9265846 -0.510683 0 5
-0.71678561 -1.9424824 -0.49472114 0 6
-0.70686173 -1.9155889 -0.46806243 0 7
-0.712125 -1.9298521 -0.45167476 0 8
-0.70915294 -1.921798 -0.43007961 0 9
-0.70953685 -1.9228383 -0.41066766 0 10
-0.70890468 -1.9211252 -0.39074668 0 11
-0.71277624 -1.9316171 -0.37328774 0 12
-0.71103662 -1.9269027 -0.3528966 0 13
-0.71436161 -1.9359134 -0.33503747 0 14
-0.70870864 -1.920594 -0.31308892 0 15
-0.71355778 -1.933735 -0.29585642 0 16
-0.70889926 -1.9211105 -0.2747274 0 17
-0.70642972 -1.9144181 -0.25468689 0 18
-0.71198601 -1.9294757 -0.23750065 0 19
-0.70751363 -1.9173554 -0.21698032 0 20
-0.70952255 -1.9227996 -0.19855119 0 21
-0.71303964 -1.932331 -0.18042985 0 22
-0.70943063 -1.9225504 -0.16053836 0 23
-0.71240658 -1.9306153 -0.14218137 0 24
-0.71113771 -1.9271767 -0.12295573 0 25
-0.71158105 -1.9283781 -0.10406905 0 26
-0.71249741 -1.9308615 -0.085233003 0 27
-0.70842081 -1.9198139 -0.065898158 0 28
-0.71528333 -1.9384112 -0.047518041 0 29
-0.71280175 -1.9316863 -0.028408706 0 30
-0.70896852 -1.9212981 -0.0094181132 0 31
-0.71832716 -1.9466599 0.0095424354 0 32
-0.70982683 -1.9236242 0.028290141 0 33
-0.70873874 -1.9206755 0.04708327 0 34
-0.70926797 -1.9221097 0.065976962 0 35
-0.71448773 -1.9362552 0.085471094 0 36
-0.71733332 -1.9439667 0.10491033 0 37
-0.71129131 -1.9275929 0.12298229 0 38
-0.7144165 -1.9360621 0.14258251 0 39
-0.70982134 -1.9236094 0.16062677 0 40
-0.71078259 -1.9262142 0.1798587 0 41
-0.70464569 -1.9095834 0.19718647 0 42
-0.71345127 -1.9334464 0.21880129 0 43
-0.7094534 -1.9226122 0.23665583 0 44
-0.70982218 -1.9236116 0.25590998 0 45
-0.70775968 -1.9180223 0.27428576 0 46
-0.70727557 -1.9167103 0.29325166 0 47
-0.71327472 -1.9329679 0.31510609 0 48
-0.71265239 -1.9312814 0.33423585 0 49
-0.71247947 -1.9308128 0.35361272 0 50
-0.71248496 -1.9308277 0.37313518 0 51
-0.71042609 -1.9252481 0.39158529 0 52
-0.71078616 -1.926224 0.41139072 0 53
-0.71037817 -1.9251182 0.43082264 0 54
-0.70879155 -1.9208186 0.44956049 0 55
-0.71041727 -1.9252243 0.47041681 0 56
-0.70862257 -1.9203607 0.48908707 0 57
-0.71494591 -1.9374969 0.51357549 0 58
-0.71221018 -1.930083 0.53174937 0 59
-0.70677829 -1.9153626 0.54777449 0 60
-0.70979702 -1.9235435 0.57038039 0 61
-0.70565969 -1.9123312 0.58730716 0 62
-0.70872706 -1.9206438 0.61030769 0 63
-0.69101274 -1.9459817 -0.61561257 0 0
-0.69174945 -1.9480565 -0.59562159 0 1
-0.68909711 -1.940587 -0.57287836 0 2
-0.68699974 -1.9346807 -0.55084169 0 3
-0.69448465 -1.9557592 -0.53643 0 4
-0.69550008 -1.9586186 -0.51686829 0 5
-0.69397366 -1.9543201 -0.49552524 0 6
-0.69472623 -1.9564395 -0.47592071 0 7
-0.69285071 -1.9511578 -0.45463291 0 8
-0.69395596 -1.9542704 -0.435404 0 9
-0.69174421 -1.9480417 -0.41420245 0 10
-0.68813264 -1.9378711 -0.39240202 0 11
-0.69201386 -1.948801 -0.37493578 0 12
-0.68972099 -1.9423441 -0.35414457 0 13
-0.69385844 -1.9539957 -0.33666483 0 14
-0.69472289 -1.9564301 -0.31751421 0 15
-0.69241512 -1.949931 -0.29700923 0 16
-0.68652999 -1.9333577 -0.27525076 0 17
-0.68995857 -1.9430131 -0.25734293 0 18
-0.6971615 -1.9632975 -0.24059041 0 19
-0.68970948 -1.9423116 -0.21882823 0 20
-0.6926378 -1.9505582 -0.20052296 0 21
-0.69156796 -1.9475454 -0.18104276 0 22
-0.69021982 -1.9437488 -0.16158755 0 23
-0.68931109 -1.9411898 -0.14232515 0 24
-0.6908375 -1.9454882 -0.12357271 0 25
-0.69083762 -1.9454887 -0.10452612 0 26
-0.69394767 -1.9542469 -0.085882127 0 27
-0.69260156 -1.9504561 -0.066652596 0 28
-0.69282573 -1.9510874 -0.047616344 0 29
-0.69232035 -1.9496641 -0.028545745 0 30
-0.69257563 -1.9503831 -0.0095182201 0 31
-0.69538873 -1.9583052 0.0095568812 0 32
-0.69426072 -1.9551284 0.028625749 0 33
-0.6889115 -1.9400643 0.047347326 0 34
-0.69172674 -1.9479924 0.066568404 0 35
-0.68987936 -1.94279 0.085378639 0 36
-0.6922437 -1.9494482 0.10473885 0 37
-0.69035161 -1.9441199 0.1234858 0 38
-0.69323033 -1.9522268 0.14313436 0 39
-0.69337499 -1.9526341 0.1623262 0 40
-0.69302952 -1.9516613 0.18142538 0 41
-0.69287854 -1.9512361 0.20059265 0 42
-0.69080144 -1.9453866 0.21917468 0 43
-0.69219726 -1.9493176 0.23887727 0 44
-0.69569927 -1.9591796 0.25948411 0 45
-0.69229269 -1.9495863 0.27756122 0 46
-0.69259405 -1.950435 0.297086 0 47
-0.6934821 -1.9529359 0.31694713 0 48
-0.69823807 -1.9663293 0.33878985 0 49
-0.6925382 -1.9502777 0.35559109 0 50
-0.692972 -1.9514993 0.37545493 0 51
-0.68851995 -1.9389619 0.39262289 0 52
-0.69137901 -1.9470133 0.41398376 0 53
-0.69293576 -1.9513972 0.43476388 0 54
-0.68879604 -1.9397393 0.45197234 0 55
-0.69180822 -1.948222 0.47392175 0 56
-0.69211996 -1.9490998 0.4942016 0 57
-0.6923086 -1.9496311 0.51449651 0 58
-0.69650072 -1.9614366 0.53798723 0 59
-0.69229794 -1.9496011 0.55508977 0 60
-0.6915378 -1.9474604 0.57490742 0 61
-0.68502712 -1.9291255 0.58983338 0 62
-0.69191879 -1.9485333 0.61641973 0 63
-0.67477006 -1.9769979 -0.62275261 0 0
-0.67342383 -1.9730537 -0.60068727 0 1
-0.67088515 -1.9656156 -0.577788 0 2
-0.67551488 -1.9791801 -0.56110412 0 3
-0.66784608 -1.9567114 -0.53439838 0 4
-0.67474443 -1.976923 -0.51946992 0 5
-0.67358524 -1.9735265 -0.49825731 0 6
-0.67115521 -1.9664069 -0.47630179 0 7
-0.6713748 -1.9670503 -0.45637786 0 8
-0.66850621 -1.9586457 -0.43451452 0 9
-0.67471319 -1.9768313 -0.41852814 0 10
-0.67462778 -1.976581 -0.39853054 0 11
-0.67010397 -1.9633269 -0.37611672 0 12
-0.67100763 -1.9659746 -0.35692167 0 13
-0.67173588 -1.9681082 -0.33764765 0 14
-0.66891795 -1.959852 -0.31671074 0 15
-0.67411405 -1.975076 -0.29955402 0 16
-0.66826034 -1.9579252 -0.27755755 0 17
-0.67056781 -1.9646859 -0.25910172 0 18
-0.67138392 -1.967077 -0.24002375 0 19
-0.67404068 -1.9748609 -0.22154482 0 20
-0.67445898 -1.9760865 -0.20227945 0 21
-0.6732046 -1.9724113 -0.18257096 0 22
-0.66804171 -1.9572848 -0.16201767 0 23
-0.66928655 -1.9609319 -0.14315838 0 24
-0.6687668 -1.9594091 -0.12392522 0 25
-0.67069352 -1.9650543 -0.10512628 0 26
-0.67327285 -1.9726113 -0.086318821 0 27
-0.66329193 -1.9433683 -0.06612666 0 28
-0.67404062 -1.9748608 -0.047990628 0 29
-0.66885835 -1.9596773 -0.028569771 0 30
-0.67594635 -1.9804444 -0.0096236346 0 31
-0.66841924 -1.9583908 0.0095164683 0 32
-0.67565912 -1.9796028 0.028860262 0 33
-0.67348093 -1.9732211 0.047950778 0 34
-0.67004466 -1.9631531 0.066799879 0 35
-0.67147797 -1.9673525 0.086088702 0 36
-0.67236829 -1.969961 0.10538878 0 37
-0.67433554 -1.9757249 0.12495714 0 38
-0.67485118 -1.9772357 0.14434865 0 39
-0.66875482 -1.959374 0.16219062 0 40
-0.67307901 -1.9720433 0.1825369 0 41
-0.67347914 -1.9732157 0.20198558 0 42
-0.67409736 -1.975027 0.22156344 0 43
-0.67346323 -1.9731692 0.24076712 0 44
-0.67303061 -1.9719017 0.26005331 0 45
-0.67585057 -1.9801637 0.28071013 0 46
-0.67076391 -1.9652604 0.2980653 0 47
-0.67311084 -1.9721367 0.3186959 0 48
-0.67029226 -1.9638785 0.33692202 0 49
-0.66811538 -1.9575005 0.35538322 0 50
-0.67281026 -1.9712559 0.37763569 0 51
-0.67000216 -1.9630286 0.395798 0 52
-0.67243946 -1.9701697 0.41711774 0 53
-0.67485255 -1.9772397 0.43863952 0 54
-0.66864944 -1.9590653 0.45452526 0 55
-0.66937238 -1.9611833 0.47503653 0 56
-0.66910386 -1.9603966 0.4949424 0 57
-0.67322445 -1.9724696 0.5182997 0 58
-0.66964579 -1.9619844 0.53583848 0 59
-0.67173874 -1.9681165 0.55796754 0 60
-0.67248595 -1.9703059 0.57916665 0 61
-0.67195988 -1.9687644 0.59938139 0 62
-0.67287964 -1.9714593 0.62100798 0 63
-0.64955539 -1.9825343 -0.62193358 0 0
-0.65015972 -1.9843788 -0.60165572 0 1
-0.6514805 -1.98841 -0.58208954 0 2
-0.65099943 -1.9869418 -0.56099272 0 3
-0.65188497 -1.9896446 -0.54116261 0 4
-0.65183169 -1.9894819 -0.52062446 0 5
-0.65458423 -1.9978832 -0.5023365 0 6
-0.65282458 -1.9925125 -0.48064432 0 7
-0.64992207 -1.9836535 -0.45834118 0 8
-0.6522736 -1.9908307 -0.43984199 0 9
-0.65212208 -1.9903682 -0.41966468 0 10
-0.65102398 -1.9870167 -0.39899039 0 11
-0.65320283 -1.9936669 -0.3803615 0 12
-0.65129596 -1.9878469 -0.35941145 0 13
-0.65082937 -1.9864227 -0.33939105 0 14
-0.65471441 -1.9982803 -0.3215954 0 15
-0.65662283 -2.0041051 -0.30270934 0 16
-0.65563554 -2.0010917 -0.28251266 0 17
-0.65471721 -1.9982889 -0.26245168 0 18
-0.65041387 -1.9851546 -0.24123545 0 19
-0.65009576 -1.9841837 -0.22167714 0 20
-0.65330917 -1.9939914 -0.20327456 0 21
-0.65447396 -1.9975466 -0.1841387 0 22
-0.65541381 -2.0004151 -0.16490828 0 23
-0.65603614 -2.0023146 -0.14557959 0 24
-0.656003 -2.0022135 -0.12611273 0 25
-0.65669638 -2.0043297 -0.10678736 0 26
-0.65582365 -2.0016658 -0.087230735 0 27
-0.65286571 -1.9926379 -0.06752488 0 28
-0.64990157 -1.9835908 -0.048004948 0 29
-0.65382844 -1.9955763 -0.028973736 0 30
-0.65552527 -2.0007553 -0.00968243 0 31
-0.65801162 -2.0083439 0.0097191548 0 32
-0.6490224 -1.9809077 0.028760763 0 33
-0.65181625 -1.9894347 0.048146375 0 34
-0.64980388 -1.9832928 0.067208201 0 35
-0.65703297 -2.005357 0.087391593 0 36
-0.65142637 -1.9882449 0.10593039 0 37
-0.65384048 -1.9956131 0.125697 0 38
-0.654679 -1.9981723 0.14527844 0 39
-0.6472218 -1.975412 0.1628471 0 40
-0.65452713 -1.9977089 0.18415366 0 41
-0.6501075 -1.9842196 0.20227839 0 42
-0.65076131 -1.986215 0.22190407 0 43
-0.65129846 -1.9878545 0.24156354 0 44
-0.64916444 -1.9813411 0.2602258 0 45
-0.65284216 -1.9925661 0.28130901 0 46
-0.65201491 -1.9900411 0.30058503 0 47
-0.65192765 -1.9897748 0.32022658 0 48
-0.65334672 -1.9941061 0.34070382 0 49
-0.64946783 -1.982267 0.35840261 0 50
-0.65064549 -1.9858615 0.37887236 0 51
-0.65239638 -1.9912056 0.3998315 0 52
-0.65028465 -1.9847603 0.41848224 0 53
-0.65164089 -1.9888997 0.43941537 0 54
-0.65073097 -1.9861224 0.45891163 0 55
-0.64888191 -1.9804788 0.47774151 0 56
-0.65427947 -1.996953 0.50210261 0 57
-0.65284044 -1.9925607 0.52143019 0 58
-0.65083712 -1.9864464 0.54029274 0 59
-0.65391082 -1.9958277 0.5635016 0 60
-0.65654963 -2.0038817 0.58661878 0 61
-0.65401489 -1.9961452 0.60522324 0 62
-0.65204954 -1.9901468 0.6243217 0 63
-0.63452142 -2.020273 -0.63127702 0 0
-0.63752633 -2.0298405 -0.61301631 0 1
-0.63022667 -2.0065987 -0.58510131 0 2
-0.63433576 -2.0196817 -0.56799132 0 3
-0.63332552 -2.0164654 -0.54629809 0 4
-0.63444233 -2.0200212 -0.52653491 0 5
-0.63485569 -2.0213373 -0.50623262 0 6
-0.63412076 -2.0189972 -0.4851155 0 7
-0.63506383 -2.0220001 -0.46536195 0 8
-0.63110942 -2.0094092 -0.44219866 0 9
-0.63215482 -2.0127378 -0.42271033 0 10
-0.63242388 -2.0135946 -0.40273523 0 11
-0.63347167 -2.0169306 -0.38328478 0 12
-0.63080621 -2.0084438 -0.36170572 0 13
-0.63610435 -2.0253129 -0.34467319 0 14
-0.63200921 -2.0122743 -0.32257244 0 15
-0.6361593 -2.0254879 -0.3047345 0 16
-0.63376331 -2.0178592 -0.28375819 0 17
-0.63370651 -2.0176783 -0.26395488 0 18
-0.63196129 -2.0121217 -0.24354976 0 19
-0.6322577 -2.0130653 -0.22401834 0 20
-0.6296072 -2.0046265 -0.20355411 0 21
-0.63586515 -2.0245514 -0.18589325 0 22
-0.6327132 -2.0145156 -0.16541681 0 23
-0.63660717 -2.0269139 -0.14678787 0 24
-0.63690525 -2.027863 -0.1272254 0 25
-0.63464952 -2.0206807 -0.10723463 0 26
-0.62850082 -2.0011039 -0.086862877 0 27
-0.63005137 -2.0060406 -0.067711398 0 28
-0.62842685 -2.0008681 -0.048232418 0 29
-0.63365787 -2.0175235 -0.029177051 0 30
-0.63949078 -2.0360949 -0.0098146563 0 31
-0.62847579 -2.001024 0.0096456027 0 32
-0.63240349 -2.0135295 0.029119292 0 33
-0.63294017 -2.0152383 0.048578821 0 34
-0.6321938 -2.012862 0.067941651 0 35
-0.6287145 -2.0017841 0.086892404 0 36
-0.62873906 -2.0018623 0.10623596 0 37
-0.63109744 -2.0093713 0.12606524 0 38
-0.63000864 -2.0059047 0.1452664 0 39
-0.63076031 -2.0082977 0.16490625 0 40
-0.63363802 -2.0174601 0.18524215 0 41
-0.6337803 -2.0179133 0.20490327 0 42
-0.63437319 -2.0198011 0.22476789 0 43
-0.63311678 -2.0158007 0.24399507 0 44
-0.63273335 -2.0145798 0.26354954 0 45
-0.63174903 -2.0114458 0.28285635 0 46
-0.63579196 -2.0243182 0.30455852 0 47
-0.63323218 -2.0161681 0.32319662 0 48
-0.63169575 -2.0112762 0.34228441 0 49
-0.63348889 -2.0169854 0.363244 0 50
-0.63508672 -2.0220728 0.38426197 0 51
-0.63155711 -2.0108349 0.40218326 0 52
-0.63414419 -2.0190718 0.42404059 0 53
-0.6355415 -2.0235209 0.44530413 0 54
-0.63356417 -2.017225 0.46426302 0 55
-0.63115567 -2.0095565 0.48284715 0 56
-0.63600308 -2.0249903 0.50714749 0 57
-0.63672519 -2.0272896 0.52842951 0 58
-0.63179004 -2.0115764 0.54497361 0 59
-0.63261658 -2.0142081 0.56645197 0 60
-0.6317966 -2.0115974 0.58655882 0 61
-0.63438618 -2.0198421 0.60999686 0 62
-0.6307466 -2.0082541 0.62752151 0 63
-0.60888833 -2.0254445 -0.63050586 0 0
-0.61601865 -2.0491633 -0.6165176 0 1
-0.61051357 -2.0308509 -0.5899393 0 2
-0.6164512 -2.050602 -0.57451177 0 3
-0.61335915 -2.0403166 -0.55067492 0 4
-0.61024195 -2.0299473 -0.52712649 0 5
-0.61370081 -2.0414531 -0.50934201 0 6
-0.61330742 -2.0401444 -0.48834774 0 7
-0.6153971 -2.0470958 -0.46936065 0 8
-0.60955119 -2.0276496 -0.44452965 0 9
-0.61778158 -2.0550275 -0.42996401 0 10
-0.61254168 -2.0375972 -0.40599877 0 11
-0.6147086 -2.0448055 -0.38711628 0 12
-0.61409724 -2.0427718 -0.36650026 0 13
-0.61272901 -2.0382204 -0.3455615 0 14
-0.61428827 -2.0434072 -0.32632762 0 15
-0.61089814 -2.03213 -0.30458063 0 16
-0.61129993 -2.0334666 -0.28487441 0 17
-0.60931748 -2.0268719 -0.26415747 0 18
-0.60909057 -2.0261173 -0.24431877 0 19
-0.60811204 -2.0228622 -0.22425947 0 20
-0.61632627 -2.0501866 -0.20739515 0 21
-0.61547834 -2.0473659 -0.187279 0 22
-0.60785007 -2.0219908 -0.16540438 0 23
-0.61475837 -2.044971 -0.14753696 0 24
-0.61289734 -2.0387805 -0.12742788 0 25
-0.61628044 -2.050034 -0.10838202 0 26
-0.61160433 -2.0344791 -0.087978519 0 27
-0.61128414 -2.0334141 -0.068376474 0 28
-0.61257422 -2.0377054 -0.04893513 0 29
-0.61143696 -2.0339224 -0.029303264 0 30
-0.61189711 -2.0354531 -0.0097745545 0 31
-0.61500043 -2.0457764 0.0098241279 0 32
-0.61039186 -2.0304458 0.029253175 0 33
-0.61505395 -2.0459542 0.049133226 0 34
-0.61211449 -2.0361762 0.06846936 0 35
-0.61488295 -2.0453854 0.088450141 0 36
-0.61394399 -2.0422621 0.10797112 0 37
-0.60969859 -2.0281398 0.12676282 0 38
-0.61460352 -2.044456 0.14749981 0 39
-0.61138785 -2.0337591 0.16636705 0 40
-0.61607134 -2.0493386 0.18745945 0 41
-0.6137886 -2.0417452 0.20654123 0 42
-0.614151 -2.0429506 0.22648652 0 43
-0.61334038 -2.0402541 0.24602346 0 44
-0.61316258 -2.0396626 0.26582444 0 45
-0.6131959 -2.0397735 0.28575796 0 46
-0.61239696 -2.0371158 0.30532789 0 47
-0.61311102 -2.0394912 0.32570222 0 48
-0.60853517 -2.0242698 0.3431963 0 49
-0.61627811 -2.0500264 0.36780185 0 50
-0.60825467 -2.0233366 0.38305187 0 51
-0.61250675 -2.0374811 0.40597564 0 52
-0.61291134 -2.0388269 0.42657444 0 53
-0.61469156 -2.0447488 0.44827837 0 54
-0.61181569 -2.0351822 0.46662912 0 55
-0.60937345 -2.0270584 0.48521528 0 56
-0.61000246 -2.0291507 0.50627255 0 57
-0.61312914 -2.0395515 0.52962041 0 58
-0.61151868 -2.0341942 0.5490225 0 59
-0.61120147 -2.0331392 0.56961924 0 60
-0.61423367 -2.0432255 0.59353405 0 61
-0.61509728 -2.0460982 0.61559546 0 62
-0.61158252 -2.0344067 0.63329571 0 63
-0.59677428 -2.0774617 -0.64436537 0 0
-0.59302181 -2.064399 -0.61886078 0 1
-0.5958848 -2.0743654 -0.60040593 0 2
-0.5908373 -2.0567944 -0.57416779 0 3
-0.5931322 -2.0647833 -0.55526793 0 4
-0.59352773 -2.06616 -0.53459442 0 5
-0.59774661 -2.0808465 -0.51729774 0 6
-0.59128046 -2.058337 -0.49092495 0 7
-0.592103 -2.0612004 -0.47088966 0 8
-0.59188503 -2.0604417 -0.45008916 0 9
-0.59120584 -2.0580771 -0.4290486 0 10
-0.5926134 -2.0629771 -0.40957287 0 11
-0.5943923 -2.0691698 -0.39031562 0 12
-0.59293783 -2.0641067 -0.368992 0 13
-0.59296101 -2.064187 -0.34870136 0 14
-0.59483624 -2.0707152 -0.32949564 0 15
-0.5954867 -2.0729797 -0.30958235 0 16
-0.58871579 -2.0494092 -0.28607205 0 17
-0.5926097 -2.0629642 -0.26789135 0 18
-0.59164631 -2.0596104 -0.24746156 0 19
-0.58816838 -2.0475035 -0.22617234 0 20
-0.5929262 -2.0640659 -0.20804591 0 21
-0.5916571 -2.0596483 -0.18772282 0 22
-0.59413314 -2.0682676 -0.16857956 0 23
-0.58788639 -2.0465217 -0.14711618 0 24
-0.58857852 -2.0489311 -0.12760031 0 25
-0.594136 -2.0682774 -0.10895204 0 26
-0.59094721 -2.0571768 -0.088639118 0 27
-0.59268028 -2.0632098 -0.069128111 0 28
-0.5962013 -2.0754671 -0.049662162 0 29
-0.59020758 -2.0546021 -0.02949441 0 30
-0.58954167 -2.052284 -0.0098198242 0 31
-0.58939952 -2.0517893 0.0098174568 0 32
-0.58990228 -2.0535393 0.029479155 0 33
-0.59496623 -2.0711677 0.049559284 0 34
-0.58628297 -2.04094 0.068381958 0 35
-0.59429765 -2.0688403 0.089141667 0 36
-0.59182894 -2.0602462 0.10852898 0 37
-0.59555197 -2.0732067 0.12911212 0 38
-0.59324872 -2.0651889 0.14845808 0 39
-0.59254795 -2.0627494 0.16812979 0 40
-0.59044695 -2.0554354 0.18733886 0 41
-0.58994615 -2.0536921 0.20700029 0 42
-0.59123594 -2.058182 0.22735193 0 43
-0.59364206 -2.0665581 0.24829631 0 44
-0.59452623 -2.0696359 0.2687577 0 45
-0.59059125 -2.0559378 0.28698337 0 46
-0.59270132 -2.0632832 0.30813429 0 47
-0.59406161 -2.0680187 0.32906654 0 48
-0.58786678 -2.0464535 0.34570563 0 49
-0.59297782 -2.0642457 0.36901689 0 50
-0.59224272 -2.0616868 0.38890406 0 51
-0.58883464 -2.0498226 0.40696126 0 52
-0.59255528 -2.0627749 0.43002796 0 53
-0.59053642 -2.055747 0.44906363 0 54
-0.59269702 -2.0632682 0.47136205 0 55
-0.5950774 -2.0715547 0.49407744 0 56
-0.59296298 -2.064194 0.5131579 0 57
-0.59119999 -2.0580568 0.53249776 0 58
-0.59037703 -2.055192 0.55268866 0 59
-0.59301436 -2.064373 0.5762834 0 60
-0.59271151 -2.0633187 0.59720856 0 61
-0.5944013 -2.069201 0.62030029 0 62
-0.58700532 -2.0434546 0.63381737 0 63
-0.5713641 -2.0852935 -0.64456666 0 0
-0.56803745 -2.0731525 -0.61934417 0 1
-0.57382333 -2.094269 -0.60407889 0 2
-0.5699774 -2.0802326 -0.57871044 0 3
-0.56988335 -2.0798895 -0.55740374 0 4
-0.56873697 -2.0757055 -0.53521425 0 5
-0.57420397 -2.0956583 -0.51918536 0 6
-0.56963313 -2.0789764 -0.49413958 0 7
-0.57078981 -2.0831976 -0.47427571 0 8
-0.56861192 -2.0752492 -0.45176229 0 9
-0.56616938 -2.0663345 -0.42928624 0 10
-0.57108247 -2.0842659 -0.41237411 0 11
-0.56894165 -2.0764525 -0.39034024 0 12
-0.57513976 -2.0990736 -0.37395039 0 13
-0.57324898 -2.0921729 -0.35221156 0 14
-0.56952828 -2.0785935 -0.32960996 0 15
-0.56739312 -2.070801 -0.30819175 0 16
-0.57054216 -2.0822937 -0.28966117 0 17
-0.5712254 -2.0847876 -0.26979274 0 18
-0.57071716 -2.0829325 -0.24940164 0 19
-0.56831992 -2.0741835 -0.22833028 0 20
-0.5692504 -2.0775793 -0.20868668 0 21
-0.56849706 -2.0748298 -0.18845513 0 22
-0.57039744 -2.0817657 -0.16909529 0 23
-0.5719189 -2.0873187 -0.14953205 0 24
-0.57107067 -2.0842228 -0.12935106 0 25
-0.57283807 -2.0906732 -0.10975244 0 26
-0.57251871 -2.0895078 -0.08972206 0 27
-0.57122225 -2.0847762 -0.069610089 0 28
-0.57106143 -2.0841889 -0.049699079 0 29
-0.56969142 -2.0791891 -0.029744552 0 30
-0.57487065 -2.0980914 -0.010004425 0 31
-0.57119018 -2.0846589 0.0099403746 0 32
-0.56885833 -2.0761485 0.029701054 0 33
-0.56987208 -2.0798485 0.049595572 0 34
-0.57023722 -2.0811808 0.069490045 0 35
-0.5701375 -2.080817 0.08934889 0 36
-0.57068837 -2.0828273 0.10934056 0 37
-0.57110721 -2.0843561 0.12935933 0 38
-0.57099861 -2.0839598 0.14929144 0 39
-0.57018793 -2.081001 0.16903318 0 40
-0.56904471 -2.0768287 0.18863669 0 41
-0.56940556 -2.0781455 0.20874354 0 42
-0.57287103 -2.0907936 0.23015876 0 43
-0.56674337 -2.0684295 0.24766512 0 44
-0.57243329 -2.089196 0.27036321 0 45
-0.57125551 -2.0848973 0.29002333 0 46
-0.57616329 -2.1028092 0.31295544 0 47
-0.570503 -2.0821509 0.33017409 0 48
-0.57263172 -2.08992 0.3518323 0 49
-0.56844807 -2.0746512 0.36959952 0 50
-0.57438141 -2.0963061 0.39407235 0 51
-0.57162279 -2.0862379 0.41276428 0 52
-0.57287425 -2.0908053 0.43437007 0 53
-0.57157755 -2.0860727 0.45411846 0 54
-0.57186908 -2.0871367 0.47517249 0 55
-0.57048756 -2.0820947 0.49488077 0 56
-0.57270646 -2.090193 0.51783139 0 57
-0.57279319 -2.0905094 0.53903139 0 58
-0.57151723 -2.0858526 0.5590018 0 59
-0.57170981 -2.0865552 0.58046937 0 60
-0.56929803 -2.0777533 0.59931505 0 61
-0.57098836 -2.0839224 0.62256157 0 62
-0.56930757 -2.0777881 0.64224666 0 63
-0.55209982 -2.116771 -0.6521486 0 0
-0.54774255 -2.100065 -0.62532473 0 1
-0.5500133 -2.1087713 -0.60626531 0 2
-0.55112135 -2.1130195 -0.58590198 0 3
-0.55036592 -2.1101232 -0.56364995 0 4
-0.55078441 -2.1117275 -0.54271507 0 5
-0.54916501 -2.1055186 -0.51991594 0 6
-0.54889095 -2.1044681 -0.49855664 0 7
-0.55063301 -2.1111472 -0.47906119 0 8
-0.54766446 -2.0997655 -0.4555988 0 9
-0.54358339 -2.0841186 -0.43155962 0 10
-0.54692292 -2.0969224 -0.41351637 0 11
-0.55228317 -2.1174738 -0.39674497 0 12
-0.55004716 -2.108901 -0.37446791 0 13
-0.54895818 -2.1047258 -0.35316175 0 14
-0.55011165 -2.1091483 -0.33335727 0 15
-0.55031729 -2.1099367 -0.31298542 0 16
-0.54822612 -2.1019189 -0.29143137 0 17
-0.54986775 -2.1082129 -0.27192867 0 18
-0.55074149 -2.1115632 -0.25199983 0 19
-0.54935426 -2.1062443 -0.23109853 0 20
-0.55134821 -2.1138892 -0.21163689 0 21
-0.54992348 -2.1084268 -0.19087809 0 22
-0.54839998 -2.1025858 -0.17022583 0 23
-0.54895759 -2.1047235 -0.15028398 0 24
-0.54972029 -2.1076479 -0.13037549 0 25
-0.55028993 -2.1098318 -0.11039463 0 26
-0.5487203 -2.1038136 -0.090039819 0 27
-0.55030435 -2.1098871 -0.070217289 0 28
-0.55090255 -2.1121807 -0.050201226 0 29
-0.5481174 -2.1015022 -0.029965077 0 30
-0.54704148 -2.0973771 -0.0099681905 0 31
-0.55165583 -2.1150687 0.010052273 0 32
-0.54436314 -2.0871081 0.029759835 0 33
-0.54947412 -2.106704 0.050071061 0 34
-0.54711252 -2.0976496 0.069810018 0 35
-0.55229378 -2.1175146 0.090626195 0 36
-0.55158097 -2.1147816 0.11065362 0 37
-0.54687703 -2.0967467 0.12970117 0 38
-0.54600573 -2.093406 0.14947587 0 39
-0.55276334 -2.1193149 0.17158023 0 40
-0.54844332 -2.1027517 0.19036433 0 41
-0.54677022 -2.0963371 0.20987961 0 42
-0.54658991 -2.0956459 0.22993565 0 43
-0.55070961 -2.1114409 0.25198525 0 44
-0.548334 -2.1023326 0.27117017 0 45
-0.55269009 -2.1190341 0.29380435 0 46
-0.54958415 -2.1071258 0.31256846 0 47
-0.55332202 -2.1214569 0.33530268 0 48
-0.54655051 -2.0954947 0.35161284 0 49
-0.54829955 -2.1022005 0.37327811 0 50
-0.55184925 -2.1158102 0.39643326 0 51
-0.54844624 -2.1027629 0.41466814 0 52
-0.55108976 -2.1128981 0.43751904 0 53
-0.55000085 -2.1087234 0.45754242 0 54
-0.55013442 -2.1092355 0.47862738 0 55
-0.55285162 -2.1196535 0.50215411 0 56
-0.54864413 -2.1035216 0.51942283 0 57
-0.55153918 -2.1146214 0.54345882 0 58
-0.55324811 -2.1211736 0.56660169 0 59
-0.55113095 -2.1130562 0.58591217 0 60
-0.55153537 -2.1146066 0.607943 0 61
-0.54533446 -2.0908325 0.62257558 0 62
-0.54997718 -2.1086326 0.64964128 0 63
-0.5279128 -2.1309943 -0.65448123 0 0
-0.52910817 -2.1358197 -0.633986 0 1
-0.52954197 -2.1375706 -0.61262673 0 2
-0.52988446 -2.1389534 -0.5912416 0 3
-0.52587801 -2.1227808 -0.56526101 0 4
-0.52968419 -2.138145 -0.54778904 0 5
-0.5300802 -2.1397436 -0.52671778 0 6
-0.53021812 -2.1403 -0.50546265 0 7
-0.52858078 -2.1336908 -0.48266539 0 8
-0.52633882 -2.1246409 -0.45955712 0 9
-0.52469373 -2.1180003 -0.43720648 0 10
-0.5293358 -2.1367385 -0.42005283 0 11
-0.53073251 -2.1423767 -0.40015787 0 12
-0.5268029 -2.1265142 -0.37641668 0 13
-0.52883267 -2.1347077 -0.35707441 0 14
-0.52883077 -2.1347001 -0.3363426 0 15
-0.5277617 -2.1303844 -0.31503215 0 16
-0.52849221 -2.1333334 -0.29486364 0 17
-0.52805877 -2.1315837 -0.27408487 0 18
-0.52422571 -2.116111 -0.25175428 0 19
-0.52795488 -2.1311643 -0.23310283 0 20
-0.52848315 -2.1332967 -0.21291323 0 21
-0.53020006 -2.1402273 -0.1931522 0 22
-0.52549577 -2.1212378 -0.1711998 0 23
-0.52487952 -2.1187501 -0.15081327 0 24
-0.52842057 -2.133044 -0.13153459 0 25
-0.52850318 -2.1333776 -0.11127818 0 26
-0.5248639 -2.1186872 -0.090393327 0 27
-0.52859402 -2.1337442 -0.07078959 0 28
-0.5313527 -2.1448801 -0.050819281 0 29
-0.52849221 -2.1333332 -0.030323997 0 30
-0.52911413 -2.1358438 -0.010119323 0 31
-0.53008729 -2.1397719 0.010137935 0 32
-0.52846944 -2.1332414 0.03032269 0 33
-0.52810818 -2.1317832 0.050508972 0 34
-0.52896941 -2.1352596 0.07083986 0 35
-0.52878666 -2.134522 0.091068916 0 36
-0.52442718 -2.1169243 0.11041997 0 37
-0.52868658 -2.1341178 0.1316008 0 38
-0.53059512 -2.1418221 0.15245554 0 39
-0.52676708 -2.1263697 0.17161399 0 40
-0.52927977 -2.1365125 0.19281694 0 41
-0.52512825 -2.1197543 0.21156162 0 42
-0.53075421 -2.1424642 0.23433878 0 43
-0.52511907 -2.1197171 0.25218329 0 44
-0.52905673 -2.135612 0.27460286 0 45
-0.53120023 -2.1442645 0.29637453 0 46
-0.52805477 -2.1315677 0.31520712 0 47
-0.52771592 -2.1301999 0.33563355 0 48
-0.53064483 -2.1420228 0.358298 0 49
-0.52883816 -2.1347299 0.37787095 0 50
-0.52726012 -2.12836 0.39753982 0 51
-0.52862912 -2.1338861 0.41949207 0 52
-0.52755809 -2.1295626 0.43959323 0 53
-0.52765852 -2.1299679 0.46070939 0 54
-0.52750838 -2.1293619 0.48168612 0 55
-0.52849674 -2.1333516 0.50382161 0 56
-0.53042507 -2.1411355 0.52706045 0 57
-0.52899623 -2.1353679 0.54707754 0 58
-0.53258443 -2.1498523 0.57246965 0 59
-0.53063953 -2.1420012 0.59208411 0 60
-0.52648157 -2.1252172 0.60908622 0 61
-0.52656084 -2.1255372 0.63093376 0 62
-0.53055459 -2.1416585 0.65775645 0 63
-0.50773907 -2.1631763 -0.6623975 0 0
-0.50639379 -2.1574447 -0.63850838 0 1
-0.5058282 -2.155035 -0.61580288 0 2
-0.50582832 -2.1550357 -0.59392285 0 3
-0.50860608 -2.1668699 -0.57529235 0 4
-0.50411469 -2.1477346 -0.54861629 0 5
-0.50866359 -2.167115 -0.53187561 0 6
-0.50632185 -2.1571381 -0.5079304 0 7
-0.50422317 -2.1481969 -0.48450765 0 8
-0.50826997 -2.1654382 -0.46699435 0 9
-0.50347781 -2.1450214 -0.44147295 0 10
-0.50544471 -2.1534011 -0.42207471 0 11
-0.50821811 -2.1652172 -0.40322635 0 12
-0.50607282 -2.1560771 -0.38051939 0 13
-0.50401276 -2.1473005 -0.35811707 0 14
