# .PCD v0.7 - Point Cloud Data file format
VERSION 0.7
FIELDS x y z intensity ring
SIZE 4 4 4 4 2
TYPE F F F F U
COUNT 1 1 1 1 1
WIDTH 1350
HEIGHT 1
VIEWPOINT 0 0 0 1 0 0 0
POINTS 1350
DATA ascii
2.5135047 5.4313269 0.30300757 0 37
2.518903 5.4429917 0.35899061 0 38
2.5155232 5.4356885 0.41382778 0 39
2.5192792 5.4438047 0.46991763 0 40
2.5207672 5.4470201 0.5257799 0 41
2.5170374 5.4389606 0.58059394 0 42
2.5148981 5.4343376 0.63574433 0 43
2.5160949 5.436924 0.69182605 0 44
2.51794 5.4409108 0.74827212 0 45
2.5076432 5.4186611 0.80105025 0 46
2.5169163 5.4386988 0.86019552 0 47
2.516149 5.4370413 0.91624773 0 48
2.5152488 5.4350953 0.97237271 0 49
2.51246 5.4290695 1.0278536 0 50
2.5207598 5.4470043 1.0881745 0 51
2.5127845 5.4297705 1.1416665 0 52
2.519078 5.4433699 1.2018042 0 53
2.5129447 5.4301171 1.2562279 0 54
2.5196979 5.4447098 1.3173301 0 55
2.516283 5.4373307 1.3734263 0 56
2.5192754 5.4437966 1.4332548 0 57
2.5168359 5.4385252 1.4902619 0 58
2.5194495 5.4441729 1.5505331 0 59
2.5126626 5.4295073 1.6052008 0 60
2.5149612 5.434474 1.665859 0 61
2.5168655 5.4385891 1.7266589 0 62
0 0 0 0 63
1.0067991 2.2476521 -0.7342056 0 0
1.0433558 2.3292642 -0.73537272 0 1
1.0810641 2.4134469 -0.73567659 0 2
1.1154525 2.4902182 -0.7321074 0 3
1.1653813 2.6016827 -0.7368378 0 4
1.2087539 2.6985111 -0.73531616 0 5
1.2599657 2.81284 -0.73643595 0 6
1.3122714 2.929611 -0.73586482 0 7
1.3678787 3.0537529 -0.73472065 0 8
1.4289838 3.1901684 -0.73390746 0 9
1.4946187 3.3366964 -0.73257315 0 10
1.5692694 3.5033522 -0.73250407 0 11
1.6553223 3.6954629 -0.73413873 0 12
1.7562562 3.9207952 -0.73815656 0 13
1.8446262 4.1180792 -0.73263675 0 14
1.9675295 4.3924575 -0.7360822 0 15
2.0845716 4.6537509 -0.73193705 0 16
2.2405002 5.0018573 -0.73530501 0 17
2.4028614 5.3643236 -0.73362041 0 18
2.4516568 5.473259 -0.69256109 0 19
2.453408 5.4771681 -0.63717747 0 20
2.4528456 5.4759126 -0.58127487 0 21
2.4507217 5.4711709 -0.52516258 0 22
2.4539402 5.4783564 -0.47025988 0 23
2.4507394 5.471211 -0.41420656 0 24
2.4541709 5.4788713 -0.35933951 0 25
2.4531612 5.4766169 -0.30382842 0 26
2.4573309 5.4859262 -0.24893916 0 27
2.4530346 5.4763346 -0.1932372 0 28
2.4525621 5.4752798 -0.13797662 0 29
2.4503908 5.4704323 -0.082703352 0 30
2.4514546 5.4728074 -0.027578197 0 31
2.4605317 5.4930716 0.027680309 0 32
2.45243 5.4749846 0.082772173 0 33
2.4565725 5.4842329 0.13820224 0 34
2.4478106 5.4646726 0.19282569 0 35
2.4518788 5.4737544 0.24838683 0 36
2.4532504 5.4768167 0.30383947 0 37
2.4568088 5.4847603 0.35972574 0 38
2.4517832 5.4735408 0.41438299 0 39
2.4512432 5.4723353 0.46974301 0 40
2.4500356 5.4696393 0.52501553 0 41
2.4556727 5.4822245 0.58194488 0 42
2.4504895 5.4706526 0.63641948 0 43
2.4532523 5.4768205 0.69301182 0 44
2.4539948 5.478478 0.74923205 0 45
2.4528794 5.4759884 0.80500531 0 46
2.4599428 5.4917569 0.86373782 0 47
2.4570522 5.4853034 0.91921991 0 48
2.4520392 5.4741125 0.97388524 0 49
2.4530952 5.47647 1.0310388 0 50
2.4525914 5.4753451 1.0877292 0 51
2.4484012 5.4659905 1.1428655 0 52
2.4536979 5.4778152 1.2026567 0 53
2.4511864 5.4722085 1.2588973 0 54
2.4539459 5.4783688 1.3180736 0 55
2.4530909 5.47646 1.3755869 0 56
2.4535778 5.4775472 1.4340889 0 57
2.4511228 5.4720664 1.4910811 0 58
2.4558327 5.4825816 1.552754 0 59
2.4543974 5.4793768 1.6109 0 60
2.4511294 5.4720817 1.6680219 0 61
2.4535875 5.4775691 1.7293251 0 62
0 0 0 0 63
0.98099518 2.264266 -0.73563665 0 0
1.0121026 2.3360662 -0.73353565 0 1
1.0471714 2.4170094 -0.73278201 0 2
1.092407 2.5214193 -0.73727542 0 3
1.1310191 2.6105409 -0.73535222 0 4
1.1702421 2.7010727 -0.73203772 0 5
1.2246678 2.8266945 -0.73606491 0 6
1.2757972 2.9447081 -0.73566085 0 7
1.3308085 3.0716813 -0.73504144 0 8
1.390195 3.2087531 -0.73419482 0 9
1.453003 3.3537223 -0.73233318 0 10
1.5338773 3.5403907 -0.73624903 0 11
1.6111995 3.7188606 -0.73479545 0 12
1.7033848 3.9316363 -0.73619854 0 13
1.8023242 4.1600013 -0.73609662 0 14
1.901264 4.3883672 -0.73142368 0 15
2.0463436 4.7232304 -0.73885131 0 16
2.1796441 5.0309057 -0.73557967 0 17
2.3335986 5.3862524 -0.73263967 0 18
2.3883846 5.5127058 -0.69378394 0 19
2.3917801 5.5205431 -0.63875371 0 20
2.3855908 5.5062575 -0.58133829 0 21
2.3926115 5.5224624 -0.52722204 0 22
2.3896611 5.5156527 -0.47090343 0 23
2.38973 5.5158114 -0.41532707 0 24
2.3922544 5.5216379 -0.36018786 0 25
2.3863273 5.5079575 -0.30391622 0 26
2.3930354 5.5234408 -0.24928737 0 27
2.3928857 5.5230951 -0.19383428 0 28
2.3934188 5.5243258 -0.13846046 0 29
2.3949921 5.527957 -0.083121508 0 30
2.3905709 5.5177522 -0.027654462 0 31
2.3889875 5.5140977 0.027636146 0 32
2.3922837 5.5217056 0.083027512 0 33
2.390698 5.5180459 0.13830307 0 34
2.3888655 5.5138159 0.19350863 0 35
2.3920341 5.5211291 0.24918304 0 36
2.3855691 5.5062075 0.30381966 0 37
2.3925641 5.5223527 0.3602345 0 38
2.3911006 5.5189753 0.41556531 0 39
2.3876336 5.5109725 0.47050387 0 40
2.3893232 5.5148726 0.52649742 0 41
2.3900902 5.516643 0.58243471 0 42
2.3901017 5.5166693 0.63830549 0 43
2.3903892 5.517333 0.69436628 0 44
2.395519 5.5291734 0.75207978 0 45
2.394434 5.526669 0.80806631 0 46
2.3960695 5.5304437 0.86512309 0 47
2.3901987 5.5168929 0.91951883 0 48
2.3875322 5.5107388 0.97510457 0 49
2.3913429 5.5195346 1.0335323 0 50
2.3902931 5.5171113 1.0901049 0 51
2.3938162 5.5252433 1.149013 0 52
2.3891456 5.5144625 1.2041616 0 53
2.3838859 5.5023227 1.2589864 0 54
2.3863566 5.5080252 1.3180491 0 55
2.3912652 5.5193548 1.3788712 0 56
2.3962114 5.5307713 1.4402006 0 57
2.3912916 5.5194163 1.495858 0 58
2.3856375 5.5063653 1.5510647 0 59
2.3846297 5.5040398 1.6094084 0 60
2.3913565 5.5195651 1.6734061 0 61
2.389205 5.5145998 1.7316099 0 62
0 0 0 0 63
0.95112336 2.2714822 -0.73412591 0 0
0.99053138 2.365597 -0.73892802 0 1
1.0214719 2.4394894 -0.73573375 0 2
1.0603669 2.5323787 -0.73661178 0 3
1.1012293 2.6299667 -0.73695409 0 4
1.1418509 2.72698 -0.7351982 0 5
1.1871139 2.8350773 -0.73439121 0 6
1.2347822 2.9489193 -0.73286426 0 7
1.2959836 3.0950809 -0.73677176 0 8
1.3488916 3.2214365 -0.73324627 0 9
1.4131461 3.3748896 -0.73310548 0 10
1.4883538 3.5545015 -0.735322 0 11
1.5650747 3.7377272 -0.73466516 0 12
1.6487144 3.9374764 -0.73344046 0 13
1.7537495 4.1883221 -0.73723626 0 14
1.8608571 4.4441175 -0.73684627 0 15
1.9786159 4.7253504 -0.7353214 0 16
2.114409 5.0496526 -0.73446369 0 17
2.2709146 5.4234209 -0.7338416 0 18
2.330725 5.5662608 -0.69686437 0 19
2.3320532 5.5694327 -0.64104408 0 20
2.3334839 5.5728498 -0.5852952 0 21
2.3301613 5.5649147 -0.52849948 0 22
2.3251197 5.5528746 -0.47160468 0 23
2.3289618 5.5620499 -0.41662085 0 24
2.3258243 5.5545564 -0.36044237 0 25
2.3266029 5.5564165 -0.30498844 0 26
2.3289878 5.5621119 -0.24972129 0 27
2.3295262 5.5633979 -0.19422872 0 28
2.32779 5.5592513 -0.13860793 0 29
2.3224132 5.5464106 -0.08296331 0 30
2.3269455 5.5572348 -0.027706843 0 31
2.3240178 5.5502424 0.027671982 0 32
2.3285947 5.561173 0.083184123 0 33
2.3302977 5.5652404 0.13875726 0 34
2.3326502 5.570859 0.1944892 0 35
2.3222933 5.5461245 0.24900348 0 36
2.328546 5.5610571 0.30524316 0 37
2.3236475 5.5493584 0.36010507 0 38
2.3303843 5.5654473 0.41687533 0 39
2.3300529 5.5646553 0.4726052 0 40
2.3254266 5.553607 0.52742559 0 41
2.3272119 5.5578704 0.58372205 0 42
2.3260243 5.5550346 0.63938683 0 43
2.3285255 5.5610085 0.69620675 0 44
2.3327262 5.5710402 0.75381589 0 45
2.3307409 5.566299 0.809609 0 46
2.3261578 5.5553532 0.8644799 0 47
2.3314779 5.5680585 0.92319858 0 48
2.3284888 5.5609202 0.97884363 0 49
2.3319225 5.5691204 1.0373696 0 50
2.3262053 5.5554667 1.0919491 0 51
2.3270795 5.5575542 1.1496948 0 52
2.3323283 5.5700898 1.2099546 0 53
2.3232932 5.5485125 1.2629229 0 54
2.3345046 5.5752869 1.327175 0 55
2.3264451 5.5560393 1.3807847 0 56
2.3268867 5.5570941 1.4394954 0 57
2.3243845 5.5511179 1.4965904 0 58
2.3290277 5.5622072 1.5586096 0 59
2.3329186 5.5714998 1.6206234 0 60
2.3217916 5.5449262 1.6723129 0 61
2.3276043 5.5588078 1.7363731 0 62
0 0 0 0 63
0.92678112 2.2920539 -0.73703563 0 0
0.96315104 2.3820016 -0.74029678 0 1
0.99248892 2.4545579 -0.73654199 0 2
1.025581 2.5363991 -0.73405743 0 3
1.0667462 2.6382065 -0.73553175 0 4
1.1079577 2.7401278 -0.73501426 0 5
1.1502117 2.8446276 -0.73314595 0 6
1.2047919 2.9796116 -0.73675448 0 7
1.2519391 3.0962129 -0.73332119 0 8
1.3106415 3.2413919 -0.73406458 0 9
1.3804926 3.4141428 -0.73788905 0 10
1.4475799 3.5800591 -0.736871 0 11
1.5279614 3.7788532 -0.73899984 0 12
1.607375 3.9752536 -0.73673987 0 13
1.6961428 4.194788 -0.73464769 0 14
1.7951955 4.4397588 -0.73240817 0 15
1.919039 4.7460403 -0.73481345 0 16
2.0544684 5.0809751 -0.73528945 0 17
2.2063498 5.4565983 -0.7346043 0 18
2.2618139 5.5937691 -0.69677359 0 19
2.2631655 5.5971112 -0.64097828 0 20
2.267596 5.6080685 -0.58602136 0 21
2.2708626 5.6161475 -0.53067303 0 22
2.2568114 5.5813966 -0.47163454 0 23
2.2641721 5.5996008 -0.41731662 0 24
2.2678139 5.6086073 -0.36211285 0 25
2.267787 5.608541 -0.30629575 0 26
2.2616634 5.5933967 -0.24985838 0 27
2.2594342 5.5878835 -0.19409893 0 28
2.265964 5.6040325 -0.13901924 0 29
2.2601032 5.5895376 -0.083186418 0 30
2.2672276 5.6071572 -0.027814643 0 31
2.2672236 5.6071472 0.027814595 0 32
2.2579041 5.5840988 0.083105475 0 33
2.2657285 5.6034498 0.13900478 0 34
2.2741261 5.624218 0.19536103 0 35
2.2645295 5.6004844 0.250175 0 36
2.2651701 5.6020689 0.3059423 0 37
2.2668846 5.6063089 0.36196446 0 38
2.2621186 5.594522 0.4169381 0 39
2.2677901 5.6085482 0.47392887 0 40
2.2629285 5.5965252 0.52881891 0 41
2.2672956 5.6073256 0.5859437 0 42
2.2645779 5.6006045 0.64137834 0 43
2.2638185 5.5987263 0.69739109 0 44
2.2643585 5.6000619 0.75391829 0 45
2.2629354 5.5965424 0.80989939 0 46
2.2637725 5.5986123 0.86681432 0 47
2.2684574 5.610199 0.92549068 0 48
2.2625394 5.5955625 0.97997016 0 49
2.2654822 5.6028409 1.0383831 0 50
2.2672894 5.6073103 1.0965765 0 51
2.2586806 5.5860195 1.1497508 0 52
2.2607746 5.5911984 1.2084099 0 53
2.265605 5.6031442 1.2689209 0 54
2.264776 5.6010947 1.3265887 0 55
2.2630725 5.5968814 1.3839145 0 56
2.2653165 5.6024313 1.4439148 0 57
2.265193 5.6021256 1.502719 0 58
2.2645135 5.6004453 1.5614036 0 59
2.2707527 5.6158757 1.6252866 0 60
2.2642851 5.5998802 1.6803623 0 61
2.2605698 5.5906916 1.7375182 0 62
0 0 0 0 63
0.89838946 2.302918 -0.73692113 0 0
0.92191792 2.3632307 -0.73088455 0 1
0.95897257 2.458216 -0.73404574 0 2
0.99787629 2.5579412 -0.73668504 0 3
1.0306574 2.6419716 -0.73299271 0 4
1.0795194 2.7672238 -0.738666 0 5
1.120019 2.8710399 -0.73634797 0 6
1.1700089 2.9991832 -0.73798066 0 7
1.2160622 3.1172354 -0.73470318 0 8
1.268868 3.2525973 -0.73301339 0 9
1.331206 3.4123936 -0.73391759 0 10
1.4039565 3.5988812 -0.73713607 0 11
1.4790201 3.7912979 -0.73782116 0 12
1.5526965 3.9801588 -0.73405504 0 13
1.6381401 4.1991839 -0.73183441 0 14
1.7437602 4.4699287 -0.73379248 0 15
1.859657 4.7670169 -0.73446518 0 16
1.9878255 5.095562 -0.73380762 0 17
2.1415498 5.4896169 -0.7354486 0 18
2.1978521 5.6339412 -0.69835836 0 19
2.1958988 5.6289339 -0.64148188 0 20
2.1977041 5.6335616 -0.5858171 0 21
2.1998041 5.6389446 -0.53023112 0 22
2.1975272 5.6331081 -0.47368503 0 23
2.1980758 5.6345148 -0.41787267 0 24
2.1993535 5.6377897 -0.36222351 0 25
2.2051857 5.6527395 -0.30720544 0 26
2.2059665 5.6547413 -0.25136796 0 27
2.2000234 5.6395068 -0.19493768 0 28
2.1949656 5.6265416 -0.13889757 0 29
2.2039711 5.6496267 -0.083671033 0 30
2.2011895 5.6424966 -0.027853573 0 31
2.2014921 5.6432719 0.0278574 0 32
2.2018344 5.6441493 0.083589911 0 33
2.2001703 5.6398835 0.13922693 0 34
2.2011802 5.6424723 0.19504018 0 35
2.1981134 5.6346111 0.25047311 0 36
2.1994543 5.6380482 0.30640703 0 37
2.2028711 5.6468067 0.36280286 0 38
2.2016096 5.6435733 0.4185445 0 39
2.1974273 5.6328521 0.47366348 0 40
2.2035716 5.648602 0.53113919 0 41
2.1996999 5.6386781 0.58634913 0 42
2.1991622 5.6372991 0.64243519 0 43
2.201314 5.6428151 0.69945836 0 44
2.2032287 5.6477237 0.75663036 0 45
2.2001042 5.6397142 0.81217051 0 46
2.2004476 5.6405945 0.86905926 0 47
2.2018404 5.644165 0.92655742 0 48
2.201056 5.6421537 0.98331553 0 49
2.2016509 5.6436787 1.0408556 0 50
2.2007008 5.6412435 1.0978374 0 51
2.1968839 5.6314592 1.1534562 0 52
2.1970582 5.631906 1.2112774 0 53
2.2014103 5.6430626 1.2717345 0 54
2.1977201 5.6336026 1.3277873 0 55
2.1980472 5.6344414 1.3864138 0 56
2.2025135 5.6458898 1.4480257 0 57
2.2015495 5.6434193 1.5064203 0 58
2.2001262 5.6397705 1.5647067 0 59
2.1980064 5.6343365 1.6226846 0 60
2.2008586 5.6416478 1.6846476 0 61
2.2045617 5.6511402 1.7477478 0 62
0 0 0 0 63
0.86699951 2.3057945 -0.73437458 0 0
0.88985503 2.3665791 -0.72848099 0 1
0.93270528 2.4805398 -0.73723137 0 2
0.96490586 2.5661776 -0.73558444 0 3
1.0019979 2.6648245 -0.73585904 0 4
1.0352213 2.7531824 -0.73146462 0 5
1.0782155 2.8675256 -0.73199093 0 6
1.1272671 2.9979792 -0.73421818 0 7
1.1797283 3.1375 -0.73600465 0 8
1.2347864 3.2839279 -0.73659664 0 9
1.2880578 3.4256039 -0.73329693 0 10
1.3522549 3.5963364 -0.73315358 0 11
1.4239999 3.7871432 -0.73354954 0 12
1.5053891 4.0035987 -0.73490852 0 13
1.5936323 4.2382822 -0.73517776 0 14
1.6955801 4.5094137 -0.73679596 0 15
1.8032298 4.7957091 -0.73541397 0 16
1.9234639 5.1154733 -0.73321354 0 17
2.076123 5.5214715 -0.73624045 0 18
2.1334407 5.6739087 -0.7000078 0 19
2.1375844 5.6849289 -0.64481896 0 20
2.1376686 5.6851525 -0.588404 0 21
2.1350191 5.6781063 -0.53140473 0 22
2.1364942 5.6820292 -0.47555369 0 23
2.1389844 5.6886525 -0.41990533 0 24
2.1364653 5.6819525 -0.36334559 0 25
2.1347764 5.6774607 -0.3070991 0 26
2.1372576 5.6840591 -0.25148395 0 27
2.1315637 5.6689167 -0.19503352 0 28
2.1366982 5.6825724 -0.1396216 0 29
2.1381361 5.6863961 -0.083819874 0 30
2.1394377 5.689858 -0.027955391 0 31
2.1362641 5.6814179 0.027913922 0 32
2.1383371 5.6869307 0.083827749 0 33
2.1395504 5.6901574 0.13980797 0 34
2.1355922 5.6796308 0.19540212 0 35
2.1363151 5.6815534 0.25137308 0 36
2.132643 5.6717868 0.30679223 0 37
2.1362846 5.6814723 0.36331487 0 38
2.1321585 5.6704984 0.41856527 0 39
2.1400118 5.6913843 0.47633666 0 40
2.1380322 5.68612 0.53215474 0 41
2.133801 5.6748672 0.58733946 0 42
2.1338716 5.6750546 0.64369893 0 43
2.135555 5.6795316 0.70070148 0 44
2.1364832 5.6820002 0.75764555 0 45
2.1404676 5.6925969 0.81593412 0 46
2.1359868 5.6806803 0.87112278 0 47
2.1361148 5.6810207 0.92822564 0 48
2.1385851 5.6875901 0.9865765 0 49
2.1326556 5.6718211 1.0411307 0 50
2.1360457 5.6808367 1.1003479 0 51
2.1374595 5.6845965 1.1588689 0 52
2.1372042 5.6839175 1.2167195 0 53
2.1414628 5.6952438 1.2774633 0 54
2.1329882 5.6727052 1.330721 0 55
2.1363668 5.6816912 1.3914709 0 56
2.1368799 5.6830549 1.4507089 0 57
2.1405365 5.6927805 1.5124561 0 58
2.1382318 5.6866508 1.5702997 0 59
2.135412 5.6791511 1.6279057 0 60
2.1385691 5.6875477 1.6903734 0 61
2.1328084 5.6722274 1.7460265 0 62
0 0 0 0 63
0.83645606 2.3104057 -0.732512 0 0
0.8740859 2.4143445 -0.73981971 0 1
0.90025491 2.4866269 -0.73569477 0 2
0.93366838 2.5789194 -0.73589027 0 3
0.97174525 2.6840928 -0.73782438 0 4
1.0057179 2.7779298 -0.73469836 0 5
1.0491624 2.8979297 -0.73640329 0 6
1.0950108 3.024569 -0.73737681 0 7
1.1390918 3.1463273 -0.734734 0 8
1.188115 3.2817357 -0.73277253 0 9
1.2538662 3.4633493 -0.73802066 0 10
1.3105309 3.6198652 -0.73460948 0 11
1.3792495 3.8096752 -0.73457325 0 12
1.450919 4.0076365 -0.73231936 0 13
1.5419294 4.2590194 -0.7354303 0 14
1.6377037 4.523561 -0.73576152 0 15
1.7420473 4.8117723 -0.73453677 0 16
1.8688489 5.1620154 -0.73653507 0 17
1.9998507 5.5238605 -0.73322457 0 18
2.0730481 5.7260418 -0.70324153 0 19
2.0712354 5.7210345 -0.6459766 0 20
2.0739591 5.7285581 -0.59021235 0 21
2.075042 5.7315493 -0.53397804 0 22
2.0739608 5.7285628 -0.47727779 0 23
2.0722892 5.7239456 -0.42059773 0 24
2.0731432 5.7263045 -0.36452404 0 25
2.070302 5.7184563 -0.30791631 0 26
2.0749795 5.7313762 -0.25242949 0 27
2.0737755 5.7280507 -0.19617581 0 28
2.069845 5.7171941 -0.13983633 0 29
2.0734203 5.7270694 -0.084037244 0 30
2.076762 5.7362995 -0.028055979 0 31
2.072135 5.7235193 0.02799347 0 32
2.0673306 5.7102489 0.083790421 0 33
2.0739229 5.7284579 0.14011183 0 34
2.0704875 5.7189689 0.1958648 0 35
2.0726607 5.7249713 0.25214738 0 36
2.0736592 5.7277298 0.30841565 0 37
2.0681198 5.712429 0.36364076 0 38
2.0731919 5.7264385 0.42078093 0 39
2.066716 5.7085509 0.47561049 0 40
2.0730715 5.7261057 0.53347093 0 41
2.0723608 5.7241426 0.58975744 0 42
2.0709326 5.7201982 0.64588219 0 43
2.0715616 5.7219357 0.70273727 0 44
2.0760305 5.7342796 0.76115507 0 45
2.0678656 5.7117267 0.81496978 0 46
2.0724864 5.7244897 0.87386686 0 47
2.0720968 5.7234139 0.93091875 0 48
2.074286 5.7294607 0.98934025 0 49
2.0743184 5.7295504 1.0469664 0 50
2.0728867 5.7255955 1.1039969 0 51
2.0708892 5.7200785 1.1608233 0 52
2.0696783 5.7167339 1.2182044 0 53
2.0696399 5.7166276 1.2764549 0 54
2.073483 5.7272425 1.3374324 0 55
2.0756135 5.7331271 1.3977115 0 56
2.0739295 5.7284765 1.4556836 0 57
2.0680313 5.7121844 1.510741 0 58
2.069231 5.715498 1.5711207 0 59
2.0737255 5.7279124 1.6344501 0 60
2.0743201 5.7295547 1.6951492 0 61
2.069279 5.7156305 1.751422 0 62
0 0 0 0 63
0.81076145 2.3284893 -0.73502898 0 0
0.83825684 2.4074554 -0.73449463 0 1
0.8630662 2.4787073 -0.73015666 0 2
0.89195585 2.5616777 -0.72778571 0 3
0.93344665 2.6808386 -0.73371917 0 4
0.97083896 2.7882285 -0.7342093 0 5
1.0095016 2.8992662 -0.73353308 0 6
1.0536308 3.0260048 -0.73451269 0 7
1.0995619 3.1579177 -0.73422778 0 8
1.1519413 3.3083503 -0.73549688 0 9
1.2103598 3.4761269 -0.73751616 0 10
1.2669698 3.6387095 -0.7352165 0 11
1.3340125 3.8312547 -0.73551565 0 12
1.4090672 4.0468102 -0.73625582 0 13
1.4857571 4.2670622 -0.73360896 0 14
1.575628 4.5251694 -0.73281646 0 15
1.6805227 4.8264241 -0.73356354 0 16
1.8043991 5.1821947 -0.73619282 0 17
1.9299428 5.5427537 -0.73252696 0 18
2.0077832 5.7663097 -0.70510155 0 19
2.0077245 5.7661409 -0.64823312 0 20
2.0029297 5.7523699 -0.59008354 0 21
2.0058749 5.760829 -0.5343675 0 22
2.0063226 5.762115 -0.4779816 0 23
2.0104637 5.7740083 -0.42242786 0 24
2.0048146 5.7577834 -0.36493105 0 25
2.0077322 5.7661629 -0.3091324 0 26
2.0096428 5.7716503 -0.25309578 0 27
2.0057776 5.7605495 -0.1964293 0 28
2.007607 5.7658038 -0.14041086 0 29
2.0090034 5.7698135 -0.084295593 0 30
2.0094705 5.7711554 -0.028103478 0 31
2.00718 5.7645774 0.028071446 0 32
2.011483 5.7769351 0.084399633 0 33
2.0084269 5.7681584 0.1404682 0 34
2.0078189 5.7664118 0.19662921 0 35
2.0085449 5.768497 0.25295749 0 36
2.0091381 5.7702007 0.30934888 0 37
2.0056183 5.7600918 0.36507735 0 38
2.0062172 5.7618117 0.42153558 0 39
2.0088143 5.7692709 0.4785752 0 40
2.0089705 5.7697191 0.53519219 0 41
2.0095222 5.7713041 0.59202582 0 42
2.0057402 5.7604418 0.64759243 0 43
2.0094376 5.7710605 0.70568252 0 44
2.0094857 5.7711992 0.7627182 0 45
2.0070956 5.7643352 0.81889284 0 46
2.0113118 5.7764435 0.87795603 0 47
2.0064905 5.7625966 0.93320829 0 48
2.0057921 5.7605915 0.99038202 0 49
2.0041995 5.7560172 1.0472202 0 50
2.0072165 5.7646818 1.1066906 0 51
2.0046363 5.7572718 1.1632808 0 52
2.0063636 5.7622323 1.2225502 0 53
2.0083096 5.7678213 1.2822748 0 54
2.0141168 5.7844992 1.3449179 0 55
2.0069616 5.7639499 1.3991038 0 56
2.0060718 5.7613945 1.45767 0 57
2.006011 5.7612195 1.5170711 0 58
2.0080206 5.7669916 1.5783689 0 59
2.0044775 5.7568154 1.6355406 0 60
2.0036945 5.7545667 1.6951317 0 61
2.0070765 5.7642798 1.758634 0 62
0 0 0 0 63
0.78392839 2.3438377 -0.73677546 0 0
0.81091869 2.4245353 -0.73660767 0 1
0.83658421 2.5012715 -0.73371774 0 2
0.87148869 2.6056311 -0.73717284 0 3
0.8994571 2.6892529 -0.7329396 0 4
0.93789715 2.8041832 -0.73531812 0 5
0.98036897 2.9311681 -0.73849857 0 6
1.020766 3.0519497 -0.73770791 0 7
1.0631049 3.1785371 -0.73592687 0 8
1.1089811 3.3157008 -0.73404384 0 9
1.1620699 3.4744289 -0.73406869 0 10
1.2257181 3.6647282 -0.73737258 0 11
1.2858393 3.8444824 -0.73496413 0 12
1.3562515 4.0550051 -0.73465711 0 13
1.4345161 4.2890053 -0.7342934 0 14
1.5298984 4.5741854 -0.73765194 0 15
1.6239508 4.8553891 -0.73487526 0 16
1.7317603 5.1777248 -0.73247731 0 17
1.8790624 5.6181378 -0.73938012 0 18
1.9438391 5.8118114 -0.70768923 0 19
1.9403573 5.8014011 -0.64946568 0 20
1.9425159 5.8078547 -0.59328014 0 21
1.9438698 5.811903 -0.53684735 0 22
1.941386 5.8044767 -0.4794791 0 23
1.9455061 5.8167953 -0.42377594 0 24
1.9400822 5.8005786 -0.36610371 0 25
1.9390241 5.7974148 -0.30950621 0 26
1.9437935 5.8116751 -0.25378358 0 27
1.9455723 5.8169932 -0.19752328 0 28
1.9397035 5.7994461 -0.14063865 0 29
1.9401896 5.8008995 -0.08439482 0 30
1.939532 5.7989335 -0.028120486 0 31
1.9437207 5.8114572 0.028181216 0 32
1.9444302 5.8135786 0.084579282 0 33
1.9455724 5.8169937 0.14106418 0 34
1.9423641 5.8074012 0.19719757 0 35
1.9424715 5.8077221 0.25361097 0 36
1.9430875 5.8095641 0.31015483 0 37
1.9411108 5.8036542 0.36629781 0 38
1.9402182 5.8009853 0.42262411 0 39
1.942304 5.8072214 0.47970584 0 40
1.9425673 5.8080087 0.53648764 0 41
1.9394726 5.7987556 0.59235066 0 42
1.942427 5.8075895 0.65015846 0 43
1.939442 5.7986646 0.70608836 0 44
1.9414647 5.8047123 0.76393437 0 45
1.948035 5.8243566 0.82395434 0 46
1.9427229 5.8084741 0.87912703 0 47
1.9460747 5.8184953 0.9383145 0 48
1.9386508 5.796299 0.99234754 0 49
1.9414064 5.8045373 1.051625 0 50
1.9375693 5.7930651 1.107482 0 51
1.9410888 5.8035884 1.1677283 0 52
1.9438926 5.8119712 1.2279389 0 53
1.9418509 5.8058667 1.2853273 0 54
1.9385717 5.7960625 1.3419626 0 55
1.9426391 5.8082232 1.4039458 0 56
1.9451728 5.8157988 1.4652722 0 57
1.9417455 5.8055515 1.5223426 0 58
1.9443533 5.8133483 1.584393 0 59
1.9407685 5.8026304 1.6416527 0 60
1.9443167 5.8132391 1.7052432 0 61
1.9403151 5.8012748 1.7625084 0 62
0 0 0 0 63
0.75269824 2.3459685 -0.73448026 0 0
0.77373898 2.4115472 -0.729716 0 1
0.8053748 2.510148 -0.73336107 0 2
0.83635283 2.6066985 -0.73450971 0 3
0.86822945 2.7060499 -0.73455226 0 4
0.90517056 2.8211858 -0.73680222 0 5
0.94002491 2.9298182 -0.73519063 0 6
0.9756912 3.0409808 -0.7321012 0 7
1.0229651 3.1883211 -0.73522419 0 8
1.065183 3.3199041 -0.73201931 0 9
1.1214889 3.4953949 -0.73552912 0 10
1.1764244 3.666615 -0.73478603 0 11
1.2346802 3.8481836 -0.73271382 0 12
1.3077965 4.0760679 -0.73550409 0 13
1.3813823 4.3054166 -0.73413944 0 14
1.4658473 4.5686722 -0.73380059 0 15
1.5639429 4.8744111 -0.73478812 0 16
1.6748842 5.2201872 -0.73551518 0 17
1.794885 5.5941992 -0.73326957 0 18
1.8809316 5.8623843 -0.71097726 0 19
1.8720926 5.8348355 -0.65058237 0 20
1.8769104 5.8498516 -0.59516758 0 21
1.873184 5.8382368 -0.53711158 0 22
1.8778718 5.8528476 -0.48153093 0 23
1.8795786 5.8581672 -0.4250741 0 24
1.8779798 5.8531842 -0.36793861 0 25
1.8735993 5.8395314 -0.31050125 0 26
1.8756566 5.8459435 -0.25425366 0 27
1.8758864 5.8466597 -0.19773243 0 28
1.8731853 5.8382411 -0.14101021 0 29
1.8769271 5.8499036 -0.084765568 0 30
1.8734474 5.8390579 -0.028201217 0 31
1.8787833 5.855689 0.02828154 0 32
1.8739498 5.8406239 0.084631108 0 33
1.8728052 5.8370566 0.1409816 0 34
1.8738946 5.8404517 0.19752248 0 35
1.8736064 5.8395538 0.25397575 0 36
1.874 5.8407803 0.31056765 0 37
1.8774428 5.8515105 0.36783341 0 38
1.8785466 5.8549509 0.42484072 0 39
1.8750263 5.8439794 0.48080131 0 40
1.8768913 5.8497915 0.53817457 0 41
1.8771648 5.8506446 0.59524822 0 42
1.8769143 5.8498635 0.65225798 0 43
1.8781542 5.8537273 0.70992744 0 44
1.8807987 5.8619699 0.76836812 0 45
1.8749168 5.8436379 0.82335824 0 46
1.8789757 5.8562884 0.88280016 0 47
1.8791184 5.8567333 0.94068348 0 48
1.8770375 5.8502474 0.99755681 0 49
1.8770847 5.8503947 1.0556715 0 50
1.8728099 5.8370709 1.1114082 0 51
1.8724456 5.8359356 1.1695157 0 52
1.876736 5.849308 1.2308584 0 53
1.8738953 5.8404536 1.2877858 0 54
1.8778859 5.8528914 1.3496718 0 55
1.8768479 5.8496566 1.408276 0 56
1.8805393 5.8611617 1.470764 0 57
1.87633 5.848042 1.527319 0 58
1.8756508 5.8459253 1.5868658 0 59
1.8784117 5.8545303 1.6496766 0 60
1.8777922 5.8525996 1.7098867 0 61
0 0 0 0 62
0 0 0 0 63
0.72269124 2.3514502 -0.7333588 0 0
0.74896282 2.4369309 -0.73455465 0 1
0.77706885 2.5283809 -0.73584068 0 2
0.8031162 2.6131322 -0.73348445 0 3
0.83817655 2.7272096 -0.73744255 0 4
0.87005192 2.8309236 -0.73649561 0 5
0.90506953 2.9448619 -0.7361173 0 6
0.93617994 3.0460873 -0.73050386 0 7
0.98421746 3.2023888 -0.73562175 0 8
1.0289971 3.3480899 -0.7353887 0 9
1.0779449 3.5073535 -0.73520076 0 10
1.123063 3.654156 -0.72946668 0 11
1.1924882 3.880048 -0.73593336 0 12
1.2555988 4.0853934 -0.73434526 0 13
1.3315594 4.3325496 -0.73591846 0 14
1.4102252 4.5885072 -0.73414576 0 15
1.4997125 4.8796759 -0.73274642 0 16
1.6179284 5.2643199 -0.73887438 0 17
1.7319833 5.6354251 -0.73582613 0 18
1.8092529 5.8868403 -0.71119136 0 19
1.8146037 5.9042506 -0.65578461 0 20
1.8095884 5.8879323 -0.59673291 0 21
1.8077866 5.8820696 -0.53905833 0 22
1.8098469 5.888773 -0.4826192 0 23
1.8091984 5.886663 -0.42549536 0 24
1.807016 5.8795624 -0.36817217 0 25
1.8135155 5.9007101 -0.31254488 0 26
1.8079162 5.8824911 -0.25485703 0 27
1.8114374 5.8939481 -0.19856338 0 28
1.8108636 5.8920813 -0.14176206 0 29
1.8113225 5.8935742 -0.085069194 0 30
1.8106927 5.8915253 -0.028344942 0 31
1.807862 5.8823152 0.02830063 0 32
1.8066182 5.8782678 0.084848262 0 33
1.8106034 5.8912344 0.14174169 0 34
1.8147703 5.9047928 0.19892874 0 35
1.8112649 5.8933868 0.2553291 0 36
1.8126899 5.8980236 0.31240261 0 37
1.8109781 5.8924537 0.36897942 0 38
1.8114023 5.8938341 0.42601371 0 39
1.8100082 5.889298 0.4826622 0 40
1.8098242 5.8886995 0.53966594 0 41
1.8141102 5.9026451 0.59822404 0 42
1.8106045 5.8912382 0.65433931 0 43
1.8104857 5.8908515 0.711676 0 44
1.8079044 5.882453 0.76808095 0 45
1.8096496 5.8881311 0.82642955 0 46
1.8098178 5.8886786 0.88426125 0 47
1.8117487 5.8949614 0.943174 0 48
1.8100202 5.8893371 1.0003514 0 49
1.8122358 5.8965459 1.0598981 0 50
1.8084893 5.884356 1.1160929 0 51
1.8101937 5.8899016 1.1757809 0 52
1.8092757 5.8869147 1.2339972 0 53
1.8092619 5.8868699 1.293017 0 54
1.8101009 5.8895998 1.3529018 0 55
1.8102187 5.8899827 1.4125187 0 56
1.8101625 5.8898001 1.4722537 0 57
1.8129834 5.8989787 1.5346836 0 58
1.809606 5.8879895 1.5921234 0 59
1.8088288 5.8854609 1.6519997 0 60
1.8094885 5.8876071 1.7134843 0 61
0 0 0 0 62
0 0 0 0 63
0.69697261 2.3712096 -0.73679274 0 0
0.72002125 2.4496248 -0.73565656 0 1
0.74590105 2.537672 -0.73581976 0 2
0.77245766 2.6280217 -0.73494208 0 3
0.8020817 2.7288072 -0.73515213 0 4
0.83283281 2.8334272 -0.73442715 0 5
0.86535901 2.9440866 -0.73320818 0 6
0.90587038 3.0819125 -0.73636842 0 7
0.94917375 3.2292373 -0.73905218 0 8
0.98124945 3.3383639 -0.73054695 0 9
1.0336459 3.5166249 -0.73442441 0 10
1.0815485 3.6795969 -0.73183513 0 11
1.1440151 3.8921182 -0.73549896 0 12
1.2078512 4.1092987 -0.73591685 0 13
1.2821573 4.3620992 -0.73820394 0 14
1.3539865 4.6064734 -0.73430097 0 15
1.443172 4.9098964 -0.73456413 0 16
1.5431257 5.2499547 -0.73413944 0 17
1.6581753 5.6413717 -0.73388481 0 18
1.7448518 5.9362588 -0.71451557 0 19
1.7410402 5.9232907 -0.65547204 0 20
1.7442733 5.9342899 -0.59921217 0 21
1.7479819 5.9469075 -0.54298949 0 22
1.7440528 5.9335399 -0.48449385 0 23
1.745105 5.93712 -0.42755908 0 24
1.7434914 5.9316301 -0.37006217 0 25
1.7394024 5.9177184 -0.3122893 0 26
1.7443899 5.9346871 -0.25616974 0 27
1.7443583 5.9345794 -0.19919455 0 28
1.743655 5.9321866 -0.14220038 0 29
1.7449716 5.936666 -0.085375026 0 30
1.7451941 5.9374228 -0.028460363 0 31
1.7419132 5.9262605 0.02840686 0 32
1.7457386 5.9392757 0.085412554 0 33
1.7445186 5.9351249 0.14227082 0 34
1.7412418 5.9239769 0.19883868 0 35
1.7441179 5.9337616 0.2561298 0 36
1.7424966 5.9282455 0.31284481 0 37
1.739808 5.9190984 0.36928034 0 38
1.7450643 5.9369812 0.42754906 0 39
1.7422166 5.9272933 0.48398378 0 40
1.7426031 5.9286075 0.5413186 0 41
1.7476637 5.9458251 0.60037684 0 42
1.7418882 5.9261756 0.65579122 0 43
1.7470784 5.9438338 0.71542734 0 44
1.7424587 5.9281168 0.77118742 0 45
1.7391204 5.9167595 0.82738358 0 46
1.7414894 5.924819 0.88640553 0 47
1.7481631 5.9475236 0.94807285 0 48
1.7455605 5.9386692 1.0050091 0 49
1.7448375 5.9362097 1.0630907 0 50
1.7416052 5.9252129 1.1196957 0 51
1.7474828 5.9452095 1.1824429 0 52
1.7386708 5.9152298 1.2353575 0 53
1.7459484 5.9399896 1.2998706 0 54
1.7459623 5.9400363 1.3594531 0 55
1.7435977 5.9319921 1.4173445 0 56
1.7440661 5.9335856 1.4777261 0 57
1.7474185 5.9449906 1.5409474 0 58
1.741014 5.9232016 1.5957353 0 59
1.7439801 5.9332924 1.6592809 0 60
1.7453121 5.9378242 1.7217231 0 61
0 0 0 0 62
0 0 0 0 63
0.66640699 2.3747623 -0.73529482 0 0
0.69086236 2.4619095 -0.73673892 0 1
0.71618789 2.5521579 -0.73741078 0 2
0.73966235 2.6358099 -0.73452103 0 3
0.76668417 2.7321031 -0.73344475 0 4
0.79616964 2.8371756 -0.73280573 0 5
0.83044797 2.9593272 -0.73440516 0 6
0.86659449 3.0881367 -0.73525387 0 7
0.90320992 3.2186167 -0.73402423 0 8
0.94525707 3.3684533 -0.73453242 0 9
0.98665369 3.5159712 -0.73169881 0 10
1.0426381 3.7154737 -0.73636508 0 11
1.0975248 3.9110639 -0.7364732 0 12
1.1565751 4.1214919 -0.73549795 0 13
1.2292809 4.3805814 -0.73871773 0 14
1.3019218 4.6394396 -0.73694825 0 15
1.386888 4.9422193 -0.73679274 0 16
1.4761684 5.2603722 -0.73300248 0 17
1.5811108 5.6343379 -0.73038536 0 18
1.6791085 5.9835558 -0.71766901 0 19
1.6772242 5.9768405 -0.65906578 0 20
1.6788616 5.982676 -0.60196787 0 21
1.679167 5.9837642 -0.54442829 0 22
1.6760745 5.972744 -0.48597538 0 23
1.6740324 5.965467 -0.42808571 0 24
1.6764367 5.9740343 -0.3713935 0 25
1.6806209 5.988945 -0.31493366 0 26
1.6703535 5.9523573 -0.25602654 0 27
1.6750536 5.9691057 -0.19964699 0 28
1.6765469 5.9744272 -0.14270797 0 29
1.6793761 5.984509 -0.085759602 0 30
1.6783971 5.9810205 -0.028568257 0 31
1.6758538 5.9719577 0.028524969 0 32
1.6755228 5.970778 0.085562825 0 33
1.6769872 5.9759965 0.14274545 0 34
1.6765388 5.9743986 0.19982402 0 35
1.6787667 5.982338 0.25731608 0 36
1.6756643 5.971282 0.31400487 0 37
1.6765665 5.9744968 0.37142229 0 38
1.6764531 5.974093 0.42870474 0 39
1.672915 5.9614849 0.48505932 0 40
1.676451 5.9740853 0.54354769 0 41
1.6754932 5.9706726 0.6007601 0 42
1.678514 5.9814372 0.6595726 0 43
1.6785853 5.9816914 0.71744537 0 44
1.6783795 5.980958 0.77531809 0 45
1.678939 5.9829516 0.83368975 0 46
1.675939 5.972261 0.89035285 0 47
1.6728688 5.9613204 0.94692147 0 48
1.6814123 5.9917655 1.0104191 0 49
1.6770246 5.97613 1.0664661 0 50
1.6778445 5.9790516 1.1258857 0 51
1.6762946 5.9735284 1.1838861 0 52
1.6768761 5.9756002 1.2435653 0 53
1.6768327 5.9754457 1.3030189 0 54
1.6763421 5.9736977 1.3623364 0 55
1.6766458 5.9747796 1.4225342 0 56
1.6756016 5.9710584 1.4818152 0 57
1.6748955 5.9685426 1.5415974 0 58
1.6747907 5.9681692 1.6021805 0 59
1.6793079 5.9842663 1.6676353 0 60
1.6745155 5.9671884 1.7241366 0 61
0 0 0 0 62
0 0 0 0 63
0.63728386 2.3832486 -0.73544043 0 0
0.6582647 2.4617105 -0.73420155 0 1
0.6828925 2.5538111 -0.73540658 0 2
0.70807213 2.6479752 -0.73542923 0 3
0.73797113 2.7597885 -0.73838514 0 4
0.75767642 2.8334801 -0.72938973 0 5
0.79624552 2.9777169 -0.7364834 0 6
0.8274104 3.0942643 -0.73423493 0 7
0.86313111 3.2278488 -0.73365372 0 8
0.9083299 3.3968787 -0.73823953 0 9
0.94965208 3.5514112 -0.7365883 0 10
0.99491858 3.7206941 -0.73491949 0 11
1.0438464 3.9036691 -0.73260832 0 12
1.1014709 4.1191678 -0.73261088 0 13
1.1663086 4.3616409 -0.73304987 0 14
1.2397109 4.6361432 -0.73394775 0 15
1.3217205 4.9428344 -0.73440599 0 16
1.4158628 5.294898 -0.73533183 0 17
1.5232085 5.6963387 -0.73593891 0 18
1.6072117 6.0104847 -0.71847415 0 19
1.6088505 6.0166135 -0.66122007 0 20
1.6134231 6.0337133 -0.60506123 0 21
1.6114969 6.0265102 -0.54647332 0 22
1.6085142 6.0153556 -0.48779631 0 23
1.6096094 6.0194516 -0.4305068 0 24
1.608057 6.0136456 -0.37259865 0 25
1.6060154 6.006011 -0.31476882 0 26
1.6106949 6.0235109 -0.25821564 0 27
1.6072571 6.0106544 -0.20036049 0 28
1.6083821 6.0148621 -0.14319058 0 29
1.6077204 6.0123873 -0.085869305 0 30
1.610751 6.0237207 -0.028675443 0 31
1.6117417 6.0274258 0.028693078 0 32
1.6077216 6.0123916 0.085869372 0 33
1.611998 6.0283842 0.14351249 0 34
1.6133891 6.0335865 0.20112491 0 35
1.6118579 6.0278602 0.25840208 0 36
1.6089011 6.0168028 0.31533441 0 37
1.6097957 6.0201483 0.37300152 0 38
1.6058885 6.0055366 0.42951164 0 39
1.6061231 6.0064139 0.48707122 0 40
1.6112549 6.0256052 0.54639125 0 41
1.604902 6.0018473 0.60186565 0 42
1.6089312 6.0169153 0.66125321 0 43
1.6094488 6.0188508 0.71947426 0 44
1.6082059 6.0142031 0.77700543 0 45
1.6106331 6.0232801 0.83648634 0 46
1.6125054 6.0302815 0.89597893 0 47
1.6111612 6.0252547 0.95385802 0 48
1.6098651 6.0204077 1.0118345 0 49
1.6093682 6.0185494 1.0704236 0 50
1.6107897 6.0238652 1.1305091 0 51
1.6094316 6.0187869 1.1888437 0 52
1.6096494 6.0196009 1.2485087 0 53
1.6085662 6.0155501 1.3073522 0 54
1.6124779 6.0301785 1.3705918 0 55
1.6109591 6.0244989 1.4295474 0 56
1.6123796 6.0298109 1.4913626 0 57
1.6123109 6.0295539 1.5521177 0 58
1.6103393 6.022181 1.6112427 0 59
1.6091373 6.0176859 1.6713079 0 60
1.6071309 6.0101824 1.7307184 0 61
0 0 0 0 62
0 0 0 0 63
0.60863411 2.3936641 -0.73628944 0 0
0.62917137 2.4744339 -0.73563325 0 1
0.65187246 2.5637138 -0.73589432 0 2
0.66921258 2.6319098 -0.72862679 0 3
0.70208317 2.7611849 -0.73639327 0 4
0.72754252 2.8613124 -0.73419583 0 5
0.75811332 2.9815426 -0.73506838 0 6
0.78891611 3.1026855 -0.73387581 0 7
0.82376754 3.2397506 -0.7340011 0 8
0.86362082 3.3964875 -0.73579097 0 9
0.90571195 3.5620253 -0.73642421 0 10
0.94440556 3.7142012 -0.73128796 0 11
1.0029598 3.9444866 -0.73789829 0 12
1.0526975 4.1400971 -0.73397547 0 13
1.1149082 4.3847618 -0.73457611 0 14
1.1876303 4.6707668 -0.73706138 0 15
1.2574151 4.9452195 -0.73240775 0 16
1.3482376 5.3024106 -0.73401731 0 17
1.451131 5.7070742 -0.73496503 0 18
1.5431908 6.0691314 -0.72316164 0 19
1.5421402 6.0649996 -0.66440338 0 20
1.5437909 6.0714912 -0.6069001 0 21
1.544754 6.0752792 -0.54913163 0 22
1.5424793 6.0663328 -0.49035501 0 23
1.542304 6.0656438 -0.43242142 0 24
1.5404042 6.0581717 -0.37415555 0 25
1.5439222 6.0720077 -0.31720868 0 26
1.5400447 6.0567579 -0.25880951 0 27
1.5397904 6.055758 -0.20121761 0 28
1.5445542 6.0744934 -0.14414713 0 29
1.5407323 6.0594625 -0.086264536 0 30
1.5405285 6.058661 -0.028749421 0 31
1.53957 6.0548911 0.028731532 0 32
1.5426741 6.0670991 0.086373255 0 33
1.5371605 6.0454149 0.14345711 0 34
1.5338821 6.0325217 0.20044553 0 35
1.5381542 6.0493236 0.25849181 0 36
1.5415844 6.0628138 0.31672838 0 37
1.543421 6.0700369 0.37488833 0 38
1.5431323 6.0689011 0.43265364 0 39
1.5459225 6.079875 0.49144965 0 40
1.5379992 6.0487132 0.5467304 0 41
1.542219 6.0653095 0.60628211 0 42
1.5463558 6.0815787 0.66621959 0 43
1.5420308 6.0645695 0.72261804 0 44
1.5419303 6.0641742 0.78095281 0 45
1.5392858 6.0537734 0.83802915 0 46
1.5394944 6.054594 0.89671075 0 47
1.541486 6.0624266 0.95666957 0 48
1.5430387 6.0685329 1.0166571 0 49
1.5396861 6.0553479 1.0735199 0 50
1.5421599 6.0650768 1.1345989 0 51
1.5413285 6.0618072 1.1935074 0 52
1.5421942 6.0652122 1.2539408 0 53
1.5393151 6.0538888 1.3114715 0 54
1.5378245 6.0480261 1.3702468 0 55
1.5411021 6.0609164 1.433584 0 56
1.5395865 6.054956 1.4927865 0 57
1.5430903 6.0687361 1.5572019 0 58
1.543179 6.0690851 1.6185925 0 59
1.5438278 6.0716367 1.6808923 0 60
1.5427097 6.0672393 1.7415544 0 61
0 0 0 0 62
0 0 0 0 63
0.5807848 2.407716 -0.73835915 0 0
0.60085332 2.4909127 -0.73828 0 1
0.61822665 2.5629361 -0.73343354 0 2
0.64150333 2.6594324 -0.73400694 0 3
0.66695708 2.7649539 -0.73515564 0 4
0.6941812 2.8778152 -0.73618442 0 5
0.71888489 2.9802272 -0.73250932 0 6
0.75050288 3.1113036 -0.73367596 0 7
0.78480154 3.2534928 -0.73487258 0 8
0.82254303 3.409955 -0.7364617 0 9
0.8625828 3.5759449 -0.73705339 0 10
0.90172958 3.7382326 -0.73378086 0 11
0.94800091 3.9300563 -0.73296273 0 12
1.004469 4.1641521 -0.7359947 0 13
1.0637769 4.4100199 -0.73656052 0 14
1.1268178 4.6713643 -0.73491365 0 15
1.2032979 4.9884214 -0.73655909 0 16
1.2896079 5.3462305 -0.73783243 0 17
1.3794308 5.7186031 -0.73420978 0 18
1.4759058 6.1185522 -0.72683293 0 19
1.4715323 6.1004214 -0.66625118 0 20
1.4738349 6.1099668 -0.60888845 0 21
1.4733248 6.107852 -0.55039668 0 22
1.4746917 6.1135192 -0.49266616 0 23
1.4718825 6.1018729 -0.4336811 0 24
1.47061 6.0965981 -0.37538353 0 25
1.4737381 6.1095653 -0.31819999 0 26
1.4743114 6.1119423 -0.26037323 0 27
1.4730488 6.106708 -0.2022934 0 28
1.468397 6.0874233 -0.1440146 0 29
1.4696119 6.0924602 -0.0864705 0 30
1.471079 6.0985417 -0.028850645 0 31
1.4714528 6.1000919 0.028857978 0 32
1.4754854 6.1168098 0.086816095 0 33
1.4720986 6.1027689 0.14437763 0 34
1.4742258 6.1115875 0.20245504 0 35
1.4722141 6.1032476 0.26000282 0 36
1.4734823 6.1085048 0.31814474 0 37
1.4717745 6.1014247 0.37568074 0 38
1.4702804 6.0952311 0.43320906 0 39
1.4721096 6.1028142 0.49180353 0 40
1.4701191 6.0945625 0.54919916 0 41
1.4747555 6.1137834 0.60926878 0 42
1.4716064 6.1007285 0.66628468 0 43
1.4724499 6.1042252 0.72513098 0 44
1.4736979 6.1093988 0.78438395 0 45
1.4697053 6.0928473 0.84087288 0 46
1.4711311 6.0987577 0.90050435 0 47
1.4715673 6.1005659 0.95976013 0 48
1.4712527 6.0992622 1.0186973 0 49
1.4729176 6.106164 1.0792364 0 50
1.4743638 6.1121597 1.1399289 0 51
1.4721268 6.1028857 1.1979407 0 52
1.4682971 6.087009 1.2546196 0 53
1.4718046 6.1015506 1.3177763 0 54
1.4760864 6.1193008 1.3821781 0 55
1.4722836 6.1035357 1.4392737 0 56
1.4714892 6.1002426 1.4993771 0 57
1.4747337 6.1136932 1.5639662 0 58
1.4742841 6.1118288 1.6250346 0 59
1.4726765 6.1051645 1.6850337 0 60
1.4735986 6.1089873 1.7482044 0 61
0 0 0 0 62
0 0 0 0 63
0.55069333 2.4127326 -0.73776525 0 0
0.56878877 2.4920132 -0.73647755 0 1
0.58729595 2.5730979 -0.73421949 0 2
0.6103245 2.6739922 -0.73589849 0 3
0.63670671 2.7895796 -0.73956567 0 4
0.65589625 2.8736541 -0.73300135 0 5
0.68583047 3.0048039 -0.73642153 0 6
0.71592712 3.1366651 -0.73752481 0 7
0.74392122 3.2593148 -0.73406589 0 8
0.77800196 3.4086316 -0.73405421 0 9
0.81449842 3.568532 -0.73340571 0 10
0.8554886 3.7481208 -0.73360145 0 11
0.90221441 3.9528389 -0.73508704 0 12
0.94992793 4.1618843 -0.73347396 0 13
1.0057762 4.40657 -0.73386317 0 14
1.0740573 4.7057276 -0.73818618 0 15
1.1356523 4.9755917 -0.7325474 0 16
1.2212707 5.3507085 -0.73632222 0 17
1.3100588 5.7397127 -0.73479629 0 18
1.4037912 6.1503787 -0.72850806 0 19
1.4044051 6.1530685 -0.67006427 0 20
1.4050018 6.155683 -0.61167634 0 21
1.403713 6.1500359 -0.5526008 0 22
1.4014801 6.1402531 -0.49339452 0 23
1.4019836 6.1424594 -0.43530756 0 24
1.4039633 6.1511331 -0.3776499 0 25
1.4027647 6.1458812 -0.3191689 0 26
1.4035537 6.1493382 -0.26121134 0 27
1.4025887 6.1451106 -0.20297886 0 28
1.4055285 6.1579905 -0.14526419 0 29
1.4068853 6.1639352 -0.087232813 0 30
1.4041251 6.1518416 -0.029018918 0 31
1.4052863 6.156929 0.029042918 0 32
1.4031345 6.1475015 0.087000251 0 33
1.4039305 6.1509895 0.14509904 0 34
1.4032229 6.1478891 0.20307066 0 35
1.4034432 6.1488543 0.26119077 0 36
1.4030366 6.1470728 0.31923079 0 37
1.4088569 6.1725731 0.37896621 0 38
1.4036325 6.1496835 0.43581954 0 39
1.4056792 6.1586509 0.49487284 0 40
1.4034463 6.1488676 0.55249584 0 41
1.4027245 6.1457052 0.61068487 0 42
1.4035348 6.1492553 0.669649 0 43
1.4023157 6.1439147 0.72774237 0 44
1.4021049 6.1429906 0.7864238 0 45
1.4028671 6.1463304 0.84580934 0 46
1.4047784 6.1547036 0.90614593 0 47
1.4060948 6.1604714 0.96639144 0 48
1.4055406 6.1580434 1.0255507 0 49
1.401881 6.1420097 1.0824434 0 50
1.4047965 6.1547832 1.1445702 0 51
1.4027101 6.1456423 1.2028568 0 52
1.4042506 6.1523919 1.2644413 0 53
1.40232 6.1439333 1.3231058 0 54
1.4070274 6.1645575 1.3883873 0 55
1.4063493 6.1615863 1.4487753 0 56
1.4046673 6.1542172 1.5082842 0 57
1.4036299 6.149672 1.5686363 0 58
1.4059113 6.1596675 1.633034 0 59
1.4042341 6.152319 1.6931547 0 60
1.4028325 6.1461787 1.7537785 0 61
0 0 0 0 62
0 0 0 0 63
0.51737702 2.4025626 -0.73265475 0 0
0.53794348 2.4980681 -0.73625636 0 1
0.5580346 2.5913658 -0.73741835 0 2
0.57661539 2.67765 -0.73489833 0 3
0.59793383 2.7766473 -0.73413229 0 4
0.62464887 2.9007049 -0.73788631 0 5
0.6458593 2.9992008 -0.73304653 0 6
0.6774202 3.1457613 -0.73764914 0 7
0.70348293 3.2667897 -0.73374569 0 8
0.73909891 3.4321809 -0.7371127 0 9
0.77174693 3.5837896 -0.73453557 0 10
0.81117123 3.7668657 -0.73526245 0 11
0.84662008 3.9314809 -0.72912413 0 12
0.90020567 4.1803179 -0.7347163 0 13
0.95532441 4.436275 -0.73679817 0 14
1.0117867 4.6984711 -0.73504061 0 15
1.0820279 5.024653 -0.73775595 0 16
1.1537597 5.3577561 -0.73528415 0 17
1.2353418 5.7366023 -0.73239803 0 18
1.3353403 6.2009687 -0.73250008 0 19
1.3351874 6.2002592 -0.67336446 0 20
1.3370824 6.2090588 -0.61529994 0 21
1.3338406 6.1940045 -0.55503583 0 22
1.3295776 6.1742086 -0.49477184 0 23
1.3347838 6.1983848 -0.43807462 0 24
1.3330637 6.1903973 -0.37902546 0 25
1.3365189 6.2064419 -0.32143617 0 26
1.3365303 6.2064953 -0.26292124 0 27
1.3336878 6.1932955 -0.20401333 0 28
1.3322053 6.1864109 -0.1455372 0 29
1.3376036 6.2114787 -0.087666266 0 30
1.336619 6.2069068 -0.029198932 0 31
1.3358301 6.2032433 0.029181696 0 32
1.3348788 6.1988258 0.087487683 0 33
1.3337318 6.1934996 0.14570396 0 34
1.3342701 6.1959996 0.20410241 0 35
1.3349396 6.1991081 0.26260832 0 36
1.3315178 6.183218 0.32023337 0 37
1.3349053 6.1989489 0.37954906 0 38
1.3335025 6.1924348 0.43765411 0 39
1.3372991 6.2100649 0.4976452 0 40
1.3349296 6.1990614 0.55548894 0 41
1.3345665 6.1973758 0.61414218 0 42
1.3374902 6.2109523 0.6745258 0 43
1.3334056 6.1919847 0.73143882 0 44
1.3361827 6.2048807 0.79218364 0 45
1.3328578 6.1894412 0.84942234 0 46
1.3350092 6.1994314 0.91024542 0 47
1.3333497 6.1917253 0.96864903 0 48
1.3337604 6.1936321 1.0286685 0 49
1.3357393 6.2028217 1.0901835 0 50
1.334565 6.1973686 1.1493509 0 51
1.3342794 6.1960425 1.2094187 0 52
1.3320794 6.1858263 1.2678505 0 53
1.3315736 6.1834774 1.3279951 0 54
1.33357 6.1927481 1.3909382 0 55
1.3326356 6.1884089 1.4511193 0 56
1.3350284 6.1995201 1.5152493 0 57
1.3328955 6.1896162 1.5745254 0 58
1.3334446 6.1921659 1.637179 0 59
1.3338896 6.1942325 1.7000469 0 60
1.332692 6.1886706 1.7610942 0 61
0 0 0 0 62
0 0 0 0 63
0.48714939 2.405544 -0.73168188 0 0
0.5067063 2.502116 -0.73555744 0 1
0.52369124 2.5859876 -0.73399991 0 2
0.54347509 2.6836805 -0.73466372 0 3
0.56284642 2.779336 -0.7329579 0 4
0.58840054 2.9055223 -0.73721558 0 5
0.60902917 3.0073867 -0.73316145 0 6
0.633555 3.1284952 -0.73171836 0 7
0.66361785 3.2769456 -0.73413843 0 8
0.69386882 3.4263248 -0.73396713 0 9
0.73107141 3.6100314 -0.73801577 0 10
0.76300502 3.7677195 -0.73354238 0 11
0.80511904 3.9756787 -0.73542929 0 12
0.84741277 4.184525 -0.73356879 0 13
0.89908117 4.4396634 -0.73546916 0 14
0.95119417 4.6969976 -0.73292488 0 15
1.0177898 5.025847 -0.73603803 0 16
1.0879619 5.3723569 -0.73539633 0 17
1.1751795 5.8030372 -0.7389791 0 18
1.2669476 6.2561884 -0.73712695 0 19
1.2638733 6.2410078 -0.67605096 0 20
1.2646601 6.2448926 -0.61726326 0 21
1.2619237 6.2313805 -0.55695242 0 22
1.2640969 6.2421117 -0.49892992 0 23
1.2666777 6.2548561 -0.44093162 0 24
1.263862 6.2409515 -0.38114044 0 25
1.2612227 6.2279186 -0.32172096 0 26
1.2638987 6.2411327 -0.26371029 0 27
1.2644565 6.2438869 -0.2051522 0 28
1.2623807 6.2336369 -0.14627196 0 29
1.2626567 6.2350001 -0.087772466 0 30
1.2661467 6.2522335 -0.0293367 0 31
1.2620919 6.2322106 0.02924275 0 32
1.2634861 6.2390962 0.087830126 0 33
1.2652723 6.2479153 0.146607 0 34
1.2636999 6.2401514 0.20502946 0 35
1.2643075 6.2431517 0.26379558 0 36
1.266723 6.2550797 0.32312402 0 37
1.2613541 6.2285676 0.38038415 0 38
1.2642834 6.2430329 0.44009814 0 39
1.2645916 6.244554 0.49912515 0 40
1.2621762 6.2326269 0.55706388 0 41
1.2643679 6.2434502 0.61712068 0 42
1.2620188 6.2318497 0.67505896 0 43
1.2639698 6.2414842 0.73539448 0 44
1.2620738 6.2321215 0.79362017 0 45
1.2627556 6.2354884 0.85354626 0 46
1.2653111 6.2481074 0.9150387 0 47
1.2643975 6.2435961 0.97425783 0 48
1.2631954 6.2376599 1.033323 0 49
1.2611668 6.227643 1.0917379 0 50
1.2640264 6.2417636 1.1546144 0 51
1.2624066 6.2337651 1.21366 0 52
1.262585 6.2346463 1.2745782 0 53
1.2645638 6.2444172 1.3376423 0 54
1.2626772 6.2351012 1.396858 0 55
1.2636297 6.2398043 1.4594171 0 56
1.2633313 6.2383308 1.5208232 0 57
1.2606617 6.2251487 1.5795014 0 58
1.265203 6.2475734 1.6475908 0 59
1.2623198 6.2333364 1.7063901 0 60
0 0 0 0 61
0 0 0 0 62
0 0 0 0 63
0.45863676 2.4171581 -0.73344368 0 0
0.47542098 2.5056162 -0.73481232 0 1
0.49211198 2.5935831 -0.73438263 0 2
0.51081252 2.6921408 -0.73520464 0 3
0.52672225 2.7759898 -0.73031217 0 4
0.55112571 2.9046035 -0.73520738 0 5
0.57533664 3.0322027 -0.73743081 0 6
0.59766775 3.1498945 -0.73494899 0 7
0.62735313 3.3063457 -0.73894095 0 8
0.65191245 3.435781 -0.73422009 0 9
0.68485785 3.6094136 -0.73611224 0 10
0.71950537 3.7920167 -0.7364946 0 11
0.75869149 3.9985397 -0.73787665 0 12
0.79589492 4.1946135 -0.73356622 0 13
0.8422063 4.4386888 -0.73353666 0 14
0.89581853 4.721242 -0.73493356 0 15
0.95514202 5.033895 -0.73544103 0 16
1.0197914 5.3746171 -0.73393369 0 17
1.101536 5.8054371 -0.73750407 0 18
1.1897992 6.2706113 -0.73704684 0 19
1.1921123 6.2828021 -0.6789391 0 20
1.1954751 6.3005252 -0.62126219 0 21
1.1952258 6.299211 -0.56165898 0 22
1.1929206 6.2870617 -0.50131243 0 23
1.1933537 6.2893448 -0.44229499 0 24
1.1936053 6.2906704 -0.38325152 0 25
1.1939429 6.29245 -0.32427156 0 26
1.1943281 6.2944798 -0.26532379 0 27
1.1914846 6.2794938 -0.20582516 0 28
1.1924564 6.284615 -0.14711298 0 29
1.1952019 6.2990851 -0.088461034 0 30
1.1921294 6.2828922 -0.029409552 0 31
1.1911005 6.2774692 0.029384168 0 32
1.1947579 6.2967453 0.088428177 0 33
1.1931049 6.288033 0.14719298 0 34
1.1923063 6.2838244 0.20596711 0 35
1.1944951 6.2953606 0.26536089 0 36
1.1921241 6.2828646 0.32377759 0 37
1.1922717 6.2836423 0.38282332 0 38
1.1937883 6.291635 0.44245607 0 39
1.1934818 6.29002 0.50154829 0 40
1.1914351 6.279233 0.55987769 0 41
1.1931314 6.2881727 0.62004417 0 42
1.1910799 6.2773609 0.6783511 0 43
1.1930803 6.2879038 0.73907936 0 44
1.1933132 6.2891316 0.79895109 0 45
1.1916013 6.2801089 0.85758364 0 46
1.1908504 6.2761517 0.91693199 0 47
1.1905355 6.2744918 0.97672075 0 48
1.1923923 6.2842779 1.0385382 0 49
1.1917988 6.2811494 1.0984658 0 50
1.1905499 6.2745671 1.1578869 0 51
1.1922388 6.2834692 1.2203904 0 52
1.1920595 6.2825241 1.2812726 0 53
1.1909217 6.2765274 1.3412822 0 54
1.1919593 6.2819958 1.4039741 0 55
1.1911919 6.2779512 1.4648026 0 56
1.1915387 6.279779 1.5272404 0 57
1.1940103 6.2928047 1.5928221 0 58
1.1928324 6.2865973 1.6538888 0 59
1.1933292 6.2892156 1.7175404 0 60
0 0 0 0 61
0 0 0 0 62
0 0 0 0 63
0.43020529 2.4300904 -0.73570698 0 0
0.44308138 2.5028234 -0.73234004 0 1
0.45872495 2.5911887 -0.73205221 0 2
0.48033708 2.7132688 -0.73930568 0 3
0.49716258 2.8083105 -0.73715115 0 4
0.51373261 2.9019094 -0.73287106 0 5
0.53617674 3.0286889 -0.73491728 0 6
0.55944639 3.1601317 -0.73567683 0 7
0.58004349 3.2764781 -0.73061651 0 8
0.61220998 3.4581761 -0.7373414 0 9
0.63725793 3.5996637 -0.73247039 0 10
0.67348081 3.804275 -0.73721129 0 11
0.70377463 3.9753952 -0.73195338 0 12
0.74195147 4.1910439 -0.73129117 0 13
0.79154003 4.4711533 -0.73723751 0 14
0.84047365 4.7475638 -0.73736644 0 15
0.88977146 5.026031 -0.73263824 0 16
0.95262104 5.3810482 -0.73315686 0 17
1.0291185 5.8131576 -0.73682153 0 18
1.1112232 6.2769399 -0.73612899 0 19
1.1199991 6.3265119 -0.68212265 0 20
1.1225106 6.3406987 -0.6238153 0 21
1.1207144 6.3305531 -0.56318223 0 22
1.1239367 6.3487544 -0.50509143 0 23
1.1201916 6.3275995 -0.44398302 0 24
1.1198987 6.3259449 -0.38453251 0 25
1.1207654 6.3308411 -0.32551518 0 26
1.1240536 6.3494153 -0.26703659 0 27
1.1204218 6.3288999 -0.20697732 0 28
1.1203772 6.3286481 -0.14781006 0 29
1.1211179 6.3328328 -0.088734664 0 30
1.1225495 6.340919 -0.029614318 0 31
1.1242464 6.3505039 0.029659083 0 32
1.1216922 6.3360763 0.088780113 0 33
1.1222404 6.3391728 0.14805587 0 34
1.1217571 6.3364429 0.20722403 0 35
1.1215726 6.3354011 0.26644722 0 36
1.1233892 6.3456626 0.32627726 0 37
1.1198348 6.3255844 0.38451061 0 38
1.1199843 6.3264289 0.44390085 0 39
1.1215837 6.3354635 0.50403404 0 40
1.1216776 6.3359942 0.56366628 0 41
1.1210852 6.3326473 0.62302315 0 42
