# .PCD v0.7 - Point Cloud Data file format
VERSION 0.7
FIELDS x y z intensity ring
SIZE 4 4 4 4 2
TYPE F F F F U
COUNT 1 1 1 1 1
WIDTH 1297
HEIGHT 1
VIEWPOINT 0 0 0 1 0 0 0
POINTS 1297
DATA ascii
-2.7761891 5.3789258 -0.58640271 0 21
-2.779068 5.3845038 -0.5308044 0 22
-2.7770877 5.3806672 -0.47435024 0 23
-2.7761757 5.3789001 -0.41821766 0 24
-2.7762775 5.3790975 -0.36232525 0 25
-2.7825708 5.3912907 -0.30717376 0 26
-2.7802887 5.386869 -0.25104699 0 27
-2.7758472 5.3782635 -0.19490285 0 28
-2.7753088 5.3772206 -0.13916576 0 29
-2.7781475 5.38272 -0.083575428 0 30
-2.7710261 5.3689222 -0.027785499 0 31
-2.7789111 5.3842001 0.027864564 0 32
-2.7763264 5.3791919 0.083520651 0 33
-2.7770414 5.3805771 0.13925263 0 34
-2.7856011 5.397162 0.19558771 0 35
-2.7745545 5.3757586 0.2505292 0 36
-2.7758834 5.3783336 0.30643553 0 37
-2.7757874 5.3781471 0.36226127 0 38
-2.7779322 5.3823032 0.41848227 0 39
-2.7785113 5.3834252 0.4745934 0 40
-2.7775943 5.3816485 0.53052294 0 41
-2.7774451 5.3813591 0.58666801 0 42
-2.7824552 5.3910666 0.64410162 0 43
-2.7786341 5.3836632 0.69962507 0 44
-2.7825742 5.3912969 0.75722516 0 45
-2.776804 5.3801174 0.81227547 0 46
-2.7780097 5.382453 0.8694132 0 47
-2.7817628 5.3897247 0.92759991 0 48
-2.7780898 5.3826084 0.98347241 0 49
-2.7742264 5.375123 1.0392932 0 50
-2.7810624 5.3883677 1.0993649 0 51
-2.7751427 5.3768983 1.154605 0 52
-2.7812963 5.3888211 1.215076 0 53
-2.7776859 5.3818259 1.2715478 0 54
-2.7799621 5.3862357 1.3309113 0 55
-2.7781951 5.3828125 1.3885857 0 56
-2.7776902 5.381834 1.4470904 0 57
-2.77758 5.3816209 1.5060464 0 58
-2.7759957 5.3785515 1.5644376 0 59
-2.7788918 5.3841624 1.6256645 0 60
-2.7807736 5.3878083 1.6866955 0 61
-2.7808886 5.388031 1.7470053 0 62
0 0 0 0 63
-1.1667912 2.1940627 -0.74081689 0 0
-1.1990097 2.2546473 -0.73576748 0 1
-1.2335587 2.3196139 -0.73086655 0 2
-1.2795122 2.4060259 -0.73115748 0 3
-1.3340889 2.5086534 -0.73439801 0 4
-1.3894987 2.6128473 -0.7359311 0 5
-1.4401004 2.7079999 -0.73284453 0 6
-1.5042424 2.8286142 -0.73440403 0 7
-1.5699657 2.9522021 -0.73418868 0 8
-1.6441393 3.0916796 -0.73518288 0 9
-1.7120247 3.2193329 -0.73058951 0 10
-1.8057221 3.3955243 -0.73384827 0 11
-1.9059696 3.5840318 -0.73596025 0 12
-1.9981394 3.7573502 -0.73118824 0 13
-2.1256425 3.9971101 -0.73504406 0 14
-2.2668173 4.2625785 -0.73835355 0 15
-2.4023545 4.517446 -0.73440701 0 16
-2.586077 4.8629227 -0.73893595 0 17
-2.7580378 5.1862817 -0.73313802 0 18
-2.7987952 5.2629232 -0.68835479 0 19
-2.7996788 5.2645845 -0.63305533 0 20
-2.8083754 5.2809377 -0.57944113 0 21
-2.7982528 5.2619033 -0.522071 0 22
-2.8029337 5.2707047 -0.46765929 0 23
-2.8061111 5.2766795 -0.41292149 0 24
-2.8027656 5.2703886 -0.3572973 0 25
-2.7976613 5.2607908 -0.30167565 0 26
-2.7944143 5.2546849 -0.24646948 0 27
-2.8002355 5.2656312 -0.19205447 0 28
-2.8005667 5.2662539 -0.13717477 0 29
-2.8086736 5.2814984 -0.082533799 0 30
-2.8009613 5.2669959 -0.027434176 0 31
-2.7983086 5.2620077 0.027408194 0 32
-2.8025694 5.27002 0.082354426 0 33
-2.8012352 5.2675114 0.13720752 0 34
-2.80076 5.2666178 0.19209044 0 35
-2.7999763 5.2651439 0.24696006 0 36
-2.8001747 5.2655172 0.3019467 0 37
-2.8070388 5.2784247 0.35784206 0 38
-2.7979176 5.2612724 0.41171584 0 39
-2.8015711 5.2681427 0.46743196 0 40
-2.7968423 5.2592506 0.52180779 0 41
-2.7993381 5.2639437 0.57757652 0 42
-2.7967112 5.2590041 0.63238424 0 43
-2.8059809 5.2764354 0.69012213 0 44
-2.8016946 5.2683749 0.74474281 0 45
-2.7934425 5.2528577 0.79818779 0 46
-2.8021562 5.2692432 0.85662758 0 47
-2.8004267 5.2659907 0.91216218 0 48
-2.798527 5.2624187 0.96772659 0 49
-2.7998784 5.2649593 1.0245721 0 50
-2.8045259 5.2736988 1.0829237 0 51
-2.8009043 5.2668886 1.1382918 0 52
-2.7994397 5.2641349 1.1946331 0 53
-2.7990201 5.2633457 1.251592 0 54
-2.8017926 5.2685595 1.3102479 0 55
-2.7997265 5.2646742 1.3668876 0 56
-2.7979035 5.2612462 1.4238093 0 57
-2.8017077 5.2683997 1.4838904 0 58
-2.8057721 5.2760425 1.5445397 0 59
-2.8020785 5.2690969 1.6012045 0 60
-2.806977 5.2783079 1.6630952 0 61
-2.8011737 5.2673955 1.7189289 0 62
0 0 0 0 63
-1.1875086 2.1682818 -0.7369867 0 0
-1.230341 2.2464898 -0.73798668 0 1
-1.2681817 2.3155835 -0.73445451 0 2
-1.3102462 2.3923895 -0.73185426 0 3
-1.3717823 2.5047486 -0.73813713 0 4
-1.4191139 2.5911717 -0.73468542 0 5
-1.4804564 2.7031775 -0.73641032 0 6
-1.5307477 2.7950048 -0.73050964 0 7
-1.6069962 2.9342277 -0.7345773 0 8
-1.6863413 3.0791044 -0.73706776 0 9
-1.768846 3.2297506 -0.73783392 0 10
-1.852365 3.3822486 -0.73584622 0 11
-1.9470749 3.5551803 -0.73489654 0 12
-2.0477357 3.7389777 -0.73245758 0 13
-2.1765373 3.9741576 -0.73568928 0 14
-2.3190272 4.2343311 -0.73834419 0 15
-2.4566531 4.4856234 -0.73408902 0 16
-2.6408589 4.8219662 -0.73759115 0 17
-2.8190224 5.1472764 -0.7324689 0 18
-2.8234091 5.1552863 -0.67876619 0 19
-2.8201292 5.1492972 -0.62331504 0 20
-2.8258541 5.15975 -0.56991363 0 21
-2.8276551 5.1630387 -0.51567274 0 22
-2.8178074 5.1450582 -0.4595505 0 23
-2.8172605 5.1440592 -0.4052237 0 24
-2.8232968 5.1550813 -0.35180715 0 25
-2.8254924 5.1590896 -0.29781353 0 26
-2.8293409 5.1661172 -0.24392864 0 27
-2.8255482 5.1591916 -0.18942519 0 28
-2.8161123 5.1419625 -0.13482904 0 29
-2.8237212 5.1558557 -0.081106849 0 30
-2.8252163 5.158586 -0.027048407 0 31
-2.8247569 5.1577468 0.027044008 0 32
-2.8185925 5.1464915 0.080959544 0 33
-2.8309314 5.1690211 0.13553855 0 34
-2.8203964 5.149785 0.18907982 0 35
-2.8259966 5.1600108 0.24364033 0 36
-2.827919 5.1635208 0.2980693 0 37
-2.8120682 5.1345787 0.35040796 0 38
-2.823354 5.1551857 0.40610015 0 39
-2.8219111 5.1525507 0.46021974 0 40
-2.8197522 5.1486087 0.5142315 0 41
-2.8186488 5.146594 0.56846052 0 42
-2.8222363 5.1531448 0.62378079 0 43
-2.8261755 5.160337 0.6794312 0 44
-2.8205345 5.1500373 0.73286182 0 45
-2.8226111 5.1538291 0.78835446 0 46
-2.8223341 5.1533232 0.8433606 0 47
-2.8202398 5.1494994 0.89792293 0 48
-2.8263276 5.1606145 0.95532423 0 49
-2.82618 5.1603456 1.0109005 0 50
-2.8251314 5.1584306 1.0663068 0 51
-2.8153787 5.1406231 1.1184005 0 52
-2.8258128 5.1596751 1.1787236 0 53
-2.8306551 5.1685166 1.2372257 0 54
-2.8275509 5.1628489 1.2925075 0 55
-2.8244417 5.1571712 1.3478916 0 56
-2.8253624 5.1588526 1.405395 0 57
-2.8172832 5.1441007 1.4585277 0 58
-2.828335 5.1642804 1.521888 0 59
-2.8270433 5.1619215 1.57908 0 60
-2.8196359 5.1483965 1.6329635 0 61
-2.8281846 5.1640053 1.6964098 0 62
-2.8255579 5.1592097 1.7535861 0 63
-1.2112415 2.1484835 -0.73526418 0 0
-1.2560426 2.2279513 -0.73691469 0 1
-1.3011241 2.3079162 -0.73704153 0 2
-1.3345931 2.3672829 -0.72913903 0 3
-1.3924222 2.4698596 -0.73284578 0 4
-1.4532787 2.577806 -0.7359069 0 5
-1.518177 2.6929216 -0.73864621 0 6
-1.569921 2.7847044 -0.73280758 0 7
-1.6401567 2.9092877 -0.73332721 0 8
-1.7216468 3.0538335 -0.73603052 0 9
-1.8136384 3.2170072 -0.73996145 0 10
-1.8808534 3.3362322 -0.73081136 0 11
-1.990504 3.5307288 -0.73484612 0 12
-2.0912879 3.7094979 -0.7316649 0 13
-2.2197413 3.9373469 -0.73387229 0 14
-2.3762383 4.2149391 -0.74000192 0 15
-2.5097926 4.4518356 -0.73355472 0 16
-2.7007284 4.7905154 -0.73780435 0 17
-2.8478222 5.0514278 -0.72375792 0 18
-2.8425312 5.0420432 -0.66840768 0 19
-2.838876 5.0355597 -0.61372644 0 20
-2.8459027 5.0480232 -0.56139588 0 21
-2.8472784 5.0504632 -0.50788742 0 22
-2.8398857 5.0373502 -0.453015 0 23
-2.8406956 5.0387874 -0.3996523 0 24
-2.8450899 5.0465817 -0.34676394 0 25
-2.8444715 5.045485 -0.29325247 0 26
-2.8461137 5.0483975 -0.24000461 0 27
-2.8431604 5.043159 -0.18643445 0 28
-2.8507345 5.0565939 -0.13349962 0 29
-2.8420119 5.041122 -0.079845682 0 30
-2.8438301 5.0443473 -0.026630752 0 31
-2.8449681 5.0463653 0.026641408 0 32
-2.8347087 5.0281672 0.079640493 0 33
-2.8450143 5.0464478 0.13323176 0 34
-2.8421123 5.0412998 0.18636572 0 35
-2.848525 5.0526748 0.24020794 0 36
-2.8507473 5.0566168 0.29389948 0 37
-2.8453948 5.0471225 0.3468011 0 38
-2.8446982 5.0458865 0.40021542 0 39
-2.847393 5.0506668 0.45421255 0 40
-2.8454745 5.0472641 0.50756568 0 41
-2.844913 5.046268 0.56120062 0 42
-2.8413451 5.0399394 0.61426026 0 43
-2.8475223 5.0508962 0.66958129 0 44
-2.8487084 5.053 0.72398317 0 45
-2.840755 5.0388923 0.77605778 0 46
-2.8424096 5.0418272 0.83077103 0 47
-2.8492754 5.0540056 0.88731378 0 48
-2.8446472 5.0457964 0.94047338 0 49
-2.8432126 5.0432515 0.99473572 0 50
-2.8422401 5.0415268 1.0492866 0 51
-2.8429391 5.0427666 1.1046327 0 52
-2.8430314 5.0429301 1.159952 0 53
-2.8466303 5.049314 1.2169783 0 54
-2.8431022 5.043056 1.2711738 0 55
-2.8518791 5.0586243 1.3311999 0 56
-2.8474805 5.0508223 1.3853989 0 57
-2.8475325 5.0509143 1.441925 0 58
-2.8436058 5.0439491 1.4966184 0 59
-2.8398731 5.0373282 1.5515308 0 60
-2.8377364 5.0335379 1.607479 0 61
-2.8468466 5.0496979 1.6702325 0 62
-2.8431344 5.0431132 1.725878 0 63
-1.2353876 2.1296716 -0.73396951 0 0
-1.2869593 2.2185757 -0.73899209 0 1
-1.3344111 2.3003774 -0.73981827 0 2
-1.3772933 2.3743017 -0.73646152 0 3
-1.4225528 2.4523239 -0.7327776 0 4
-1.4841706 2.5585463 -0.7355631 0 5
-1.5440158 2.6617126 -0.7352379 0 6
-1.6014814 2.7607772 -0.7316379 0 7
-1.6724864 2.8831818 -0.73187542 0 8
-1.7531549 3.0222454 -0.73355752 0 9
-1.8478656 3.1855161 -0.73788875 0 10
-1.9276923 3.3231287 -0.73307794 0 11
-2.0414219 3.5191858 -0.73761243 0 12
-2.1294332 3.6709077 -0.72916287 0 13
-2.2766769 3.9247398 -0.73668474 0 14
-2.4196391 4.1711907 -0.73748899 0 15
-2.5665894 4.4245167 -0.73419797 0 16
-2.7652524 4.7669897 -0.73936212 0 17
-2.8540347 4.9200406 -0.70990765 0 18
-2.8649864 4.9389205 -0.65935737 0 19
-2.8616867 4.9332318 -0.6054979 0 20
-2.8584471 4.9276471 -0.55187589 0 21
-2.8656783 4.9401131 -0.50029612 0 22
-2.8528078 4.9179254 -0.44539604 0 23
-2.8570096 4.925169 -0.39339736 0 24
-2.8667381 4.9419398 -0.34197006 0 25
-2.8615057 4.93292 -0.28873327 0 26
-2.8616502 4.9331689 -0.23618157 0 27
-2.8583379 4.9274588 -0.18344273 0 28
-2.857899 4.9267025 -0.13098824 0 29
-2.8601146 4.9305215 -0.078644991 0 30
-2.8571935 4.9254861 -0.026186747 0 31
-2.8636341 4.9365888 0.026245777 0 32
-2.8520942 4.9166956 0.078424461 0 33
-2.8567331 4.9246922 0.13093479 0 34
-2.8637099 4.9367199 0.18378751 0 35
-2.8510447 4.9148865 0.23530626 0 36
-2.856987 4.9251299 0.28827733 0 37
-2.8636751 4.9366598 0.34160465 0 38
-2.8586411 4.9279819 0.39362201 0 39
-2.8614957 4.9329023 0.44675246 0 40
-2.8594134 4.9293132 0.49920237 0 41
-2.8563948 4.924109 0.5514797 0 42
-2.8633149 4.9360385 0.60584235 0 43
-2.8511941 4.915144 0.65618318 0 44
-2.8642995 4.937736 0.71246094 0 45
-2.8590875 4.9287515 0.76445138 0 46
-2.8652589 4.9393902 0.81963539 0 47
-2.8558974 4.9232521 0.87045747 0 48
-2.8547163 4.9212155 0.92372608 0 49
-2.8613005 4.9325657 0.97976959 0 50
-2.8623152 4.9343157 1.03422 0 51
-2.8569818 4.9251208 1.0864754 0 52
-2.8608434 4.9317784 1.1423906 0 53
-2.8599219 4.9301896 1.1966525 0 54
-2.8624332 4.9345188 1.2525928 0 55
-2.8536737 4.9194183 1.3037028 0 56
-2.8634455 4.936264 1.3635312 0 57
-2.8572469 4.9255781 1.4160671 0 58
-2.8595688 4.9295807 1.4730054 0 59
-2.8605771 4.9313192 1.5295979 0 60
-2.8560448 4.9235058 1.5834355 0 61
-2.8596847 4.9297805 1.6420755 0 62
-2.8578322 4.9265871 1.6978978 0 63
-1.2653629 2.1208296 -0.73622888 0 0
-1.3065192 2.18981 -0.73470628 0 1
-1.3621709 2.2830861 -0.7395882 0 2
-1.3969281 2.3413413 -0.73151058 0 3
-1.4487406 2.4281826 -0.73083174 0 4
-1.5097809 2.5304897 -0.73277897 0 5
-1.5811425 2.6500967 -0.73734409 0 6
-1.6422082 2.7524467 -0.73472613 0 7
-1.7100894 2.8662198 -0.73285216 0 8
-1.7929455 3.0050919 -0.73468971 0 9
-1.8871796 3.1630344 -0.73800063 0 10
-1.9739517 3.30847 -0.73514318 0 11
-2.083312 3.4917648 -0.73717868 0 12
-2.1880903 3.6673801 -0.73375106 0 13
-2.3254993 3.8976865 -0.73691851 0 14
-2.4742939 4.1470761 -0.73854887 0 15
-2.6244152 4.3986888 -0.73521155 0 16
-2.8098819 4.7095428 -0.73575544 0 17
-2.8778696 4.8234944 -0.70103019 0 18
-2.8818231 4.830121 -0.64951414 0 19
-2.8779452 4.8236213 -0.59634286 0 20
-2.8786666 4.8248301 -0.54428405 0 21
-2.8807669 4.8283505 -0.49252784 0 22
-2.8786914 4.824872 -0.44014111 0 23
-2.8807526 4.8283267 -0.38846213 0 24
-2.877975 4.8236709 -0.33620954 0 25
-2.8850496 4.8355284 -0.28508767 0 26
-2.8800302 4.827116 -0.23278205 0 27
-2.8901112 4.8440123 -0.18164544 0 28
-2.8773639 4.8226471 -0.12915261 0 29
-2.8873644 4.8394084 -0.077752121 0 30
-2.8716283 4.8130336 -0.025774669 0 31
-2.8821177 4.8306146 0.02586882 0 32
-2.8796542 4.8264856 0.077544495 0 33
-2.8823979 4.8310843 0.12937857 0 34
-2.8724115 4.8143463 0.18053299 0 35
-2.8813691 4.82936 0.23289026 0 36
-2.8730102 4.8153496 0.283898 0 37
-2.8849933 4.8354344 0.33702946 0 38
-2.8796217 4.8264313 0.38830963 0 39
-2.8843503 4.8343568 0.44100633 0 40
-2.8825397 4.8313222 0.49283096 0 41
-2.8787136 4.8249092 0.54429299 0 42
-2.8853614 4.8360515 0.59787959 0 43
-2.8708038 4.8116517 0.64703059 0 44
-2.878612 4.824739 0.70121104 0 45
-2.8763411 4.8209324 0.75315744 0 46
-2.8750238 4.8187251 0.80541784 0 47
-2.8729649 4.8152738 0.85754758 0 48
-2.8812373 4.8291388 0.91302407 0 49
-2.8831081 4.8322744 0.96681732 0 50
-2.8792238 4.8257642 1.0188116 0 51
-2.8795049 4.8262353 1.0723913 0 52
-2.8816967 4.8299088 1.1269165 0 53
-2.877991 4.823698 1.1793054 0 54
-2.8799365 4.8269587 1.2341856 0 55
-2.8751874 4.8189993 1.2863626 0 56
-2.8732791 4.8158007 1.3399141 0 57
-2.8742476 4.8174238 1.3950291 0 58
-2.8757956 4.8200183 1.4507239 0 59
-2.8767471 4.8216133 1.5064276 0 60
-2.876914 4.8218927 1.5620152 0 61
-2.8758688 4.8201408 1.6172123 0 62
-2.8768091 4.8217173 1.6738204 0 63
-1.2838004 2.0928135 -0.73192811 0 0
-1.3313154 2.1702712 -0.73358774 0 1
-1.3810501 2.2513471 -0.73475224 0 2
-1.42731 2.3267586 -0.73238266 0 3
-1.4784596 2.4101412 -0.73081821 0 4
-1.5488178 2.524837 -0.73660141 0 5
-1.6077691 2.6209378 -0.73467624 0 6
-1.6779397 2.7353277 -0.73560852 0 7
-1.7456292 2.8456733 -0.73303157 0 8
-1.8304927 2.9840155 -0.73498428 0 9
-1.9093908 3.1126328 -0.73166364 0 10
-2.0112224 3.2786355 -0.73395371 0 11
-2.1293333 3.4711761 -0.73830402 0 12
-2.2332971 3.640655 -0.73384291 0 13
-2.3726671 3.8678522 -0.7367382 0 14
-2.5207174 4.109199 -0.73726773 0 15
-2.6779203 4.3654666 -0.73510706 0 16
-2.8766475 4.6894259 -0.738083 0 17
-2.8974638 4.7233601 -0.69160283 0 18
-2.8990471 4.7259412 -0.64025015 0 19
-2.8879604 4.7078681 -0.58637828 0 20
-2.8924012 4.7151074 -0.535878 0 21
-2.8971076 4.7227793 -0.48535603 0 22
-2.8983297 4.724772 -0.43422794 0 23
-2.8999465 4.727407 -0.38318264 0 24
-2.8956075 4.7203341 -0.33146361 0 25
-2.9005396 4.7283745 -0.28085175 0 26
-2.9026959 4.7318892 -0.22989373 0 27
-2.8969886 4.7225852 -0.17841437 0 28
-2.8902864 4.7116599 -0.12712249 0 29
-2.8954549 4.7200851 -0.076401271 0 30
-2.8995297 4.726728 -0.025501493 0 31
-2.8997178 4.7270346 0.025503147 0 32
-2.8933976 4.7167315 0.076346986 0 33
-2.8969796 4.7225704 0.12741688 0 34
-2.8942554 4.7181296 0.17824605 0 35
-2.8975708 4.7235346 0.22948782 0 36
-2.9000511 4.7275782 0.28080446 0 37
-2.903882 4.7338233 0.33241081 0 38
-2.9017873 4.7304082 0.38342592 0 39
-2.8967817 4.7222481 0.43399602 0 40
-2.8948131 4.719039 0.48497161 0 41
-2.8989732 4.725821 0.53709561 0 42
-2.8983881 4.7248669 0.58849561 0 43
-2.8969052 4.7224493 0.63977712 0 44
-2.903666 4.7334709 0.69308329 0 45
-2.9021716 4.7310348 0.74463189 0 46
-2.9049816 4.7356153 0.79743689 0 47
-2.8955026 4.7201633 0.84688616 0 48
-2.894017 4.717741 0.89862281 0 49
-2.8965404 4.7218552 0.95177925 0 50
-2.8897045 4.710711 1.0019476 0 51
-2.8942022 4.7180429 1.0561788 0 52
-2.8986034 4.7252178 1.1107222 0 53
-2.9045925 4.7349811 1.1662596 0 54
-2.9031534 4.732635 1.2191038 0 55
-2.9011223 4.7293243 1.2718517 0 56
-2.8937943 4.7173781 1.3223304 0 57
-2.8954902 4.7201428 1.3770646 0 58
-2.8974416 4.7233238 1.4322361 0 59
-2.8865285 4.705534 1.4811382 0 60
-2.8959591 4.7209072 1.5407208 0 61
-2.9013696 4.7297273 1.5987265 0 62
-2.8924122 4.7151251 1.6490397 0 63
-1.3193231 2.0925527 -0.73745483 0 0
-1.3632871 2.1622832 -0.73649836 0 1
-1.4104787 2.2371328 -0.73571801 0 2
-1.4571345 2.3111327 -0.7330485 0 3
-1.5127883 2.399404 -0.73314762 0 4
-1.5748936 2.4979081 -0.73433936 0 5
-1.6502558 2.6174386 -0.73932761 0 6
-1.709186 2.7109065 -0.7346375 0 7
-1.7836463 2.8290069 -0.73433262 0 8
-1.8739381 2.9722166 -0.73769802 0 9
-1.9509399 3.0943477 -0.7329492 0 10
-2.0507522 3.2526584 -0.73372805 0 11
-2.1643138 3.432776 -0.73574138 0 12
-2.2799859 3.6162412 -0.73451751 0 13
-2.4124215 3.8262949 -0.73441732 0 14
-2.5784488 4.0896277 -0.73938894 0 15
-2.7281289 4.3270321 -0.73422837 0 16
-2.9104974 4.6162834 -0.73214841 0 17
-2.9049346 4.6074605 -0.67981142 0 18
-2.9085581 4.6132078 -0.62977517 0 19
-2.9092808 4.6143537 -0.57914275 0 20
-2.9182162 4.6285257 -0.53007609 0 21
-2.9107232 4.6166415 -0.47809044 0 22
-2.9083624 4.6128974 -0.42720062 0 23
-2.9073842 4.6113453 -0.37664452 0 24
-2.9098182 4.6152058 -0.32656932 0 25
-2.9074528 4.611454 -0.27600971 0 26
-2.9136226 4.6212401 -0.22624148 0 27
-2.9051859 4.6078591 -0.17541647 0 28
-2.9146214 4.6228242 -0.12568314 0 29
-2.9116518 4.6181145 -0.075324558 0 30
-2.9098611 4.615274 -0.025091328 0 31
-2.9086127 4.6132941 0.025080564 0 32
-2.9101028 4.6156573 0.075284481 0 33
-2.9149127 4.6232862 0.12569571 0 34
-2.9163911 4.6256313 0.17609304 0 35
-2.9105105 4.6163039 0.22599982 0 36
-2.911231 4.6174469 0.27636838 0 37
-2.922013 4.6345477 0.32793793 0 38
-2.9125142 4.619482 0.37730911 0 39
-2.9098737 4.6152945 0.42742261 0 40
-2.9099367 4.6153941 0.47796124 0 41
-2.9152894 4.6238837 0.52954447 0 42
-2.9052043 4.6078877 0.57833129 0 43
-2.9122553 4.6190715 0.63057572 0 44
-2.9068286 4.6104641 0.68025464 0 45
-2.9115331 4.6179261 0.73240894 0 46
-2.9165149 4.6258273 0.78492922 0 47
-2.9111547 4.6173258 0.83479476 0 48
-2.9080398 4.6123853 0.88529921 0 49
-2.9154115 4.6240773 0.93922544 0 50
-2.9057815 4.6088037 0.9877975 0 51
-2.9022045 4.6031303 1.0383648 0 52
-2.9140058 4.6218481 1.0947638 0 53
-2.9080722 4.6124368 1.1447972 0 54
-2.9072294 4.6110997 1.1969151 0 55
-2.9169528 4.6265221 1.2537564 0 56
-2.9090123 4.6139278 1.3032604 0 57
-2.9111357 4.6172957 1.3574005 0 58
-2.9061456 4.6093807 1.408415 0 59
-2.9153407 4.6239653 1.4666362 0 60
-2.9053214 4.6080737 1.5154409 0 61
-2.9081004 4.6124816 1.5710639 0 62
-2.9103186 4.6159997 1.626765 0 63
-1.3460733 2.077903 -0.73806947 0 0
-1.3822279 2.1337142 -0.73250127 0 1
-1.4330448 2.2121589 -0.73324454 0 2
-1.4948611 2.3075833 -0.7376973 0 3
-1.5486015 2.3905413 -0.73620236 0 4
-1.6044407 2.4767389 -0.73386049 0 5
-1.6756629 2.586683 -0.73640466 0 6
-1.7431124 2.6908033 -0.73494256 0 7
-1.8173066 2.8053353 -0.73393315 0 8
-1.9053344 2.9412217 -0.73576444 0 9
-1.9980398 3.0843289 -0.73633993 0 10
-2.0922904 3.2298214 -0.73432469 0 11
-2.2120526 3.4146955 -0.73764032 0 12
-2.3191936 3.5800869 -0.73291099 0 13
-2.4585598 3.795223 -0.7342006 0 14
-2.6014738 4.0158362 -0.73177594 0 15
-2.7841899 4.2978911 -0.73503727 0 16
-2.9260294 4.5168457 -0.72202933 0 17
-2.936003 4.5322413 -0.673989 0 18
-2.9328451 4.5273671 -0.62293273 0 19
-2.9300096 4.5229897 -0.57215446 0 20
-2.9226785 4.511673 -0.52077013 0 21
-2.9382286 4.5356774 -0.47341171 0 22
-2.9251845 4.5155411 -0.42148376 0 23
-2.9359047 4.5320897 -0.37309155 0 24
-2.9275894 4.5192537 -0.3223027 0 25
-2.9228082 4.5118728 -0.27218002 0 26
-2.9308417 4.5242743 -0.22324182 0 27
-2.9325032 4.5268393 -0.17369175 0 28
-2.9314404 4.5251985 -0.12399957 0 29
-2.9238658 4.5135059 -0.074199133 0 30
-2.9365695 4.5331159 -0.024839103 0 31
-2.9344943 4.5299125 0.024821552 0 32
-2.9252434 4.5156322 0.074234091 0 33
-2.9283059 4.5203595 0.12386698 0 34
-2.9258642 4.5165906 0.17329851 0 35
-2.9287603 4.5210614 0.22308327 0 36
-2.9320023 4.5260658 0.27303621 0 37
-2.9254675 4.5159783 0.32206911 0 38
-2.9337449 4.5287557 0.3728171 0 39
-2.9283204 4.5203819 0.42193559 0 40
-2.923604 4.5131016 0.47105536 0 41
-2.9294231 4.5220842 0.52197188 0 42
-2.9266138 4.5177479 0.57149136 0 43
-2.932286 4.5265036 0.622814 0 44
-2.9269214 4.5182228 0.67190427 0 45
-2.9323022 4.5265288 0.7235772 0 46
-2.9327805 4.527267 0.77426583 0 47
-2.9292548 4.5218244 0.82397842 0 48
-2.9286063 4.5208235 0.87457079 0 49
-2.9337792 4.5288086 0.92713219 0 50
-2.9268343 4.5180883 0.97599447 0 51
-2.9263721 4.5173745 1.0270598 0 52
-2.9276652 4.5193706 1.0789359 0 53
-2.9277925 4.519567 1.1305972 0 54
-2.923856 4.5134902 1.1808215 0 55
-2.9289172 4.5213032 1.2349094 0 56
-2.9246888 4.5147762 1.2853149 0 57
-2.9282548 4.5202808 1.3393642 0 58
-2.9345119 4.5299401 1.3950616 0 59
-2.9310081 4.5245314 1.4464198 0 60
-2.9265876 4.5177069 1.497444 0 61
-2.9271483 4.5185728 1.5512202 0 62
-2.9317069 4.52561 1.607493 0 63
-1.362125 2.0470753 -0.73301339 0 0
-1.4116123 2.1214473 -0.7341935 0 1
-1.4640347 2.2002306 -0.73520231 0 2
-1.5186769 2.2823498 -0.7355448 0 3
-1.5766474 2.3694711 -0.73562843 0 4
-1.6369305 2.4600677 -0.73482931 0 5
-1.7059836 2.5638447 -0.73581928 0 6
-1.7821097 2.6782508 -0.73744369 0 7
-1.8553296 2.7882898 -0.73538673 0 8
-1.9424589 2.9192324 -0.73618311 0 9
-2.0288081 3.0490026 -0.73380661 0 10
-2.134465 3.2077897 -0.73522729 0 11
-2.2458289 3.3751531 -0.73500836 0 12
-2.3634191 3.5518742 -0.73302937 0 13
-2.5156541 3.7806611 -0.73731202 0 14
-2.6481602 3.9797983 -0.73108745 0 15
-2.8399806 4.2680764 -0.7358551 0 16
-2.9431021 4.4230528 -0.71276748 0 17
-2.9429662 4.4228492 -0.66305268 0 18
-2.9505348 4.4342232 -0.61506242 0 19
-2.9459867 4.4273882 -0.56460077 0 20
-2.9440594 4.4244919 -0.51484674 0 21
-2.9487371 4.4315219 -0.46628976 0 22
-2.9533584 4.438467 -0.41764775 0 23
-2.9592495 4.4473205 -0.36908081 0 24
-2.9508035 4.4346271 -0.31883094 0 25
-2.9469414 4.428823 -0.26933566 0 26
-2.950166 4.4336691 -0.2205444 0 27
-2.9499092 4.4332833 -0.17148089 0 28
-2.9415407 4.4207063 -0.1221182 0 29
-2.9485846 4.4312925 -0.073438093 0 30
-2.9454889 4.42664 -0.024452284 0 31
-2.94642 4.4280396 0.024460014 0 32
-2.9366684 4.4133844 0.073141307 0 33
-2.9463763 4.4279737 0.12231895 0 34
-2.9518118 4.4361424 0.17159148 0 35
-2.9481561 4.4306488 0.22039415 0 36
-2.9468858 4.4287391 0.26933056 0 37
-2.9451799 4.4261756 0.31822333 0 38
-2.9514704 4.4356294 0.3681106 0 39
-2.950459 4.4341092 0.4172377 0 40
-2.945307 4.4263668 0.46574736 0 41
-2.9403746 4.4189539 0.51420236 0 42
-2.9496574 4.4329047 0.56530428 0 43
-2.9498384 4.433177 0.61491728 0 44
-2.9438148 4.4241242 0.66324383 0 45
-2.945286 4.4263353 0.71329641 0 46
-2.9481909 4.4307008 0.76389307 0 47
-2.9494402 4.4325786 0.81426299 0 48
-2.942626 4.4223375 0.86245298 0 49
-2.9446812 4.425426 0.91331142 0 50
-2.9440112 4.4244194 0.96350741 0 51
-2.9483714 4.4309721 1.0155815 0 52
-2.9456253 4.4268451 1.0654134 0 53
-2.9499013 4.4332714 1.1179992 0 54
-2.9529331 4.4378276 1.1704377 0 55
-2.9550974 4.4410806 1.2228304 0 56
-2.9454408 4.4265676 1.2704178 0 57
-2.9424698 4.4221029 1.3208948 0 58
-2.951555 4.4357567 1.3771296 0 59
-2.9496384 4.4328761 1.428606 0 60
-2.9438822 4.4242253 1.4783455 0 61
-2.9450705 4.4260116 1.5317603 0 62
-2.9433897 4.4234853 1.5839546 0 63
-1.3871816 2.0301573 -0.73300791 0 0
-1.4374083 2.1036646 -0.73410076 0 1
-1.4908189 2.1818316 -0.73512429 0 2
-1.5478429 2.2652869 -0.73612404 0 3
-1.6081169 2.3534987 -0.73675305 0 4
-1.6772236 2.4546371 -0.7393117 0 5
-1.7316597 2.5343051 -0.73339719 0 6
-1.8174108 2.6598029 -0.73846167 0 7
-1.8910806 2.7676196 -0.73601246 0 8
-1.9760412 2.8919604 -0.73537761 0 9
-2.0712087 3.0312393 -0.73560542 0 10
-2.1785989 3.188406 -0.73686892 0 11
-2.2967718 3.3613534 -0.73809767 0 12
-2.4093652 3.5261354 -0.73377633 0 13
-2.5622215 3.7498426 -0.7373904 0 14
-2.6951597 3.9443991 -0.73061734 0 15
-2.8878381 4.2263861 -0.73473406 0 16
-2.9678633 4.3435044 -0.70577598 0 17
-2.9599478 4.3319197 -0.65482795 0 18
-2.9665432 4.3415723 -0.60722482 0 19
-2.9615169 4.3342161 -0.55732083 0 20
-2.9630544 4.3364663 -0.5088051 0 21
-2.9734466 4.3516755 -0.46170053 0 22
-2.9696839 4.346169 -0.4123677 0 23
-2.9663205 4.3412466 -0.36327738 0 24
-2.9692268 4.3455 -0.31502426 0 25
-2.9664209 4.341393 -0.26621684 0 26
-2.9648125 4.3390393 -0.21763425 0 27
-2.9616709 4.3344417 -0.16905355 0 28
-2.962837 4.3361483 -0.12077963 0 29
-2.9672425 4.3425956 -0.072567351 0 30
-2.9657042 4.3403444 -0.024175212 0 31
-2.9584424 4.3297167 0.024116017 0 32
-2.9639387 4.3377604 0.07248655 0 33
-2.955832 4.3258963 0.12049408 0 34
-2.9605551 4.3328085 0.16898985 0 35
-2.9629307 4.3362851 0.21749611 0 36
-2.9663403 4.3412752 0.2662096 0 37
-2.9613206 4.3339291 0.31418541 0 38
-2.9612617 4.3338428 0.36265787 0 39
-2.9632049 4.3366866 0.411468 0 40
-2.970289 4.3470545 0.46121022 0 41
-2.9647102 4.3388896 0.50908941 0 42
-2.9628208 4.3361244 0.55756623 0 43
-2.9677849 4.3433895 0.60747904 0 44
-2.9660804 4.3408947 0.65618467 0 45
-2.9636416 4.3373256 0.704772 0 46
-2.9632962 4.3368201 0.75393242 0 47
-2.9646122 4.3387461 0.80366194 0 48
-2.977298 4.3573122 0.85684663 0 49
-2.9633782 4.3369403 0.90250188 0 50
-2.9640403 4.3379092 0.95253319 0 51
-2.9569881 4.3275881 1.0001441 0 52
-2.9650047 4.3393207 1.0530437 0 53
-2.9667616 4.3418918 1.1040711 0 54
-2.9747589 4.3535962 1.1577822 0 55
-2.9615839 4.3343143 1.2033691 0 56
-2.963603 4.3372693 1.2551532 0 57
-2.9606857 4.3329997 1.3050555 0 58
-2.9649298 4.339211 1.3583721 0 59
-2.9611208 4.3336368 1.4082518 0 60
-2.9569278 4.3274999 1.4580641 0 61
-2.9637699 4.3375134 1.513631 0 62
-2.965826 4.3405228 1.5671878 0 63
-1.4171808 2.020278 -0.7356773 0 0
-1.4644988 2.0877328 -0.73476976 0 1
-1.5152977 2.1601496 -0.73404151 0 2
-1.5774145 2.2487011 -0.73698175 0 3
-1.6365418 2.3329909 -0.73657709 0 4
-1.6899775 2.4091666 -0.73182011 0 5
-1.7587812 2.5072503 -0.73177111 0 6
-1.844295 2.6291556 -0.73619348 0 7
-1.9175699 2.7336135 -0.73318416 0 8
-2.0015471 2.853328 -0.73175716 0 9
-2.1026559 2.9974649 -0.73362815 0 10
-2.2183487 3.1623921 -0.73710531 0 11
-2.3221545 3.3103735 -0.733118 0 12
-2.4558892 3.5010207 -0.7347787 0 13
-2.604105 3.7123113 -0.73625124 0 14
-2.7488325 3.9186292 -0.73204964 0 15
-2.942461 4.1946583 -0.73545277 0 16
-2.9856229 4.2561884 -0.69750071 0 17
-2.9743783 4.240159 -0.64643687 0 18
-2.9748602 4.2408457 -0.59820789 0 19
-2.9749255 4.2409387 -0.54998893 0 20
-2.9831235 4.2526255 -0.50323379 0 21
-2.9855402 4.2560706 -0.45541766 0 22
-2.9778049 4.2450433 -0.40621632 0 23
-2.9732115 4.2384953 -0.35771143 0 24
-2.9758856 4.2423072 -0.31017268 0 25
-2.9748006 4.2407603 -0.26226923 0 26
-2.9722946 4.2371879 -0.21434264 0 27
-2.9800932 4.2483058 -0.16711064 0 28
-2.9831419 4.2526517 -0.11946663 0 29
-2.9784482 4.2459607 -0.071559124 0 30
-2.981916 4.2509041 -0.023879467 0 31
-2.9731798 4.2384501 0.023809504 0 32
-2.9865623 4.2575278 0.071754068 0 33
-2.9836376 4.2533584 0.11948647 0 34
-2.9786086 4.2461891 0.16702737 0 35
-2.9767027 4.2434721 0.21466053 0 36
-2.9702823 4.2343192 0.26187089 0 37
-2.9770339 4.2439442 0.31029239 0 38
-2.9800205 4.2482018 0.35853064 0 39
-2.9752119 4.2413468 0.4058626 0 40
-2.9762819 4.2428722 0.45400542 0 41
-2.9756219 4.2419314 0.50196832 0 42
-2.9737451 4.2392559 0.54977065 0 43
-2.9820156 4.2510462 0.59964675 0 44
-2.9787209 4.2463493 0.64738065 0 45
-2.9784532 4.2459674 0.6958257 0 46
-2.984637 4.2547827 0.74599445 0 47
-2.9761605 4.2426991 0.79259002 0 48
-2.9772921 4.2443123 0.84176135 0 49
-2.969429 4.2331033 0.88842493 0 50
-2.9726596 4.2377086 0.93848634 0 51
-2.9718068 4.2364926 0.98746181 0 52
-2.9843447 4.2543664 1.0412542 0 53
-2.9754879 4.2417407 1.0878259 0 54
-2.96386 4.2251639 1.1332339 0 55
-2.9781499 4.2455354 1.1887982 0 56
-2.9791207 4.2469192 1.2395144 0 57
-2.9710121 4.2353601 1.2865534 0 58
-2.9801109 4.2483306 1.3412925 0 59
-2.9808354 4.2493639 1.3926722 0 60
-2.9680951 4.2312016 1.4378066 0 61
-2.9766593 4.2434101 1.4934524 0 62
-2.9818916 4.2508693 1.5479394 0 63
-1.4381677 1.9974968 -0.73376584 0 0
-1.4948663 2.0762465 -0.73714083 0 1
-1.5440028 2.1444931 -0.73511726 0 2
-1.6093491 2.2352538 -0.73900443 0 3
-1.6493832 2.290858 -0.72962302 0 4
-1.7250191 2.39591 -0.73418105 0 5
-1.8064934 2.5090711 -0.73872995 0 6
-1.8802096 2.6114569 -0.7376557 0 7
-1.9597771 2.7219696 -0.73646891 0 8
-2.0431559 2.8377759 -0.73415637 0 9
-2.1418011 2.9747858 -0.73446786 0 10
-2.2569726 3.1347497 -0.73707533 0 11
-2.3694308 3.2909451 -0.73521215 0 12
-2.5004907 3.4729764 -0.73529041 0 13
-2.6526263 3.6842802 -0.73710519 0 14
-2.806133 3.8974888 -0.73449081 0 15
-2.9968765 4.1624155 -0.7362051 0 16
-2.9902079 4.1531534 -0.68658924 0 17
-2.9980357 4.1640258 -0.64040184 0 18
-2.994483 4.1590915 -0.59182507 0 19
-2.9903188 4.1533074 -0.54335189 0 20
-2.9931889 4.1572938 -0.49627063 0 21
-2.9891615 4.1517 -0.44814876 0 22
-2.9902613 4.1532278 -0.40091857 0 23
-2.9928517 4.1568255 -0.35389799 0 24
-2.9989455 4.1652894 -0.30721456 0 25
-2.9908488 4.1540437 -0.25916111 0 26
-2.996402 4.1617565 -0.21237466 0 27
-2.9887683 4.151154 -0.16472229 0 28
-2.9953618 4.1603117 -0.11789838 0 29
-2.9917979 4.1553617 -0.070646897 0 30
-2.9909341 4.1541619 -0.023540838 0 31
-2.9915075 4.1549587 0.023545351 0 32
-3.0003517 4.1672425 0.070848882 0 33
-2.9986384 4.1648626 0.11802735 0 34
-2.9979012 4.1638389 0.16522563 0 35
-2.9889712 4.1514359 0.21184799 0 36
-2.9969015 4.1624503 0.25968558 0 37
-2.9873912 4.1492414 0.30603093 0 38
-2.9980307 4.1640186 0.3545104 0 39
-2.9956403 4.1606989 0.40163976 0 40
-2.9924099 4.1562119 0.44863579 0 41
-2.9913962 4.1548042 0.49597341 0 42
-2.9946971 4.1593885 0.54414743 0 43
-2.9887788 4.1511688 0.59069765 0 44
-3.0087264 4.178874 0.64268547 0 45
-2.9882507 4.150435 0.68613976 0 46
-2.990052 4.1529369 0.7345286 0 47
-2.9950652 4.1598997 0.78394282 0 48
-2.989167 4.1517076 0.83062226 0 49
-2.9964123 4.1617708 0.88112038 0 50
-2.9901576 4.1530833 0.92781782 0 51
-2.9979966 4.1639714 0.97907674 0 52
-2.9922624 4.1560068 1.0261086 0 53
-3.0002198 4.1670594 1.0780531 0 54
-2.9921799 4.1558924 1.1244378 0 55
-3.001266 4.1685123 1.1774757 0 56
-2.9909406 4.154171 1.2230864 0 57
-2.9986215 4.1648393 1.2762357 0 58
-2.9940269 4.1584578 1.3244411 0 59
-2.9968495 4.1623783 1.3761371 0 60
-2.9918528 4.1554379 1.424455 0 61
-2.9888377 4.1512504 1.4738404 0 62
-2.9841688 4.1447654 1.5225493 0 63
-1.4623467 1.9792938 -0.73362911 0 0
-1.5177104 2.0542293 -0.73589408 0 1
-1.5665026 2.1202695 -0.73336112 0 2
-1.6274972 2.202826 -0.73484415 0 3
-1.6919166 2.2900181 -0.73592597 0 4
-1.7535807 2.3734806 -0.73386008 0 5
-1.8218565 2.4658923 -0.73255754 0 6
-1.910303 2.5856051 -0.73693287 0 7
-1.9891388 2.6923099 -0.73500633 0 8
-2.0802555 2.8156366 -0.73499089 0 9
-2.1839309 2.9559619 -0.73639494 0 10
-2.2759159 3.0804644 -0.73083621 0 11
-2.4024141 3.2516799 -0.73298436 0 12
-2.5468829 3.4472194 -0.73641205 0 13
-2.6776061 3.6241541 -0.73160779 0 14
-2.8529868 3.8615327 -0.73427057 0 15
-3.0074482 4.0705972 -0.7264511 0 16
-3.0106082 4.0748739 -0.67971689 0 17
-3.0086787 4.0722623 -0.63193119 0 18
-3.016458 4.0827918 -0.58620155 0 19
-3.01285 4.077908 -0.53829384 0 20
-3.013845 4.0792551 -0.49134165 0 21
-3.0090671 4.0727878 -0.44359121 0 22
-3.0151477 4.0810184 -0.39749697 0 23
-3.0134501 4.0787206 -0.35037664 0 24
-3.0044937 4.0665979 -0.30263749 0 25
-3.0120246 4.0767913 -0.25663278 0 26
-3.0039108 4.0658092 -0.20934756 0 27
-3.0085759 4.0721231 -0.16304193 0 28
-3.0089574 4.0726395 -0.11645357 0 29
-3.007247 4.0703249 -0.069824554 0 30
-3.007751 4.0710068 -0.023277439 0 31
-3.0097594 4.0737252 0.023292981 0 32
-3.0141063 4.0796089 0.069983818 0 33
-3.0111382 4.0755916 0.11653798 0 34
-3.009109 4.072845 0.16307083 0 35
-3.0124273 4.0773363 0.20994107 0 36
-3.0066314 4.0694914 0.25617325 0 37
-3.012635 4.0776172 0.30345756 0 38
-3.007674 4.0709023 0.34970504 0 39
-3.011975 4.0767241 0.39707872 0 40
-3.0196998 4.0871797 0.44515869 0 41
-3.0119786 4.0767288 0.49103737 0 42
-3.0058343 4.0684128 0.53704041 0 43
-3.0061522 4.0688429 0.58419877 0 44
-3.0218937 4.0901489 0.63470685 0 45
-3.0042393 4.0662537 0.67827898 0 46
-3.0077384 4.0709896 0.72652113 0 47
-3.0130005 4.0781121 0.77545315 0 48
-3.0045214 4.0666356 0.82093155 0 49
-3.0076041 4.0708079 0.8696261 0 50
-3.0033102 4.0649962 0.91631979 0 51
-3.0146542 4.0803504 0.96805787 0 52
-3.0077534 4.0710101 1.0141778 0 53
-3.0133193 4.0785437 1.0646588 0 54
-3.0091836 4.0729461 1.1119229 0 55
-3.0086741 4.0722561 1.1606488 0 56
-3.0089543 4.0726357 1.2098824 0 57
-3.013135 4.0782938 1.2609738 0 58
-3.009501 4.0733752 1.3090302 0 59
-3.014405 4.0800128 1.3610579 0 60
-3.0040867 4.0660472 1.4063689 0 61
-3.0053885 4.0678091 1.4572263 0 62
-3.0129557 4.0780511 1.5115376 0 63
-1.4889301 1.964274 -0.73479253 0 0
-1.5417457 2.033951 -0.73536563 0 1
-1.5949613 2.104156 -0.73451579 0 2
-1.6495683 2.1761963 -0.73267186 0 3
-1.7197344 2.2687631 -0.73583555 0 4
-1.7835552 2.3529587 -0.73424035 0 5
-1.8596783 2.4533844 -0.73557949 0 6
-1.9237927 2.5379674 -0.73004252 0 7
-2.0182178 2.6625381 -0.73359811 0 8
-2.1222301 2.7997565 -0.73760182 0 9
-2.2199149 2.9286273 -0.73632991 0 10
-2.3235474 3.0653446 -0.73397213 0 11
-2.4444749 3.2248783 -0.73366308 0 12
-2.5976777 3.4269915 -0.7388587 0 13
-2.7185907 3.5865061 -0.73070091 0 14
-2.8968797 3.8217144 -0.73341703 0 15
-3.0200295 3.9841802 -0.71760195 0 16
-3.0181224 3.9816642 -0.67030877 0 17
-3.0193055 3.9832246 -0.62382859 0 18
-3.0220118 3.9867952 -0.57771027 0 19
-3.0134714 3.9755282 -0.52963078 0 20
-3.0251322 3.990912 -0.48514464 0 21
-3.0224869 3.987422 -0.43830833 0 22
-3.0271416 3.9935627 -0.39257461 0 23
-3.0232103 3.9883761 -0.34578305 0 24
-3.0207884 3.9851813 -0.29932016 0 25
-3.0272465 3.993701 -0.25372636 0 26
-3.0222676 3.9871328 -0.20719439 0 27
-3.0213637 3.9859402 -0.16106662 0 28
-3.0200188 3.9841661 -0.11497692 0 29
-3.0252752 3.9911005 -0.069098428 0 30
-3.0229089 3.9879789 -0.023013495 0 31
-3.0233388 3.9885457 0.023016768 0 32
-3.0257878 3.9917767 0.069110133 0 33
-3.0119686 3.9735458 0.11467043 0 34
-3.0206404 3.9849858 0.16102806 0 35
-3.0330937 4.0014153 0.20793658 0 36
-3.0304961 3.9979882 0.25399876 0 37
-3.0214045 3.9859941 0.2993812 0 38
-3.013473 3.9755304 0.34466934 0 39
-3.0273468 3.9938335 0.39260122 0 40
-3.0175731 3.9809394 0.43759573 0 41
-3.0164378 3.9794416 0.48375031 0 42
-3.0230453 3.9881585 0.53131342 0 43
-3.0217919 3.986505 0.57766819 0 44
-3.0159259 3.9787664 0.62313032 0 45
-3.014895 3.9774063 0.6695919 0 46
-3.0217803 3.9864898 0.71801794 0 47
-3.01613 3.9790356 0.76360822 0 48
-3.0190256 3.9828556 0.81145161 0 49
-3.0228901 3.9879539 0.85980201 0 50
-3.0246439 3.9902675 0.90778989 0 51
-3.0305338 3.9980381 0.9572981 0 52
-3.0220649 3.9868653 1.0023973 0 53
-3.0256975 3.9916575 1.0516107 0 54
-3.0236928 3.989013 1.0990764 0 55
-3.0256233 3.9915597 1.1481662 0 56
-3.020649 3.9849973 1.1947912 0 57
-3.0188746 3.9826565 1.2427872 0 58
-3.0156281 3.9783733 1.2903192 0 59
-3.0171907 3.9804351 1.3401147 0 60
-3.0219588 3.9867256 1.3916805 0 61
-3.0197325 3.9837883 1.4403203 0 62
-3.0169904 3.9801707 1.488896 0 63
-1.5101832 1.9422351 -0.73343939 0 0
-1.5755531 2.0263069 -0.73955041 0 1
-1.6264637 2.0917826 -0.73712224 0 2
-1.6814715 2.1625276 -0.73497552 0 3
-1.7499582 2.250608 -0.73687065 0 4
-1.8157729 2.3352518 -0.73562658 0 5
-1.8816988 2.4200385 -0.73246366 0 6
-1.9688113 2.5320733 -0.7352553 0 7
-2.0493448 2.6356466 -0.73307663 0 8
-2.1571112 2.7742443 -0.73781282 0 9
-2.241847 2.8832223 -0.73178959 0 10
-2.3528852 3.0260277 -0.73143029 0 11
-2.4937022 3.2071311 -0.73654592 0 12
-2.6206117 3.3703487 -0.73353857 0 13
-2.7746849 3.568501 -0.73392838 0 14
-2.9624386 3.8099699 -0.73809814 0 15
-3.0380445 3.9072058 -0.71041274 0 16
-3.0363526 3.90503 -0.66364288 0 17
-3.0411463 3.911195 -0.6183576 0 18
-3.0263124 3.8921173 -0.56934017 0 19
-3.0396683 3.9092944 -0.52574664 0 20
-3.0390749 3.908531 -0.47963676 0 21
-3.0396907 3.9093232 -0.43379933 0 22
-3.0394921 3.9090679 -0.38791329 0 23
-3.0403838 3.9102144 -0.34222201 0 24
-3.036711 3.9054909 -0.29611695 0 25
-3.040848 3.9108114 -0.25081685 0 26
-3.0349884 3.9032753 -0.20476054 0 27
-3.0390811 3.9085391 -0.15943697 0 28
-3.0383396 3.9075856 -0.1138365 0 29
-3.0349922 3.9032805 -0.068218954 0 30
-3.0365162 3.9052403 -0.022749785 0 31
-3.0320296 3.8994703 0.022716172 0 32
-3.0391994 3.9086912 0.068313517 0 33
-3.0402083 3.9099886 0.1139065 0 34
-3.0328743 3.9005566 0.15911134 0 35
-3.0286148 3.8950784 0.20433053 0 36
-3.0278249 3.8940628 0.24974267 0 37
-3.0465379 3.9181292 0.29707521 0 38
-3.0311577 3.898349 0.34118354 0 39
-3.0475602 3.9194441 0.38894299 0 40
-3.0379574 3.9070938 0.43355194 0 41
-3.0363703 3.9050527 0.4792099 0 42
-3.0411303 3.9111745 0.52599949 0 43
-3.0419419 3.9122183 0.57228059 0 44
-3.0340402 3.902056 0.61691272 0 45
-3.0355465 3.9039934 0.66346663 0 46
-3.027724 3.8939326 0.70799935 0 47
-3.0380752 3.9072454 0.75694317 0 48
-3.0307002 3.8977606 0.80164671 0 49
-3.0335751 3.901458 0.8491317 0 50
-3.0354741 3.9039001 0.89656502 0 51
-3.0519438 3.9250817 0.9487434 0 52
-3.0388846 3.9082863 0.99196076 0 53
-3.0376699 3.906724 1.0389968 0 54
-3.0405626 3.9104445 1.0876479 0 55
-3.0328021 3.9004638 1.1326041 0 56
-3.0402687 3.9100664 1.1834445 0 57
-3.0384812 3.9077675 1.2309841 0 58
-3.0390606 3.9085128 1.2796845 0 59
-3.0304854 3.8974841 1.324633 0 60
-3.0364835 3.9051983 1.3761511 0 61
-3.0357277 3.9042263 1.4249432 0 62
-3.0408266 3.9107838 1.4768155 0 63
-1.5352181 1.9251101 -0.73404574 0 0
-1.5996735 2.005935 -0.7392385 0 1
-1.6529148 2.0726976 -0.73750347 0 2
-1.7117159 2.1464322 -0.73660308 0 3
-1.7662463 2.2148113 -0.73220605 0 4
-1.8424697 2.3103929 -0.73487705 0 5
-1.9166572 2.4034214 -0.73451197 0 6
-1.9997454 2.507611 -0.73523676 0 7
-2.0931389 2.6247234 -0.73714149 0 8
-2.1762617 2.7289565 -0.73283005 0 9
-2.2855477 2.8659976 -0.7344954 0 10
-2.3962142 3.0047693 -0.7333585 0 11
-2.5300782 3.1726301 -0.73571175 0 12
-2.6625061 3.33869 -0.73371834 0 13
-2.822602 3.5394447 -0.73503518 0 14
-2.9974821 3.7587383 -0.73525804 0 15
-3.0448346 3.8181169 -0.70096898 0 16
-3.0421879 3.8147979 -0.65461618 0 17
-3.0501268 3.824753 -0.61057466 0 18
-3.048409 3.8225989 -0.56461161 0 19
-3.0526543 3.8279223 -0.51981211 0 20
-3.0467353 3.8205001 -0.47339565 0 21
-3.053344 3.8287873 -0.42899641 0 22
-3.046824 3.8206112 -0.38282427 0 23
-3.0527785 3.828078 -0.33829322 0 24
-3.0437386 3.8167424 -0.29220366 0 25
-3.0478954 3.8219547 -0.24750303 0 26
-3.0453579 3.8187728 -0.20227678 0 27
-3.0489299 3.8232522 -0.15747537 0 28
-3.0519598 3.8270514 -0.11257513 0 29
-3.0401802 3.8122802 -0.067276783 0 30
-3.04158 3.8140354 -0.022434656 0 31
-3.0476525 3.8216503 0.022479447 0 32
-3.0473335 3.8212502 0.067435078 0 33
-3.0455091 3.8189626 0.11233719 0 34
-3.0388651 3.810631 0.15695553 0 35
-3.0518851 3.8269579 0.20271033 0 36
-3.0465798 3.8203053 0.24739622 0 37
-3.0420296 3.8145995 0.2920396 0 38
-3.0452332 3.8186164 0.33745709 0 39
-3.0544057 3.8301184 0.3837769 0 40
-3.0474985 3.8214569 0.42817509 0 41
-3.0512817 3.8262012 0.47410205 0 42
-3.0464489 3.8201411 0.5187555 0 43
-3.0465434 3.8202596 0.56426609 0 44
-3.0551462 3.8310473 0.61157942 0 45
-3.0482082 3.8223472 0.65591162 0 46
-3.049772 3.8243079 0.70210558 0 47
-3.0469935 3.8208239 0.74740285 0 48
-3.0519853 3.8270831 0.79476899 0 49
-3.0488508 3.823153 0.84018505 0 50
-3.0510321 3.8258882 0.88719791 0 51
-3.0443256 3.8174782 0.93171221 0 52
-3.0394297 3.8113389 0.97676671 0 53
-3.0474856 3.8214407 1.0262042 0 54
-3.0482113 3.822351 1.0734897 0 55
-3.0493531 3.8237827 1.1211411 0 56
-3.0481548 3.8222802 1.1681308 0 57
-3.0483375 3.8225093 1.2158427 0 58
-3.0487382 3.8230119 1.2638694 0 59
-3.0383914 3.8100371 1.3075117 0 60
-3.0523095 3.8274901 1.3618906 0 61
-3.0606358 3.8379307 1.414376 0 62
-3.0450294 3.818361 1.4559436 0 63
-1.5605808 1.9082997 -0.73489743 0 0
-1.6123022 1.9715453 -0.73381585 0 1
-1.6588298 2.02844 -0.72895861 0 2
-1.7200962 2.1033573 -0.72902429 0 3
-1.8001488 2.2012467 -0.73498392 0 4
-1.8678579 2.2840424 -0.73374575 0 5
-1.946466 2.3801653 -0.73466378 0 6
-2.031327 2.4839346 -0.7355628 0 7
-2.1080508 2.5777535 -0.73117495 0 8
-2.2099857 2.7024009 -0.73294097 0 9
-2.3190205 2.8357303 -0.73399103 0 10
-2.4404199 2.9841793 -0.7356016 0 11
-2.5490065 3.11696 -0.73001546 0 12
-2.7142265 3.3189933 -0.73666871 0 13
-2.8758984 3.5166881 -0.73759747 0 14
-3.0352397 3.7115328 -0.73326945 0 15
-3.0627697 3.7451968 -0.69444335 0 16
-3.0668464 3.7501819 -0.64995021 0 17
-3.068469 3.752166 -0.60496467 0 18
-3.0730908 3.7578175 -0.56058222 0 19
-3.0724688 3.757057 -0.51528043 0 20
-3.0689833 3.752795 -0.4696469 0 21
-3.0599077 3.7416971 -0.42342222 0 22
-3.0695436 3.75348 -0.37985101 0 23
-3.0608923 3.7429011 -0.3340669 0 24
-3.0582752 3.739701 -0.2891627 0 25
-3.0637057 3.7463412 -0.24502753 0 26
-3.0684116 3.7520957 -0.20072834 0 27
-3.0747066 3.7597933 -0.15640703 0 28
-3.0647669 3.7476389 -0.1113393 0 29
-3.0613301 3.7434366 -0.066721141 0 30
-3.0601668 3.7420142 -0.022230675 0 31
-3.0690315 3.7528539 0.022295073 0 32
-3.0576429 3.7389278 0.066640779 0 33
-3.0504022 3.7300737 0.11081745 0 34
-3.0622039 3.7445049 0.15577103 0 35
-3.0695302 3.7534637 0.20080154 0 36
-3.0671723 3.7505805 0.24530479 0 37
-3.0690517 3.7528787 0.29018164 0 38
-3.0641985 3.7469442 0.33442774 0 39
-3.0616388 3.7438142 0.37887284 0 40
-3.0667686 3.7500868 0.4243716 0 41
-3.0740087 3.75894 0.47041592 0 42
-3.0643437 3.7471218 0.5139178 0 43
-3.0640481 3.7467599 0.55893272 0 44
-3.0609891 3.7430196 0.60348994 0 45
-3.0631897 3.7457106 0.64917529 0 46
-3.07335 3.7581346 0.69684225 0 47
-3.0593419 3.7410052 0.73909217 0 48
-3.0583491 3.7397916 0.78439164 0 49
-3.0661852 3.7493734 0.83219391 0 50
-3.0622647 3.7445793 0.87700862 0 51
-3.0665421 3.74981 0.92433 0 52
-3.0607228 3.7426939 0.96874654 0 53
-3.0731435 3.7578821 1.019207 0 54
-3.0605245 3.7424512 1.0615393 0 55
-3.0594652 3.7411561 1.1078615 0 56
-3.0646193 3.7474587 1.1566936 0 57
-3.0657213 3.748806 1.2042992 0 58
-3.0529602 3.7332017 1.2464951 0 59
-3.0763795 3.7618392 1.3038546 0 60
-3.0726676 3.7573004 1.3502575 0 61
-3.0637889 3.746443 1.3944387 0 62
-3.0653427 3.748343 1.443509 0 63
-1.5809867 1.8854614 -0.7335335 0 0
-1.6377556 1.9531631 -0.73441404 0 1
-1.6922801 2.0181882 -0.73269719 0 2
-1.7571733 2.0955789 -0.73376179 0 3
-1.8296797 2.182049 -0.7360304 0 4
-1.9045584 2.2713482 -0.73713547 0 5
-1.9821279 2.3638563 -0.73709714 0 6
-2.0516319 2.4467459 -0.73196548 0 7
-2.1508195 2.5650356 -0.73501372 0 8
-2.2471638 2.6799343 -0.73428649 0 9
-2.3658912 2.821527 -0.73778903 0 10
-2.4658864 2.9407794 -0.73232251 0 11
-2.6047089 3.1063373 -0.73497331 0 12
-2.7544079 3.2848661 -0.73655581 0 13
-2.9129968 3.4739969 -0.73610055 0 14
-3.0846684 3.67873 -0.734227 0 15
-3.0762124 3.6686454 -0.68721086 0 16
-3.075361 3.6676302 -0.64214849 0 17
-3.0758598 3.6682248 -0.59748369 0 18
-3.072861 3.6646488 -0.55227852 0 19
-3.0702572 3.6615431 -0.50732023 0 20
-3.0745776 3.6666958 -0.46356821 0 21
-3.0741179 3.6661475 -0.41911876 0 22
-3.0703585 3.661664 -0.37435171 0 23
-3.0726054 3.6643438 -0.33040258 0 24
-3.074501 3.6666045 -0.28641227 0 25
-3.0715451 3.6630793 -0.24203379 0 26
-3.0826113 3.6762767 -0.19868502 0 27
-3.0739117 3.6659017 -0.1540619 0 28
-3.07162 3.6631687 -0.10994356 0 29
-3.0746613 3.6667957 -0.066024005 0 30
-3.075232 3.6674762 -0.022010844 0 31
-3.0799508 3.6731038 0.02204462 0 32
-3.081244 3.6746461 0.066165358 0 33
-3.0794549 3.6725123 0.11022399 0 34
-3.0774112 3.6700749 0.15423729 0 35
-3.0739176 3.6659088 0.19812469 0 36
-3.0728889 3.6646817 0.24213968 0 37
-3.0822117 3.6758001 0.28713056 0 38
-3.0784457 3.6713088 0.33103061 0 39
-3.0732524 3.6651156 0.37470457 0 40
-3.0679469 3.658788 0.41827741 0 41
-3.0694172 3.6605418 0.46279016 0 42
-3.0681734 3.6590583 0.50697595 0 43
-3.0870638 3.6815865 0.55483109 0 44
-3.073988 3.6659925 0.59712011 0 45
-3.0775259 3.6702118 0.64260048 0 46
-3.0743868 3.6664681 0.68680304 0 47
-3.0824437 3.6760767 0.73369741 0 48
-3.0745332 3.6666427 0.77692002 0 49
-3.0728364 3.6646192 0.82170671 0 50
-3.0766871 3.6692114 0.86815184 0 51
-3.0699642 3.6611941 0.91172248 0 52
-3.0768025 3.6693492 0.95948249 0 53
-3.0816152 3.6750886 1.006953 0 54
-3.0767615 3.6693001 1.0514419 0 55
-3.0804968 3.6737549 1.0990361 0 56
-3.0767617 3.6693006 1.1441605 0 57
-3.0819993 3.6755469 1.1928493 0 58
-3.0675268 3.658287 1.2339827 0 59
-3.0761878 3.6686161 1.284557 0 60
-3.0744953 3.6665976 1.3311473 0 61
-3.0686541 3.6596315 1.3760678 0 62
-3.074636 3.6667655 1.4265448 0 63
-1.6083218 1.8708488 -0.73548698 0 0
-1.6721337 1.9450768 -0.73904896 0 1
-1.7256666 2.0073481 -0.73640972 0 2
-1.7865468 2.0781655 -0.73530114 0 3
-1.8516935 2.1539464 -0.73417592 0 4
-1.9312222 2.2464564 -0.73670834 0 5
-2.0041614 2.3313015 -0.73457491 0 6
-2.0800316 2.4195561 -0.73142779 0 7
-2.184504 2.5410817 -0.73579133 0 8
-2.2820659 2.6545684 -0.73496944 0 9
-2.3804948 2.7690639 -0.73166955 0 10
-2.5084605 2.9179177 -0.73425508 0 11
-2.6428745 3.0742722 -0.73502016 0 12
-2.8024542 3.2599001 -0.7386288 0 13
-2.9316328 3.4101646 -0.73015833 0 14
-3.0914123 3.596025 -0.72525227 0 15
-3.0897267 3.5940642 -0.68030572 0 16
-3.0931382 3.5980325 -0.63657409 0 17
-3.0889323 3.5931401 -0.5913958 0 18
-3.0850084 3.5885758 -0.5464896 0 19
-3.0838864 3.5872707 -0.5022456 0 20
-3.0971193 3.6026633 -0.46025279 0 21
-3.0847003 3.5882173 -0.41451466 0 22
-3.0896602 3.5939867 -0.37128875 0 23
-3.0963421 3.6017594 -0.32816777 0 24
-3.0868652 3.5907354 -0.28342941 0 25
-3.0848215 3.5883584 -0.23958492 0 26
-3.0882823 3.5923841 -0.19618857 0 27
-3.0943577 3.5994511 -0.15285677 0 28
-3.0871475 3.591064 -0.10891057 0 29
-3.0981877 3.6039064 -0.065572634 0 30
-3.0969155 3.6024265 -0.021847337 0 31
-3.0905654 3.5950398 0.021802541 0 32
-3.0897052 3.5940392 0.065393098 0 33
-3.0946074 3.5997415 0.10917374 0 34
-3.0899079 3.594275 0.15263696 0 35
-3.0919929 3.5967002 0.19642428 0 36
-3.0965316 3.6019797 0.2404944 0 37
-3.0939753 3.5990062 0.28408226 0 38
-3.0861659 3.5899222 0.32708925 0 39
-3.0919816 3.5966871 0.37156773 0 40
-3.0873127 3.5912561 0.4148657 0 41
-3.0983746 3.6041236 0.46043935 0 42
-3.0867019 3.5905457 0.50270414 0 43
-3.0927925 3.5976305 0.54786849 0 44
-3.0925391 3.5973356 0.59208632 0 45
-3.1020863 3.6084414 0.63841569 0 46
-3.0906689 3.5951602 0.6805132 0 47
-3.0900071 3.5943904 0.72492266 0 48
-3.0931637 3.5980623 0.77038956 0 49
-3.0960112 3.6013744 0.81600016 0 50
-3.1014149 3.6076603 0.86254662 0 51
-3.0833626 3.5866613 0.90253544 0 52
-3.0924087 3.5971839 0.95048362 0 53
-3.0949719 3.6001654 0.99677658 0 54
-3.0885108 3.5926497 1.0402815 0 55
-3.0914538 3.5960732 1.0870869 0 56
-3.089886 3.5942495 1.13252 0 57
-3.0823574 3.5854919 1.1758349 0 58
-3.0946472 3.5997877 1.2269932 0 59
-3.0877821 3.5918021 1.2708592 0 60
-3.0854242 3.5890594 1.3166717 0 61
-3.0859675 3.5896914 1.3639346 0 62
-3.0869155 3.5907941 1.4116491 0 63
-1.6260132 1.8450429 -0.73314679 0 0
-1.6883243 1.9157476 -0.73573756 0 1
-1.7456257 1.9807678 -0.7344777 0 2
-1.8175254 2.0623527 -0.73755801 0 3
-1.880025 2.1332712 -0.73495293 0 4
-1.9628595 2.2272637 -0.73827368 0 5
-2.0288067 2.3020942 -0.73317719 0 6
-2.1209943 2.4066999 -0.73536992 0 7
-2.2228336 2.5222573 -0.73819929 0 8
-2.312937 2.6244981 -0.7344628 0 9
-2.4172981 2.7429168 -0.73255932 0 10
-2.5496113 2.8930531 -0.73583174 0 11
-2.6986444 3.0621614 -0.74000257 0 12
-2.8178961 3.1974769 -0.73228067 0 13
-2.9916179 3.3945994 -0.73464656 0 14
-3.103627 3.5216968 -0.71790433 0 15
-3.1029563 3.5209355 -0.67363483 0 16
-3.0968089 3.5139604 -0.62838954 0 17
-3.0976105 3.5148697 -0.58473825 0 18
-3.106432 3.5248797 -0.54256558 0 19
-3.1025877 3.5205176 -0.4982034 0 20
-3.1046133 3.5228159 -0.45489469 0 21
-3.0945759 3.5114264 -0.41000855 0 22
-3.1044834 3.5226684 -0.36783689 0 23
-3.1057737 3.5241327 -0.32455003 0 24
-3.1074476 3.526032 -0.281317 0 25
-3.1071548 3.5256996 -0.23793438 0 26
-3.0959382 3.5129721 -0.19391607 0 27
-3.1099019 3.5288169 -0.15146969 0 28
-3.0974143 3.514647 -0.10773995 0 29
-3.0949097 3.5118053 -0.064584412 0 30
-3.1022151 3.5200946 -0.021577736 0 31
-3.1004202 3.5180578 0.021565253 0 32
-3.1047294 3.5229478 0.064789332 0 33
-3.0999501 3.5175245 0.10782816 0 34
-3.1064506 3.5249007 0.15130158 0 35
-3.1056118 3.5239489 0.19452199 0 36
-3.0971837 3.5143857 0.23717083 0 37
