# .PCD v0.7 - Point Cloud Data file format
VERSION 0.7
FIELDS x y z intensity ring
SIZE 4 4 4 4 2
TYPE F F F F U
COUNT 1 1 1 1 1
WIDTH 1310
HEIGHT 1
VIEWPOINT 0 0 0 1 0 0 0
POINTS 1310
DATA ascii
-1.822848 5.5635881 0.67608577 0 44
-1.8218399 5.5605116 0.7303077 0 45
-1.8220419 5.5611277 0.78511596 0 46
-1.8206705 5.556942 0.83934629 0 47
-1.8232845 5.5649204 0.8955965 0 48
-1.8227611 5.563323 0.95052379 0 49
-1.8251362 5.5705724 1.0071839 0 50
-1.824222 5.5677819 1.0622487 0 51
-1.8186584 5.5508008 1.1145937 0 52
-1.8223783 5.5621548 1.1727679 0 53
-1.8234278 5.5653582 1.2295763 0 54
-1.8243141 5.5680633 1.2865516 0 55
-1.8264558 5.5745997 1.3447343 0 56
-1.8188163 5.5512829 1.3957834 0 57
-1.8202324 5.5556054 1.4538379 0 58
-1.8236408 5.5660081 1.5138962 0 59
-1.8204714 5.5563345 1.5687743 0 60
-1.8221773 5.5615411 1.6280923 0 61
-1.8246223 5.5690036 1.6884996 0 62
-1.822131 5.5614004 1.7446465 0 63
-0.79422432 2.3269851 -0.73299831 0 0
-0.8230933 2.4115677 -0.73419088 0 1
-0.85155916 2.4949694 -0.73339027 0 2
-0.88404351 2.5901449 -0.73431468 0 3
-0.91734594 2.6877172 -0.73404366 0 4
-0.95049173 2.7848303 -0.73176122 0 5
-0.99362606 2.9112091 -0.73499453 0 6
-1.0380888 3.0414798 -0.73670524 0 7
-1.0824419 3.1714294 -0.73580742 0 8
-1.1254634 3.2974772 -0.73152679 0 9
-1.1788381 3.4538591 -0.7312395 0 10
-1.2426102 3.6407037 -0.7340613 0 11
-1.3164539 3.8570573 -0.73890078 0 12
-1.374511 4.0271578 -0.73112845 0 13
-1.4566853 4.2679186 -0.73220199 0 14
-1.5587082 4.566834 -0.73799723 0 15
-1.6656191 4.8800707 -0.74014616 0 16
-1.7689525 5.1828251 -0.73472285 0 17
-1.8972321 5.5586696 -0.73307431 0 18
-1.8963765 5.5561628 -0.67796588 0 19
-1.8923135 5.5442591 -0.62196875 0 20
-1.8930581 5.5464401 -0.56775397 0 21
-1.8969479 5.557837 -0.51444626 0 22
-1.8934668 5.5476384 -0.45921549 0 23
-1.8925514 5.5449562 -0.40481108 0 24
-1.8981258 5.5612884 -0.35173047 0 25
-1.8946822 5.551199 -0.29697749 0 26
-1.8962908 5.5559115 -0.24311924 0 27
-1.8932991 5.5471468 -0.18875182 0 28
-1.8949713 5.5520458 -0.13491896 0 29
-1.8940002 5.5492005 -0.080900766 0 30
-1.8938589 5.5487866 -0.026963389 0 31
-1.8941215 5.5495563 0.026967129 0 32
-1.8947523 5.551404 0.080932885 0 33
-1.8957797 5.5544147 0.13497652 0 34
-1.8929405 5.5460958 0.18871605 0 35
-1.8963641 5.5561266 0.24312864 0 36
-1.8942838 5.5500317 0.29691505 0 37
-1.8948703 5.5517502 0.35112724 0 38
-1.8940756 5.5494218 0.40513709 0 39
-1.8929819 5.546217 0.45909783 0 40
-1.8924639 5.5446997 0.5132302 0 41
-1.8912055 5.5410128 0.56719834 0 42
-1.8974497 5.5593076 0.62365699 0 43
-1.9016721 5.5716786 0.6798591 0 44
-1.8929659 5.5461702 0.73142594 0 45
-1.8924744 5.5447302 0.78602684 0 46
-1.8891621 5.5350256 0.83948123 0 47
-1.8989054 5.5635724 0.89906943 0 48
-1.8951037 5.552434 0.95257282 0 49
-1.8975408 5.5595746 1.0093379 0 50
-1.8972535 5.5587325 1.0648926 0 51
-1.8985807 5.5626211 1.1215702 0 52
-1.8992558 5.564599 1.1781183 0 53
-1.895175 5.5526428 1.2318226 0 54
-1.8927175 5.5454426 1.2866052 0 55
-1.8936306 5.5481181 1.3438615 0 56
-1.8933854 5.5473995 1.4005549 0 57
-1.8948089 5.5515704 1.4587688 0 58
-1.8933614 5.5473294 1.5150336 0 59
-1.8916229 5.5422359 1.5712422 0 60
-1.9009537 5.5695734 1.6371628 0 61
-1.895786 5.5544333 1.691022 0 62
-1.8973334 5.5589666 1.7510697 0 63
-0.82313949 2.318068 -0.73332226 0 0
-0.85465348 2.4068153 -0.73588789 0 1
-0.88818359 2.5012405 -0.73838818 0 2
-0.91295087 2.5709884 -0.73201108 0 3
-0.95359391 2.6854444 -0.7365697 0 4
-0.9884187 2.7835157 -0.73455387 0 5
-1.027312 2.8930445 -0.73354232 0 6
-1.0738927 3.0242217 -0.73566788 0 7
-1.122123 3.1600444 -0.73631161 0 8
-1.1748596 3.3085577 -0.7371341 0 9
-1.2338644 3.4747226 -0.73881304 0 10
-1.284229 3.6165562 -0.73232114 0 11
-1.3581891 3.8248372 -0.73587209 0 12
-1.4331826 4.0360289 -0.73588282 0 13
-1.5091957 4.2500911 -0.73227197 0 14
-1.6101977 4.5345263 -0.73592025 0 15
-1.7190202 4.8409843 -0.73736823 0 16
-1.8288031 5.1501474 -0.73322284 0 17
-1.9628868 5.5277448 -0.73212373 0 18
-1.9654217 5.534883 -0.678267 0 19
-1.9685653 5.5437365 -0.62457848 0 20
-1.9702207 5.548398 -0.57039112 0 21
-1.9643373 5.5318294 -0.51423585 0 22
-1.9666831 5.5384355 -0.4604207 0 23
-1.9646847 5.5328078 -0.40565723 0 24
-1.9666455 5.5383296 -0.35178131 0 25
-1.9669002 5.5390468 -0.29759878 0 26
-1.9677671 5.5414882 -0.24352849 0 27
-1.9657736 5.5358739 -0.18917644 0 28
-1.96404 5.530992 -0.13498402 0 29
-1.9692787 5.5457449 -0.081197277 0 30
-1.9670305 5.5394139 -0.027033335 0 31
-1.9714718 5.5519209 0.027094373 0 32
-1.9648731 5.5333381 0.081015624 0 33
-1.9673229 5.5402374 0.13520965 0 34
-1.9687312 5.5442028 0.18946107 0 35
-1.9702004 5.5483408 0.24382962 0 36
-1.9599576 5.5194955 0.29654834 0 37
-1.9686294 5.5439167 0.35213616 0 38
-1.9633793 5.5291314 0.4053877 0 39
-1.9636176 5.5298023 0.45970303 0 40
-1.9691267 5.5453167 0.51548964 0 41
-1.9652519 5.5344052 0.56895268 0 42
-1.9686925 5.5440941 0.62461877 0 43
-1.963509 5.5294967 0.67760688 0 44
-1.9693261 5.5458784 0.7345255 0 45
-1.9685005 5.5435538 0.78923184 0 46
-1.9646376 5.5326753 0.84272504 0 47
-1.9611026 5.5227199 0.89629686 0 48
-1.9659134 5.5362682 0.95387453 0 49
-1.9643224 5.5317874 1.0086021 0 50
-1.9691833 5.5454764 1.0669111 0 51
-1.9635799 5.5296965 1.1197153 0 52
-1.9673959 5.5404429 1.1780369 0 53
-1.9691162 5.5452871 1.235469 0 54
-1.9671253 5.539681 1.2907829 0 55
-1.969296 5.5457935 1.349062 0 56
-1.9645967 5.5325599 1.4028014 0 57
-1.9683677 5.5431795 1.4628135 0 58
-1.9699125 5.5475302 1.5215889 0 59
-1.9653047 5.5345535 1.5757964 0 60
-1.9669471 5.5391788 1.6352142 0 61
-1.9650414 5.533812 1.6919725 0 62
-1.9689885 5.5449281 1.7541414 0 63
-0.84663647 2.2943771 -0.7290659 0 0
-0.88198864 2.3901811 -0.73406243 0 1
-0.91925818 2.4911811 -0.73869967 0 2
-0.9466449 2.5653992 -0.7336784 0 3
-0.98504102 2.669452 -0.73544991 0 4
-1.0254428 2.7789407 -0.73661846 0 5
-1.0625126 2.8793993 -0.73333985 0 6
-1.1038697 2.9914768 -0.73094904 0 7
-1.1530491 3.1247525 -0.73133677 0 8
-1.2120976 3.2847733 -0.73510015 0 9
-1.2730509 3.4499562 -0.7368198 0 10
-1.3381032 3.6262472 -0.7375595 0 11
-1.4001826 3.794482 -0.73328906 0 12
-1.4816232 4.0151849 -0.73534864 0 13
-1.5756165 4.269906 -0.73896825 0 14
-1.6565896 4.4893427 -0.73183793 0 15
-1.7746714 4.8093433 -0.73581696 0 16
-1.9062142 5.165823 -0.73873585 0 17
-2.0389977 5.5256648 -0.73511338 0 18
-2.0372524 5.5209351 -0.67957622 0 19
-2.0400205 5.5284371 -0.62563366 0 20
-2.0382318 5.5235891 -0.57037419 0 21
-2.0378153 5.5224609 -0.5156554 0 22
-2.0401375 5.5287538 -0.46166644 0 23
-2.0378897 5.5226622 -0.40671992 0 24
-2.0430055 5.5365262 -0.35323572 0 25
-2.0405486 5.5298681 -0.29843116 0 26
-2.0389991 5.5256686 -0.24391669 0 27
-2.0368991 5.5199776 -0.18947481 0 28
-2.0408382 5.530653 -0.13557793 0 29
-2.0388906 5.5253749 -0.081259966 0 30
-2.0398195 5.5278916 -0.027097464 0 31
-2.0414274 5.5322495 0.027118826 0 32
-2.0384662 5.5242248 0.081243046 0 33
-2.0384181 5.5240941 0.13541715 0 34
-2.0427282 5.5357747 0.19001704 0 35
-2.0420537 5.533947 0.2442821 0 36
-2.0415027 5.5324535 0.29857072 0 37
-2.0433261 5.5373955 0.35329118 0 38
-2.0421245 5.5341387 0.40756509 0 39
-2.0367863 5.5196724 0.46090811 0 40
-2.0345771 5.5136852 0.51483595 0 41
-2.0419412 5.5336418 0.57141221 0 42
-2.04231 5.5346413 0.6263358 0 43
-2.0385408 5.5244269 0.68000603 0 44
-2.0411153 5.5314035 0.73587686 0 45
-2.0392094 5.5262389 0.79027689 0 46
-2.0351744 5.5153041 0.84382713 0 47
-2.0387201 5.5249124 0.90065312 0 48
-2.0346808 5.5139661 0.9542706 0 49
-2.0361607 5.5179768 1.0105728 0 50
-2.0413361 5.532002 1.0690672 0 51
-2.0397093 5.5275936 1.1242833 0 52
-2.0387726 5.5250549 1.1800063 0 53
-2.0374341 5.5214276 1.2356415 0 54
-2.0379295 5.5227704 1.2925839 0 55
-2.0473557 5.5483146 1.3556968 0 56
-2.0377438 5.5222669 1.4064386 0 57
-2.042639 5.535533 1.4673129 0 58
-2.0397091 5.5275927 1.5228847 0 59
-2.0396032 5.5273061 1.5807542 0 60
-2.039434 5.5268469 1.6388531 0 61
-2.0381398 5.5233402 1.6963052 0 62
-2.0351498 5.5152373 1.7525331 0 63
-0.88142502 2.3011339 -0.7346015 0 0
-0.9160412 2.3915062 -0.73787296 0 1
-0.94223773 2.4598975 -0.73280346 0 2
-0.97453672 2.5442202 -0.73099339 0 3
-1.0127326 2.6439383 -0.73179632 0 4
-1.0546428 2.7533531 -0.73321801 0 5
-1.1054213 2.8859203 -0.73840666 0 6
-1.1493372 3.0005713 -0.73656887 0 7
-1.1956819 3.1215634 -0.73397601 0 8
-1.2482606 3.2588303 -0.732674 0 9
-1.3133434 3.4287422 -0.73568249 0 10
-1.3740145 3.5871358 -0.7329855 0 11
-1.4451042 3.7727299 -0.73246402 0 12
-1.5251881 3.9818044 -0.73261452 0 13
-1.6194859 4.2279873 -0.73510438 0 14
-1.7158029 4.4794421 -0.73360783 0 15
-1.8259807 4.7670827 -0.73273104 0 16
-1.9719527 5.1481714 -0.73962325 0 17
-2.0916889 5.4607663 -0.72984618 0 18
-2.1078861 5.5030527 -0.68051404 0 19
-2.1058245 5.4976702 -0.62503499 0 20
-2.1109188 5.5109701 -0.5717082 0 21
-2.1082373 5.5039692 -0.51631033 0 22
-2.1083536 5.5042729 -0.46175215 0 23
-2.1161265 5.5245657 -0.4087455 0 24
-2.1125329 5.5151834 -0.35350466 0 25
-2.116132 5.52458 -0.29952741 0 26
-2.1150169 5.5216689 -0.24486962 0 27
-2.1113236 5.5120268 -0.19007866 0 28
-2.1103251 5.5094199 -0.1356833 0 29
-2.1149006 5.5213647 -0.081577279 0 30
-2.1078289 5.502903 -0.027099974 0 31
-2.106791 5.5001936 0.027086632 0 32
-2.1099002 5.5083108 0.081384413 0 33
-2.1119299 5.5136099 0.13578649 0 34
-2.1121268 5.5141239 0.19015098 0 35
-2.1121032 5.5140624 0.2445323 0 36
-2.110697 5.5103908 0.29875812 0 37
-2.1156695 5.5233727 0.35402957 0 38
-2.1067679 5.500133 0.40693781 0 39
-2.116637 5.525898 0.46356627 0 40
-2.1114643 5.512394 0.51710063 0 41
-2.1109624 5.5110836 0.57172 0 42
-2.1159124 5.5240068 0.62802923 0 43
-2.1148319 5.5211859 0.68275642 0 44
-2.1132729 5.5171156 0.73737741 0 45
-2.1108353 5.5107517 0.79171413 0 46
-2.1129558 5.5162883 0.84788871 0 47
-2.1079879 5.5033183 0.9012903 0 48
-2.111901 5.5135341 0.95861769 0 49
-2.108202 5.5038772 1.0126616 0 50
-2.1091411 5.5063286 1.069037 0 51
-2.1148686 5.5212817 1.1282036 0 52
-2.1075048 5.5020571 1.18054 0 53
-2.1105163 5.5099192 1.2387801 0 54
-2.1174495 5.5280194 1.2998081 0 55
-2.1094861 5.5072298 1.3518939 0 56
-2.1116221 5.5128064 1.4105355 0 57
-2.1060629 5.4982924 1.4641954 0 58
-2.1100037 5.5085807 1.5246798 0 59
-2.1144822 5.5202723 1.5860586 0 60
-2.1082408 5.5039787 1.6396352 0 61
-2.1096647 5.5076957 1.699339 0 62
-2.1130631 5.5165677 1.7610792 0 63
-0.91159487 2.2950134 -0.73617047 0 0
-0.93887836 2.3637018 -0.73280084 0 1
-0.97353464 2.4509518 -0.73364925 0 2
-1.0144973 2.5540786 -0.73735422 0 3
-1.0495175 2.6422448 -0.73484403 0 4
-1.087734 2.7384579 -0.73275787 0 5
-1.1299406 2.8447165 -0.73136383 0 6
-1.1882141 2.9914246 -0.73785442 0 7
-1.2359358 3.111568 -0.7351436 0 8
-1.2984152 3.2688649 -0.73846376 0 9
-1.3490382 3.3963122 -0.73222822 0 10
-1.4192607 3.5731032 -0.73362869 0 11
-1.5033889 3.7849026 -0.73836058 0 12
-1.5732716 3.9608381 -0.732261 0 13
-1.6679666 4.1992402 -0.73361677 0 14
-1.7835488 4.4902277 -0.73891014 0 15
-1.8834451 4.741725 -0.73233783 0 16
-2.0230527 5.0931978 -0.73524368 0 17
-2.1613107 5.4412737 -0.73073769 0 18
-2.1840749 5.4985843 -0.68323094 0 19
-2.1810524 5.4909749 -0.62727553 0 20
-2.182909 5.4956493 -0.57286012 0 21
-2.1847031 5.5001659 -0.51843435 0 22
-2.1842792 5.4990988 -0.4635362 0 23
-2.1822248 5.4939265 -0.40843308 0 24
-2.1874588 5.5071034 -0.354684 0 25
-2.1863337 5.504271 -0.29986125 0 26
-2.1826556 5.4950113 -0.24485916 0 27
-2.1890857 5.5111995 -0.19096395 0 28
-2.1832905 5.4966097 -0.13601869 0 29
-2.1862898 5.5041604 -0.081714116 0 30
-2.1815212 5.4921546 -0.027177094 0 31
-2.1903946 5.5144949 0.02728764 0 32
-2.186481 5.5046415 0.081721254 0 33
-2.1871376 5.5062952 0.13625838 0 34
-2.1880786 5.5086641 0.19087611 0 35
-2.1871588 5.5063481 0.24536434 0 36
-2.182936 5.495717 0.29939523 0 37
-2.183253 5.4965153 0.35400209 0 38
-2.1822481 5.4939852 0.40843743 0 39
-2.1870067 5.5059657 0.46411505 0 40
-2.1818912 5.4930868 0.51776713 0 41
-2.1895053 5.5122557 0.57459116 0 42
-2.1866074 5.5049601 0.62887311 0 43
-2.1846342 5.4999928 0.68340594 0 44
-2.1844506 5.4995303 0.73856127 0 45
-2.1862636 5.5040946 0.7945599 0 46
-2.1801255 5.4886413 0.84769571 0 47
-2.1901119 5.5137825 0.90734595 0 48
-2.1879163 5.5082555 0.96230477 0 49
-2.1884134 5.5095072 1.0185716 0 50
-2.1846981 5.5001535 1.0729725 0 51
-2.185657 5.5025673 1.1297859 0 52
-2.1836271 5.497457 1.1852247 0 53
-2.1793807 5.4867659 1.2395061 0 54
-2.1852362 5.5015078 1.2997943 0 55
-2.1813788 5.491797 1.3545876 0 56
-2.1808863 5.4905567 1.4115975 0 57
-2.1891639 5.5113964 1.4747422 0 58
-2.1828823 5.4955821 1.5283957 0 59
-2.1845257 5.4997191 1.5877512 0 60
-2.1844754 5.4995928 1.6462063 0 61
-2.1857779 5.502872 1.7060144 0 62
-2.1816473 5.4924726 1.7618179 0 63
-0.9349851 2.2720661 -0.73244214 0 0
-0.96755624 2.3512158 -0.73256308 0 1
-1.0018966 2.4346647 -0.73240632 0 2
-1.0432622 2.5351858 -0.73554784 0 3
-1.0794176 2.6230452 -0.73314035 0 4
-1.1236327 2.7304902 -0.73426747 0 5
-1.1659724 2.8333781 -0.73207951 0 6
-1.2140591 2.9502313 -0.7313208 0 7
-1.2670207 3.0789311 -0.73105842 0 8
-1.333078 3.239454 -0.73546714 0 9
-1.3882807 3.3735998 -0.73095661 0 10
-1.4644996 3.558816 -0.73433721 0 11
-1.5446569 3.7536025 -0.73590422 0 12
-1.6361129 3.9758461 -0.73869914 0 13
-1.7202954 4.1804142 -0.73396796 0 14
-1.8332212 4.4548297 -0.73673892 0 15
-1.9390012 4.7118812 -0.73135579 0 16
-2.0846064 5.0657101 -0.73492044 0 17
-2.2536976 5.4766111 -0.73914915 0 18
-2.2581787 5.4875007 -0.68525219 0 19
-2.2638712 5.5013337 -0.6315912 0 20
-2.2599297 5.4917555 -0.57530749 0 21
-2.2607584 5.4937692 -0.52041239 0 22
-2.255203 5.4802694 -0.46425149 0 23
-2.2564969 5.4834137 -0.40968332 0 24
-2.2575436 5.4859571 -0.35508311 0 25
-2.2571843 5.4850836 -0.30030531 0 26
-2.2556462 5.4813466 -0.24546765 0 27
-2.2544124 5.4783478 -0.19077177 0 28
-2.2553492 5.4806242 -0.1362991 0 29
-2.2577577 5.4864774 -0.081857562 0 30
-2.2571874 5.4850912 -0.027277421 0 31
-2.2584355 5.4881244 0.027292505 0 32
-2.2551913 5.4802408 0.081764519 0 33
-2.2589495 5.4893737 0.13651669 0 34
-2.2600799 5.4921207 0.19125137 0 35
-2.2521777 5.472918 0.24509019 0 36
-2.255852 5.4818463 0.30012807 0 37
-2.2585475 5.4883966 0.355241 0 38
-2.2557766 5.4816632 0.40955254 0 39
-2.2606874 5.493597 0.46538049 0 40
-2.2600837 5.4921298 0.52025712 0 41
-2.257941 5.4869227 0.57480121 0 42
-2.2567775 5.4840956 0.62961215 0 43
-2.2592032 5.4899902 0.68556309 0 44
-2.2571249 5.4849396 0.74027318 0 45
-2.2545023 5.4785671 0.79481661 0 46
-2.2570343 5.4847193 0.85131204 0 47
-2.2589476 5.4893689 0.90783083 0 48
-2.2527182 5.4742312 0.96112728 0 49
-2.2608287 5.4939404 1.0207561 0 50
-2.2557979 5.4817147 1.0747055 0 51
-2.2620635 5.4969411 1.134256 0 52
-2.264828 5.5036583 1.1924757 0 53
-2.2566757 5.4838481 1.2450216 0 54
-2.2599165 5.4917235 1.3039495 0 55
-2.2618306 5.4963746 1.3624738 0 56
-2.2567768 5.4840941 1.4169633 0 57
-2.262517 5.4980431 1.4785016 0 58
-2.2604702 5.4930687 1.535311 0 59
-2.2567425 5.4840102 1.5911071 0 60
-2.2615995 5.4958134 1.6532743 0 61
-2.2606897 5.4936028 1.7116295 0 62
0 0 0 0 63
-0.96187764 2.2581139 -0.73170191 0 0
-0.99567086 2.3374472 -0.73203242 0 1
-1.0300922 2.4182551 -0.73122501 0 2
-1.0728163 2.5185542 -0.73449439 0 3
-1.1172391 2.6228421 -0.73686767 0 4
-1.1596856 2.7224898 -0.7358951 0 5
-1.2099884 2.8405812 -0.73772913 0 6
-1.2527386 2.9409418 -0.73278117 0 7
-1.3055698 3.0649691 -0.73149979 0 8
-1.3670461 3.2092915 -0.73238021 0 9
-1.4437331 3.3893225 -0.73815399 0 10
-1.501164 3.524148 -0.7309373 0 11
-1.5916072 3.7364733 -0.73632735 0 12
-1.6847947 3.9552412 -0.73866415 0 13
-1.7691364 4.1532431 -0.73296142 0 14
-1.8873867 4.4308486 -0.73655534 0 15
-2.016237 4.7333388 -0.73847866 0 16
-2.1452267 5.0361562 -0.73440427 0 17
-2.3155806 5.4360805 -0.7374661 0 18
-2.3295443 5.4688621 -0.68644989 0 19
-2.3356011 5.4830809 -0.63274503 0 20
-2.3365967 5.4854188 -0.5776099 0 21
-2.3267877 5.4623904 -0.52011091 0 22
-2.3329401 5.4768343 -0.46635538 0 23
-2.3378744 5.4884181 -0.4121739 0 24
-2.3319852 5.4745927 -0.35617661 0 25
-2.3324616 5.4757109 -0.30133966 0 26
-2.326874 5.4625931 -0.24589057 0 27
-2.3268981 5.4626498 -0.19120704 0 28
-2.335788 5.4835196 -0.13707504 0 29
-2.3369839 5.4863276 -0.082277849 0 30
-2.3384006 5.4896531 -0.027441027 0 31
-2.335109 5.481926 0.027402401 0 32
-2.3368368 5.4859819 0.082272671 0 33
-2.3334994 5.478147 0.13694073 0 34
-2.3365793 5.4853773 0.19200256 0 35
-2.3382082 5.4892015 0.2470883 0 36
-2.3329194 5.4767852 0.30139878 0 37
-2.3332508 5.4775634 0.35636991 0 38
-2.3298793 5.4696484 0.41076431 0 39
-2.3333857 5.4778805 0.46644446 0 40
-2.3397584 5.4928408 0.52301031 0 41
-2.3336413 5.4784803 0.57687926 0 42
-2.3298848 5.4696612 0.63119638 0 43
-2.3354955 5.4828329 0.68820351 0 44
-2.3347342 5.4810457 0.74356616 0 45
-2.3334734 5.478086 0.79884923 0 46
-2.3327625 5.4764171 0.85441107 0 47
-2.3325524 5.4759235 0.9102819 0 48
-2.3362558 5.4846182 0.96792161 0 49
-2.3344271 5.4803252 1.0234824 0 50
-2.3283384 5.4660311 1.0771623 0 51
-2.3353574 5.4825091 1.1371175 0 52
-2.3339295 5.4791565 1.1932949 0 53
-2.3314388 5.473309 1.2490431 0 54
-2.3307433 5.4716768 1.3058959 0 55
-2.3300121 5.4699602 1.3629252 0 56
-2.3354101 5.4826331 1.4238981 0 57
-2.3345544 5.4806242 1.481425 0 58
-2.3299274 5.4697614 1.5366881 0 59
-2.3299084 5.4697165 1.5951517 0 60
-2.3360636 5.4841671 1.6582867 0 61
-2.3310013 5.4722829 1.7137878 0 62
0 0 0 0 63
-0.99479598 2.2579789 -0.73556632 0 0
-1.0239167 2.3240771 -0.73173296 0 1
-1.0695012 2.4275441 -0.73795462 0 2
-1.1004747 2.4978476 -0.73234665 0 3
-1.1498206 2.6098526 -0.73713475 0 4
-1.19417 2.7105162 -0.73657209 0 5
-1.2430463 2.8214552 -0.73667592 0 6
-1.2969675 2.943845 -0.73742247 0 7
-1.3466709 3.0566614 -0.73341376 0 8
-1.4106359 3.2018487 -0.73458469 0 9
-1.4756812 3.3494878 -0.73337495 0 10
-1.5568213 3.533659 -0.73682475 0 11
-1.6319975 3.704293 -0.73388493 0 12
-1.731313 3.9297187 -0.73781776 0 13
-1.816413 4.1228781 -0.73148912 0 14
-1.9364065 4.3952379 -0.73453838 0 15
-2.0764558 4.7131205 -0.73925197 0 16
-2.2072053 5.0098948 -0.73447692 0 17
-2.3782253 5.3980742 -0.73622167 0 18
-2.4029803 5.4542627 -0.6882742 0 19
-2.4018984 5.4518075 -0.6324966 0 20
-2.4021208 5.452312 -0.57719046 0 21
-2.4089057 5.4677124 -0.52339852 0 22
-2.4074903 5.4644995 -0.46779051 0 23
-2.4090974 5.4681478 -0.4128451 0 24
-2.4065356 5.4623327 -0.35727724 0 25
-2.4040401 5.4566689 -0.30189571 0 26
-2.4042902 5.4572358 -0.24696155 0 27
-2.4087183 5.4672871 -0.19239154 0 28
-2.4044418 5.4575806 -0.13715532 0 29
-2.4051471 5.4591813 -0.082308054 0 30
-2.4066389 5.4625669 -0.027451484 0 31
-2.4064758 5.4621968 0.027449625 0 32
-2.405453 5.4598756 0.082318515 0 33
-2.4009175 5.4495811 0.13695431 0 34
-2.4035873 5.4556408 0.19198172 0 35
-2.4062395 5.4616609 0.24716178 0 36
-2.4059684 5.4610453 0.30213785 0 37
-2.4066427 5.4625759 0.35729313 0 38
-2.4084845 5.4667563 0.41274005 0 39
-2.410886 5.4722071 0.46845031 0 40
-2.4094408 5.4689269 0.52351475 0 41
-2.4083428 5.466435 0.57868552 0 42
-2.4048893 5.4585962 0.63328415 0 43
-2.4120522 5.474854 0.69087267 0 44
-2.4070268 5.4634476 0.74513769 0 45
-2.4028656 5.4540029 0.79958552 0 46
-2.4104202 5.4711499 0.85814875 0 47
-2.4018576 5.451715 0.91109824 0 48
-2.4068766 5.4631066 0.96927512 0 49
-2.4065418 5.462347 1.0255738 0 50
-2.4098437 5.4698415 1.0836707 0 51
-2.3994546 5.44626 1.1356329 0 52
-2.4062085 5.4615908 1.1958227 0 53
-2.4053121 5.4595556 1.2525594 0 54
-2.4086082 5.4670367 1.311758 0 55
-2.4108655 5.4721608 1.3707564 0 56
-2.4114363 5.4734564 1.4291078 0 57
-2.4110458 5.4725704 1.4871494 0 58
-2.4025013 5.453176 1.5402117 0 59
-2.4067583 5.4628382 1.6016554 0 60
-2.4053817 5.4597135 1.6597106 0 61
-2.4086752 5.4671893 1.7213383 0 62
0 0 0 0 63
-1.0236983 2.248244 -0.73644006 0 0
-1.0523112 2.3110836 -0.73166072 0 1
-1.097646 2.4106476 -0.73686552 0 2
-1.1345583 2.4917145 -0.73458326 0 3
-1.1732446 2.5766771 -0.73178399 0 4
-1.2237267 2.687546 -0.73436362 0 5
-1.2685493 2.7859852 -0.73143226 0 6
-1.3242911 2.9084051 -0.73256862 0 7
-1.3864886 3.0450029 -0.73465163 0 8
-1.4429334 3.168967 -0.73105621 0 9
-1.5195185 3.337163 -0.73471189 0 10
-1.6003977 3.5147898 -0.736938 0 11
-1.6677105 3.662622 -0.72963679 0 12
-1.7745086 3.8971717 -0.73574817 0 13
-1.8845463 4.1388364 -0.73837608 0 14
-1.9893327 4.368968 -0.73418063 0 15
-2.1308839 4.6798425 -0.73808634 0 16
-2.2623451 4.9685574 -0.73243964 0 17
-2.4456944 5.3712287 -0.73660624 0 18
-2.4828758 5.4528861 -0.69190085 0 19
-2.4806573 5.4480143 -0.63554734 0 20
-2.4855559 5.4587722 -0.58106589 0 21
-2.4766169 5.4391403 -0.52353907 0 22
-2.4768567 5.4396667 -0.46823651 0 23
-2.4811995 5.4492044 -0.41368711 0 24
-2.4813466 5.4495277 -0.3584083 0 25
-2.4852426 5.4580841 -0.30364183 0 26
-2.4777074 5.4415355 -0.24761108 0 27
-2.4842286 5.4558573 -0.19304968 0 28
-2.4851966 5.457983 -0.137923 0 29
-2.4825552 5.4521818 -0.082656525 0 30
-2.4756258 5.4369636 -0.027473722 0 31
-2.4858141 5.4593391 0.027586786 0 32
-2.4841723 5.4557338 0.08271037 0 33
-2.4803987 5.4474459 0.13765673 0 34
-2.4814012 5.4496474 0.19282995 0 35
-2.4800978 5.446785 0.24784993 0 36
-2.4807606 5.4482403 0.30309418 0 37
-2.4842198 5.4558377 0.3588233 0 38
-2.4786131 5.4435248 0.4132559 0 39
-2.4802384 5.447094 0.46887583 0 40
-2.4827666 5.4526463 0.52483904 0 41
-2.4801748 5.4469538 0.57980788 0 42
-2.4823625 5.4517589 0.63598418 0 43
-2.4858184 5.4593487 0.69272089 0 44
-2.4794574 5.4453783 0.74677509 0 45
-2.4745176 5.4345298 0.80113101 0 46
-2.4813526 5.4495411 0.8594802 0 47
-2.4769728 5.4399223 0.91414851 0 48
-2.4775586 5.4412084 0.97072172 0 49
-2.4744694 5.4344239 1.0259664 0 50
-2.4834692 5.4541893 1.0865377 0 51
-2.480473 5.4476094 1.1421878 0 52
-2.4804599 5.4475803 1.1993426 0 53
-2.4826064 5.4522943 1.2578021 0 54
-2.4801662 5.4469357 1.3141531 0 55
-2.4797778 5.4460821 1.3717583 0 56
-2.477361 5.4407744 1.4284203 0 57
-2.4826882 5.4524736 1.4898716 0 58
-2.4804659 5.4475937 1.547133 0 59
-2.4879227 5.4639702 1.610835 0 60
-2.4822075 5.4514184 1.6663415 0 61
-2.4777651 5.4416618 1.7227635 0 62
0 0 0 0 63
-1.0476496 2.2278006 -0.73390782 0 0
-1.0899005 2.317646 -0.73792541 0 1
-1.1157904 2.3727 -0.72940481 0 2
-1.1630192 2.4731309 -0.73326522 0 3
-1.2085757 2.5700057 -0.73405445 0 4
-1.2538378 2.6662545 -0.73270327 0 5
-1.306406 2.7780395 -0.73350817 0 6
-1.3629795 2.8983417 -0.73419982 0 7
-1.4220098 3.0238678 -0.73371565 0 8
-1.48467 3.1571133 -0.73247784 0 9
-1.5620867 3.321738 -0.73548919 0 10
-1.6410857 3.4897275 -0.73585862 0 11
-1.7180805 3.6534548 -0.73196381 0 12
-1.8173879 3.8646297 -0.73376805 0 13
-1.9306977 4.1055799 -0.73662281 0 14
-2.036129 4.3297772 -0.73174691 0 15
-2.1824722 4.6409721 -0.7361328 0 16
-2.3224878 4.9387116 -0.7321946 0 17
-2.5083086 5.3338552 -0.73565507 0 18
-2.5569153 5.4372158 -0.6938495 0 19
-2.5536451 5.4302616 -0.63709134 0 20
-2.5551927 5.4335527 -0.58168197 0 21
-2.5608115 5.4455009 -0.52714235 0 22
-2.5514088 5.4255066 -0.46968266 0 23
-2.5571406 5.437695 -0.41516909 0 24
-2.5570323 5.4374647 -0.35965568 0 25
-2.5517783 5.4262924 -0.30359584 0 26
-2.5598915 5.4435449 -0.24911602 0 27
-2.5602448 5.4442959 -0.19373991 0 28
-2.5558412 5.4349318 -0.13812424 0 29
-2.5592568 5.4421949 -0.082975939 0 30
-2.5574145 5.4382772 -0.027637176 0 31
-2.5566578 5.4366684 0.027628999 0 32
-2.5614231 5.4468017 0.083046176 0 33
-2.5614479 5.4468541 0.13842724 0 34
-2.5596611 5.4430547 0.19369574 0 35
-2.5535433 5.4300456 0.24849825 0 36
-2.5599313 5.4436293 0.30456582 0 37
-2.5597332 5.4432082 0.36003557 0 38
-2.5568483 5.4370737 0.41512161 0 39
-2.554862 5.4328499 0.47031838 0 40
-2.5551074 5.4333715 0.52596819 0 41
-2.5554538 5.4341083 0.58174139 0 42
-2.5554967 5.4341989 0.63755327 0 43
-2.5543742 5.4318123 0.69315994 0 44
-2.5583949 5.440362 0.75034469 0 45
-2.5588305 5.4412885 0.80670464 0 46
-2.5562909 5.4358883 0.86221927 0 47
-2.5547299 5.4325686 0.91812235 0 48
-2.5581126 5.4397621 0.97600162 0 49
-2.557158 5.4377322 1.0324492 0 50
-2.5581384 5.4398165 1.0898585 0 51
-2.5577915 5.4390788 1.146907 0 52
-2.5557594 5.4347577 1.2033477 0 53
-2.5591536 5.4419756 1.2625858 0 54
-2.5556462 5.4345169 1.318639 0 55
-2.5593579 5.4424095 1.378656 0 56
-2.5581198 5.4397769 1.4363084 0 57
-2.5587142 5.441041 1.4952317 0 58
-2.5555427 5.4342971 1.5521638 0 59
-2.552722 5.428299 1.6094511 0 60
-2.5610247 5.4459543 1.6741709 0 61
-2.5571394 5.4376926 1.7313308 0 62
0 0 0 0 63
-1.07411 2.2129943 -0.73332584 0 0
-1.1151913 2.2976346 -0.7358644 0 1
-1.152704 2.374922 -0.73438972 0 2
-1.1954148 2.4629192 -0.73454028 0 3
-1.2427938 2.5605345 -0.73565853 0 4
-1.3009713 2.680398 -0.74093008 0 5
-1.3365419 2.7536843 -0.73136163 0 6
-1.3951727 2.8744814 -0.73244607 0 7
-1.4631693 3.0145755 -0.73577088 0 8
-1.5319707 3.156327 -0.73661023 0 9
-1.5892314 3.2743015 -0.7292577 0 10
-1.6821253 3.4656916 -0.73509628 0 11
-1.7778668 3.6629481 -0.73818994 0 12
-1.8643337 3.8410964 -0.73359704 0 13
-1.9764749 4.0721412 -0.73492825 0 14
-2.1017184 4.3301811 -0.7361272 0 15
-2.2314479 4.5974636 -0.73352849 0 16
-2.378267 4.8999557 -0.73072916 0 17
-2.568063 5.2909932 -0.7340433 0 18
-2.6333907 5.4255886 -0.69644529 0 19
-2.6347268 5.4283409 -0.64061856 0 20
-2.6346262 5.428134 -0.58452582 0 21
-2.6366062 5.4322133 -0.52895457 0 22
-2.63063 5.4199004 -0.47196198 0 23
-2.6281037 5.4146957 -0.415849 0 24
-2.6329999 5.4247837 -0.36093113 0 25
-2.6408827 5.4410243 -0.3062138 0 26
-2.6361947 5.4313655 -0.25002322 0 27
-2.634366 5.427598 -0.19428375 0 28
-2.6275222 5.4134974 -0.13839015 0 29
-2.6322048 5.4231448 -0.083172686 0 30
-2.6346114 5.4281034 -0.027748013 0 31
-2.6310673 5.4208016 0.027710686 0 32
-2.6324973 5.423748 0.083181933 0 33
-2.637465 5.4339828 0.13891384 0 34
-2.6365275 5.4320512 0.19444315 0 35
-2.6336668 5.426157 0.24978346 0 36
-2.6281149 5.4147186 0.30473334 0 37
-2.6353683 5.4296632 0.36125576 0 38
-2.6306601 5.4199624 0.41625351 0 39
-2.6345754 5.4280295 0.47266984 0 40
-2.629873 5.4183412 0.52760375 0 41
-2.631752 5.4222121 0.58388811 0 42
-2.6368845 5.4327865 0.6411432 0 43
-2.6339152 5.4266691 0.69658405 0 44
-2.634201 5.427258 0.75294793 0 45
-2.6405985 5.4404387 0.81133127 0 46
-2.6419203 5.4431624 0.8684603 0 47
-2.6371861 5.4334078 0.92367488 0 48
-2.6296577 5.4178972 0.97780639 0 49
-2.6348755 5.4286475 1.0367976 0 50
-2.629174 5.4169006 1.091662 0 51
-2.6274607 5.4133711 1.1482121 0 52
-2.631923 5.422564 1.2077223 0 53
-2.6310058 5.4206748 1.2650541 0 54
-2.6328373 5.424448 1.3239512 0 55
-2.6297891 5.4181681 1.3806025 0 56
-2.6301885 5.4189911 1.4392507 0 57
-2.6326561 5.4240751 1.4993522 0 58
-2.62767 5.4138021 1.5554212 0 59
-2.6342201 5.4272971 1.6186355 0 60
-2.6313396 5.4213624 1.6764309 0 61
-2.6324899 5.4237328 1.7370611 0 62
0 0 0 0 63
-1.1017321 2.2006059 -0.73365438 0 0
-1.1382256 2.2734978 -0.73256129 0 1
-1.1762711 2.3494904 -0.73094296 0 2
-1.2189416 2.4347205 -0.73054528 0 3
-1.2746067 2.5459065 -0.7359032 0 4
-1.3247368 2.6460366 -0.73587894 0 5
-1.3748522 2.7461371 -0.73379177 0 6
-1.4311708 2.8586283 -0.73283541 0 7
-1.4983858 2.9928839 -0.734918 0 8
-1.5675509 3.1310346 -0.73515046 0 9
-1.6458788 3.2874873 -0.73664635 0 10
-1.7233797 3.4422879 -0.73457152 0 11
-1.8188008 3.6328826 -0.73658234 0 12
-1.9052176 3.8054919 -0.73121613 0 13
-2.0324006 4.0595284 -0.7371065 0 14
-2.1423147 4.2790709 -0.73186147 0 15
-2.2983987 4.5908341 -0.73692429 0 16
-2.4638233 4.9212542 -0.73836768 0 17
-2.629564 5.2523055 -0.73310643 0 18
-2.7090473 5.4110661 -0.69880432 0 19
-2.7119229 5.4168096 -0.64314449 0 20
-2.7045283 5.4020395 -0.58525276 0 21
-2.7079937 5.4089613 -0.5298928 0 22
-2.7061155 5.40521 -0.47354457 0 23
-2.7072954 5.407567 -0.41782659 0 24
-2.7103596 5.4136868 -0.36238286 0 25
-2.7146022 5.4221616 -0.30700758 0 26
-2.7140205 5.4209991 -0.25106332 0 27
-2.7064581 5.4058938 -0.1946834 0 28
-2.7124705 5.4179034 -0.13934492 0 29
-2.7048302 5.4026427 -0.083362043 0 30
-2.7082391 5.4094515 -0.027820798 0 31
-2.704392 5.4017673 0.027781278 0 32
-2.7087512 5.4104743 0.083482884 0 33
-2.7096906 5.4123507 0.1392021 0 34
-2.7096715 5.4123125 0.19491455 0 35
-2.7065303 5.4060388 0.25037044 0 36
-2.7074397 5.4078546 0.30619752 0 37
-2.7101328 5.4132338 0.36235252 0 38
-2.706074 5.405127 0.41763809 0 39
-2.7076514 5.4082775 0.47381335 0 40
-2.7079117 5.4087977 0.52987677 0 41
-2.7110696 5.4151049 0.58666825 0 42
-2.7116475 5.4162598 0.64307916 0 43
-2.706147 5.405273 0.69805616 0 44
-2.7101626 5.4132934 0.75557685 0 45
-2.7099221 5.4128132 0.81211942 0 46
-2.7061286 5.4052358 0.86765271 0 47
-2.7084439 5.4098606 0.92526358 0 48
-2.701791 5.3965721 0.9798795 0 49
-2.717674 5.4282966 1.0430342 0 50
-2.7096231 5.4122157 1.0973496 0 51
-2.7095127 5.4119954 1.1548998 0 52
-2.7059925 5.404964 1.2111216 0 53
-2.7084334 5.4098396 1.2702018 0 54
-2.7077072 5.4083891 1.3280576 0 55
-2.6997113 5.3924184 1.3823955 0 56
-2.7091548 5.4112806 1.4459413 0 57
-2.7075977 5.4081702 1.5040452 0 58
-2.7092426 5.4114556 1.5642003 0 59
-2.711858 5.4166799 1.6252913 0 60
-2.7122958 5.4175544 1.6854392 0 61
-2.7158906 5.4247346 1.7479457 0 62
0 0 0 0 63
-1.1287404 2.1869588 -0.73367637 0 0
-1.1601268 2.2477705 -0.72881305 0 1
-1.2045628 2.3338661 -0.73063499 0 2
-1.2603018 2.4418619 -0.73728234 0 3
-1.3010994 2.5209079 -0.73324639 0 4
-1.3604304 2.6358628 -0.73764616 0 5
-1.4110048 2.7338519 -0.73508966 0 6
-1.4622989 2.8332355 -0.73088008 0 7
-1.5329081 2.9700422 -0.73388219 0 8
-1.6090713 3.1176102 -0.73658836 0 9
-1.6837196 3.2622428 -0.73557329 0 10
-1.7655605 3.4208112 -0.73456579 0 11
-1.8596549 3.6031213 -0.73512894 0 12
-1.9523746 3.7827675 -0.73140734 0 13
-2.074682 4.0197411 -0.73445886 0 14
-2.1940894 4.2510953 -0.73163581 0 15
-2.3480914 4.5494776 -0.73486489 0 16
-2.5223784 4.8871622 -0.73785049 0 17
-2.6927547 5.2172699 -0.73278248 0 18
-2.7850556 5.3961048 -0.70124191 0 19
-2.7821038 5.3903856 -0.64402026 0 20
-2.7867219 5.3993335 -0.58862752 0 21
-2.7871196 5.400104 -0.53234226 0 22
-2.7897842 5.4052668 -0.4765189 0 23
-2.7903228 5.4063101 -0.42034885 0 24
-2.7856915 5.397337 -0.36355385 0 25
-2.787674 5.4011779 -0.30773711 0 26
-2.7874458 5.4007359 -0.25169322 0 27
-2.790375 5.4064112 -0.1959229 0 28
-2.7848613 5.3957286 -0.13964477 0 29
-2.7841008 5.3942552 -0.083754532 0 30
-2.7833154 5.3927336 -0.027908726 0 31
-2.7912281 5.4080644 0.027988069 0 32
-2.7858095 5.3975654 0.083805926 0 33
-2.7910151 5.4076514 0.13995335 0 34
-2.7903037 5.4062734 0.19591789 0 35
-2.7876413 5.4011145 0.25171089 0 36
-2.7833703 5.3928394 0.307262 0 37
-2.788008 5.4018254 0.36385617 0 38
-2.7918091 5.4091897 0.42057273 0 39
-2.7855136 5.3969927 0.47578946 0 40
-2.7865489 5.3989978 0.53223324 0 41
-2.7858462 5.3976369 0.58844256 0 42
-2.7883589 5.4025054 0.64546824 0 43
-2.7841568 5.3943634 0.70101559 0 44
-2.7862887 5.3984942 0.75823599 0 45
-2.7859251 5.3977895 0.81494355 0 46
-2.789669 5.4050436 0.87306213 0 47
-2.784734 5.3954821 0.92859071 0 48
-2.7888546 5.4034657 0.98728329 0 49
-2.7893751 5.4044743 1.0449682 0 50
-2.7872918 5.4004378 1.1018275 0 51
-2.7828207 5.3917751 1.1577995 0 52
-2.7910709 5.4077597 1.2193463 0 53
-2.7834563 5.3930063 1.2741894 0 54
-2.7877402 5.4013066 1.3346351 0 55
-2.7875125 5.4008651 1.3932427 0 56
-2.786026 5.397985 1.4514331 0 57
-2.7868896 5.3996582 1.5110942 0 58
-2.7861266 5.39818 1.570147 0 59
-2.7810843 5.3884101 1.626947 0 60
-2.7910721 5.4077621 1.6929421 0 61
-2.7895927 5.4048958 1.7524735 0 62
0 0 0 0 63
-1.163067 2.1870596 -0.73845232 0 0
-1.2017114 2.2597275 -0.73742533 0 1
-1.2416513 2.3348315 -0.73566133 0 2
-1.2811579 2.4091206 -0.73209792 0 3
-1.3377256 2.515492 -0.73639995 0 4
-1.3900963 2.6139712 -0.7362476 0 5
-1.4451841 2.7175593 -0.73543149 0 6
-1.5004723 2.8215246 -0.73256332 0 7
-1.5697532 2.9518023 -0.7340892 0 8
-1.645568 3.0943663 -0.73582178 0 9
-1.7160351 3.2268744 -0.73230094 0 10
-1.8059787 3.3960066 -0.73395252 0 11
-1.9044142 3.5811071 -0.73535967 0 12
-2.0036438 3.7677009 -0.73320252 0 13
-2.1288373 4.0031176 -0.73614883 0 14
-2.2673876 4.2636514 -0.73853934 0 15
-2.3997498 4.512548 -0.73361075 0 16
-2.5905259 4.8712883 -0.74020714 0 17
-2.7619488 5.1936364 -0.73417765 0 18
-2.8674369 5.3919988 -0.70523703 0 19
-2.8751261 5.4064574 -0.65011525 0 20
-2.8640506 5.3856306 -0.59092838 0 21
-2.8607507 5.3794255 -0.53373116 0 22
-2.859355 5.376801 -0.47707298 0 23
-2.8592753 5.3766513 -0.42074469 0 24
-2.8690963 5.3951187 -0.36575314 0 25
-2.8662491 5.3897648 -0.30907154 0 26
-2.8608129 5.3795428 -0.25232589 0 27
-2.8615363 5.3809028 -0.19625878 0 28
-2.8617902 5.3813806 -0.14017357 0 29
-2.8687575 5.3944817 -0.084299386 0 30
-2.8656619 5.3886609 -0.028067891 0 31
-2.863663 5.384902 0.028048312 0 32
-2.8664727 5.3901854 0.084232248 0 33
-2.8640573 5.3856435 0.14028461 0 34
-2.8592596 5.3766217 0.19610265 0 35
-2.8654833 5.3883247 0.25273782 0 36
-2.8689203 5.3947878 0.30935961 0 37
-2.8668752 5.3909421 0.36547002 0 38
-2.8665297 5.3902922 0.42181215 0 39
-2.8645985 5.3866611 0.47794786 0 40
-2.867121 5.3914046 0.53491974 0 41
-2.8631241 5.3838887 0.59073728 0 42
-2.8593054 5.376708 0.6465379 0 43
-2.8641109 5.3857446 0.70441902 0 44
-2.8661931 5.3896594 0.76188767 0 45
-2.8619766 5.381731 0.81777048 0 46
-2.8584697 5.3751364 0.87384284 0 47
-2.857857 5.3739843 0.93086857 0 48
-2.8649716 5.387363 0.99070305 0 49
-2.8695645 5.3959994 1.0500728 0 50
-2.8670392 5.3912506 1.1070622 0 51
-2.8659966 5.3892899 1.1647455 0 52
-2.8652835 5.387949 1.2227312 0 53
-2.860851 5.3796144 1.27924 0 54
-2.8743851 5.4050641 1.3441955 0 55
-2.8648143 5.3870668 1.398665 0 56
-2.8641074 5.3857374 1.4574994 0 57
-2.8585966 5.3753748 1.5140209 0 58
-2.8654532 5.3882685 1.5773934 0 59
-2.8580859 5.3744144 1.6332091 0 60
-2.8667784 5.3907599 1.6985267 0 61
-2.8725667 5.4016447 1.7627389 0 62
0 0 0 0 63
-1.1834149 2.1608071 -0.73444611 0 0
-1.2274547 2.2412195 -0.73625541 0 1
-1.2591326 2.2990606 -0.72921389 0 2
-1.3167702 2.4043016 -0.73549831 0 3
-1.3592385 2.4818447 -0.73138744 0 4
-1.4280295 2.607451 -0.73930109 0 5
-1.4813579 2.7048237 -0.73685873 0 6
-1.5350684 2.8028941 -0.7325716 0 7
-1.6076304 2.9353855 -0.73486716 0 8
-1.6885211 3.0830846 -0.73802054 0 9
-1.7736369 3.2384984 -0.73983234 0 10
-1.8445854 3.3680437 -0.73275584 0 11
-1.9480792 3.557014 -0.73527563 0 12
-2.0442922 3.7326901 -0.73122591 0 13
-2.1774399 3.9758055 -0.7359944 0 14
-2.3200088 4.2361231 -0.7386567 0 15
-2.4592257 4.4903202 -0.73485774 0 16
-2.6396167 4.8196979 -0.73724419 0 17
-2.8195841 5.1483021 -0.73261487 0 18
-2.9381969 5.3648782 -0.70636195 0 19
-2.9393175 5.3669243 -0.6496585 0 20
-2.9388149 5.3660064 -0.59269542 0 21
-2.9393721 5.3670235 -0.53604627 0 22
-2.9394162 5.3671045 -0.47938341 0 23
-2.9446476 5.3766561 -0.42354652 0 24
-2.9456153 5.3784232 -0.3670491 0 25
-2.9389448 5.3662438 -0.30977169 0 26
-2.9445097 5.3764048 -0.25385779 0 27
-2.942776 5.373239 -0.19728416 0 28
-2.9389763 5.3663011 -0.14071149 0 29
-2.9406662 5.3693867 -0.084465906 0 30
-2.941638 5.371161 -0.02816302 0 31
-2.9362464 5.3613167 0.0281114 0 32
-2.9398201 5.3678417 0.084441602 0 33
-2.9407172 5.3694801 0.14079484 0 34
-2.9350371 5.3591084 0.19676535 0 35
-2.9418399 5.3715301 0.25362763 0 36
-2.937645 5.3638701 0.30963469 0 37
-2.9471843 5.3812881 0.3672446 0 38
-2.947921 5.3826337 0.4240174 0 39
-2.9423766 5.3725095 0.47986621 0 40
-2.9414799 5.3708725 0.53643072 0 41
-2.9413295 5.3705978 0.59320259 0 42
-2.9496768 5.385839 0.65194809 0 43
-2.9365783 5.3619227 0.70597279 0 44
-2.9454381 5.3780999 0.76531565 0 45
-2.9301608 5.3502049 0.81839305 0 46
-2.9421568 5.3721085 0.87916565 0 47
-2.9475579 5.3819704 0.93845916 0 48
-2.9439759 5.3754301 0.99509048 0 49
-2.9465108 5.3800583 1.0539417 0 50
-2.9373498 5.3633313 1.1086621 0 51
-2.9399683 5.3681126 1.1678933 0 52
-2.9492567 5.3850722 1.2302154 0 53
-2.9403279 5.3687692 1.2851615 0 54
-2.9418006 5.3714581 1.3447324 0 55
-2.9467347 5.3804674 1.4062527 0 56
-2.9420187 5.3718562 1.4634223 0 57
-2.9482758 5.3832812 1.5263435 0 58
-2.9433427 5.3742738 1.5837722 0 59
-2.9439569 5.3753953 1.6443835 0 60
-2.9423614 5.3724818 1.7040387 0 61
-2.9358988 5.3606815 1.7610192 0 62
0 0 0 0 63
-1.2128308 2.1513026 -0.73622894 0 0
-1.2573204 2.2302177 -0.73766434 0 1
-1.2997518 2.3054819 -0.73626417 0 2
-1.3386071 2.3744028 -0.731332 0 3
-1.3933338 2.4714766 -0.7333256 0 4
-1.4554521 2.581661 -0.73700744 0 5
-1.5027453 2.665549 -0.73113811 0 6
-1.5720832 2.7885396 -0.73381686 0 7
-1.6365364 2.9028659 -0.73170853 0 8
-1.7152246 3.0424421 -0.73328495 0 9
-1.8048409 3.2014022 -0.73637205 0 10
-1.884678 3.3430161 -0.73229736 0 11
-1.9981854 3.544354 -0.73768193 0 12
-2.0857575 3.6996882 -0.72972995 0 13
-2.2246189 3.9459987 -0.7354849 0 14
-2.3715765 4.2066698 -0.73855007 0 15
-2.5106695 4.4533911 -0.73381102 0 16
-2.6987798 4.7870588 -0.73727202 0 17
-2.885165 5.1176662 -0.73324841 0 18
-3.0227427 5.3616996 -0.71078354 0 19
-3.0181201 5.3535004 -0.65247655 0 20
-3.0159214 5.3495998 -0.59493446 0 21
-3.0202613 5.3572984 -0.53874356 0 22
-3.0175047 5.3524084 -0.48134854 0 23
-3.0260353 5.3675404 -0.42572743 0 24
-3.0223777 5.3610525 -0.36837205 0 25
-3.0154428 5.3487511 -0.31087884 0 26
-3.0194628 5.3558817 -0.25462264 0 27
-3.0179651 5.3532252 -0.19789691 0 28
-3.0206513 5.3579903 -0.14145683 0 29
-3.0206175 5.3579302 -0.084863566 0 30
-3.0213232 5.3591819 -0.028292866 0 31
-3.0232399 5.3625817 0.028310817 0 32
-3.0205078 5.3577356 0.084860489 0 33
-3.0167086 5.3509965 0.14127219 0 34
-3.0191479 5.3553233 0.19797449 0 35
-3.0147719 5.3475614 0.25422707 0 36
-3.0150967 5.3481374 0.31084317 0 37
-3.024209 5.3643007 0.36859527 0 38
-3.0192757 5.3555498 0.42477641 0 39
-3.0188074 5.3547192 0.48155636 0 40
-3.0176356 5.3526406 0.53827512 0 41
-3.0221393 5.3606296 0.59616113 0 42
-3.0145442 5.3471575 0.65170354 0 43
-3.0187502 5.3546181 0.70984477 0 44
-3.0205448 5.357801 0.76765448 0 45
-3.0214155 5.3593454 0.82541192 0 46
-3.0209696 5.3585548 0.88296008 0 47
-3.0243497 5.3645506 0.94183505 0 48
-3.01666 5.3509102 0.99734282 0 49
-3.022788 5.3617802 1.0575626 0 50
-3.0258586 5.3672271 1.1170741 0 51
-3.0157642 5.3493214 1.1717844 0 52
-3.0205522 5.3578138 1.2323802 0 53
-3.016454 5.3505449 1.2895806 0 54
-3.0205543 5.3578181 1.3505141 0 55
-3.0251267 5.3659286 1.4120684 0 56
-3.0162084 5.3501091 1.4674908 0 57
-3.0171192 5.3517251 1.5277998 0 58
-3.0206246 5.3579426 1.5897851 0 59
-3.0234604 5.3629727 1.6518316 0 60
-3.019979 5.3567972 1.710713 0 61
0 0 0 0 62
0 0 0 0 63
-1.2396176 2.1369638 -0.73648268 0 0
-1.2714984 2.1919229 -0.73011422 0 1
-1.3310574 2.2945962 -0.73795891 0 2
-1.3725913 2.3661957 -0.73394722 0 3
-1.4259716 2.4582176 -0.73453867 0 4
-1.4830688 2.5566471 -0.73501706 0 5
-1.5428885 2.6597695 -0.73470116 0 6
-1.6036294 2.7644801 -0.73261923 0 7
-1.6754233 2.8882449 -0.73316061 0 8
-1.7633682 3.0398521 -0.73783106 0 9
-1.8479124 3.1855969 -0.73790747 0 10
-1.9300963 3.3272729 -0.73399216 0 11
-2.0412962 3.5189693 -0.73756707 0 12
-2.1327777 3.6766732 -0.73030806 0 13
-2.2693968 3.9121895 -0.73432899 0 14
-2.4161918 4.1652479 -0.73643827 0 15
-2.5640154 4.4200792 -0.73346168 0 16
-2.759341 4.7567992 -0.73778158 0 17
-2.9404187 5.0689573 -0.73139471 0 18
-3.1064465 5.3551707 -0.71492779 0 19
-3.0991771 5.3426394 -0.65574795 0 20
-3.0957136 5.3366685 -0.59768462 0 21
-3.1027446 5.3487887 -0.54168361 0 22
-3.0981967 5.3409491 -0.48370752 0 23
-3.0967891 5.3385224 -0.42641392 0 24
-3.0948048 5.3351016 -0.36917588 0 25
-3.098521 5.3415079 -0.31264871 0 26
-3.1027565 5.3488097 -0.25608087 0 27
-3.1060557 5.3544974 -0.19934081 0 28
-3.1029556 5.349153 -0.14222009 0 29
-3.099659 5.3434701 -0.085231781 0 30
-3.1025028 5.3483725 -0.028435057 0 31
-3.0998647 5.3438244 0.028410876 0 32
-3.0986345 5.3417039 0.08520361 0 33
-3.1064048 5.3550987 0.14237818 0 34
-3.1017048 5.3469968 0.19906157 0 35
-3.0942018 5.3340621 0.25537482 0 36
-3.1090257 5.3596172 0.31370866 0 37
-3.0987136 5.3418403 0.36964217 0 38
-3.1039698 5.3509016 0.42740268 0 39
-3.0986366 5.3417072 0.48377618 0 40
-3.09882 5.3420234 0.54099846 0 41
-3.1008377 5.3455019 0.59867388 0 42
-3.0965476 5.3381062 0.65519154 0 43
-3.0962517 5.3375959 0.71258152 0 44
-3.1056352 5.3537722 0.77249032 0 45
-3.1041396 5.3511939 0.82997245 0 46
-3.1026294 5.3485904 0.88753754 0 47
-3.0981345 5.3408418 0.94428962 0 48
-3.1001945 5.3443933 1.0031576 0 49
-3.105479 5.3535032 1.0633816 0 50
-3.0979447 5.3405147 1.1193584 0 51
-3.0976961 5.340086 1.1780162 0 52
-3.1035159 5.3501186 1.2392944 0 53
-3.11339 5.3671403 1.302709 0 54
-3.1040699 5.3510742 1.3583325 0 55
-3.1062448 5.3548231 1.4190902 0 56
-3.0984521 5.3413892 1.4754379 0 57
-3.096571 5.3381462 1.5346775 0 58
-3.098094 5.3407722 1.5958732 0 59
-3.1018436 5.3472362 1.658607 0 60
-3.1003451 5.3446527 1.7188795 0 61
0 0 0 0 62
0 0 0 0 63
-1.271129 2.1304939 -0.73958385 0 0
-1.3078631 2.1920629 -0.73546201 0 1
-1.3569422 2.2743223 -0.73674923 0 2
-1.3968216 2.3411629 -0.73145491 0 3
-1.4567677 2.4416363 -0.73488104 0 4
-1.5178869 2.544076 -0.73671323 0 5
-1.5790025 2.6465096 -0.73634607 0 6
-1.63673 2.7432647 -0.73227513 0 7
-1.7149851 2.8744254 -0.73495018 0 8
-1.7983609 3.0141685 -0.73690873 0 9
-1.8864424 3.1617987 -0.73771232 0 10
-1.9708878 3.3033347 -0.73400211 0 11
-2.0822198 3.4899342 -0.73679221 0 12
-2.1862404 3.6642797 -0.73313069 0 13
-2.3238211 3.8948736 -0.73638666 0 14
-2.4726384 4.1443009 -0.73805469 0 15
-2.6191282 4.3898273 -0.73373044 0 16
-2.8229103 4.731379 -0.73916686 0 17
-3.0013382 5.0304356 -0.73110628 0 18
-3.1860461 5.3400183 -0.71808088 0 19
-3.181083 5.3316994 -0.65915644 0 20
-3.1785257 5.3274136 -0.60097992 0 21
-3.1765749 5.3241439 -0.54310244 0 22
-3.1815977 5.332562 -0.48645434 0 23
-3.1813614 5.3321662 -0.42899847 0 24
-3.1745203 5.3207002 -0.37085244 0 25
-3.1762571 5.3236113 -0.31386352 0 26
-3.1833315 5.3354683 -0.25729674 0 27
-3.1780622 5.3266363 -0.19974335 0 28
-3.1809273 5.3314385 -0.14277826 0 29
-3.1835322 5.3358045 -0.085727446 0 30
-3.1793306 5.3287625 -0.028536493 0 31
-3.1814911 5.3323836 0.028555885 0 32
-3.1748812 5.3213053 0.085494488 0 33
-3.1757174 5.3227062 0.14254442 0 34
-3.1860938 5.3400979 0.20024814 0 35
-3.1811268 5.3317733 0.25711855 0 36
-3.1820042 5.3332438 0.31443143 0 37
-3.1839573 5.3365173 0.37195489 0 38
-3.1813862 5.3322082 0.42900181 0 39
-3.1857986 5.3396034 0.48709664 0 40
-3.1821818 5.3335414 0.54406106 0 41
-3.1768794 5.3246541 0.60066867 0 42
-3.1832914 5.3354011 0.65961409 0 43
-3.1793127 5.3287325 0.71656322 0 44
-3.1831846 5.3352222 0.7754029 0 45
-3.1860905 5.3400927 0.83426398 0 46
-3.186147 5.3401875 0.89257681 0 47
-3.1799569 5.329812 0.94918126 0 48
-3.1822457 5.3336487 1.0084095 0 49
-3.1883557 5.3438892 1.0691786 0 50
-3.1737969 5.3194876 1.1230462 0 51
-3.1758687 5.3229599 1.1827636 0 52
-3.1873751 5.3422456 1.2464552 0 53
-3.1812437 5.3319688 1.3035684 0 54
-3.1896353 5.346034 1.3669058 0 55
-3.1836562 5.3360124 1.424372 0 56
-3.1833882 5.3355637 1.4845293 0 57
-3.1753764 5.322135 1.5411832 0 58
-3.1816976 5.3327298 1.6050392 0 59
-3.1749625 5.3214412 1.66259 0 60
-3.1755054 5.3223515 1.7241348 0 61
0 0 0 0 62
0 0 0 0 63
-1.2938211 2.109149 -0.73764122 0 0
-1.3374903 2.1803374 -0.73699027 0 1
-1.3720435 2.2366648 -0.7299605 0 2
-1.4228303 2.3194561 -0.730084 0 3
-1.478155 2.4096448 -0.73066771 0 4
-1.5491749 2.5254195 -0.73677129 0 5
-1.6083564 2.6218953 -0.73494458 0 6
-1.6732724 2.7277193 -0.73356241 0 7
-1.7433387 2.8419394 -0.73206979 0 8
-1.8323284 2.9870079 -0.73572135 0 9
-1.9122553 3.1173022 -0.73276126 0 10
-2.0108242 3.2779865 -0.73380846 0 11
-2.1192355 3.4547155 -0.7348029 0 12
-2.2264073 3.6294236 -0.73157907 0 13
-2.3612976 3.8493176 -0.73320782 0 14
-2.5250232 4.1162186 -0.73852718 0 15
-2.672013 4.3558369 -0.73348546 0 16
-2.8744385 4.6858249 -0.73751622 0 17
-3.0715082 5.007082 -0.73314589 0 18
-3.2667961 5.3254347 -0.72146696 0 19
-3.25668 5.3089437 -0.66124403 0 20
-3.2743685 5.337779 -0.60664546 0 21
-3.2659895 5.32412 -0.54715526 0 22
-3.2528212 5.3026533 -0.48733789 0 23
-3.2660627 5.3242393 -0.43155923 0 24
-3.2553403 5.3067603 -0.37264267 0 25
-3.2619102 5.3174701 -0.31584233 0 26
-3.2635109 5.3200793 -0.2584703 0 27
-3.2594581 5.3134723 -0.20073748 0 28
-3.2624674 5.3183784 -0.14349201 0 29
-3.2538412 5.304316 -0.085857876 0 30
-3.2578251 5.3108106 -0.028652718 0 31
-3.2626784 5.3187222 0.028695401 0 32
-3.2645535 5.3217788 0.086140536 0 33
-3.260819 5.315691 0.1434195 0 34
-3.2613485 5.3165541 0.20085391 0 35
-3.2729568 5.3354778 0.25921842 0 36
-3.2638881 5.3206944 0.31603387 0 37
-3.2591839 5.3130255 0.37308264 0 38
-3.2616198 5.3169966 0.43097213 0 39
-3.266335 5.3246832 0.48936251 0 40
-3.259619 5.313735 0.54608804 0 41
-3.2574697 5.3102312 0.60351461 0 42
-3.2635374 5.3201222 0.66263634 0 43
-3.2620649 5.3177223 0.72042215 0 44
-3.2585125 5.3119311 0.77778244 0 45
-3.2623582 5.3182001 0.83704764 0 46
-3.2616148 5.3169885 0.89533508 0 47
-3.2614353 5.3166957 0.95391536 0 48
-3.2599504 5.3142748 1.012249 0 49
-3.2582023 5.3114257 1.0706184 0 50
-3.2594895 5.3135238 1.1301633 0 51
-3.2657201 5.3236809 1.1917565 0 52
-3.2614949 5.316793 1.2497792 0 53
-3.2564662 5.3085952 1.3075448 0 54
-3.26337 5.3198495 1.3703674 0 55
-3.2594142 5.3134007 1.4289267 0 56
-3.265579 5.3234506 1.4922187 0 57
-3.2576876 5.3105865 1.5493219 0 58
-3.2596538 5.3137918 1.6112814 0 59
-3.261889 5.3174353 1.6737435 0 60
-3.2625942 5.3185849 1.7357796 0 61
0 0 0 0 62
0 0 0 0 63
-1.3183403 2.0909939 -0.73690552 0 0
-1.3567395 2.1518981 -0.73296112 0 1
-1.4037443 2.2264514 -0.73220527 0 2
-1.4641438 2.3222499 -0.73657471 0 3
-1.5179249 2.4075511 -0.73563695 0 4
-1.5816702 2.5086563 -0.73749912 0 5
-1.6469349 2.6121714 -0.73783982 0 6
-1.7025845 2.7004361 -0.73180008 0 7
-1.7889444 2.83741 -0.73651379 0 8
-1.8670123 2.9612319 -0.73497158 0 9
-1.9521295 3.0962346 -0.73339611 0 10
-2.0482199 3.248642 -0.73282206 0 11
-2.1604016 3.4265711 -0.73441148 0 12
-2.2682147 3.5975711 -0.73072529 0 13
-2.4178154 3.8348503 -0.73605943 0 14
-2.5814312 4.094358 -0.74024415 0 15
-2.7256887 4.3231616 -0.73357165 0 16
-2.9311492 4.6490388 -0.73734349 0 17
-3.1412964 4.9823494 -0.73512471 0 18
-3.3446665 5.3049107 -0.72420347 0 19
-3.352936 5.3180265 -0.66746002 0 20
-3.3478675 5.3099875 -0.60811961 0 21
-3.3440905 5.303997 -0.54927164 0 22
-3.3498275 5.3130965 -0.49204609 0 23
-3.3378959 5.2941718 -0.43241626 0 24
-3.3473334 5.3091407 -0.37567174 0 25
-3.3498831 5.3131843 -0.31801039 0 26
-3.3392231 5.2962766 -0.25928915 0 27
-3.3417428 5.3002729 -0.20177597 0 28
-3.3386407 5.2953529 -0.14396754 0 29
-3.3396924 5.2970209 -0.086397983 0 30
-3.344125 5.3040519 -0.028835926 0 31
-3.3385274 5.2951736 0.028787659 0 32
-3.3467288 5.3081813 0.086580016 0 33
-3.3434491 5.3029795 0.14417489 0 34
-3.3436208 5.3032522 0.20188937 0 35
-3.3379371 5.2942371 0.25918931 0 36
-3.3516922 5.3160539 0.31818217 0 37
-3.3427582 5.3018837 0.37515825 0 38
-3.3519144 5.3164062 0.43423232 0 39
-3.3361471 5.291398 0.49003661 0 40
-3.3437726 5.3034925 0.54921943 0 41
-3.3449719 5.3053946 0.60759366 0 42
-3.3455024 5.3062363 0.66598028 0 43
-3.3468218 5.3083291 0.72467017 0 44
-3.3443439 5.3043985 0.78264177 0 45
-3.3406773 5.298583 0.84036201 0 46
-3.3421106 5.3008566 0.89947093 0 47
-3.3431811 5.3025546 0.95868146 0 48
-3.3471649 5.3088732 1.0189828 0 49
-3.3441873 5.3041506 1.0773593 0 50
-3.3478351 5.309936 1.1380701 0 51
-3.3477054 5.3097305 1.1977582 0 52
-3.3471875 5.3089089 1.2575059 0 53
-3.3502636 5.3137879 1.318871 0 54
-3.3406899 5.2986031 1.3753722 0 55
-3.3485 5.3109908 1.4392428 0 56
-3.3418307 5.3004127 1.4971665 0 57
-3.3424954 5.3014669 1.5585344 0 58
-3.3457932 5.3066974 1.6214828 0 59
-3.3424826 5.3014464 1.6815207 0 60
-3.3425686 5.3015833 1.743513 0 61
0 0 0 0 62
0 0 0 0 63
-1.3443431 2.075232 -0.73712075 0 0
-1.384182 2.1367304 -0.73353678 0 1
-1.4284884 2.2051253 -0.73091322 0 2
-1.4874842 2.2961957 -0.73405683 0 3
-1.5512793 2.394675 -0.73747534 0 4
-1.6066236 2.4801085 -0.73485893 0 5
-1.6777232 2.5898635 -0.73731011 0 6
-1.7387544 2.6840761 -0.73310512 0 7
-1.8171704 2.805125 -0.73387814 0 8
-1.8990675 2.9315479 -0.7333445 0 9
