# .PCD v0.7 - Point Cloud Data file format
VERSION 0.7
FIELDS x y z intensity ring
SIZE 4 4 4 4 2
TYPE F F F F U
COUNT 1 1 1 1 1
WIDTH 1218
HEIGHT 1
VIEWPOINT 0 0 0 1 0 0 0
POINTS 1218
DATA ascii
-0.59346884 -1.8895644 -0.5706526 0 1
-0.59409517 -1.8915585 -0.55155689 0 2
-0.59372985 -1.8903953 -0.5316323 0 3
-0.59682024 -1.9002348 -0.51480913 0 4
-0.59261644 -1.8868504 -0.49182287 0 5
-0.5998956 -1.9100267 -0.4783555 0 6
-0.59707832 -1.9010566 -0.45677727 0 7
-0.5949946 -1.8944223 -0.43600002 0 8
-0.59173745 -1.8840518 -0.414612 0 9
-0.59814048 -1.9044385 -0.39996555 0 10
-0.59568548 -1.8966219 -0.37933975 0 11
-0.5972299 -1.9015393 -0.36135656 0 12
-0.59676224 -1.9000502 -0.34218481 0 13
-0.59528536 -1.8953481 -0.32255542 0 14
-0.59697056 -1.9007136 -0.30468899 0 15
-0.5941658 -1.8917835 -0.28461868 0 16
-0.59520602 -1.8950955 -0.26649475 0 17
-0.59691763 -1.900545 -0.24863136 0 18
-0.59281588 -1.8874854 -0.22846362 0 19
-0.59662598 -1.8996165 -0.21139349 0 20
-0.60089946 -1.9132228 -0.19427279 0 21
-0.59194356 -1.8847079 -0.17305291 0 22
-0.59786659 -1.9035665 -0.15630651 0 23
-0.5947333 -1.8935903 -0.13713266 0 24
-0.59213775 -1.8853263 -0.11828283 0 25
-0.59312838 -1.8884804 -0.10021895 0 26
-0.59499645 -1.8944283 -0.082232356 0 27
-0.59956485 -1.9089735 -0.064435028 0 28
-0.59341174 -1.8893825 -0.045544971 0 29
-0.59627432 -1.8984967 -0.02745571 0 30
-0.5935179 -1.8897206 -0.0091090826 0 31
-0.59540594 -1.8957318 0.0091380589 0 32
-0.59682548 -1.9002516 0.027481088 0 33
-0.59179455 -1.8842335 0.045420852 0 34
-0.59826332 -1.9048296 0.06429515 0 35
-0.59211838 -1.8852645 0.081834584 0 36
-0.59459901 -1.8931626 0.10046743 0 37
-0.59954101 -1.9088976 0.11976168 0 38
-0.5917601 -1.8841238 0.1364471 0 39
-0.59445375 -1.8927002 0.15541425 0 40
-0.58982867 -1.8779743 0.17243461 0 41
-0.59509695 -1.8947481 0.19239682 0 42
-0.59605789 -1.8978077 0.21119221 0 43
-0.59586072 -1.89718 0.22963707 0 44
-0.59450406 -1.8928603 0.24762605 0 45
-0.59364045 -1.8901107 0.2657938 0 46
-0.5959686 -1.8975235 0.28548226 0 47
-0.5949012 -1.894125 0.30363283 0 48
-0.59665406 -1.8997058 0.32329705 0 49
-0.59432048 -1.8922758 0.3407847 0 50
-0.58814847 -1.8726248 0.35586181 0 51
-0.59691656 -1.9005415 0.38012373 0 52
-0.59587896 -1.8972379 0.39845333 0 53
-0.59566224 -1.8965479 0.41736194 0 54
-0.59399474 -1.8912387 0.43526733 0 55
-0.59468055 -1.8934224 0.45494294 0 56
-0.5969857 -1.9007618 0.47603515 0 57
-0.59187615 -1.8844934 0.49120849 0 58
-0.59969974 -1.9094031 0.51729292 0 59
-0.5988819 -1.9067992 0.53624552 0 60
-0.59818035 -1.9045655 0.55534959 0 61
-0.59514171 -1.8948905 0.57226115 0 62
-0.59382594 -1.8907012 0.59078962 0 63
-0.56889963 -1.8924235 -0.58909738 0 0
-0.57161266 -1.9014482 -0.57207561 0 1
-0.56843221 -1.8908688 -0.54927611 0 2
-0.56821388 -1.8901426 -0.52955627 0 3
-0.56697041 -1.8860061 -0.509027 0 4
-0.56742477 -1.8875175 -0.490141 0 5
-0.5702576 -1.8969408 -0.47328627 0 6
-0.56902593 -1.8928437 -0.45308843 0 7
-0.56847179 -1.8910005 -0.43357092 0 8
-0.57120085 -1.9000785 -0.41656175 0 9
-0.57243872 -1.9041961 -0.39840624 0 10
-0.56461626 -1.8781751 -0.37423337 0 11
-0.56850368 -1.8911065 -0.35801846 0 12
-0.56664294 -1.8849168 -0.33817899 0 13
-0.57072359 -1.898491 -0.32187164 0 14
-0.5673914 -1.8874065 -0.30141464 0 15
-0.56906146 -1.892962 -0.28372177 0 16
-0.56792927 -1.8891957 -0.26466304 0 17
-0.56893808 -1.8925515 -0.24665178 0 18
-0.57176894 -1.9019682 -0.22934829 0 19
-0.57075071 -1.8985813 -0.21048138 0 20
-0.56645805 -1.8843018 -0.19061439 0 21
-0.56705248 -1.8862791 -0.17254388 0 22
-0.57119912 -1.9000728 -0.15543114 0 23
-0.56964004 -1.8948865 -0.13670893 0 24
-0.57000804 -1.8961107 -0.11851074 0 25
-0.57094908 -1.8992411 -0.10040984 0 26
-0.56882632 -1.8921796 -0.081824951 0 27
-0.57228202 -1.903675 -0.064013809 0 28
-0.57192653 -1.9024924 -0.045688014 0 29
-0.56436729 -1.877347 -0.027047439 0 30
-0.56995225 -1.8959252 -0.0091045201 0 31
-0.56514436 -1.8799319 0.0090277176 0 32
-0.5663715 -1.8840139 0.027143491 0 33
-0.56893659 -1.8925465 0.045449167 0 34
-0.56638253 -1.8840506 0.063353918 0 35
-0.5698151 -1.8954688 0.08196719 0 36
-0.5678041 -1.8887794 0.099856742 0 37
-0.56737554 -1.8873539 0.11796341 0 38
-0.57154167 -1.9012122 0.13716531 0 39
-0.56603563 -1.8828967 0.15402609 0 40
-0.57314134 -1.9065334 0.1743966 0 41
-0.57104701 -1.8995669 0.19215859 0 42
-0.56993133 -1.8958555 0.21017919 0 43
-0.57090282 -1.8990871 0.22900087 0 44
-0.56997281 -1.8959936 0.24710038 0 45
-0.56891441 -1.8924726 0.26512215 0 46
-0.56853431 -1.8912083 0.28345892 0 47
-0.57267213 -1.9049727 0.3042199 0 48
-0.5736205 -1.9081274 0.32350543 0 49
-0.56779307 -1.8887427 0.3388654 0 50
-0.56745929 -1.8876323 0.35736072 0 51
-0.56826383 -1.8903085 0.37665096 0 52
-0.56549382 -1.8810943 0.39357275 0 53
-0.56497967 -1.879384 0.41202483 0 54
-0.56927556 -1.8936741 0.43418396 0 55
-0.56933498 -1.8938718 0.45333454 0 56
-0.56606627 -1.8829985 0.46980765 0 57
-0.57165593 -1.9015923 0.49379587 0 58
-0.56685495 -1.8856221 0.50892335 0 59
-0.57181966 -1.9021369 0.53291672 0 60
-0.56610268 -1.8831197 0.54702508 0 61
-0.57020187 -1.8967555 0.57066375 0 62
-0.57166886 -1.9016353 0.5919649 0 63
-0.54345357 -1.8918443 -0.58679247 0 0
-0.5443421 -1.8949374 -0.56805998 0 1
-0.54377562 -1.8929654 -0.54790139 0 2
-0.54340857 -1.8916878 -0.52807719 0 3
-0.54308718 -1.8905689 -0.50841767 0 4
-0.54194659 -1.8865982 -0.48813489 0 5
-0.54429716 -1.8947809 -0.47104186 0 6
-0.54545516 -1.8988122 -0.4528774 0 7
-0.54468983 -1.8961478 -0.43318272 0 8
-0.5408833 -1.8828969 -0.41130576 0 9
-0.54064357 -1.8820623 -0.3923547 0 10
-0.54447937 -1.8954153 -0.37630603 0 11
-0.54482025 -1.8966018 -0.35776347 0 12
-0.54340941 -1.8916906 -0.3381699 0 13
-0.54407525 -1.8940085 -0.31995323 0 14
-0.54496801 -1.8971162 -0.30187228 0 15
-0.54653549 -1.902573 -0.28413352 0 16
-0.54252708 -1.8886192 -0.26362777 0 17
-0.5450139 -1.897276 -0.24637547 0 18
-0.54330009 -1.8913101 -0.22724031 0 19
-0.54232025 -1.887899 -0.20854205 0 20
-0.54492772 -1.8969761 -0.19120422 0 21
-0.54110754 -1.8836775 -0.17168429 0 22
-0.53983086 -1.879233 -0.15317181 0 23
-0.54136235 -1.8845644 -0.13547371 0 24
-0.54297262 -1.8901701 -0.11771324 0 25
-0.54460889 -1.8958662 -0.09986981 0 26
-0.54541725 -1.8986802 -0.081809856 0 27
-0.54271233 -1.8892639 -0.063300028 0 28
-0.54515183 -1.8977562 -0.045409862 0 29
-0.54098111 -1.8832372 -0.027034419 0 30
-0.54467744 -1.8961047 -0.0090725338 0 31
-0.54163939 -1.8855289 0.0090219304 0 32
-0.54160291 -1.885402 0.027065493 0 33
-0.5459156 -1.9004149 0.045473479 0 34
-0.5431177 -1.8906752 0.063347317 0 35
-0.54047543 -1.881477 0.081068605 0 36
-0.54330987 -1.8913442 0.0996316 0 37
-0.54442763 -1.8952352 0.11802867 0 38
-0.53902954 -1.8764435 0.13488995 0 39
-0.54682839 -1.9035926 0.1551573 0 40
-0.53889495 -1.875975 0.17098227 0 41
-0.54444534 -1.8952967 0.19103496 0 42
-0.5423764 -1.8880944 0.20856364 0 43
-0.54593122 -1.9004694 0.2283408 0 44
-0.5433659 -1.8915391 0.24563049 0 45
-0.54242927 -1.8882786 0.26358023 0 46
-0.54435092 -1.8949683 0.28299782 0 47
-0.54416662 -1.8943266 0.30142838 0 48
-0.54156125 -1.8852569 0.31847483 0 49
-0.54440844 -1.8951683 0.33879161 0 50
-0.54788965 -1.907287 0.35977903 0 51
-0.54585063 -1.9001888 0.37725371 0 52
-0.54184663 -1.8862503 0.39322776 0 53
-0.54384118 -1.8931936 0.413555 0 54
-0.54384297 -1.8931998 0.43250921 0 55
-0.54515809 -1.8977779 0.45263073 0 56
-0.54236442 -1.8880528 0.46936929 0 57
-0.5438782 -1.8933225 0.48987475 0 58
-0.54493666 -1.8970072 0.51014906 0 59
-0.54326469 -1.8911868 0.52793735 0 60
-0.54448277 -1.8954271 0.54861391 0 61
-0.53934473 -1.8775408 0.56284487 0 62
-0.54718035 -1.9048178 0.59081644 0 63
-0.51973265 -1.8968556 -0.58632028 0 0
-0.52039164 -1.8992606 -0.56739485 0 1
-0.51456118 -1.8779814 -0.54169208 0 2
-0.5151785 -1.8802344 -0.52307194 0 3
-0.51862484 -1.8928126 -0.50726771 0 4
-0.51473254 -1.8786069 -0.48439297 0 5
-0.51991999 -1.8975394 -0.47010273 0 6
-0.51851684 -1.8924184 -0.44979775 0 7
-0.51523036 -1.8804238 -0.42811075 0 8
-0.51920789 -1.8949405 -0.41251075 0 9
-0.52019238 -1.8985335 -0.39442512 0 10
-0.52070034 -1.9003873 -0.37599355 0 11
-0.51821041 -1.8913 -0.35553446 0 12
-0.52030212 -1.8989341 -0.33829549 0 13
-0.51735109 -1.8881637 -0.31786719 0 14
-0.51908082 -1.8944767 -0.30041391 0 15
-0.5163486 -1.8845049 -0.28046578 0 16
-0.51839668 -1.8919798 -0.26318717 0 17
-0.51390237 -1.8755771 -0.24271876 0 18
-0.51784867 -1.8899798 -0.2262983 0 19
-0.52288681 -1.9083674 -0.21007691 0 20
-0.51539975 -1.881042 -0.18894507 0 21
-0.51960295 -1.8963822 -0.17224689 0 22
-0.51772439 -1.8895262 -0.15348028 0 23
-0.5173893 -1.8883032 -0.13527492 0 24
-0.52073991 -1.9005318 -0.11795083 0 25
-0.52048373 -1.8995969 -0.099721655 0 26
-0.51516086 -1.8801702 -0.080733247 0 27
-0.51714641 -1.8874168 -0.063020319 0 28
-0.5216586 -1.9038848 -0.045399584 0 29
-0.5198999 -1.8974659 -0.027144851 0 30
-0.52203453 -1.9052567 -0.0090849223 0 31
-0.51625127 -1.8841497 0.008984277 0 32
-0.51532704 -1.8807765 0.026906095 0 33
-0.51903629 -1.8943142 0.045171365 0 34
-0.52283365 -1.9081732 0.063713364 0 35
-0.52072144 -1.9004643 0.081604667 0 36
-0.51756853 -1.8889574 0.099163122 0 37
-0.51811558 -1.8909539 0.1173564 0 38
-0.51887089 -1.8937106 0.1356623 0 39
-0.51585698 -1.8827107 0.15292667 0 40
-0.52222008 -1.9059339 0.17311445 0 41
-0.51660997 -1.8854588 0.18938874 0 42
-0.51749402 -1.8886855 0.2079103 0 43
-0.51730186 -1.8879842 0.22605935 0 44
-0.51717311 -1.8875141 0.24426353 0 45
-0.52031434 -1.8989786 0.26416075 0 46
-0.51987016 -1.8973575 0.28237861 0 47
-0.51886004 -1.8936709 0.30028614 0 48
-0.51681191 -1.8861959 0.31753591 0 49
-0.51856214 -1.8925836 0.33716416 0 50
-0.52026272 -1.8987901 0.3569425 0 51
-0.51817524 -1.8911717 0.37417021 0 52
-0.5200116 -1.8978738 0.39428806 0 53
-0.51859021 -1.8926861 0.41202003 0 54
-0.51920587 -1.894933 0.43141401 0 55
-0.51803732 -1.8906682 0.44938174 0 56
-0.52204317 -1.9052883 0.4720225 0 57
-0.51709276 -1.887221 0.48661408 0 58
-0.51753914 -1.8888501 0.5062058 0 59
-0.51499385 -1.8795606 0.52288449 0 60
-0.51959997 -1.8963715 0.54699659 0 61
-0.51760679 -1.889097 0.56435847 0 62
-0.5203141 -1.8989778 0.58697623 0 63
-0.49258745 -1.8885983 -0.58185166 0 0
-0.49496248 -1.8977044 -0.5650689 0 1
-0.49166524 -1.8850626 -0.54194975 0 2
-0.49140036 -1.884047 -0.52241212 0 3
-0.49203628 -1.8864852 -0.50391245 0 4
-0.49162143 -1.8848946 -0.48441887 0 5
-0.49352211 -1.8921819 -0.46723667 0 6
-0.49262461 -1.8887409 -0.44745004 0 7
-0.49520835 -1.898647 -0.43084064 0 8
-0.49374425 -1.8930336 -0.41074294 0 9
-0.49284863 -1.8895997 -0.3912805 0 10
-0.49489334 -1.8974392 -0.37417796 0 11
-0.49228954 -1.8874561 -0.3536472 0 12
-0.49220553 -1.887134 -0.33508974 0 13
-0.49429688 -1.8951523 -0.31799644 0 14
-0.49495602 -1.8976794 -0.299934 0 15
-0.49214506 -1.8869021 -0.27990076 0 16
-0.49429113 -1.8951303 -0.26276007 0 17
-0.49499804 -1.8978406 -0.2447937 0 18
-0.49061292 -1.8810279 -0.22448713 0 19
-0.49155635 -1.8846451 -0.2067845 0 20
-0.48950055 -1.8767631 -0.18789646 0 21
-0.4948169 -1.8971461 -0.17175063 0 22
-0.49318615 -1.8908937 -0.15308718 0 23
-0.48956171 -1.8769975 -0.13402361 0 24
-0.49452576 -1.8960298 -0.11728517 0 25
-0.4939442 -1.8938001 -0.099091008 0 26
-0.49272582 -1.8891288 -0.080851652 0 27
-0.49152419 -1.8845217 -0.062717102 0 28
-0.48968282 -1.8774619 -0.044622555 0 29
-0.49237686 -1.8877909 -0.026917793 0 30
-0.49596003 -1.901529 -0.0090373838 0 31
-0.49491388 -1.8975179 0.0090183215 0 32
-0.49364918 -1.8926691 0.026987348 0 33
-0.49337137 -1.8916039 0.044958673 0 34
-0.49578446 -1.9008558 0.063260697 0 35
-0.49233896 -1.8876456 0.080788173 0 36
-0.49083182 -1.8818672 0.098466627 0 37
-0.4924345 -1.8880119 0.1167892 0 38
-0.49269724 -1.8890193 0.134882 0 39
-0.49230307 -1.887508 0.15281308 0 40
-0.49255374 -1.8884691 0.17096509 0 41
-0.4946866 -1.8966466 0.18988715 0 42
-0.4925411 -1.8884206 0.20719875 0 43
-0.49154475 -1.8846005 0.22491349 0 44
-0.49506825 -1.8981098 0.24482842 0 45
-0.49727988 -1.9065894 0.26434886 0 46
-0.49379981 -1.8932465 0.28084189 0 47
-0.49350503 -1.8921163 0.29905471 0 48
-0.49319935 -1.8909444 0.31729037 0 49
-0.49370679 -1.89289 0.33611178 0 50
-0.49423277 -1.8949065 0.35504317 0 51
-0.49254096 -1.8884201 0.37239939 0 52
-0.49598157 -1.9016116 0.39376777 0 53
-0.49341351 -1.8917655 0.41046777 0 54
-0.49443668 -1.8956884 0.43016928 0 55
-0.49481502 -1.897139 0.44943956 0 56
-0.49144021 -1.8841997 0.46526566 0 57
-0.49628705 -1.9027828 0.48901615 0 58
-0.49386171 -1.8934838 0.50578189 0 59
-0.49085787 -1.8819671 0.52183533 0 60
-0.49210337 -1.8867424 0.54243267 0 61
-0.49163553 -1.8849486 0.56127071 0 62
-0.49284613 -1.88959 0.58215725 0 63
-0.46770251 -1.8879471 -0.57983541 0 0
-0.46603751 -1.8812262 -0.55841368 0 1
-0.46785933 -1.8885802 -0.54126614 0 2
-0.46540299 -1.8786649 -0.51929361 0 3
-0.46473026 -1.8759493 -0.49953389 0 4
-0.46972239 -1.8961006 -0.48577771 0 5
-0.46797496 -1.8890469 -0.46500647 0 6
-0.46793374 -1.8888806 -0.44608629 0 7
-0.46584293 -1.8804407 -0.42537728 0 8
-0.46403292 -1.8731344 -0.40515658 0 9
-0.46903861 -1.8933405 -0.39083126 0 10
-0.46834159 -1.8905269 -0.37165108 0 11
-0.4706783 -1.8999593 -0.35487863 0 12
-0.46798518 -1.8890882 -0.33438963 0 13
-0.46996146 -1.8970658 -0.31732383 0 14
-0.47061878 -1.899719 -0.29931909 0 15
-0.46686643 -1.8845721 -0.27868247 0 16
-0.46712929 -1.8856332 -0.26062721 0 17
-0.46242416 -1.8666403 -0.24001774 0 18
-0.47063276 -1.8997755 -0.22601677 0 19
-0.47168145 -1.9040086 -0.20825696 0 20
-0.4714379 -1.9030255 -0.18993105 0 21
-0.46958584 -1.8955494 -0.1710704 0 22
-0.46667898 -1.8838154 -0.15203805 0 23
-0.46690691 -1.8847356 -0.13415605 0 24
-0.47189608 -1.9048752 -0.11746451 0 25
-0.46575603 -1.88009 -0.098066553 0 26
-0.46742219 -1.8868155 -0.080500573 0 27
-0.47002915 -1.897339 -0.062946551 0 28
-0.46611726 -1.881548 -0.044580076 0 29
-0.46795264 -1.8889568 -0.026850339 0 30
-0.46862614 -1.8916756 -0.0089624887 0 31
-0.47132543 -1.9025716 0.0090141129 0 32
-0.4680959 -1.8895351 0.026858559 0 33
-0.46730587 -1.886346 0.044693757 0 34
-0.46713218 -1.8856449 0.062558591 0 35
-0.4672302 -1.8860406 0.080467515 0 36
-0.4689092 -1.8928181 0.098730467 0 37
-0.4692494 -1.8941914 0.11680569 0 38
-0.46585569 -1.8804922 0.133854 0 39
-0.46688521 -1.884648 0.15210524 0 40
-0.4704268 -1.8989441 0.17137676 0 41
-0.46561441 -1.8795183 0.18758491 0 42
-0.4685607 -1.8914113 0.20687909 0 43
-0.47086689 -1.9007206 0.22612922 0 44
-0.46483886 -1.8763876 0.24127108 0 45
-0.46758294 -1.8874645 0.26088029 0 46
-0.47151008 -1.903317 0.28145438 0 47
-0.46758202 -1.8874607 0.29738766 0 48
-0.47065508 -1.8998656 0.31779218 0 49
-0.46688768 -1.884658 0.33360544 0 50
-0.46957719 -1.8955146 0.35404843 0 51
-0.46610662 -1.8815051 0.36987752 0 52
-0.46939781 -1.8947904 0.39113057 0 53
-0.47032571 -1.898536 0.41065094 0 54
-0.46887773 -1.892691 0.42814845 0 55
-0.46862084 -1.8916541 0.44674128 0 56
-0.46799123 -1.8891127 0.46502265 0 57
-0.46992818 -1.8969313 0.48599052 0 58
-0.47059393 -1.8996187 0.50583667 0 59
-0.46786007 -1.8885832 0.52203524 0 60
-0.46658957 -1.8834546 0.53979719 0 61
-0.46939597 -1.894783 0.56243783 0 62
-0.46994039 -1.8969806 0.58260983 0 63
-0.44426358 -1.8927447 -0.57958722 0 0
-0.44576102 -1.8991243 -0.56205696 0 1
-0.44455141 -1.8939708 -0.54120356 0 2
-0.44373268 -1.8904828 -0.52101266 0 3
-0.44100657 -1.8788683 -0.49882945 0 4
-0.44360197 -1.8899258 -0.48276174 0 5
-0.44177732 -1.8821521 -0.4619371 0 6
-0.44417158 -1.8923527 -0.44558272 0 7
-0.44418719 -1.8924191 -0.42681915 0 8
-0.44287023 -1.8868084 -0.40690559 0 9
-0.4414961 -1.880954 -0.38712451 0 10
-0.44581392 -1.8993496 -0.37227967 0 11
-0.44388723 -1.8911412 -0.35218543 0 12
-0.44307208 -1.8876683 -0.33314872 0 13
-0.44471571 -1.8946707 -0.31598464 0 14
-0.44288707 -1.88688 -0.29641569 0 15
-0.44394705 -1.891396 -0.27886322 0 16
-0.44208544 -1.8834648 -0.2595565 0 17
-0.44606334 -1.9004123 -0.24363653 0 18
-0.44421256 -1.8925272 -0.22448762 0 19
-0.44667965 -1.903038 -0.20753434 0 20
-0.44362587 -1.8900278 -0.18807516 0 21
-0.44521454 -1.896796 -0.17067593 0 22
-0.44314983 -1.8879995 -0.15192446 0 23
-0.44289508 -1.8869141 -0.13391334 0 24
-0.44446602 -1.893607 -0.11642383 0 25
-0.44534409 -1.8973479 -0.098673642 0 26
-0.44736871 -1.9059737 -0.081077121 0 27
-0.44115978 -1.8795211 -0.062170755 0 28
-0.44628695 -1.9013649 -0.044916183 0 29
-0.4421038 -1.883543 -0.026694093 0 30
-0.44083127 -1.8781215 -0.0088719195 0 31
-0.44267809 -1.8859897 0.0089090867 0 32
-0.44372216 -1.8904378 0.026791809 0 33
-0.44669548 -1.9031054 0.044957299 0 34
-0.44339117 -1.8890277 0.062485214 0 35
-0.44440794 -1.8933597 0.080540538 0 36
-0.44049418 -1.8766854 0.097599067 0 37
-0.44470415 -1.8946216 0.11648621 0 38
-0.44475201 -1.8948255 0.13447481 0 39
-0.44232091 -1.884468 0.15164028 0 40
-0.4457882 -1.8992401 0.17089584 0 41
-0.44449261 -1.8937203 0.18844259 0 42
-0.44432557 -1.8930086 0.2064406 0 43
-0.44376293 -1.8906115 0.22426039 0 44
-0.44266605 -1.8859385 0.24178097 0 45
-0.44461304 -1.8942335 0.26104051 0 46
-0.43847606 -1.8680873 0.27542666 0 47
-0.44521421 -1.8967946 0.29797322 0 48
-0.44260439 -1.8856757 0.31448448 0 49
-0.44359857 -1.8899113 0.33354458 0 50
-0.44330594 -1.8886646 0.35172424 0 51
-0.4422515 -1.8841723 0.36930487 0 52
-0.44695944 -1.90423 0.39191499 0 53
-0.44610623 -1.9005951 0.40987879 0 54
-0.44410902 -1.892086 0.42674401 0 55
-0.4459267 -1.8998302 0.44734341 0 56
-0.44392619 -1.8913071 0.46418405 0 57
-0.44594935 -1.8999265 0.48531631 0 58
-0.44787264 -1.9081206 0.50659579 0 59
-0.44674298 -1.9033078 0.52454722 0 60
-0.44524437 -1.8969231 0.54204714 0 61
-0.43940583 -1.8720486 0.55404377 0 62
-0.44117007 -1.8795649 0.57555139 0 63
-0.4173831 -1.8819464 -0.57466561 0 0
-0.42118883 -1.8991061 -0.56047642 0 1
-0.41849878 -1.8869771 -0.53769392 0 2
-0.41973966 -1.892572 -0.5201267 0 3
-0.42045316 -1.8957891 -0.50191128 0 4
-0.42233023 -1.9042526 -0.48505816 0 5
-0.4192265 -1.8902582 -0.46262643 0 6
-0.41602984 -1.8758447 -0.44045779 0 7
-0.42112288 -1.8988088 -0.42706007 0 8
-0.4193691 -1.8909012 -0.40664542 0 9
-0.41641015 -1.8775595 -0.3853429 0 10
-0.42137635 -1.8999518 -0.37135404 0 11
-0.41720608 -1.8811482 -0.34934267 0 12
-0.41880512 -1.8883582 -0.33233649 0 13
-0.41878194 -1.8882538 -0.31403187 0 14
-0.41867971 -1.8877927 -0.29572797 0 15
-0.41897127 -1.8891075 -0.27774522 0 16
-0.4207767 -1.8972479 -0.26072317 0 17
-0.41900769 -1.8892716 -0.24152948 0 18
-0.4189392 -1.8889627 -0.22343688 0 19
-0.42125097 -1.8993863 -0.2065556 0 20
-0.41862291 -1.8875366 -0.18730088 0 21
-0.41573939 -1.8745351 -0.16820015 0 22
-0.41933739 -1.8907583 -0.15172006 0 23
-0.41818163 -1.8855469 -0.13344128 0 24
-0.41851351 -1.8870434 -0.11569513 0 25
-0.41352969 -1.8645718 -0.09669733 0 26
-0.41805133 -1.8849595 -0.079958491 0 27
-0.42051336 -1.8960606 -0.062542073 0 28
-0.42194349 -1.9025089 -0.044817254 0 29
-0.41992337 -1.8934003 -0.026758591 0 30
-0.42026734 -1.8949513 -0.0089263339 0 31
-0.41903141 -1.8893787 0.0089000827 0 32
-0.42196947 -1.9026262 0.026888976 0 33
-0.41909507 -1.8896656 0.044514704 0 34
-0.41854408 -1.8871813 0.062249191 0 35
-0.41943812 -1.8912125 0.080223739 0 36
-0.41858944 -1.8873857 0.09788046 0 37
-0.41836381 -1.8863684 0.11565375 0 38
-0.42104831 -1.8984725 0.13435605 0 39
-0.42054769 -1.8962154 0.15215795 0 40
-0.41804811 -1.8849449 0.16913421 0 41
-0.41707093 -1.8805388 0.18660648 0 42
-0.41710088 -1.880674 0.20452066 0 43
-0.41811261 -1.8852358 0.22299603 0 44
-0.41767895 -1.8832805 0.24076356 0 45
-0.42059648 -1.8964354 0.26061153 0 46
-0.42049176 -1.8959632 0.27875319 0 47
-0.41900793 -1.8892727 0.2959598 0 48
-0.42107004 -1.8985705 0.31574765 0 49
-0.41795781 -1.8845378 0.33166412 0 50
-0.42173418 -1.9015651 0.35313424 0 51
-0.41812152 -1.885276 0.36848557 0 52
-0.4168525 -1.8795542 0.38575226 0 53
-0.41888538 -1.88872 0.40617633 0 54
-0.41777411 -1.8837095 0.42366409 0 55
-0.41841826 -1.886614 0.44298646 0 56
-0.4208546 -1.8975991 0.46442306 0 57
-0.41806844 -1.8850366 0.48016337 0 58
-0.41940576 -1.8910664 0.50066096 0 59
-0.41772848 -1.8835038 0.51763451 0 60
-0.41874483 -1.8880864 0.53801006 0 61
-0.41770977 -1.8834194 0.55584687 0 62
-0.4164736 -1.8778456 0.57341337 0 63
-0.39195335 -1.8761249 -0.57137305 0 0
-0.39663294 -1.8985242 -0.55882305 0 1
-0.39432496 -1.8874768 -0.53641409 0 2
-0.39411739 -1.8864832 -0.51708239 0 3
-0.39764655 -1.903376 -0.50258738 0 4
-0.39491442 -1.8902984 -0.48023042 0 5
-0.39337555 -1.8829324 -0.4596149 0 6
-0.39407206 -1.8862664 -0.44173366 0 7
-0.39542982 -1.8927654 -0.42457515 0 8
-0.39416492 -1.8867108 -0.40467131 0 9
-0.39476904 -1.8896025 -0.38678905 0 10
-0.39476985 -1.8896065 -0.36835536 0 11
-0.39373428 -1.8846495 -0.34906739 0 12
-0.39318568 -1.8820235 -0.33034578 0 13
-0.39499664 -1.890692 -0.3136059 0 14
-0.39485675 -1.8900223 -0.29529431 0 15
-0.39596194 -1.8953124 -0.27792066 0 16
-0.39589697 -1.8950014 -0.25972584 0 17
-0.39608166 -1.8958853 -0.24173409 0 18
-0.39489126 -1.8901875 -0.22299051 0 19
-0.39413264 -1.8865564 -0.20461784 0 20
-0.39419183 -1.8868396 -0.18673661 0 21
-0.39233646 -1.8779587 -0.16806176 0 22
-0.39476171 -1.8895675 -0.15122356 0 23
-0.39318162 -1.8820041 -0.13283837 0 24
-0.39569619 -1.8940403 -0.11581705 0 25
-0.39316776 -1.8819379 -0.097339854 0 26
-0.39231417 -1.877852 -0.07944636 0 27
-0.39579058 -1.8944921 -0.062325098 0 28
-0.39493427 -1.8903934 -0.044414092 0 29
-0.39365768 -1.8842828 -0.026559319 0 30
-0.39486939 -1.8900828 -0.0088798562 0 31
-0.3935636 -1.8838325 0.0088504916 0 32
-0.3940784 -1.8862966 0.026587704 0 33
-0.39258149 -1.8791316 0.044149499 0 34
-0.39206749 -1.8766713 0.061738826 0 35
-0.39497 -1.8905643 0.079984181 0 36
-0.39796269 -1.9048892 0.098526977 0 37
-0.39547437 -1.8929787 0.11575212 0 38
-0.39364439 -1.8842192 0.13299471 0 39
-0.39276785 -1.8800235 0.15045975 0 40
-0.39495951 -1.8905143 0.16918537 0 41
-0.39469448 -1.8892456 0.18697472 0 42
-0.39546204 -1.8929197 0.20530801 0 43
-0.39335996 -1.8828578 0.22212581 0 44
-0.39344844 -1.8832814 0.24012701 0 45
-0.39399266 -1.8858863 0.25847653 0 46
-0.39787567 -1.9044726 0.27926385 0 47
-0.39714018 -1.9009522 0.29700199 0 48
-0.39382693 -1.885093 0.3126772 0 49
-0.39344761 -1.8832773 0.33056584 0 50
-0.39152381 -1.8740689 0.34710768 0 51
-0.39483812 -1.8899331 0.36841905 0 52
-0.39281341 -1.8802416 0.38487291 0 53
-0.39477411 -1.8896269 0.40529677 0 54
-0.3962602 -1.8967401 0.42546672 0 55
-0.39407331 -1.8862723 0.44173506 0 56
-0.39344183 -1.8832496 0.45969233 0 57
-0.39404067 -1.886116 0.47916791 0 58
-0.39397746 -1.8858136 0.49795002 0 59
-0.39570099 -1.8940634 0.51916009 0 60
-0.39424255 -1.8870825 0.53630203 0 61
-0.39470106 -1.8892771 0.5561012 0 62
-0.39622843 -1.896588 0.57760507 0 63
-0.36973172 -1.8852689 -0.57272995 0 0
-0.36965913 -1.8848988 -0.55343264 0 1
-0.3724997 -1.8993829 -0.53845537 0 2
-0.37110969 -1.8922952 -0.51738554 0 3
-0.37133327 -1.8934354 -0.49871916 0 4
-0.36893544 -1.8812087 -0.47673258 0 5
-0.37052172 -1.8892971 -0.46002159 0 6
-0.37172171 -1.895416 -0.44277248 0 7
-0.36922768 -1.8826989 -0.42126679 0 8
-0.37100092 -1.8917407 -0.40474108 0 9
-0.36881092 -1.8805737 -0.38398358 0 10
-0.37093812 -1.8914205 -0.36779204 0 11
-0.37069482 -1.8901798 -0.34922102 0 12
-0.37072113 -1.890314 -0.3309758 0 13
-0.37009278 -1.88711 -0.3122333 0 14
-0.37041551 -1.8887556 -0.29436252 0 15
-0.37072539 -1.8903357 -0.27650154 0 16
-0.36894435 -1.8812542 -0.25720042 0 17
-0.37137702 -1.8936584 -0.24084966 0 18
-0.37121356 -1.8928249 -0.22274631 0 19
-0.36730695 -1.8729049 -0.20263201 0 20
-0.36843887 -1.8786768 -0.18546635 0 21
-0.36938816 -1.8835173 -0.16814001 0 22
-0.36988255 -1.8860381 -0.15056571 0 23
-0.36651272 -1.8688552 -0.13158222 0 24
-0.37122506 -1.8928835 -0.11545845 0 25
-0.37062225 -1.8898098 -0.097503923 0 26
-0.37197 -1.896682 -0.080043443 0 27
-0.36995012 -1.8863826 -0.061903972 0 28
-0.37002975 -1.8867886 -0.044219155 0 29
-0.37157676 -1.8946768 -0.026639408 0 30
-0.37163556 -1.8949766 -0.0088807074 0 31
-0.37021726 -1.8877448 0.0088468157 0 32
-0.36877996 -1.8804158 0.026438897 0 33
-0.36997405 -1.8865047 0.044212498 0 34
-0.36874509 -1.8802381 0.061702333 0 35
-0.37001291 -1.8867027 0.079622298 0 36
-0.37078866 -1.8906584 0.097547702 0 37
-0.36911878 -1.8821435 0.11480335 0 38
-0.36895952 -1.8813314 0.13246064 0 39
-0.36765456 -1.8746775 0.14965878 0 40
-0.3685247 -1.8791144 0.16774696 0 41
-0.3704088 -1.8887215 0.18645798 0 42
-0.37168244 -1.8952156 0.20504583 0 43
-0.36844686 -1.8787174 0.22108616 0 44
-0.37226915 -1.8982074 0.24142823 0 45
-0.36824328 -1.8776793 0.25671169 0 46
-0.3713592 -1.8935676 0.27697426 0 47
-0.37026352 -1.8879806 0.29424173 0 48
-0.37193805 -1.8965191 0.31379008 0 49
-0.37041369 -1.8887464 0.33070132 0 50
-0.37019941 -1.8876537 0.34875432 0 51
-0.37044439 -1.8889029 0.36730248 0 52
-0.37233612 -1.8985488 0.38765383 0 53
-0.3708283 -1.8908604 0.40455273 0 54
-0.37194777 -1.8965687 0.42437023 0 55
-0.37158221 -1.8947047 0.4426063 0 56
-0.37171298 -1.8953714 0.46150061 0 57
-0.37087044 -1.8910753 0.47923297 0 58
-0.37261689 -1.8999804 0.5004431 0 59
-0.3690646 -1.8818673 0.51453435 0 60
-0.37320146 -1.9029613 0.53946978 0 61
-0.37047827 -1.8890756 0.55465907 0 62
-0.36838409 -1.8783973 0.57064241 0 63
-0.34334201 -1.8723238 -0.56747186 0 0
-0.34486461 -1.8806269 -0.55089164 0 1
-0.3474097 -1.8945057 -0.5358212 0 2
-0.34646949 -1.8893787 -0.51538426 0 3
-0.34883749 -1.902292 -0.49988434 0 4
-0.34713992 -1.8930347 -0.47861159 0 5
-0.34636575 -1.8888129 -0.45883197 0 6
-0.34450278 -1.8786536 -0.43783408 0 7
-0.34585181 -1.8860104 -0.42102435 0 8
-0.34437433 -1.8779533 -0.40085492 0 9
-0.34523964 -1.8826721 -0.38351622 0 10
-0.34491765 -1.8809161 -0.3648971 0 11
-0.34611955 -1.8874704 -0.34790781 0 12
-0.34713992 -1.8930348 -0.3306798 0 13
-0.34619066 -1.8878582 -0.31162921 0 14
-0.34511855 -1.8820117 -0.29262796 0 15
-0.347754 -1.8963834 -0.27673972 0 16
-0.34534347 -1.8832382 -0.2568717 0 17
-0.34641561 -1.8890849 -0.23970807 0 18
-0.34755376 -1.8952913 -0.22251682 0 19
-0.34547335 -1.8839464 -0.20335162 0 20
-0.34887797 -1.9025127 -0.18738179 0 21
-0.34760764 -1.8955853 -0.16882297 0 22
-0.34523273 -1.8826343 -0.14994375 0 23
-0.34661788 -1.8901879 -0.13277407 0 24
-0.34556335 -1.8844373 -0.11467542 0 25
-0.34435529 -1.8778495 -0.096661061 0 26
-0.34543604 -1.8837429 -0.079312138 0 27
-0.34603128 -1.886989 -0.06177957 0 28
-0.34856826 -1.9008238 -0.044444274 0 29
-0.34556481 -1.8844452 -0.026433809 0 30
-0.34699592 -1.8922493 -0.0088472608 0 31
-0.34650531 -1.8895741 0.0088347523 0 32
-0.34617347 -1.8877643 0.026480367 0 33
-0.34659702 -1.8900741 0.044192933 0 34
-0.34696376 -1.8920741 0.061946053 0 35
-0.34711978 -1.8929249 0.079698727 0 36
-0.34629962 -1.8884523 0.097206831 0 37
-0.34577087 -1.885569 0.11474428 0 38
-0.34545743 -1.8838598 0.13232955 0 39
-0.34784782 -1.8968951 0.15107955 0 40
-0.34667316 -1.8904893 0.16836913 0 41
-0.34471798 -1.8798274 0.18514748 0 42
-0.34920108 -1.9042747 0.20554584 0 43
-0.34604797 -1.8870801 0.22155277 0 44
-0.34583357 -1.8859109 0.23930532 0 45
-0.34561399 -1.8847135 0.25707293 0 46
-0.34607661 -1.8872362 0.27540487 0 47
-0.34779236 -1.8965925 0.29489508 0 48
-0.3465856 -1.8900119 0.31198472 0 49
-0.34503889 -1.8815773 0.32867837 0 50
-0.34417111 -1.876845 0.34594929 0 51
-0.34367439 -1.8741364 0.36358187 0 52
-0.34768882 -1.896028 0.38623694 0 53
-0.34284204 -1.8695974 0.39907134 0 54
-0.34523734 -1.8826596 0.42027631 0 55
-0.34720919 -1.8934124 0.44127372 0 56
-0.34817067 -1.8986555 0.46122295 0 57
-0.34495386 -1.8811136 0.47559765 0 58
-0.3460817 -1.887264 0.49593526 0 59
-0.34699821 -1.8922619 0.51617074 0 60
-0.34471047 -1.8797863 0.53165805 0 61
-0.34806815 -1.8980966 0.55600899 0 62
-0.344928 -1.8809725 0.57009315 0 63
-0.32357997 -1.8956496 -0.57329226 0 0
-0.3216776 -1.8845047 -0.55082721 0 1
-0.32387638 -1.897386 -0.53546894 0 2
-0.32181677 -1.8853199 -0.51315892 0 3
-0.32156211 -1.8838282 -0.493956 0 4
-0.32062101 -1.8783147 -0.4738574 0 5
-0.3220174 -1.8864954 -0.4572725 0 6
-0.32302931 -1.8924234 -0.44008422 0 7
-0.3204703 -1.8774319 -0.41819802 0 8
-0.32424781 -1.8995619 -0.40458572 0 9
-0.32214624 -1.8872501 -0.38361284 0 10
-0.32110336 -1.8811406 -0.36414716 0 11
-0.32216537 -1.8873621 -0.34713143 0 12
-0.31869575 -1.8670359 -0.32542908 0 13
-0.32045105 -1.8773191 -0.30921569 0 14
-0.31973976 -1.873152 -0.29061711 0 15
-0.32426104 -1.8996395 -0.2766121 0 16
-0.3212505 -1.8820026 -0.25614497 0 17
-0.32107028 -1.8809468 -0.23815644 0 18
-0.32126886 -1.88211 -0.22048879 0 19
-0.32205024 -1.8866876 -0.20320471 0 20
-0.32208091 -1.8868674 -0.18543677 0 21
-0.32139051 -1.8828228 -0.16732171 0 22
-0.32222387 -1.887705 -0.15002069 0 23
-0.32250232 -1.8893361 -0.13242567 0 24
-0.32120758 -1.8817511 -0.11426295 0 25
-0.32048509 -1.8775184 -0.096433878 0 26
-0.32174039 -1.8848726 -0.07918714 0 27
-0.32286197 -1.8914433 -0.061790749 0 28
-0.32227322 -1.8879941 -0.044048306 0 29
-0.32355744 -1.8955175 -0.026531307 0 30
-0.32089296 -1.8799078 -0.0087704463 0 31
-0.3220301 -1.8865697 0.0088015264 0 32
-0.3241052 -1.8987266 0.026576225 0 33
-0.32203105 -1.8865753 0.044015206 0 34
-0.32293853 -1.8918917 0.061805401 0 35
-0.3226116 -1.8899764 0.07940156 0 36
-0.32147044 -1.883291 0.096730374 0 37
-0.32078424 -1.879271 0.11411235 0 38
-0.32461485 -1.9017121 0.13329312 0 39
-0.32283476 -1.8912836 0.15030511 0 40
-0.3221567 -1.8873115 0.16772062 0 41
-0.32060862 -1.8782423 0.18458912 0 42
-0.3212671 -1.8820997 0.20271055 0 43
-0.32182914 -1.8853924 0.22087333 0 44
-0.32349688 -1.8951626 0.23995638 0 45
-0.32289675 -1.8916469 0.25745758 0 46
-0.32315472 -1.8931582 0.27566835 0 47
-0.31994098 -1.8743309 0.29080001 0 48
-0.32343993 -1.894829 0.31209978 0 49
-0.3229309 -1.8918469 0.32975373 0 50
-0.32236052 -1.8885055 0.34734172 0 51
-0.32239938 -1.888733 0.36561689 0 52
-0.32317421 -1.8932724 0.384837 0 53
-0.32173559 -1.8848443 0.40145102 0 54
-0.3211191 -1.8812327 0.41904464 0 55
-0.3214682 -1.883278 0.43795747 0 56
-0.32196668 -1.8861982 0.45720047 0 57
-0.32150573 -1.8834978 0.47516498 0 58
-0.32172573 -1.8847867 0.49420735 0 59
-0.32457951 -1.9015051 0.5175643 0 60
-0.32263246 -1.8900986 0.53341234 0 61
-0.32326579 -1.8938088 0.55354679 0 62
-0.32147565 -1.8833216 0.56956398 0 63
-0.29822105 -1.8866647 -0.56942296 0 0
-0.29922053 -1.8929878 -0.55218959 0 1
-0.29727829 -1.8807005 -0.52968836 0 2
-0.29643714 -1.8753791 -0.50942242 0 3
-0.2989977 -1.8915781 -0.49498665 0 4
-0.29940343 -1.894145 -0.47688618 0 5
-0.29706064 -1.8793236 -0.45461437 0 6
-0.29759765 -1.8827208 -0.43694386 0 7
-0.29840687 -1.8878404 -0.41966742 0 8
-0.29676634 -1.8774617 -0.39907122 0 9
-0.29897612 -1.8914417 -0.3836886 0 10
-0.30011919 -1.8986732 -0.36679897 0 11
-0.29842892 -1.88798 -0.34654391 0 12
-0.29756632 -1.8825227 -0.32746595 0 13
-0.29783735 -1.8842373 -0.30972856 0 14
-0.29782599 -1.8841655 -0.29173559 0 15
-0.29742184 -1.8816087 -0.27343339 0 16
-0.29890221 -1.890974 -0.25684637 0 17
-0.29835343 -1.8875023 -0.23850392 0 18
-0.29659364 -1.8763691 -0.21937241 0 19
-0.29847881 -1.8882954 -0.20296723 0 20
-0.29627135 -1.8743302 -0.18383271 0 21
-0.29702187 -1.8790783 -0.16665179 0 22
-0.29850221 -1.8884435 -0.14977635 0 23
-0.29715839 -1.8799419 -0.13150117 0 24
-0.2961098 -1.8733081 -0.1135206 0 25
-0.29674321 -1.8773155 -0.096228763 0 26
-0.29892778 -1.8911359 -0.079289854 0 27
-0.29591379 -1.872068 -0.061034303 0 28
-0.29883057 -1.8905208 -0.044018202 0 29
-0.30018741 -1.8991047 -0.026527846 0 30
-0.29745153 -1.8817965 -0.0087615307 0 31
-0.29719272 -1.8801591 0.0087539069 0 32
-0.29713589 -1.8797996 0.026258182 0 33
-0.29901573 -1.8916922 0.044045474 0 34
-0.29759452 -1.8827012 0.061380971 0 35
-0.29819849 -1.8865219 0.079096407 0 36
-0.29573554 -1.8709404 0.095901988 0 37
-0.29888287 -1.8908517 0.11458372 0 38
-0.29877758 -1.8901856 0.13221771 0 39
-0.29695675 -1.8786663 0.1490009 0 40
-0.29861024 -1.889127 0.16754298 0 41
-0.29899031 -1.8915315 0.1855198 0 42
-0.29762715 -1.8829076 0.20238809 0 43
-0.29916644 -1.8926456 0.22127534 0 44
-0.29817805 -1.8863926 0.2383637 0 45
-0.29605725 -1.8729758 0.25440171 0 46
-0.29613465 -1.8734653 0.27225 0 47
-0.30012092 -1.898684 0.29398358 0 48
-0.29818672 -1.8864477 0.31009191 0 49
-0.29778326 -1.883895 0.32770467 0 50
-0.2989102 -1.8910246 0.34710276 0 51
-0.29754251 -1.882372 0.36364979 0 52
-0.29690176 -1.8783184 0.38102648 0 53
-0.29797599 -1.8851146 0.40069789 0 54
-0.29862204 -1.8892015 0.41997004 0 55
-0.29640558 -1.8751793 0.43519363 0 56
-0.29702464 -1.8790958 0.45455924 0 57
-0.29709676 -1.8795521 0.47321215 0 58
-0.29777229 -1.8838258 0.49295804 0 59
-0.29762524 -1.8828956 0.51146424 0 60
-0.29532796 -1.8683619 0.52621329 0 61
-0.29720962 -1.8802661 0.54847866 0 62
-0.29765451 -1.8830806 0.5683412 0 63
-0.27591822 -1.8964938 -0.57132232 0 0
-0.27506226 -1.8906105 -0.55046785 0 1
-0.27531478 -1.892346 -0.53197455 0 2
-0.27402049 -1.8834499 -0.51066095 0 3
-0.27352148 -1.88002 -0.49104488 0 4
-0.27533731 -1.8925009 -0.47558391 0 5
-0.27627179 -1.8989241 -0.45849934 0 6
-0.27161452 -1.8669128 -0.43246728 0 7
-0.27462757 -1.8876226 -0.41883665 0 8
-0.27452353 -1.8869076 -0.4003312 0 9
-0.27457041 -1.8872298 -0.3821204 0 10
-0.27313027 -1.8773311 -0.36199975 0 11
-0.27201852 -1.8696896 -0.34254682 0 12
-0.2741279 -1.8841883 -0.32714459 0 13
-0.27436909 -1.885846 -0.30941504 0 14
-0.27558219 -1.8941841 -0.29273999 0 15
-0.27644709 -1.9001288 -0.27560988 0 16
-0.27423456 -1.8849213 -0.2555469 0 17
-0.2744481 -1.8863889 -0.23791882 0 18
-0.27224076 -1.8712173 -0.2183622 0 19
-0.27385509 -1.8823131 -0.20194697 0 20
-0.2734113 -1.8792628 -0.18397285 0 21
-0.27456987 -1.8872259 -0.16706233 0 22
-0.27180129 -1.8681965 -0.14789426 0 23
-0.27543753 -1.8931898 -0.13218094 0 24
-0.27440208 -1.8860726 -0.11408103 0 25
-0.27489224 -1.8894417 -0.096669763 0 26
-0.27532366 -1.8924072 -0.079195224 0 27
-0.2727581 -1.874773 -0.061008532 0 28
-0.27510026 -1.8908716 -0.043944284 0 29
-0.27487245 -1.8893057 -0.026341762 0 30
-0.27639696 -1.8997844 -0.0088287899 0 31
-0.27333787 -1.8787581 0.0087310756 0 32
-0.27518937 -1.891484 0.026372135 0 33
-0.27547368 -1.8934383 0.044003934 0 34
-0.27533242 -1.8924674 0.061584339 0 35
-0.27382225 -1.8820872 0.078763343 0 36
-0.27310148 -1.8771331 0.096040018 0 37
-0.2717244 -1.867668 0.1129678 0 38
-0.27406889 -1.8837826 0.13152415 0 39
-0.27320591 -1.877851 0.14865856 0 40
-0.27289969 -1.8757463 0.16604611 0 41
-0.27471471 -1.8882215 0.18484987 0 42
-0.27506188 -1.8906078 0.20283687 0 43
-0.27554291 -1.8939142 0.22101083 0 44
-0.27435309 -1.8857361 0.23783648 0 45
-0.27757791 -1.9079015 0.2586624 0 46
-0.27615213 -1.8981014 0.27531582 0 47
-0.2751292 -1.8910705 0.2922588 0 48
-0.27534556 -1.8925576 0.31051621 0 49
-0.27387127 -1.8824242 0.32683831 0 50
-0.27502999 -1.8903885 0.34633908 0 51
-0.27417994 -1.8845458 0.36339092 0 52
-0.27585047 -1.8960282 0.38390189 0 53
-0.27386075 -1.8823519 0.39936468 0 54
-0.27329576 -1.8784685 0.41680551 0 55
-0.27468479 -1.888016 0.43735579 0 56
-0.2736696 -1.8810381 0.45418072 0 57
-0.2746374 -1.8876902 0.47437498 0 58
-0.27440175 -1.8860706 0.49262527 0 59
-0.27545103 -1.8932827 0.51332688 0 60
-0.27559921 -1.8943011 0.53252417 0 61
-0.27257222 -1.8734955 0.54548472 0 62
-0.27289715 -1.8757288 0.56506681 0 63
-0.25057375 -1.8846611 -0.56678665 0 0
-0.25103861 -1.8881576 -0.54881346 0 1
-0.25059807 -1.8848441 -0.52895939 0 2
-0.25220799 -1.896953 -0.51344234 0 3
-0.24930471 -1.8751162 -0.48892641 0 4
-0.25035921 -1.8830475 -0.47239891 0 5
-0.25005794 -1.8807815 -0.45334211 0 6
-0.25077277 -1.886158 -0.43617812 0 7
-0.24967803 -1.8779241 -0.41597202 0 8
-0.24882007 -1.871471 -0.39637706 0 9
-0.24976456 -1.8785748 -0.37971744 0 10
-0.25077417 -1.8861687 -0.36308181 0 11
-0.25134286 -1.8904459 -0.34575722 0 12
-0.25101212 -1.8879582 -0.3272385 0 13
-0.25146431 -1.8913592 -0.30978885 0 14
-0.25149927 -1.8916223 -0.29184407 0 15
-0.25233537 -1.8979111 -0.27481738 0 16
-0.25138614 -1.8907714 -0.25590158 0 17
-0.24896356 -1.8725504 -0.23576951 0 18
-0.25019127 -1.8817843 -0.21921974 0 19
-0.25091252 -1.8872092 -0.20212595 0 20
-0.25144759 -1.8912336 -0.18482809 0 21
-0.25092047 -1.887269 -0.1667804 0 22
-0.25112155 -1.8887813 -0.14926812 0 23
-0.25104547 -1.8882091 -0.13160771 0 24
-0.25116405 -1.8891009 -0.11406876 0 25
-0.25029278 -1.882548 -0.096152321 0 26
-0.25082317 -1.8865372 -0.078814536 0 27
-0.25086614 -1.8868604 -0.061296858 0 28
-0.25124148 -1.8896834 -0.043841556 0 29
-0.25022975 -1.8820736 -0.02619605 0 30
-0.25259367 -1.8998536 -0.0088140108 0 31
-0.24909791 -1.8735608 0.0086920299 0 32
-0.24865106 -1.8701999 0.026030781 0 33
-0.25061354 -1.8849603 0.04373198 0 34
-0.25100946 -1.8879383 0.061331876 0 35
-0.24965224 -1.87773 0.078446597 0 36
-0.2507135 -1.8857123 0.096313946 0 37
-0.25118244 -1.8892393 0.11407712 0 38
-0.25016198 -1.881564 0.13114455 0 39
-0.24739267 -1.8607351 0.14705165 0 40
-0.25041568 -1.8834722 0.16644487 0 41
-0.25007436 -1.880905 0.18381868 0 42
-0.25139576 -1.8908439 0.20251524 0 43
-0.25186795 -1.8943954 0.22068888 0 44
-0.25129259 -1.8900678 0.23797511 0 45
-0.24931744 -1.875212 0.25379571 0 46
-0.24889989 -1.8720714 0.27107579 0 47
-0.25017643 -1.8816726 0.29030901 0 48
-0.24949864 -1.8765748 0.30736727 0 49
-0.24958487 -1.8772234 0.32537785 0 50
-0.25091144 -1.887201 0.34516373 0 51
-0.2512657 -1.8898656 0.36379346 0 52
-0.25135463 -1.8905345 0.38213482 0 53
-0.2488326 -1.8715652 0.39639702 0 54
-0.25033626 -1.882875 0.41706869 0 55
-0.25248325 -1.8990233 0.43915325 0 56
-0.25121087 -1.8894532 0.4554323 0 57
-0.25034213 -1.882919 0.47236669 0 58
-0.25189716 -1.8946151 0.4940106 0 59
-0.25054872 -1.8844728 0.51006442 0 60
-0.25187343 -1.8944365 0.53165138 0 61
-0.2495677 -1.8770943 0.54559773 0 62
-0.24948333 -1.8764597 0.56432015 0 63
-0.22664399 -1.8814741 -0.56494737 0 0
-0.22503717 -1.8681351 -0.54214841 0 1
-0.22499853 -1.8678144 -0.52336419 0 2
-0.22756894 -1.8891524 -0.510535 0 3
-0.22722185 -1.8862711 -0.49106932 0 4
-0.22748482 -1.8884542 -0.47301778 0 5
-0.22779727 -1.891048 -0.45510709 0 6
-0.22568637 -1.8735244 -0.43258211 0 7
-0.22643469 -1.8797365 -0.41572532 0 8
-0.22853288 -1.8971547 -0.40119132 0 9
-0.22699197 -1.8843627 -0.38029438 0 10
-0.22847635 -1.8966854 -0.36453786 0 11
-0.22580518 -1.8745106 -0.342309 0 12
-0.2268876 -1.8834963 -0.32595691 0 13
-0.2245754 -1.8643018 -0.30488169 0 14
-0.22775112 -1.8906648 -0.29124227 0 15
-0.22615403 -1.8774066 -0.27142513 0 16
-0.22693871 -1.8839207 -0.25457746 0 17
-0.2256808 -1.8734782 -0.23551911 0 18
-0.2285109 -1.8969721 -0.22064504 0 19
-0.22713009 -1.8855093 -0.20162952 0 20
-0.22687615 -1.8834014 -0.18377611 0 21
-0.22722195 -1.886272 -0.16643278 0 22
-0.22766767 -1.8899721 -0.1491297 0 23
-0.22646186 -1.8799621 -0.13082892 0 24
-0.22850169 -1.8968956 -0.11436112 0 25
-0.22618712 -1.8776814 -0.095754467 0 26
-0.22870785 -1.8986071 -0.079195313 0 27
-0.22720352 -1.8861189 -0.061177388 0 28
-0.22854427 -1.8972491 -0.043948565 0 29
-0.22694777 -1.8839959 -0.026181983 0 30
-0.22704865 -1.8848332 -0.0087307142 0 31
-0.22693676 -1.8839045 0.0087264115 0 32
-0.22614837 -1.8773596 0.02608976 0 33
-0.22728494 -1.8867948 0.043706395 0 34
-0.22667609 -1.8817406 0.061035376 0 35
-0.22660796 -1.881175 0.078468181 0 36
-0.22798543 -1.89261 0.09651576 0 37
-0.2277548 -1.8906955 0.11398732 0 38
-0.22964376 -1.9063765 0.13266712 0 39
-0.2272213 -1.8862666 0.14883731 0 40
-0.22698992 -1.8843458 0.16626284 0 41
-0.22761157 -1.8895063 0.18437181 0 42
-0.22485247 -1.8666019 0.19960764 0 43
-0.22656204 -1.8807937 0.21876326 0 44
-0.22780348 -1.8910996 0.23773435 0 45
-0.22631881 -1.8787745 0.25388205 0 46
-0.22604983 -1.8765416 0.27130008 0 47
-0.22674261 -1.8822927 0.28995264 0 48
-0.22555885 -1.8724657 0.30621681 0 49
-0.22693396 -1.8838812 0.32602352 0 50
-0.22688396 -1.8834661 0.34394437 0 51
-0.2263795 -1.8792783 0.36119229 0 52
-0.2259973 -1.8761055 0.37862799 0 53
-0.22641763 -1.8795949 0.39747795 0 54
-0.22624134 -1.8781315 0.41537035 0 55
-0.22643746 -1.8797596 0.43402177 0 56
-0.22614808 -1.8773574 0.45181227 0 57
-0.22579853 -1.8744556 0.46951142 0 58
-0.22676872 -1.8825095 0.49009001 0 59
-0.2269228 -1.8837885 0.50908542 0 60
-0.22710527 -1.8853035 0.52826464 0 61
-0.22659729 -1.8810865 0.54590696 0 62
-0.22832252 -1.8954083 0.56913137 0 63
-0.20113763 -1.8623095 -0.55840796 0 0
-0.20402564 -1.8890492 -0.54744834 0 1
-0.20444557 -1.8929372 -0.52965921 0 2
-0.20273973 -1.877143 -0.50657749 0 3
-0.20354685 -1.8846161 -0.48994982 0 4
-0.20306012 -1.8801094 -0.47026664 0 5
-0.2036213 -1.8853054 -0.45308825 0 6
-0.20323023 -1.8816845 -0.43385643 0 7
-0.20271185 -1.8768848 -0.41451201 0 8
-0.20376766 -1.8866605 -0.39841214 0 9
-0.20318606 -1.8812757 -0.37913847 0 10
-0.202684 -1.8766271 -0.36017647 0 11
-0.2031673 -1.881102 -0.34303051 0 12
-0.20216502 -1.8718218 -0.32348186 0 13
-0.20274787 -1.8772184 -0.30656314 0 14
-0.20268732 -1.8766578 -0.28867885 0 15
-0.20504215 -1.898461 -0.27408382 0 16
-0.2028852 -1.8784899 -0.25348729 0 17
-0.20491599 -1.8972927 -0.23817813 0 18
-0.20377396 -1.8867188 -0.21914442 0 19
-0.20201895 -1.8704695 -0.19974047 0 20
-0.2042601 -1.8912199 -0.18428001 0 21
-0.20254752 -1.8753633 -0.16523804 0 22
-0.20374927 -1.8864902 -0.14864604 0 23
-0.20289734 -1.8786024 -0.1305508 0 24
-0.20280854 -1.8777802 -0.11304978 0 25
-0.20459858 -1.894354 -0.096469104 0 26
-0.20448188 -1.8932734 -0.078861982 0 27
-0.20221864 -1.8723183 -0.060644515 0 28
-0.20381106 -1.8870623 -0.043651238 0 29
-0.20471913 -1.89547 -0.026304467 0 30
-0.20279761 -1.877679 -0.0086853672 0 31
-0.20351502 -1.8843215 0.0087160924 0 32
-0.20410769 -1.8898088 0.026225902 0 33
-0.20222233 -1.8723525 0.043310974 0 34
-0.20295618 -1.8791472 0.060865704 0 35
-0.20295487 -1.8791351 0.078273073 0 36
-0.20226142 -1.8727144 0.095367126 0 37
-0.20371899 -1.88621 0.11355729 0 38
-0.20342888 -1.8835238 0.13089281 0 39
-0.20384751 -1.8873999 0.14871772 0 40
-0.20290802 -1.8787013 0.16553214 0 41
-0.20325695 -1.8819319 0.183375 0 42
-0.2039108 -1.8879858 0.20161098 0 43
-0.20278057 -1.8775213 0.21807611 0 44
-0.20284036 -1.8780748 0.23576559 0 45
-0.20329051 -1.8822426 0.25399369 0 46
-0.20315291 -1.8809686 0.27155843 0 47
-0.20209809 -1.8712022 0.28783962 0 48
-0.20269372 -1.876717 0.30648127 0 49
-0.20336875 -1.882967 0.32540795 0 50
-0.20344071 -1.8836333 0.34349212 0 51
-0.20357795 -1.884904 0.36176506 0 52
-0.20200127 -1.8703058 0.3769277 0 53
-0.20465352 -1.8948627 0.40014422 0 54
-0.20342144 -1.8834549 0.41596302 0 55
-0.20328668 -1.8822072 0.43397692 0 56
-0.20223127 -1.8724353 0.44999525 0 57
-0.20351522 -1.8843232 0.4713206 0 58
-0.20377077 -1.8866893 0.4904888 0 59
-0.2033785 -1.8830574 0.50817358 0 60
-0.20429137 -1.8915095 0.52925968 0 61
-0.20278946 -1.8776034 0.5441314 0 62
-0.20317265 -1.8811513 0.56405765 0 63
-0.17970267 -1.8801086 -0.56303984 0 0
-0.18098277 -1.8935015 -0.54805231 0 1
-0.18005878 -1.8838344 -0.52645284 0 2
-0.17920591 -1.8749113 -0.50534236 0 3
-0.18200582 -1.904205 -0.49442321 0 4
-0.17992286 -1.8824123 -0.47025371 0 5
-0.17990944 -1.8822719 -0.45179343 0 6
-0.17833471 -1.8657967 -0.4296551 0 7
-0.17977113 -1.8808248 -0.4148626 0 8
-0.17844151 -1.8669139 -0.39374909 0 9
-0.17931868 -1.8760912 -0.37762073 0 10
-0.18008688 -1.8841285 -0.36116388 0 11
-0.17971937 -1.8802834 -0.34245235 0 12
-0.17933562 -1.8762685 -0.32384476 0 13
-0.1782677 -1.8650956 -0.30420244 0 14
-0.18167385 -1.9007319 -0.29201636 0 15
-0.18155749 -1.8995143 -0.27389288 0 16
-0.18020315 -1.8853449 -0.25409409 0 17
-0.17958583 -1.8788862 -0.23557243 0 18
-0.18089333 -1.8925657 -0.21954858 0 19
-0.17969866 -1.8800666 -0.2005142 0 20
-0.18013978 -1.8846819 -0.18341325 0 21
-0.18028404 -1.8861911 -0.16598418 0 22
-0.17946719 -1.8776449 -0.14776401 0 23
-0.18062426 -1.8897506 -0.13116126 0 24
-0.1798131 -1.881264 -0.11311785 0 25
-0.18002367 -1.8834671 -0.09579473 0 26
-0.1792202 -1.8750609 -0.078005672 0 27
-0.1797359 -1.8804562 -0.060831923 0 28
-0.18047453 -1.8881841 -0.043622557 0 29
-0.17988738 -1.8820412 -0.02608544 0 30
-0.18022186 -1.8855406 -0.0087108221 0 31
-0.17974579 -1.8805598 0.0086878119 0 32
-0.17993021 -1.8824893 0.02609165 0 33
-0.17976499 -1.8807606 0.043451052 0 34
-0.17924422 -1.8753122 0.060665518 0 35
-0.18042703 -1.8876871 0.078530945 0 36
-0.18044777 -1.887904 0.096020401 0 37
-0.17823216 -1.8647237 0.1121233 0 38
-0.1794782 -1.8777602 0.13032906 0 39
-0.17910013 -1.8738046 0.14746179 0 40
-0.18000704 -1.8832932 0.16572917 0 41
-0.17929928 -1.8758882 0.18255746 0 42
-0.17937665 -1.8766977 0.20015489 0 43
-0.17989105 -1.8820796 0.21833214 0 44
-0.17994535 -1.8826476 0.23604402 0 45
-0.17986928 -1.8818518 0.25362334 0 46
-0.18059167 -1.8894097 0.27243587 0 47
-0.17968787 -1.8799539 0.28882414 0 48
-0.17969963 -1.8800769 0.30664593 0 49
-0.17954558 -1.8784652 0.32422388 0 50
-0.18033025 -1.8866745 0.34361637 0 51
-0.17857912 -1.8683537 0.35814008 0 52
-0.18019678 -1.8852782 0.37946987 0 53
-0.17938238 -1.8767576 0.39582521 0 54
-0.17983034 -1.8814443 0.41499925 0 55
-0.18068571 -1.8903935 0.43531924 0 56
-0.18025286 -1.885865 0.45265582 0 57
-0.17903979 -1.8731735 0.46794569 0 58
-0.17914067 -1.8742288 0.48663995 0 59
-0.18023361 -1.8856635 0.5082404 0 60
-0.17960916 -1.8791304 0.52513826 0 61
-0.18049133 -1.8883598 0.5465641 0 62
-0.18004365 -1.8836762 0.56410819 0 63
-0.15708019 -1.8882836 -0.56486684 0 0
-0.15761952 -1.8947669 -0.54781616 0 1
-0.15710586 -1.888592 -0.52720267 0 2
-0.15638311 -1.8799038 -0.50613141 0 3
-0.15714799 -1.8890986 -0.48996207 0 4
-0.15621214 -1.8778484 -0.46859831 0 5
-0.15647268 -1.8809806 -0.45098755 0 6
-0.15752913 -1.8936802 -0.43559712 0 7
-0.15691587 -1.8863082 -0.41561505 0 8
-0.15668884 -1.8835789 -0.39682752 0 9
-0.15580963 -1.8730098 -0.37658638 0 10
-0.15671356 -1.8838761 -0.36071885 0 11
-0.15658419 -1.882321 -0.34244689 0 12
-0.15635516 -1.8795677 -0.32405785 0 13
-0.15578623 -1.8727286 -0.30511189 0 14
-0.15585269 -1.8735275 -0.28752068 0 15
-0.15691684 -1.8863199 -0.27169159 0 16
-0.1572056 -1.889791 -0.25441357 0 17
-0.15491204 -1.8622199 -0.23322636 0 18
-0.15586036 -1.8736198 -0.217112 0 19
-0.15587667 -1.8738158 -0.19962801 0 20
-0.1549525 -1.8627062 -0.1810755 0 21
-0.15590566 -1.8741645 -0.16474469 0 22
-0.15688759 -1.8859682 -0.148256 0 23
-0.1558235 -1.8731766 -0.12986812 0 24
-0.15695439 -1.8867713 -0.11332439 0 25
-0.15650518 -1.8813713 -0.095583029 0 26
-0.15576535 -1.8724777 -0.077812642 0 27
-0.15710099 -1.8885336 -0.061026115 0 28
-0.15656482 -1.8820882 -0.043433961 0 29
-0.15727375 -1.8906103 -0.026175426 0 30
-0.15730895 -1.8910335 -0.0087266024 0 31
-0.15766886 -1.8953599 0.0087465681 0 32
-0.15650541 -1.8813739 0.026047548 0 33
-0.15602019 -1.8755411 0.04328287 0 34
-0.15657488 -1.8822091 0.060821742 0 35
-0.15659399 -1.8824389 0.078226589 0 36
-0.15614681 -1.8770633 0.095364161 0 37
-0.15738145 -1.8919048 0.11363272 0 38
-0.15545167 -1.8687068 0.12955822 0 39
-0.1571904 -1.8896083 0.14854215 0 40
-0.15585759 -1.8735865 0.16469389 0 41
-0.15734279 -1.8914403 0.18386877 0 42
-0.15594858 -1.8746803 0.19972011 0 43
-0.15654998 -1.8819096 0.21807262 0 44
-0.15571876 -1.8719176 0.23444092 0 45
-0.15783642 -1.8973744 0.25543448 0 46
-0.15627773 -1.8786371 0.27058503 0 47
-0.15643819 -1.8805659 0.28860083 0 48
-0.15584214 -1.8734008 0.30522141 0 49
-0.15656658 -1.8821093 0.32449603 0 50
-0.15653439 -1.8817223 0.34233797 0 51
-0.15420128 -1.8536757 0.35493618 0 52
-0.15703464 -1.887736 0.37954721 0 53
-0.15661797 -1.882727 0.39664805 0 54
-0.15675265 -1.8843461 0.41518277 0 55
-0.15631676 -1.8791062 0.43224469 0 56
-0.15702538 -1.8876246 0.45258054 0 57
-0.15698461 -1.8871346 0.47091556 0 58
-0.15674682 -1.884276 0.4887113 0 59
-0.15671851 -1.8839357 0.50721693 0 60
-0.1570811 -1.8882943 0.52711958 0 61
-0.15716673 -1.8893239 0.54624248 0 62
-0.15743774 -1.8925817 0.56615257 0 63
-0.13340625 -1.8837941 -0.56299055 0 0
-0.13331296 -1.8824767 -0.54374772 0 1
-0.13202056 -1.8642272 -0.51990867 0 2
