# .PCD v0.7 - Point Cloud Data file format
VERSION 0.7
FIELDS x y z intensity ring
SIZE 4 4 4 4 2
TYPE F F F F U
COUNT 1 1 1 1 1
WIDTH 1254
HEIGHT 1
VIEWPOINT 0 0 0 1 0 0 0
POINTS 1254
DATA ascii
-2.0243292 -1.9330838 0.19339181 0 39
-2.023711 -1.9324936 0.21920961 0 40
-2.0338385 -1.9421645 0.24635045 0 41
-2.0259337 -1.9346161 0.27137744 0 42
-2.0302589 -1.9387462 0.29804316 0 43
-2.0384021 -1.9465224 0.32548079 0 44
-2.0329173 -1.9412848 0.35083228 0 45
-2.029063 -1.9376043 0.37640482 0 46
-2.0430195 -1.9509317 0.40547732 0 47
-2.0223505 -1.9311944 0.42765999 0 48
-2.0240519 -1.932819 0.45440081 0 49
-2.0469832 -1.9547167 0.48630866 0 50
-2.0367818 -1.9449753 0.5105958 0 51
-2.0358067 -1.9440439 0.53713834 0 52
-2.0318885 -1.9403025 0.56293416 0 53
-2.0331404 -1.9414978 0.59022617 0 54
-2.0380964 -1.9462306 0.61878037 0 55
-2.0345891 -1.9428812 0.64489383 0 56
-2.0394008 -1.947476 0.67377669 0 57
-2.0356269 -1.9438723 0.69995725 0 58
-2.0388477 -1.9469479 0.72866142 0 59
-2.0407009 -1.9487176 0.75707722 0 60
-2.0320606 -1.9404669 0.78164452 0 61
-2.0362973 -1.9445125 0.81124753 0 62
-2.0378153 -1.9459621 0.83999527 0 63
-1.759961 -1.7224991 -0.73413795 0 0
-1.8161668 -1.7775085 -0.73220134 0 1
-1.8856367 -1.8454998 -0.73399514 0 2
-1.9505219 -1.9090039 -0.73227507 0 3
-1.9767375 -1.9346614 -0.714912 0 4
-1.9840466 -1.9418149 -0.69037932 0 5
-1.9789127 -1.9367903 -0.66161084 0 6
-1.973709 -1.9316974 -0.63307798 0 7
-1.9827472 -1.9405432 -0.60917449 0 8
-1.9752736 -1.9332286 -0.58028448 0 9
-1.9790016 -1.9368774 -0.55483836 0 10
-1.9799628 -1.9378181 -0.5286513 0 11
-1.9779352 -1.9358337 -0.50177306 0 12
-1.9749284 -1.9328908 -0.47480103 0 13
-1.986575 -1.9442896 -0.45132044 0 14
-1.9876132 -1.9453056 -0.42534038 0 15
-1.9835156 -1.9412953 -0.39837515 0 16
-1.9758397 -1.9337828 -0.37091464 0 17
-1.9798723 -1.9377296 -0.34576389 0 18
-1.9745877 -1.9325573 -0.31906161 0 19
-1.9792761 -1.9371459 -0.29403344 0 20
-1.9823474 -1.9401519 -0.26871434 0 21
-1.9818437 -1.939659 -0.24292314 0 22
-1.9729166 -1.9309219 -0.21626309 0 23
-1.9814848 -1.9393076 -0.19156241 0 24
-1.9806612 -1.9385015 -0.16588612 0 25
-1.9738048 -1.9317912 -0.13983189 0 26
-1.9811275 -1.9389579 -0.11479995 0 27
-1.9825121 -1.9403131 -0.089331083 0 28
-1.9783318 -1.9362218 -0.063662596 0 29
-1.9801334 -1.9379851 -0.038228031 0 30
-1.9831771 -1.940964 -0.012761544 0 31
-1.987835 -1.9455228 0.012791517 0 32
-1.9874041 -1.945101 0.038368396 0 33
-1.9730512 -1.9310536 0.063492671 0 34
-1.981748 -1.9395652 0.089296654 0 35
-1.9731196 -1.9311205 0.11433592 0 36
-1.9953939 -1.9529207 0.14136134 0 37
-1.9774238 -1.9353331 0.16561498 0 38
-1.9755914 -1.9335397 0.19099265 0 39
-1.9693992 -1.9274794 0.21587753 0 40
-1.972267 -1.930286 0.24174929 0 41
-1.970739 -1.9287907 0.26714081 0 42
-1.9848408 -1.9425923 0.29486009 0 43
-1.9768672 -1.9347883 0.31942993 0 44
-1.9734181 -1.9314127 0.34463671 0 45
-1.9855262 -1.9432631 0.37273303 0 46
-1.9721597 -1.930181 0.39609441 0 47
-1.978774 -1.9366546 0.42344883 0 48
-1.9873701 -1.9450678 0.4515011 0 49
-1.9904121 -1.9480449 0.47852355 0 50
-1.9803593 -1.9382062 0.50238806 0 51
-1.9743354 -1.9323106 0.52714878 0 52
-1.9871027 -1.9448061 0.55710959 0 53
-1.983189 -1.9409755 0.58260983 0 54
-1.9863029 -1.9440231 0.61026692 0 55
-1.9785315 -1.9364172 0.63462484 0 56
-1.9780778 -1.9359732 0.66133171 0 57
-1.9841022 -1.9418694 0.69039869 0 58
-1.987648 -1.9453398 0.71885794 0 59
-1.9791034 -1.936977 0.74300528 0 60
-1.9857702 -1.9435018 0.7729727 0 61
-1.9757552 -1.9337001 0.79654062 0 62
-1.9825522 -1.9403523 0.8269881 0 63
-1.7450767 -1.7504562 -0.73685205 0 0
-1.7955832 -1.8011185 -0.7327764 0 1
-1.8644689 -1.8702166 -0.73465174 0 2
-1.9355528 -1.9415195 -0.7355625 0 3
-1.9433322 -1.9493228 -0.71144575 0 4
-1.9321235 -1.9380797 -0.68055302 0 5
-1.9296937 -1.9356424 -0.65306365 0 6
-1.9344913 -1.9404547 -0.62810469 0 7
-1.9313376 -1.9372914 -0.60065311 0 8
-1.92656 -1.9324989 -0.57291132 0 9
-1.928619 -1.9345644 -0.54734093 0 10
-1.9381597 -1.9441345 -0.52383316 0 11
-1.9233111 -1.9292401 -0.49389654 0 12
-1.9308383 -1.9367906 -0.46989128 0 13
-1.9258552 -1.9317919 -0.44288892 0 14
-1.9299355 -1.9358848 -0.41806006 0 15
-1.9279137 -1.9338568 -0.39195424 0 16
-1.9324445 -1.9384016 -0.36721501 0 17
-1.9294163 -1.935364 -0.34108257 0 18
-1.9344971 -1.9404606 -0.31641522 0 19
-1.9286653 -1.9346107 -0.29002696 0 20
-1.9303834 -1.9363343 -0.26487797 0 21
-1.9304399 -1.9363909 -0.23952284 0 22
-1.9387375 -1.9447141 -0.21512151 0 23
-1.933296 -1.9392557 -0.18919474 0 24
-1.9385141 -1.94449 -0.16434632 0 25
-1.9249052 -1.9308392 -0.13803923 0 26
-1.9390831 -1.9450607 -0.11374095 0 27
-1.9428061 -1.9487951 -0.088615023 0 28
-1.9297835 -1.9357324 -0.062861532 0 29
-1.9231113 -1.9290397 -0.037582275 0 30
-1.9264168 -1.9323553 -0.012548249 0 31
-1.9277843 -1.9337271 0.012557157 0 32
-1.934581 -1.9405447 0.037806422 0 33
-1.9422672 -1.9482546 0.063268177 0 34
-1.9278791 -1.9338222 0.087934181 0 35
-1.9297028 -1.9356514 0.11319072 0 36
-1.9316944 -1.9376493 0.1385261 0 37
-1.9336735 -1.9396344 0.16393593 0 38
-1.9337528 -1.939714 0.18923944 0 39
-1.9431291 -1.9491191 0.21560879 0 40
-1.9274976 -1.9334395 0.23915777 0 41
-1.9337715 -1.9397327 0.26534286 0 42
-1.9316808 -1.9376357 0.29048043 0 43
-1.9342908 -1.9402535 0.31638145 0 44
-1.9361799 -1.9421486 0.34227824 0 45
-1.9305036 -1.9364548 0.3668462 0 46
-1.9268736 -1.9328135 0.3917428 0 47
-1.9385695 -1.9445455 0.41993037 0 48
-1.926744 -1.9326835 0.44309333 0 49
-1.931352 -1.9373058 0.47001627 0 50
-1.9316959 -1.9376507 0.49604973 0 51
-1.9293501 -1.9352977 0.52145213 0 52
-1.9371104 -1.943082 0.5497508 0 53
-1.9293154 -1.9352629 0.57373071 0 54
-1.9333413 -1.9393011 0.60127628 0 55
-1.9269097 -1.9328498 0.62564301 0 56
-1.9366406 -1.9426106 0.6554147 0 57
-1.9351908 -1.9411564 0.68163335 0 58
-1.9290205 -1.9349672 0.70620632 0 59
-1.9332806 -1.9392403 0.73469901 0 60
-1.9258401 -1.9317769 0.75883365 0 61
-1.9331955 -1.9391549 0.7889359 0 62
-1.9336188 -1.9395795 0.81646323 0 63
-1.7287723 -1.777281 -0.73913962 0 0
-1.7835648 -1.833611 -0.73701739 0 1
-1.8489823 -1.9008641 -0.7377038 0 2
-1.883281 -1.9361253 -0.72469056 0 3
-1.8786288 -1.9313426 -0.69639981 0 4
-1.8799301 -1.9326802 -0.67048901 0 5
-1.8799273 -1.9326774 -0.6442154 0 6
-1.8841362 -1.9370043 -0.61944169 0 7
-1.890033 -1.9430667 -0.59519303 0 8
-1.8855795 -1.9384881 -0.56777018 0 9
-1.883532 -1.9363832 -0.54126179 0 10
-1.8817948 -1.9345973 -0.51498973 0 11
-1.8784752 -1.9311845 -0.48844403 0 12
-1.8765658 -1.9292215 -0.46242166 0 13
-1.8844925 -1.9373708 -0.43882212 0 14
-1.8873523 -1.9403108 -0.4139728 0 15
-1.882442 -1.9352627 -0.38751835 0 16
-1.897278 -1.9505148 -0.36506251 0 17
-1.8838987 -1.9367603 -0.33722055 0 18
-1.8793005 -1.9320329 -0.31124929 0 19
-1.8757792 -1.9284128 -0.28561834 0 20
-1.890313 -1.9433546 -0.26263878 0 21
-1.8862125 -1.9391389 -0.23697588 0 22
-1.8745207 -1.927119 -0.2106095 0 23
-1.8788159 -1.9315348 -0.18617348 0 24
-1.8822386 -1.9350536 -0.16158037 0 25
-1.8776304 -1.930316 -0.1363409 0 26
-1.8788807 -1.9316015 -0.11159443 0 27
-1.877488 -1.9301696 -0.086711757 0 28
-1.8848921 -1.9377815 -0.062170699 0 29
-1.8864173 -1.9393494 -0.037328392 0 30
-1.8718972 -1.924422 -0.012346327 0 31
-1.8843387 -1.9372126 0.012428386 0 32
-1.8764511 -1.9291036 0.037131183 0 33
-1.8699399 -1.9224098 0.061677523 0 34
-1.8768176 -1.9294804 0.086680792 0 35
-1.8675327 -1.919935 0.11092043 0 36
-1.8787382 -1.9314548 0.13642134 0 37
-1.875809 -1.9284434 0.16102841 0 38
-1.8830419 -1.9358793 0.18659224 0 39
-1.8755829 -1.9282111 0.21072884 0 40
-1.8823431 -1.9351609 0.23648974 0 41
-1.8801826 -1.9329398 0.26123127 0 42
-1.8817582 -1.9345597 0.28652877 0 43
-1.885962 -1.9388814 0.3123526 0 44
-1.8797376 -1.9324824 0.3364757 0 45
-1.878022 -1.9307185 0.36135739 0 46
-1.8746318 -1.9272333 0.38591054 0 47
-1.8843236 -1.937197 0.41330847 0 48
-1.882157 -1.9349697 0.43827829 0 49
-1.8870301 -1.9399796 0.46500027 0 50
-1.8790276 -1.9317524 0.48858765 0 51
-1.8762445 -1.9288913 0.51347083 0 52
-1.8863637 -1.9392945 0.54207551 0 53
-1.8709688 -1.9234675 0.56337076 0 54
-1.8802104 -1.9329684 0.59209973 0 55
-1.88472 -1.9376045 0.61963362 0 56
-1.8878933 -1.9408669 0.64694518 0 57
-1.8749794 -1.9275906 0.66872334 0 58
-1.8699878 -1.922459 0.69319659 0 59
-1.8742713 -1.9268626 0.72122359 0 60
-1.8913146 -1.9443842 0.75459343 0 61
-1.8709781 -1.9234771 0.77313894 0 62
-1.8861964 -1.9391224 0.80644655 0 63
-1.6913583 -1.782144 -0.73245722 0 0
-1.7524575 -1.8465227 -0.73349017 0 1
-1.8194448 -1.9171056 -0.73526871 0 2
-1.8346848 -1.9331636 -0.71508372 0 3
-1.8250782 -1.9230415 -0.68526274 0 4
-1.8249609 -1.9229178 -0.65926725 0 5
-1.8400621 -1.9388297 -0.63867581 0 6
-1.8376769 -1.9363163 -0.61194903 0 7
-1.8326806 -1.9310519 -0.58456546 0 8
-1.8302485 -1.9284892 -0.55820763 0 9
-1.8373553 -1.9359773 -0.53479266 0 10
-1.8233624 -1.9212334 -0.50542563 0 11
-1.8329802 -1.9313675 -0.4827531 0 12
-1.8288462 -1.9270116 -0.45646712 0 13
-1.8374428 -1.9360696 -0.43337703 0 14
-1.8416162 -1.940467 -0.40914372 0 15
-1.8395826 -1.9383243 -0.38357291 0 16
-1.8380442 -1.9367033 -0.35822031 0 17
-1.8294948 -1.927695 -0.33170012 0 18
-1.8421676 -1.9410481 -0.30902904 0 19
-1.8222359 -1.9200466 -0.28103924 0 20
-1.8411567 -1.9399829 -0.25910383 0 21
-1.8394297 -1.9381633 -0.23407482 0 22
-1.8338984 -1.932335 -0.20869929 0 23
-1.8325306 -1.9308938 -0.18392587 0 24
-1.8421285 -1.941007 -0.16017392 0 25
-1.8291765 -1.9273598 -0.13453326 0 26
-1.8369625 -1.9355636 -0.11050999 0 27
-1.8340861 -1.9325327 -0.085798256 0 28
-1.8273733 -1.9254596 -0.061049834 0 29
-1.8270799 -1.9251505 -0.03661989 0 30
-1.8385731 -1.9372607 -0.012282723 0 31
-1.8387294 -1.9374254 0.012283767 0 32
-1.8339018 -1.9323386 0.03675662 0 33
-1.8332545 -1.9316565 0.061246317 0 34
-1.8296524 -1.9278611 0.085590854 0 35
-1.8294851 -1.9276848 0.11006016 0 36
-1.8337567 -1.9321858 0.13487013 0 37
-1.83219 -1.9305351 0.15930977 0 38
-1.8337322 -1.93216 0.18404648 0 39
-1.831005 -1.9292862 0.20837 0 40
-1.8404313 -1.9392186 0.23420228 0 41
-1.8384184 -1.9370977 0.25871849 0 42
-1.8317049 -1.9300238 0.28249961 0 43
-1.8430786 -1.942008 0.30918184 0 44
-1.8297861 -1.9280019 0.33175293 0 45
-1.8362776 -1.9348419 0.357876 0 46
-1.8370737 -1.9356807 0.38304976 0 47
-1.8271616 -1.9252366 0.4059324 0 48
-1.8404536 -1.9392421 0.43408719 0 49
-1.8302258 -1.9284654 0.45681149 0 50
-1.831035 -1.929318 0.4822408 0 51
-1.8285738 -1.9267247 0.50687021 0 52
-1.835919 -1.9344641 0.53437465 0 53
-1.8226459 -1.9204786 0.55588895 0 54
-1.8244493 -1.9223788 0.58194 0 55
-1.8312029 -1.9294949 0.60979319 0 56
-1.827449 -1.9255394 0.63429785 0 57
-1.8385144 -1.9371988 0.66416347 0 58
-1.8331321 -1.9315276 0.68828672 0 59
-1.8290603 -1.9272373 0.71289152 0 60
-1.8364652 -1.9350396 0.74214697 0 61
-1.8322133 -1.9305594 0.76687187 0 62
-1.8344855 -1.9329537 0.79443967 0 63
-1.6626769 -1.7956333 -0.72954327 0 0
-1.7270187 -1.8651201 -0.73238659 0 1
-1.7826599 -1.9252107 -0.7299149 0 2
-1.7921802 -1.9354922 -0.70773983 0 3
-1.7795587 -1.9218614 -0.67699343 0 4
-1.8030587 -1.9472407 -0.65995502 0 5
-1.79318 -1.936572 -0.63062096 0 6
-1.7941678 -1.9376388 -0.60534883 0 7
-1.7925377 -1.9358783 -0.5793103 0 8
-1.7909253 -1.934137 -0.55342621 0 9
-1.7889799 -1.932036 -0.52758729 0 10
-1.7915781 -1.934842 -0.5031721 0 11
-1.7948036 -1.9383254 -0.47893962 0 12
-1.7903695 -1.9335368 -0.45276365 0 13
-1.7925836 -1.9359279 -0.42837882 0 14
-1.7951754 -1.9387269 -0.40409195 0 15
-1.7833133 -1.9259163 -0.37674963 0 16
-1.7873474 -1.9302729 -0.3529391 0 17
-1.7811412 -1.9235705 -0.32719702 0 18
-1.7952468 -1.9388041 -0.30513418 0 19
-1.7817941 -1.9242756 -0.27843025 0 20
-1.7788122 -1.9210552 -0.25363532 0 21
-1.78697 -1.9298655 -0.2304015 0 22
-1.78443 -1.9271224 -0.2057509 0 23
-1.7861967 -1.9290303 -0.18164247 0 24
-1.7850864 -1.9278312 -0.1572634 0 25
-1.7755929 -1.9175786 -0.13231649 0 26
-1.7864176 -1.929269 -0.1088882 0 27
-1.7855558 -1.9283382 -0.084630862 0 28
-1.7839179 -1.9265692 -0.060384937 0 29
-1.7947495 -1.938267 -0.03644684 0 30
-1.79004 -1.9331809 -0.012116384 0 31
-1.7983768 -1.9421843 0.012172814 0 32
-1.7838296 -1.9264739 0.03622508 0 33
-1.785635 -1.9284236 0.060443059 0 34
-1.7946762 -1.9381877 0.085063137 0 35
-1.7799034 -1.9222337 0.10849113 0 36
-1.7972546 -1.9409724 0.13393071 0 37
-1.8002608 -1.944219 0.15860024 0 38
-1.7850771 -1.9278212 0.18152861 0 39
-1.7961358 -1.9397641 0.20710061 0 40
-1.7839937 -1.9266512 0.23001777 0 41
-1.7884823 -1.9314986 0.25501415 0 42
-1.7860221 -1.9288417 0.27909091 0 43
-1.7904075 -1.9335778 0.30431163 0 44
-1.7892315 -1.9323078 0.32868323 0 45
-1.7862965 -1.9291379 0.35273156 0 46
-1.7845925 -1.9272978 0.37701988 0 47
-1.7813015 -1.9237436 0.40096894 0 48
-1.7923639 -1.9356906 0.42832634 0 49
-1.7975494 -1.9412909 0.45457935 0 50
-1.7877598 -1.9307184 0.47706002 0 51
-1.7944114 -1.9379019 0.50396788 0 52
-1.7912287 -1.9344646 0.52825046 0 53
-1.7861451 -1.9289745 0.55194902 0 54
-1.7847986 -1.9275204 0.57680917 0 55
-1.7863926 -1.9292419 0.60272551 0 56
-1.7854662 -1.9282414 0.62790823 0 57
-1.78269 -1.9252433 0.65249968 0 58
-1.7874572 -1.9303917 0.67999828 0 59
-1.79154 -1.9348009 0.70748705 0 60
-1.7901573 -1.9333076 0.73298478 0 61
-1.7818949 -1.9243846 0.75565827 0 62
-1.7833322 -1.9259367 0.78248394 0 63
-1.6603884 -1.8379866 -0.73839992 0 0
-1.70851 -1.8912555 -0.73434424 0 1
-1.7447419 -1.9313627 -0.72405857 0 2
-1.7399244 -1.9260299 -0.6964038 0 3
-1.755294 -1.9430435 -0.67680067 0 4
-1.7498331 -1.9369985 -0.64914227 0 5
-1.7455245 -1.932229 -0.62217033 0 6
-1.7382793 -1.924209 -0.59443039 0 7
-1.7483073 -1.9353095 -0.57266349 0 8
-1.7417467 -1.9280472 -0.54551417 0 9
-1.745508 -1.9322107 -0.52173442 0 10
-1.750535 -1.9377755 -0.49829945 0 11
-1.746639 -1.9334627 -0.47239554 0 12
-1.7432637 -1.9297264 -0.44681808 0 13
-1.7469712 -1.9338305 -0.42312935 0 14
-1.7555233 -1.9432974 -0.40051493 0 15
-1.7436005 -1.9300992 -0.37334552 0 16
-1.751635 -1.9389931 -0.35056874 0 17
-1.7496836 -1.936833 -0.32576865 0 18
-1.7439104 -1.9304423 -0.30042055 0 19
-1.7472922 -1.9341857 -0.27673444 0 20
-1.7382219 -1.9241453 -0.25120232 0 21
-1.7446785 -1.9312925 -0.22799338 0 22
-1.7470193 -1.9338838 -0.20416379 0 23
-1.7434938 -1.9299811 -0.17969969 0 24
-1.738489 -1.9244411 -0.15523125 0 25
-1.7392309 -1.9252622 -0.13136105 0 26
-1.7474592 -1.9343706 -0.10795522 0 27
-1.7409419 -1.9271563 -0.08363314 0 28
-1.7407218 -1.9269127 -0.059720296 0 29
-1.7468792 -1.9337287 -0.03595487 0 30
-1.739621 -1.9256941 -0.011934485 0 31
-1.7441567 -1.930715 0.011965603 0 32
-1.7398455 -1.9259427 0.035810098 0 33
-1.7484783 -1.9354988 0.059986401 0 34
-1.7398583 -1.9259568 0.083581083 0 35
-1.7595992 -1.9478092 0.10870521 0 36
-1.7438772 -1.9304055 0.13171197 0 37
-1.7399156 -1.9260203 0.15535863 0 38
-1.7422222 -1.9285735 0.17956862 0 39
-1.7362093 -1.9219174 0.20290048 0 40
-1.7467772 -1.9336157 0.22826764 0 41
-1.7509444 -1.9382286 0.25304094 0 42
-1.7447789 -1.9314036 0.2763364 0 43
-1.7424623 -1.9288393 0.30017108 0 44
-1.7484281 -1.9354433 0.32553491 0 45
-1.7484938 -1.935516 0.34994006 0 46
-1.7433002 -1.9297668 0.37328121 0 47
-1.7417873 -1.9280921 0.39738113 0 48
-1.7413981 -1.9276613 0.42177948 0 49
-1.7421378 -1.92848 0.44652951 0 50
-1.740193 -1.9263273 0.47065216 0 51
-1.7392685 -1.9253038 0.49509236 0 52
-1.7359407 -1.9216201 0.51887476 0 53
-1.7442669 -1.9308369 0.54630351 0 54
-1.7417612 -1.9280633 0.57051933 0 55
-1.7455899 -1.9323013 0.59693033 0 56
-1.7329345 -1.9182924 0.61768275 0 57
-1.7561989 -1.9440452 0.6515038 0 58
-1.7349463 -1.9205194 0.66895509 0 59
-1.7408681 -1.9270746 0.69678152 0 60
-1.7428018 -1.9292151 0.72325349 0 61
-1.7390988 -1.9251161 0.74749172 0 62
-1.7474791 -1.9343927 0.77713048 0 63
-1.6312205 -1.8509517 -0.73549473 0 0
-1.6886176 -1.9160805 -0.73586541 0 1
-1.7033722 -1.9328226 -0.71669936 0 2
-1.6958511 -1.9242884 -0.68818218 0 3
-1.6987463 -1.9275736 -0.6640861 0 4
-1.6991405 -1.928021 -0.63908333 0 5
-1.7056895 -1.9354521 -0.61640799 0 6
-1.7040491 -1.9335908 -0.59081089 0 7
-1.7112166 -1.9417237 -0.56829214 0 8
-1.7046434 -1.9342649 -0.54130185 0 9
-1.7007933 -1.9298962 -0.51542336 0 10
-1.698329 -1.9270999 -0.49014699 0 11
-1.6983895 -1.9271687 -0.46571997 0 12
-1.7032721 -1.932709 -0.4426257 0 13
-1.7052107 -1.9349087 -0.4187457 0 14
-1.6910049 -1.9187893 -0.39114869 0 15
-1.6873728 -1.914668 -0.36631942 0 16
-1.7038226 -1.9333336 -0.34573144 0 17
-1.7052829 -1.9349908 -0.32190755 0 18
-1.6968476 -1.925419 -0.29636931 0 19
-1.704546 -1.9341545 -0.27371043 0 20
-1.7006111 -1.9296895 -0.24917723 0 21
-1.7068306 -1.9367468 -0.2261425 0 22
-1.7053558 -1.9350734 -0.20206027 0 23
-1.7020702 -1.9313452 -0.17786451 0 24
-1.6988138 -1.9276502 -0.15379348 0 25
-1.7081962 -1.9382963 -0.13080731 0 26
-1.7026149 -1.9319632 -0.10664438 0 27
-1.7024277 -1.9317509 -0.082917787 0 28
-1.7062991 -1.9361438 -0.059351631 0 29
-1.7000333 -1.9290339 -0.035476208 0 30
-1.7053503 -1.9350672 -0.011861718 0 31
-1.709607 -1.9398973 0.011891326 0 32
-1.7028813 -1.9322655 0.035535637 0 33
-1.7023369 -1.9316478 0.05921381 0 34
-1.7015884 -1.9307985 0.082876913 0 35
-1.6972582 -1.9258851 0.10630886 0 36
-1.6913668 -1.9192001 0.1295186 0 37
-1.6930786 -1.9211423 0.15327427 0 38
-1.7064909 -1.9363614 0.17832647 0 39
-1.7101967 -1.9405663 0.20263386 0 40
-1.6979823 -1.9267067 0.22497018 0 41
-1.7030238 -1.9324273 0.24953076 0 42
-1.7001406 -1.9291557 0.27300301 0 43
-1.7111759 -1.9416776 0.29887187 0 44
-1.6984133 -1.9271955 0.32061073 0 45
-1.7027844 -1.9321555 0.34552076 0 46
-1.7073948 -1.9373871 0.37066609 0 47
-1.6984204 -1.9272038 0.39286399 0 48
-1.7083784 -1.9385031 0.4195236 0 49
-1.6971691 -1.9257839 0.44103971 0 50
-1.7063397 -1.9361898 0.46790004 0 51
-1.7005763 -1.9296501 0.49079558 0 52
-1.7078062 -1.9378538 0.51754862 0 53
-1.7127203 -1.9434298 0.54386663 0 54
-1.7010847 -1.930227 0.56492734 0 55
-1.6999949 -1.9289904 0.58940524 0 56
-1.7032838 -1.9327223 0.6155386 0 57
-1.6995909 -1.928532 0.63925272 0 58
-1.6989441 -1.927798 0.66416341 0 59
-1.6942071 -1.9224229 0.68751502 0 60
-1.7124255 -1.9430953 0.72050852 0 61
-1.6939435 -1.9221239 0.7381863 0 62
-1.7083106 -1.9384263 0.7702536 0 63
-1.6082764 -1.8707961 -0.73546624 0 0
-1.6564621 -1.9268471 -0.73212242 0 1
-1.6552101 -1.9253908 -0.70634317 0 2
-1.6579429 -1.9285696 -0.68237072 0 3
-1.6653534 -1.9371898 -0.66029412 0 4
-1.6553346 -1.9255356 -0.63146478 0 5
-1.6615816 -1.9328023 -0.60901093 0 6
-1.6620631 -1.9333625 -0.58445227 0 7
-1.6512524 -1.920787 -0.55617988 0 8
-1.6592019 -1.930034 -0.53436786 0 9
-1.6598541 -1.9307928 -0.5101732 0 10
-1.6584079 -1.9291106 -0.48543495 0 11
-1.6546872 -1.9247824 -0.46019152 0 12
-1.663853 -1.9354446 -0.43853346 0 13
-1.6476725 -1.9166229 -0.41037261 0 14
-1.670289 -1.9429311 -0.39185357 0 15
-1.6600519 -1.931023 -0.36551544 0 16
-1.6576669 -1.9282486 -0.34115121 0 17
-1.658535 -1.9292585 -0.31753713 0 18
-1.6624266 -1.9337852 -0.29448828 0 19
-1.6525069 -1.9222463 -0.26912934 0 20
-1.6530038 -1.9228244 -0.2456475 0 21
-1.6674401 -1.939617 -0.22406662 0 22
-1.6506249 -1.9200572 -0.19835788 0 23
-1.6560298 -1.9263443 -0.17551535 0 24
-1.652017 -1.9216764 -0.1516847 0 25
-1.6621606 -1.9334759 -0.12909292 0 26
-1.6623749 -1.9337251 -0.10560529 0 27
-1.6610079 -1.932135 -0.082051381 0 28
-1.6594676 -1.9303432 -0.058543868 0 29
-1.6631923 -1.9346759 -0.035201192 0 30
-1.656579 -1.9269832 -0.011686415 0 31
-1.6565194 -1.9269139 0.011685994 0 32
-1.649158 -1.9183507 0.034904156 0 33
-1.6558551 -1.926141 0.058416422 0 34
-1.6629032 -1.9343395 0.082144998 0 35
-1.6637123 -1.9352808 0.10569025 0 36
-1.6604 -1.931428 0.12895618 0 37
-1.6582427 -1.9289185 0.15225634 0 38
-1.6553571 -1.9255619 0.17544407 0 39
-1.6588796 -1.9296594 0.19934987 0 40
-1.6538249 -1.9237796 0.22223705 0 41
-1.6511419 -1.9206585 0.24537081 0 42
-1.6609938 -1.9321185 0.27051154 0 43
-1.6518191 -1.9214463 0.29260924 0 44
-1.6674786 -1.9396619 0.31924939 0 45
-1.664497 -1.9361936 0.34255686 0 46
-1.6538047 -1.9237559 0.36413988 0 47
-1.65286 -1.9226571 0.38776469 0 48
-1.6556635 -1.9259182 0.41236287 0 49
-1.6477525 -1.9167159 0.4342899 0 50
-1.6607773 -1.9318668 0.46188527 0 51
-1.6653969 -1.9372405 0.48748073 0 52
-1.6648815 -1.9366407 0.51171839 0 53
-1.6610384 -1.9321704 0.53495938 0 54
-1.6595858 -1.9304807 0.55898678 0 55
-1.6616796 -1.9329164 0.58431739 0 56
-1.6535476 -1.923457 0.60606629 0 57
-1.657716 -1.9283059 0.63237327 0 58
-1.6609201 -1.9320329 0.65853637 0 59
-1.6656982 -1.9375908 0.68556267 0 60
-1.6548613 -1.9249852 0.70619434 0 61
-1.6575041 -1.9280592 0.73258293 0 62
-1.6550353 -1.9251875 0.75684911 0 63
-1.5829778 -1.887836 -0.73445731 0 0
-1.6203598 -1.9324172 -0.72661328 0 1
-1.6096532 -1.9196486 -0.69692272 0 2
-1.6153834 -1.9264823 -0.67455304 0 3
-1.615397 -1.9264987 -0.64983034 0 4
-1.6159271 -1.9271308 -0.62542433 0 5
-1.6219914 -1.934363 -0.6031726 0 6
-1.6108564 -1.9210836 -0.57470906 0 7
-1.6101567 -1.920249 -0.55024946 0 8
-1.6114359 -1.9217746 -0.52655512 0 9
-1.6231005 -1.9356856 -0.50615418 0 10
-1.6175126 -1.9290216 -0.48037127 0 11
-1.6050584 -1.9141691 -0.45290098 0 12
-1.6206514 -1.9327648 -0.43337813 0 13
-1.6125129 -1.9230591 -0.40747443 0 14
-1.6137434 -1.9245266 -0.38411063 0 15
-1.6169795 -1.9283859 -0.36122537 0 16
-1.6076996 -1.9173188 -0.33569452 0 17
-1.6218379 -1.9341799 -0.31504092 0 18
-1.6186835 -1.930418 -0.29092237 0 19
-1.6116439 -1.9220227 -0.2663033 0 20
-1.6183693 -1.9300435 -0.24400899 0 21
-1.6170639 -1.9284866 -0.22046709 0 22
-1.6136802 -1.9244512 -0.19674705 0 23
-1.6171849 -1.9286308 -0.1738987 0 24
-1.6161619 -1.9274108 -0.15055729 0 25
-1.614699 -1.9256661 -0.1272362 0 26
-1.6189549 -1.9307418 -0.10434728 0 27
-1.6088042 -1.9186362 -0.080631934 0 28
-1.616192 -1.9274467 -0.057848923 0 29
-1.6134552 -1.9241828 -0.034646668 0 30
-1.6062646 -1.9156073 -0.011496771 0 31
-1.6152381 -1.926309 0.011560999 0 32
-1.6174682 -1.9289688 0.034732845 0 33
-1.6204227 -1.9324921 0.058000352 0 34
-1.6189408 -1.9307249 0.081139967 0 35
-1.623807 -1.9365282 0.10466 0 36
-1.6116909 -1.9220787 0.12699917 0 37
-1.6264523 -1.9396831 0.15151593 0 38
-1.6163923 -1.9276856 0.17381346 0 39
-1.6176502 -1.9291856 0.19723108 0 40
-1.6159821 -1.9271963 0.22031958 0 41
-1.6131226 -1.9237862 0.2432179 0 42
-1.6137397 -1.9245222 0.2666496 0 43
-1.6165525 -1.9278766 0.29053938 0 44
-1.6221614 -1.9345657 0.31510374 0 45
-1.617382 -1.928866 0.33771625 0 46
-1.6199518 -1.9319305 0.36188936 0 47
-1.6118151 -1.9222269 0.38365167 0 48
-1.6208659 -1.9330207 0.40958518 0 49
-1.6115035 -1.9218552 0.43093193 0 50
-1.6147481 -1.9257247 0.4556351 0 51
-1.6106918 -1.9208872 0.4783456 0 52
-1.6078444 -1.9174914 0.50139666 0 53
-1.6231689 -1.9357673 0.53038901 0 54
-1.6162978 -1.9275728 0.55234808 0 55
-1.6139617 -1.9247868 0.57581693 0 56
-1.6170665 -1.9284896 0.60134119 0 57
-1.6158839 -1.9270793 0.62540764 0 58
-1.6209954 -1.9331752 0.65208238 0 59
-1.6124496 -1.9229836 0.67332798 0 60
-1.6235156 -1.9361807 0.70292461 0 61
-1.6158395 -1.9270263 0.72458625 0 62
-1.6134474 -1.9241736 0.74859434 0 63
-1.5508121 -1.8963544 -0.73029721 0 0
-1.5719166 -1.9221612 -0.71543491 0 1
-1.5771291 -1.9285352 -0.69305593 0 2
-1.5815016 -1.9338819 -0.67028403 0 3
-1.5692312 -1.9188775 -0.64070243 0 4
-1.5803922 -1.9325254 -0.62082136 0 5
-1.5713075 -1.9214165 -0.59306598 0 6
-1.5736061 -1.9242272 -0.56981772 0 7
-1.5760573 -1.9272245 -0.54665363 0 8
-1.5788497 -1.930639 -0.52362496 0 9
-1.5762208 -1.9274244 -0.49888816 0 10
-1.5669768 -1.9161208 -0.4723247 0 11
-1.579685 -1.9316605 -0.45240939 0 12
-1.5668397 -1.9159532 -0.42525628 0 13
-1.5774201 -1.9288911 -0.40456963 0 14
-1.5778733 -1.9294453 -0.38119107 0 15
-1.5784512 -1.9301517 -0.35789332 0 16
-1.578362 -1.9300427 -0.33449891 0 17
-1.5822014 -1.9347376 -0.31193924 0 18
-1.5799695 -1.9320085 -0.28821239 0 19
-1.5704638 -1.9203846 -0.2633808 0 20
-1.5777993 -1.9293548 -0.24145082 0 21
-1.5820862 -1.9345968 -0.21892504 0 22
-1.5664285 -1.9154505 -0.19384299 0 23
-1.5701712 -1.920027 -0.17136906 0 24
-1.5758969 -1.9270283 -0.14900248 0 25
-1.5725502 -1.922936 -0.12576863 0 26
-1.5791022 -1.9309478 -0.10330119 0 27
-1.5743396 -1.9251242 -0.080084972 0 28
-1.5688789 -1.9184467 -0.056995489 0 29
-1.5722606 -1.9225819 -0.034267139 0 30
-1.5793421 -1.9312413 -0.01147318 0 31
-1.573794 -1.924457 0.011432875 0 32
-1.5749749 -1.9259009 0.034326296 0 33
-1.5809505 -1.933208 0.057434034 0 34
-1.5768569 -1.9282023 0.080213018 0 35
-1.5705998 -1.9205511 0.10274499 0 36
-1.5776343 -1.929153 0.12617527 0 37
-1.5794028 -1.9313155 0.14933397 0 38
-1.5763195 -1.9275452 0.17204008 0 39
-1.5764848 -1.9277474 0.19508743 0 40
-1.5678085 -1.9171379 0.21694934 0 41
-1.5719603 -1.9222146 0.24055727 0 42
-1.5699853 -1.9197996 0.26330054 0 43
-1.5816042 -1.9340074 0.28851059 0 44
-1.583491 -1.9363145 0.31219348 0 45
-1.5728762 -1.9233346 0.33333629 0 46
-1.574759 -1.9256369 0.35705617 0 47
-1.5750636 -1.9260094 0.3805123 0 48
-1.5728478 -1.9233 0.40339693 0 49
-1.5751176 -1.9260753 0.42750296 0 50
-1.5683961 -1.9178563 0.44917637 0 51
-1.5787476 -1.9305143 0.47587273 0 52
-1.5763968 -1.9276396 0.49894387 0 53
-1.582249 -1.934796 0.52475232 0 54
-1.5751493 -1.9261142 0.54633868 0 55
-1.5819668 -1.9344506 0.57284522 0 56
-1.5795584 -1.9315057 0.59618014 0 57
-1.5693991 -1.9190828 0.61650294 0 58
-1.5765455 -1.9278215 0.6436888 0 59
-1.5804679 -1.9326179 0.66984594 0 60
-1.5743622 -1.9251516 0.69183999 0 61
-1.5718268 -1.9220514 0.71539402 0 62
-1.5717221 -1.9219235 0.74014401 0 63
-1.5409491 -1.9322965 -0.73678595 0 0
-1.5342367 -1.9238795 -0.70899898 0 1
-1.5419332 -1.9335306 -0.6879853 0 2
-1.5473893 -1.9403723 -0.66588837 0 3
-1.5290275 -1.9173472 -0.63386577 0 4
-1.5435827 -1.935599 -0.61566472 0 5
-1.5380915 -1.9287133 -0.58943594 0 6
-1.5370561 -1.9274149 -0.56512207 0 7
-1.5454545 -1.9379462 -0.5442633 0 8
-1.5308837 -1.9196749 -0.51550668 0 9
-1.540264 -1.9314375 -0.49498716 0 10
-1.5409603 -1.9323107 -0.47160909 0 11
-1.5339162 -1.9234776 -0.44604161 0 12
-1.534043 -1.9236364 -0.42274284 0 13
-1.5351518 -1.925027 -0.39976966 0 14
-1.5311114 -1.9199604 -0.37556919 0 15
-1.5335039 -1.9229605 -0.35303676 0 16
-1.531966 -1.921032 -0.32964748 0 17
-1.5355157 -1.9254833 -0.30737966 0 18
-1.5303154 -1.9189624 -0.28343764 0 19
-1.5309842 -1.9198009 -0.26069906 0 20
-1.5372083 -1.9276059 -0.23884836 0 21
-1.5317831 -1.9208027 -0.21521632 0 22
-1.5397327 -1.9307712 -0.19346277 0 23
-1.5300528 -1.9186329 -0.16955258 0 24
-1.5409231 -1.932264 -0.14793102 0 25
-1.5401101 -1.9312445 -0.12506399 0 26
-1.529209 -1.9175749 -0.10157213 0 27
-1.5422126 -1.9338809 -0.079654336 0 28
-1.5404541 -1.9316759 -0.056821465 0 29
-1.5303298 -1.9189804 -0.03386499 0 30
-1.5294354 -1.9178587 -0.011281095 0 31
-1.5358545 -1.9259081 0.011328444 0 32
-1.5297279 -1.9182256 0.033851672 0 33
-1.5342171 -1.9238549 0.056591406 0 34
-1.5330645 -1.9224095 0.079181843 0 35
-1.5332022 -1.9225821 0.10183736 0 36
-1.5406865 -1.9319673 0.12511079 0 37
-1.538049 -1.9286599 0.1476551 0 38
-1.5359548 -1.926034 0.17020662 0 39
-1.5333568 -1.9227761 0.19266167 0 40
-1.5423384 -1.9340386 0.21669933 0 41
-1.5288614 -1.9171389 0.23755142 0 42
-1.5313501 -1.9202598 0.26076138 0 43
-1.5427574 -1.9345641 0.28574207 0 44
-1.5310912 -1.9199351 0.30649397 0 45
-1.5380362 -1.9286439 0.33095369 0 46
-1.5347556 -1.92453 0.35332492 0 47
-1.5422564 -1.9339359 0.37830299 0 48
-1.5351557 -1.9250319 0.39977068 0 49
-1.5355529 -1.92553 0.42315897 0 50
-1.5379095 -1.928485 0.4472028 0 51
-1.5371883 -1.9275807 0.47045466 0 52
-1.5361035 -1.9262203 0.49365011 0 53
-1.528801 -1.9170632 0.51480538 0 54
-1.5179808 -1.9034951 0.53458786 0 55
-1.5349892 -1.924823 0.56436211 0 56
-1.5363026 -1.92647 0.58875036 0 57
-1.5337112 -1.9232205 0.61172742 0 58
-1.5394013 -1.9303557 0.63816631 0 59
-1.5295316 -1.9179795 0.65820372 0 60
-1.5404267 -1.9316416 0.6873132 0 61
-1.5302999 -1.9189429 0.70717973 0 62
-1.5382357 -1.928894 0.73548859 0 63
-1.4938238 -1.9211954 -0.72549421 0 0
-1.5016763 -1.9312944 -0.70487332 0 1
-1.4987545 -1.9275367 -0.67924374 0 2
-1.4934554 -1.9207218 -0.65279329 0 3
-1.4967798 -1.9249971 -0.63026249 0 4
-1.4977853 -1.9262903 -0.60679984 0 5
-1.4935799 -1.9208816 -0.58138573 0 6
-1.4924991 -1.9194918 -0.55737585 0 7
-1.4927938 -1.9198709 -0.53399134 0 8
-1.493919 -1.9213179 -0.51097625 0 9
-1.4928747 -1.9199749 -0.48730814 0 10
-1.5026118 -1.9324976 -0.46710983 0 11
-1.4951253 -1.9228693 -0.44160387 0 12
-1.4928143 -1.9198971 -0.41785544 0 13
-1.4986638 -1.9274201 -0.39640966 0 14
-1.4912429 -1.9178761 -0.37154645 0 15
-1.4912006 -1.9178216 -0.34870055 0 16
-1.498251 -1.9268892 -0.32746643 0 17
-1.4946313 -1.9222339 -0.30390406 0 18
-1.4922198 -1.9191326 -0.28073135 0 19
-1.496634 -1.9248096 -0.25886059 0 20
-1.500312 -1.9295398 -0.23678415 0 21
-1.4964346 -1.924553 -0.21355866 0 22
-1.491513 -1.9182235 -0.19035342 0 23
-1.4991417 -1.9280347 -0.16874161 0 24
-1.4955162 -1.9233719 -0.14583136 0 25
-1.4957598 -1.9236853 -0.12337406 0 26
-1.5034511 -1.9335771 -0.10143283 0 27
-1.4947656 -1.9224068 -0.078418739 0 28
-1.4974103 -1.9258081 -0.056102991 0 29
-1.485779 -1.9108491 -0.033396553 0 30
-1.4936377 -1.920956 -0.011190435 0 31
-1.4934881 -1.9207637 0.011189314 0 32
-1.4991661 -1.9280663 0.033697464 0 33
-1.4977522 -1.9262476 0.056115799 0 34
-1.5014312 -1.9309793 0.078768425 0 35
-1.4957027 -1.923612 0.10091008 0 36
-1.4969349 -1.9251965 0.12347098 0 37
-1.4977026 -1.9261839 0.14604457 0 38
-1.4929625 -1.9200877 0.1680461 0 39
-1.4916869 -1.9184473 0.19037563 0 40
-1.4935573 -1.9208527 0.21314804 0 41
-1.4966307 -1.9248053 0.23620315 0 42
-1.5016764 -1.9312946 0.25973272 0 43
-1.488428 -1.914256 0.280018 0 44
-1.4849397 -1.9097697 0.30193344 0 45
-1.4957895 -1.9237236 0.32692844 0 46
-1.497431 -1.9258348 0.3501575 0 47
-1.4965159 -1.9246577 0.37286022 0 48
-1.4971352 -1.9254541 0.39600533 0 49
-1.4952221 -1.9229938 0.41852942 0 50
-1.5060019 -1.9368577 0.44481641 0 51
-1.5048964 -1.9354358 0.46782005 0 52
-1.4969804 -1.9252551 0.4886483 0 53
-1.4974467 -1.9258548 0.51218289 0 54
-1.4946007 -1.9221946 0.53463763 0 55
-1.4948647 -1.922534 0.55825925 0 56
-1.4907867 -1.9172894 0.58029848 0 57
-1.4971488 -1.9254715 0.60654193 0 58
-1.4975806 -1.9260271 0.63059974 0 59
-1.4888711 -1.9148258 0.65078944 0 60
-1.4910614 -1.9176428 0.67575723 0 61
-1.4975028 -1.9259269 0.7029143 0 62
-1.4977224 -1.9262093 0.72738761 0 63
-1.4614919 -1.9280763 -0.72125173 0 0
-1.4528207 -1.9166367 -0.69295108 0 1
-1.4521302 -1.9157257 -0.66873878 0 2
-1.4538282 -1.9179658 -0.64573199 0 3
-1.4536457 -1.9177251 -0.62198222 0 4
-1.4524713 -1.9161756 -0.59794229 0 5
-1.4511725 -1.9144623 -0.57399857 0 6
-1.4606736 -1.9269966 -0.55429769 0 7
-1.4516228 -1.9150563 -0.52764761 0 8
-1.4632666 -1.9304174 -0.50857258 0 9
-1.4568706 -1.9219794 -0.48323354 0 10
-1.4562045 -1.9211009 -0.45999217 0 11
-1.4641583 -1.9315938 -0.43943954 0 12
-1.456416 -1.9213797 -0.41424906 0 13
-1.4545414 -1.9189068 -0.39095068 0 14
-1.4558663 -1.9206547 -0.36858875 0 15
-1.4576464 -1.9230028 -0.34635749 0 16
-1.4553326 -1.9199505 -0.32322153 0 17
-1.4539899 -1.918179 -0.30041361 0 18
-1.4669122 -1.9352269 -0.28042585 0 19
-1.4559219 -1.920728 -0.25588465 0 20
-1.4576167 -1.9229637 -0.23376 0 21
-1.4577663 -1.923161 -0.21139912 0 22
-1.4534351 -1.9174471 -0.18848859 0 23
-1.4609576 -1.9273714 -0.16709867 0 24
-1.4615539 -1.9281579 -0.14482065 0 25
-1.4574652 -1.9227638 -0.12215634 0 26
-1.4613199 -1.9278493 -0.10018215 0 27
-1.4580259 -1.9235036 -0.07772626 0 28
-1.4546123 -1.9190003 -0.055379402 0 29
-1.457655 -1.9230143 -0.033293389 0 30
-1.4548225 -1.9192775 -0.011075608 0 31
-1.465336 -1.9331474 0.011155645 0 32
-1.452016 -1.9155751 0.033164594 0 33
-1.4514477 -1.9148253 0.055258922 0 34
-1.4573916 -1.9226669 0.077692449 0 35
-1.4660034 -1.934028 0.10050324 0 36
-1.4526775 -1.9164478 0.12175506 0 37
-1.458203 -1.9237373 0.14448862 0 38
-1.4591736 -1.9250176 0.1668946 0 39
-1.451678 -1.9151292 0.18826073 0 40
-1.4584984 -1.9241269 0.21150528 0 41
-1.4497132 -1.9125371 0.23249252 0 42
-1.4612451 -1.9277505 0.2568202 0 43
-1.4645768 -1.932146 0.27997941 0 44
-1.4524511 -1.916149 0.30009568 0 45
-1.4597507 -1.925779 0.32420278 0 46
-1.4581543 -1.9236732 0.34647819 0 47
-1.4563426 -1.9212829 0.3687093 0 48
-1.4541166 -1.9183463 0.39083645 0 49
-1.4604337 -1.9266802 0.41539186 0 50
-1.4667313 -1.9349883 0.44021177 0 51
-1.4492619 -1.9119418 0.45779911 0 52
-1.4527421 -1.9165329 0.48186415 0 53
-1.4578568 -1.9232806 0.50669241 0 54
-1.4607362 -1.9270792 0.5309602 0 55
-1.4620773 -1.9288484 0.55483037 0 56
-1.4575671 -1.9228983 0.57652789 0 57
-1.4531202 -1.9170319 0.59820944 0 58
-1.4537289 -1.9178348 0.6220178 0 59
-1.4596384 -1.9256309 0.64831263 0 60
-1.4563428 -1.9212832 0.67067885 0 61
-1.459155 -1.9249932 0.69597238 0 62
-1.4594476 -1.9253793 0.7202428 0 63
-1.4245356 -1.9281164 -0.71466005 0 0
-1.4269904 -1.9314389 -0.69190651 0 1
-1.4186544 -1.9201564 -0.66414577 0 2
-1.420069 -1.9220707 -0.64118659 0 3
-1.4179039 -1.9191405 -0.61673981 0 4
-1.4163753 -1.9170713 -0.5927422 0 5
-1.4146938 -1.9147956 -0.56883985 0 6
-1.4200393 -1.9220307 -0.54780507 0 7
-1.4186782 -1.9201884 -0.52421552 0 8
-1.4203739 -1.9224836 -0.50184315 0 9
-1.4158962 -1.916423 -0.47742298 0 10
-1.4155828 -1.9159987 -0.45456827 0 11
-1.4157665 -1.9162474 -0.43195498 0 12
-1.4186871 -1.9202005 -0.41020271 0 13
-1.4153063 -1.9156245 -0.38670704 0 14
-1.4260023 -1.9301016 -0.36700886 0 15
-1.420043 -1.9220357 -0.3430123 0 16
-1.4158375 -1.9163436 -0.31965923 0 17
-1.4204175 -1.9225426 -0.29833901 0 18
-1.4169614 -1.9178648 -0.27536437 0 19
-1.4273711 -1.9319544 -0.2550227 0 20
-1.4178903 -1.919122 -0.23115607 0 21
-1.4217818 -1.9243891 -0.2095965 0 22
-1.4188626 -1.9204379 -0.18705338 0 23
-1.4087284 -1.9067212 -0.16379416 0 24
-1.4253633 -1.9292368 -0.1435744 0 25
-1.4331943 -1.939836 -0.1221121 0 26
-1.4161581 -1.9167774 -0.098694414 0 27
-1.419239 -1.9209476 -0.076911964 0 28
-1.4148346 -1.9149861 -0.054757357 0 29
-1.4135031 -1.9131838 -0.032819793 0 30
-1.4261254 -1.9302683 -0.011037 0 31
-1.42083 -1.9231009 0.010996018 0 32
-1.4186995 -1.9202173 0.032940447 0 33
-1.4203602 -1.922465 0.054971211 0 34
-1.4236206 -1.926878 0.077149414 0 35
-1.4162157 -1.9168553 0.09869843 0 36
-1.4134966 -1.9131751 0.12043379 0 37
-1.4176044 -1.918735 0.14279287 0 38
-1.4142443 -1.9141872 0.16443551 0 39
-1.4213845 -1.9238514 0.18738586 0 40
-1.4204454 -1.9225805 0.20939951 0 41
-1.4267824 -1.9311575 0.23260573 0 42
-1.422962 -1.9259864 0.25423491 0 43
-1.4177448 -1.918925 0.2755166 0 44
-1.414884 -1.9150529 0.29717675 0 45
-1.4117221 -1.9107732 0.31873006 0 46
-1.4237168 -1.9270082 0.34389973 0 47
-1.4175076 -1.918604 0.36482263 0 48
-1.4120436 -1.9112084 0.38581556 0 49
-1.4212055 -1.9236091 0.4109309 0 50
-1.4138265 -1.9136215 0.43136308 0 51
-1.4245107 -1.9280828 0.45743519 0 52
-1.4221182 -1.9248444 0.47952095 0 53
-1.4192902 -1.9210167 0.50146019 0 54
-1.4236548 -1.9269242 0.52605438 0 55
-1.419416 -1.9211869 0.54756457 0 56
-1.4195414 -1.9213567 0.57078904 0 57
-1.4199965 -1.9219728 0.59425765 0 58
-1.4199109 -1.921857 0.61761278 0 59
-1.4214463 -1.9239351 0.64180851 0 60
-1.4263625 -1.9305891 0.66775429 0 61
-1.4126709 -1.9120574 0.68496335 0 62
-1.4247161 -1.9283607 0.71475059 0 63
-1.3736291 -1.9078581 -0.70083767 0 0
-1.3852087 -1.9239413 -0.68306708 0 1
-1.383765 -1.921936 -0.65882623 0 2
-1.3856744 -1.9245881 -0.63629419 0 3
-1.3796037 -1.9161565 -0.61028308 0 4
-1.384324 -1.9227124 -0.58917862 0 5
-1.3890607 -1.9292914 -0.56802905 0 6
-1.3878622 -1.9276267 -0.54449487 0 7
-1.3825433 -1.9202392 -0.51954895 0 8
-1.3820412 -1.919542 -0.49660155 0 9
-1.3800386 -1.9167604 -0.47324377 0 10
-1.3864907 -1.9257219 -0.45279598 0 11
-1.3804904 -1.9173878 -0.42835322 0 12
-1.3910506 -1.9320551 -0.40905017 0 13
-1.3759229 -1.911044 -0.38233802 0 14
-1.3822911 -1.9198889 -0.36180753 0 15
-1.3817203 -1.9190962 -0.33942991 0 16
-1.3743547 -1.908866 -0.31556907 0 17
-1.3711993 -1.9044833 -0.29289797 0 18
-1.3887353 -1.9288394 -0.2744675 0 19
-1.3927238 -1.9343791 -0.25306302 0 20
-1.3767165 -1.9121463 -0.22825955 0 21
-1.3809918 -1.9180844 -0.20704462 0 22
-1.3822385 -1.9198158 -0.18532328 0 23
-1.3774896 -1.91322 -0.16288505 0 24
-1.3842838 -1.9226565 -0.14180721 0 25
-1.3907434 -1.9316285 -0.1205098 0 26
-1.3821489 -1.9196913 -0.097961947 0 27
-1.3854464 -1.9242715 -0.076357171 0 28
-1.3839897 -1.9222481 -0.054474272 0 29
-1.3785789 -1.9147331 -0.03255311 0 30
-1.3803697 -1.9172204 -0.010864519 0 31
-1.3830935 -1.9210033 0.010885957 0 32
-1.386283 -1.9254334 0.032735031 0 33
-1.3853872 -1.9241891 0.054529272 0 34
-1.3812056 -1.9183812 0.076123446 0 35
-1.3848438 -1.9234345 0.098152965 0 36
-1.382645 -1.9203806 0.11980807 0 37
-1.3752751 -1.9101443 0.14088437 0 38
-1.3855246 -1.9243802 0.16383518 0 39
-1.3844739 -1.9229207 0.18562299 0 40
-1.3859837 -1.9250177 0.20779303 0 41
-1.3720474 -1.9056613 0.22748542 0 42
-1.3836064 -1.9217159 0.25140637 0 43
-1.3770547 -1.912616 0.27215898 0 44
-1.3853906 -1.924194 0.29592934 0 45
-1.3823941 -1.9200319 0.317415 0 46
-1.388334 -1.9282821 0.34105462 0 47
-1.3830999 -1.9210123 0.36201924 0 48
-1.3725244 -1.9063238 0.38139367 0 49
-1.3855065 -1.9243549 0.40741989 0 50
-1.3748541 -1.9095596 0.42660433 0 51
-1.3817589 -1.9191498 0.4512507 0 52
-1.378909 -1.9151914 0.47285637 0 53
-1.3839048 -1.9221302 0.49727115 0 54
-1.3746581 -1.9092873 0.51658577 0 55
-1.3836476 -1.921773 0.54284137 0 56
-1.38615 -1.9252486 0.5668388 0 57
-1.3788608 -1.9151245 0.5868535 0 58
-1.3855377 -1.9243982 0.61290801 0 59
-1.3793831 -1.9158499 0.63340521 0 60
-1.3837992 -1.9219836 0.6588425 0 61
-1.3888446 -1.9289912 0.68485999 0 62
-1.3891751 -1.9294502 0.70876938 0 63
-1.3461418 -1.9190077 -0.69880003 0 0
-1.3438522 -1.9157437 -0.6742388 0 1
-1.3514683 -1.9266008 -0.65467918 0 2
-1.3447747 -1.9170588 -0.62829041 0 3
-1.3375299 -1.9067309 -0.60199738 0 4
-1.3495528 -1.9238701 -0.58440405 0 5
-1.3476906 -1.9212154 -0.5607298 0 6
-1.3473861 -1.9207815 -0.53784066 0 7
-1.3499719 -1.9244677 -0.51616269 0 8
-1.3541461 -1.9304183 -0.4950701 0 9
-1.3511535 -1.9261521 -0.47142485 0 10
-1.3464191 -1.919403 -0.44738355 0 11
-1.3528454 -1.9285641 -0.42710134 0 12
-1.3391254 -1.9090053 -0.40065357 0 13
-1.3355867 -1.9039607 -0.37760663 0 14
-1.3506353 -1.9254134 -0.35969162 0 15
-1.3459255 -1.9186993 -0.33640707 0 16
-1.350696 -1.9254999 -0.31554937 0 17
-1.3506969 -1.9255012 -0.29355386 0 18
-1.3441318 -1.9161423 -0.27028844 0 19
-1.3498702 -1.9243227 -0.24955705 0 20
-1.3452224 -1.9176968 -0.22693036 0 21
-1.3432078 -1.9148251 -0.20489444 0 22
-1.3457433 -1.9184395 -0.18357915 0 23
-1.3496182 -1.9239635 -0.16237456 0 24
-1.3521763 -1.9276102 -0.14093558 0 25
-1.345462 -1.9180386 -0.11862083 0 26
-1.3433549 -1.9150348 -0.096874058 0 27
-1.3410259 -1.9117147 -0.075198889 0 28
-1.3437328 -1.9155736 -0.053812806 0 29
-1.3346097 -1.902568 -0.032064851 0 30
-1.345363 -1.9178976 -0.010773795 0 31
-1.3499125 -1.924383 0.010810227 0 32
-1.3486764 -1.9226209 0.032402813 0 33
-1.3486544 -1.9225895 0.054009899 0 34
-1.3477079 -1.9212401 0.075573578 0 35
-1.3448088 -1.9171075 0.09697891 0 36
-1.3449563 -1.9173175 0.11857624 0 37
-1.347389 -1.9207855 0.1404366 0 38
-1.3437079 -1.915538 0.16166347 0 39
-1.3465148 -1.9195395 0.18368439 0 40
-1.350026 -1.9245448 0.20593449 0 41
-1.3512846 -1.926339 0.22795305 0 42
-1.3523225 -1.9278187 0.2500104 0 43
-1.3492322 -1.9234133 0.27131405 0 44
-1.3419774 -1.913071 0.29165882 0 45
-1.3463985 -1.9193736 0.31454539 0 46
-1.3435953 -1.9153775 0.33582464 0 47
-1.3492094 -1.9233807 0.35931188 0 48
-1.3402342 -1.910586 0.37892061 0 49
-1.3398573 -1.9100487 0.40087256 0 50
-1.347362 -1.9207472 0.42537022 0 51
-1.3475505 -1.9210159 0.44775948 0 52
-1.3405437 -1.9110273 0.46772307 0 53
-1.3499422 -1.9244255 0.49353319 0 54
-1.3440744 -1.9160603 0.51390773 0 55
-1.3566601 -1.9340022 0.54154259 0 56
-1.3427778 -1.9142122 0.55868578 0 57
-1.3476596 -1.9211713 0.58358431 0 58
-1.3410854 -1.9117994 0.60359758 0 59
-1.3507631 -1.9255956 0.63108826 0 60
-1.3447039 -1.916958 0.65140241 0 61
-1.3421618 -1.9133338 0.67339069 0 62
-1.3387282 -1.9084392 0.69495153 0 63
-1.3105496 -1.9180053 -0.69251442 0 0
-1.3092775 -1.9161437 -0.66866291 0 1
-1.3121611 -1.9203638 -0.64702803 0 2
-1.3109177 -1.9185442 -0.62344706 0 3
-1.3086091 -1.9151654 -0.59953463 0 4
-1.3073394 -1.9133072 -0.57626867 0 5
-1.3130811 -1.9217104 -0.55611968 0 6
-1.3082252 -1.9146035 -0.53156614 0 7
-1.3102555 -1.917575 -0.50995415 0 8
-1.3159981 -1.9259794 -0.48974466 0 9
-1.3102481 -1.9175642 -0.46534449 0 10
-1.3126943 -1.9211441 -0.44399348 0 11
-1.3093249 -1.9162129 -0.42076871 0 12
-1.3105353 -1.9179845 -0.39912578 0 13
-1.3046753 -1.9094083 -0.37547693 0 14
-1.3141541 -1.9232807 -0.35624748 0 15
-1.3069854 -1.9127891 -0.33252791 0 16
-1.306451 -1.912007 -0.310682 0 17
-1.3136853 -1.9225944 -0.29062602 0 18
-1.3135147 -1.9223448 -0.26886469 0 19
-1.307297 -1.9132452 -0.24601713 0 20
-1.3036234 -1.9078689 -0.22385356 0 21
-1.3039227 -1.9083067 -0.20246597 0 22
-1.3019547 -1.9054267 -0.18078828 0 23
-1.3026344 -1.9064213 -0.15953016 0 24
-1.3148805 -1.9243436 -0.13950406 0 25
-1.3159866 -1.9259626 -0.11810119 0 26
-1.3116122 -1.9195604 -0.09627986 0 27
-1.3061481 -1.9115636 -0.074555539 0 28
-1.316339 -1.9264783 -0.053660374 0 29
-1.3096972 -1.9167578 -0.032030158 0 30
-1.3190702 -1.9304754 -0.010752522 0 31
-1.3079169 -1.9141523 0.010661605 0 32
-1.3090447 -1.9158028 0.032014202 0 33
-1.3116909 -1.9196757 0.053470898 0 34
-1.308194 -1.9145581 0.074672326 0 35
-1.3096155 -1.9166383 0.096133284 0 36
-1.3109909 -1.9186512 0.11765285 0 37
-1.3060527 -1.911424 0.13856746 0 38
-1.3165897 -1.9268452 0.16123924 0 39
-1.3083527 -1.9147902 0.18167669 0 40
-1.3018267 -1.9052393 0.20214054 0 41
-1.3124343 -1.9207637 0.22536652 0 42
-1.3028151 -1.9066857 0.24517368 0 43
-1.3033332 -1.9074439 0.26678061 0 44
-1.3049924 -1.9098723 0.28870291 0 45
-1.3066243 -1.9122607 0.31072322 0 46
-1.3047031 -1.9094489 0.33194724 0 47
-1.3106456 -1.9181459 0.35529637 0 48
-1.3099364 -1.9171078 0.376991 0 49
-1.3118312 -1.919881 0.39952046 0 50
-1.3110713 -1.9187689 0.42132995 0 51
-1.3136123 -1.9224876 0.44430396 0 52
-1.3113769 -1.9192162 0.46574542 0 53
-1.3134797 -1.9222935 0.48880741 0 54
-1.3033377 -1.9074506 0.50726169 0 55
-1.3100057 -1.9172093 0.53228962 0 56
-1.308956 -1.9156731 0.55437261 0 57
-1.3053927 -1.9104582 0.57541054 0 58
-1.299548 -1.9019045 0.59538335 0 59
-1.3080343 -1.9143242 0.62207574 0 60
-1.3172537 -1.927817 0.64953917 0 61
-1.303378 -1.9075097 0.66564995 0 62
-1.3094983 -1.9164668 0.6919589 0 63
-1.2814704 -1.925863 -0.68960994 0 0
-1.2758793 -1.9174604 -0.6635974 0 1
-1.2814498 -1.925832 -0.64351267 0 2
-1.2610937 -1.8952398 -0.61078882 0 3
-1.2771764 -1.9194099 -0.59590197 0 4
-1.2721502 -1.9118562 -0.57107693 0 5
-1.2770875 -1.919276 -0.55082917 0 6
-1.2696937 -1.9081644 -0.52540404 0 7
-1.2760141 -1.917663 -0.50576663 0 8
-1.2741309 -1.9148329 -0.48288986 0 9
-1.2761706 -1.9178983 -0.46158254 0 10
-1.2728082 -1.912845 -0.43842521 0 11
-1.2766086 -1.9185565 -0.41780475 0 12
-1.2758145 -1.917363 -0.39570194 0 13
-1.2769538 -1.9190753 -0.37426186 0 14
-1.2750727 -1.9162483 -0.35201409 0 15
-1.2822262 -1.926999 -0.33223209 0 16
-1.2722476 -1.9120024 -0.30811593 0 17
-1.2751153 -1.9163122 -0.28728449 0 18
-1.2757581 -1.9172784 -0.26594192 0 19
-1.2724845 -1.9123586 -0.2438727 0 20
-1.2710513 -1.9102046 -0.22227697 0 21
-1.2745932 -1.9155276 -0.20155399 0 22
-1.2747345 -1.91574 -0.18026596 0 23
-1.275509 -1.916904 -0.15908286 0 24
-1.273069 -1.913237 -0.13755365 0 25
-1.274823 -1.9158728 -0.11651242 0 26
-1.2750108 -1.9161552 -0.095315486 0 27
-1.2715044 -1.9108856 -0.073913701 0 28
-1.2794117 -1.9227691 -0.053114835 0 29
-1.2706888 -1.9096597 -0.031648051 0 30
-1.2758183 -1.9173689 -0.010591339 0 31
-1.2703377 -1.9091322 0.010545841 0 32
-1.2751223 -1.9163227 0.031758472 0 33
-1.2783407 -1.9211595 0.053070374 0 34
-1.2829112 -1.9280283 0.074576788 0 35
-1.2729505 -1.9130589 0.09516146 0 36
-1.2700242 -1.908661 0.11607383 0 37
-1.2728267 -1.9128728 0.13752747 0 38
-1.2693046 -1.9075797 0.15830906 0 39
-1.2801485 -1.9238764 0.18103157 0 40
-1.2760559 -1.9177258 0.2017853 0 41
-1.2752093 -1.9164536 0.22300412 0 42
-1.2684034 -1.9062253 0.24309054 0 43
-1.266768 -1.9037675 0.26406783 0 44
-1.2754602 -1.9168308 0.28736222 0 45
-1.2743986 -1.915235 0.30863687 0 46
-1.2717516 -1.9112571 0.32951808 0 47
-1.2753173 -1.916616 0.35208163 0 48
-1.2734183 -1.9137619 0.37322563 0 49
-1.2748425 -1.9159023 0.39540046 0 50
-1.2750597 -1.9162287 0.41729784 0 51
-1.2687551 -1.9067539 0.43702912 0 52
-1.273562 -1.9139779 0.46063903 0 53
-1.2760129 -1.9176613 0.48360312 0 54
-1.2723398 -1.9121412 0.50431031 0 55
-1.2823825 -1.9272338 0.53065467 0 56
-1.2796198 -1.9230819 0.55192143 0 57
-1.2762135 -1.9179628 0.57290101 0 58
-1.2793926 -1.9227403 0.59693593 0 59
-1.2729137 -1.9130037 0.61651367 0 60
-1.2736976 -1.9141817 0.63961971 0 61
-1.2754836 -1.9168657 0.66339159 0 62
-1.2825371 -1.9274663 0.690184 0 63
-1.2402202 -1.9144999 -0.6800288 0 0
-1.2474616 -1.9256783 -0.6610828 0 1
-1.2363315 -1.908497 -0.6325925 0 2
-1.2417572 -1.9168725 -0.61279327 0 3
-1.2413002 -1.916167 -0.59011185 0 4
-1.2415379 -1.9165341 -0.56787115 0 5
-1.2396277 -1.9135853 -0.54478002 0 6
-1.2494427 -1.9287364 -0.52679825 0 7
-1.2431943 -1.919091 -0.50207353 0 8
-1.2417932 -1.9169281 -0.4795312 0 9
-1.2454913 -1.9226366 -0.45900232 0 10
-1.2411444 -1.9159266 -0.43560061 0 11
-1.2384678 -1.9117949 -0.41298467 0 12
-1.2406853 -1.915218 -0.39208108 0 13
-1.2426099 -1.9181888 -0.37108105 0 14
-1.241797 -1.916934 -0.34930858 0 15
-1.2426133 -1.9181941 -0.3280549 0 16
-1.2444381 -1.921011 -0.30707851 0 17
-1.236737 -1.9091229 -0.28390542 0 18
-1.2424922 -1.9180071 -0.26390383 0 19
-1.2410915 -1.9158449 -0.2423528 0 20
-1.2420492 -1.9173234 -0.22131141 0 21
-1.2437648 -1.9199716 -0.20039719 0 22
-1.2394542 -1.9133173 -0.17859037 0 23
-1.2468075 -1.9246686 -0.15844293 0 24
-1.2354093 -1.9070734 -0.13600805 0 25
-1.2343694 -1.9054681 -0.11494791 0 26
-1.2451024 -1.9220365 -0.094839282 0 27
-1.2312044 -1.9005823 -0.072924055 0 28
-1.2428375 -1.9185402 -0.052571878 0 29
-1.2364168 -1.9086288 -0.03137663 0 30
-1.2425931 -1.9181629 -0.010510528 0 31
-1.237999 -1.9110711 0.010471669 0 32
-1.2384902 -1.9118294 0.031429246 0 33
-1.2369318 -1.9094238 0.052322067 0 34
-1.2421298 -1.9174477 0.073571168 0 35
-1.2377627 -1.9107064 0.094280213 0 36
-1.2390703 -1.9127249 0.11538567 0 37
-1.2451745 -1.9221478 0.13708313 0 38
-1.2399067 -1.9140159 0.15756598 0 39
-1.2395496 -1.9134648 0.17860413 0 40
-1.2338908 -1.9047294 0.19880629 0 41
-1.2431589 -1.9190365 0.22150914 0 42
-1.2406142 -1.9151082 0.24225961 0 43
-1.242992 -1.9187788 0.26401001 0 44
-1.2367516 -1.9091455 0.28390875 0 45
-1.2418983 -1.9170904 0.3064518 0 46
-1.2401097 -1.9143294 0.32739395 0 47
-1.2440245 -1.9203726 0.34993517 0 48
-1.245025 -1.921917 0.37180227 0 49
-1.2393267 -1.9131206 0.39165172 0 50
-1.2397394 -1.9137578 0.4134087 0 51
-1.2459459 -1.9233387 0.43728581 0 52
-1.2338176 -1.9046165 0.45470026 0 53
-1.2416034 -1.9166352 0.47945794 0 54
-1.2442783 -1.9207643 0.50251126 0 55
-1.2337687 -1.9045409 0.5201897 0 56
-1.2427254 -1.9183671 0.54614133 0 57
-1.2457651 -1.9230595 0.56980461 0 58
-1.2403258 -1.9146628 0.5896486 0 59
-1.244808 -1.9215819 0.61429882 0 60
-1.2438295 -1.9200715 0.63642901 0 61
-1.2378876 -1.9108993 0.6560092 0 62
-1.2441069 -1.9204998 0.68216002 0 63
-1.2059031 -1.9126594 -0.67405713 0 0
-1.1976566 -1.8995799 -0.64701861 0 1
-1.2135842 -1.9248424 -0.63301617 0 2
-1.2056717 -1.9122925 -0.60654378 0 3
-1.2091289 -1.9177758 -0.58598411 0 4
-1.2109789 -1.9207101 -0.56465369 0 5
-1.2043805 -1.9102445 -0.53957194 0 6
-1.2080953 -1.9161364 -0.51926011 0 7
-1.2006893 -1.90439 -0.49432743 0 8
-1.2046033 -1.9105978 -0.47420639 0 9
-1.2070347 -1.9144543 -0.45347124 0 10
-1.2126611 -1.9233783 -0.43387178 0 11
-1.2034017 -1.908692 -0.40908691 0 12
