# .PCD v0.7 - Point Cloud Data file format
VERSION 0.7
FIELDS x y z intensity ring
SIZE 4 4 4 4 2
TYPE F F F F U
COUNT 1 1 1 1 1
WIDTH 1305
HEIGHT 1
VIEWPOINT 0 0 0 1 0 0 0
POINTS 1305
DATA ascii
-1.5847605 2.0906985 -0.72981811 0 2
-1.6602852 2.1903346 -0.73743188 0 3
-1.7077752 2.252986 -0.73071849 0 4
-1.7794981 2.3476064 -0.73257017 0 5
-1.8697151 2.4666255 -0.73954946 0 6
-1.9236479 2.5377765 -0.72998762 0 7
-2.0207965 2.66594 -0.73453546 0 8
-2.1170905 2.7929761 -0.73581553 0 9
-2.2270794 2.9380791 -0.73870635 0 10
-2.321866 3.0631266 -0.73344105 0 11
-2.4445519 3.2249799 -0.73368621 0 12
-2.5902469 3.4171884 -0.73674512 0 13
-2.7220237 3.5910351 -0.73162365 0 14
-2.9019432 3.8283944 -0.73469901 0 15
-3.0804412 4.0638785 -0.7319566 0 16
-3.3036981 4.3584104 -0.73373353 0 17
-3.5808928 4.7241001 -0.73986 0 18
-3.8299239 5.0526347 -0.73215675 0 19
-3.9102399 5.1585922 -0.68724179 0 20
-3.9122512 5.1612453 -0.62741315 0 21
-3.9176774 5.1684036 -0.56812507 0 22
-3.9181917 5.1690822 -0.50813037 0 23
-3.921546 5.1735077 -0.44853121 0 24
-3.912667 5.1617942 -0.38769352 0 25
-3.9235442 5.1761436 -0.32884887 0 26
-3.9100716 5.15837 -0.2680586 0 27
-3.9160681 5.1662807 -0.20876265 0 28
-3.9247589 5.1777458 -0.14942181 0 29
-3.9072275 5.1546178 -0.089242548 0 30
-3.9124949 5.1615667 -0.029785939 0 31
-3.9053676 5.152164 0.02973168 0 32
-3.9029934 5.1490321 0.089145839 0 33
-3.9069412 5.1542401 0.14874347 0 34
-3.9149139 5.1647582 0.2087011 0 35
-3.907562 5.1550589 0.26788655 0 36
-3.9125772 5.1616755 0.32792968 0 37
-3.9165025 5.1668539 0.38807356 0 38
-3.9133432 5.1626859 0.447593 0 39
-3.915098 5.1650009 0.50772911 0 40
-3.9192445 5.1704712 0.56835234 0 41
-3.9114363 5.1601706 0.62728244 0 42
-3.9079359 5.1555524 0.68683678 0 43
-3.9089885 5.1569409 0.7472713 0 44
-3.9169221 5.1674075 0.80928808 0 45
-3.9055095 5.1523514 0.8673926 0 46
-3.91008 5.158381 0.92909062 0 47
-3.9130301 5.1622729 0.99068081 0 48
-3.9121664 5.1611333 1.0515094 0 49
-3.9169714 5.1674724 1.1141061 0 50
-3.9066744 5.1538882 1.1725147 0 51
-3.9158778 5.1660299 1.2369643 0 52
-3.9176724 5.1683974 1.2994639 0 53
-3.9220667 5.1741943 1.3631526 0 54
-3.9142807 5.1639228 1.4227945 0 55
-3.9131906 5.1624846 1.4849809 0 56
-3.9144161 5.1641011 1.548313 0 57
-3.9100335 5.1583195 1.6096528 0 58
-3.9086795 5.1565332 1.6724358 0 59
-3.9217989 5.173841 1.7419052 0 60
0 0 0 0 61
0 0 0 0 62
0 0 0 0 63
-1.5091341 1.9408858 -0.73292989 0 0
-1.5685166 2.0172572 -0.7362476 0 1
-1.6273423 2.0929127 -0.73752052 0 2
-1.6863445 2.1687949 -0.73710555 0 3
-1.7453204 2.2446432 -0.73491776 0 4
-1.815552 2.3349676 -0.73553711 0 5
-1.8855815 2.4250319 -0.73397499 0 6
-1.9667206 2.5293844 -0.73447454 0 7
-2.0620983 2.6520488 -0.73763871 0 8
-2.1557102 2.7724426 -0.73733371 0 9
-2.2464337 2.8891215 -0.73328686 0 10
-2.3569272 3.0312262 -0.73268688 0 11
-2.4954 3.2093151 -0.73704743 0 12
-2.6114604 3.3585794 -0.730977 0 13
-2.7725396 3.565742 -0.73336095 0 14
-2.956527 3.802367 -0.73662519 0 15
-3.1281748 4.0231218 -0.73148865 0 16
-3.3626366 4.3246613 -0.7349574 0 17
-3.6358118 4.6759896 -0.73927116 0 18
-3.9076521 5.0256019 -0.73514664 0 19
-3.9119489 5.0311275 -0.67661792 0 20
-3.9136133 5.0332685 -0.61765927 0 21
-3.9052291 5.0224853 -0.55732173 0 22
-3.9071114 5.0249062 -0.49864265 0 23
-3.9113748 5.0303893 -0.44025972 0 24
-3.917134 5.037796 -0.38196912 0 25
-3.9176476 5.0384569 -0.32313749 0 26
-3.9087584 5.0270243 -0.26371089 0 27
-3.9102297 5.0289168 -0.20513937 0 28
-3.9125195 5.0318618 -0.14658912 0 29
-3.9122326 5.0314927 -0.087937094 0 30
-3.9106352 5.029438 -0.029298743 0 31
-3.9134045 5.0329995 0.029319491 0 32
-3.8992095 5.0147438 0.087644368 0 33
-3.9130938 5.0325999 0.14661062 0 34
-3.9067864 5.0244884 0.20495872 0 35
-3.9089811 5.0273108 0.26372591 0 36
-3.9088497 5.027142 0.32241184 0 37
-3.9125223 5.0318651 0.38151941 0 38
-3.9026387 5.0191541 0.4392764 0 39
-3.9128852 5.0323319 0.49937955 0 40
-3.9064448 5.0240488 0.55749524 0 41
-3.9147503 5.0347304 0.61783874 0 42
-3.9118154 5.0309563 0.67659485 0 43
-3.908854 5.0271473 0.73537272 0 44
-3.9107525 5.0295892 0.79517502 0 45
-3.9165146 5.0369997 0.85601616 0 46
-3.9116704 5.0307693 0.91470033 0 47
-3.9222755 5.0444088 0.9772436 0 48
-3.8973341 5.0123315 1.0308789 0 49
-3.9044456 5.0214777 1.0928981 0 50
-3.9113755 5.0303903 1.1552734 0 51
-3.9182358 5.0392132 1.2180434 0 52
-3.9148769 5.0348935 1.2779045 0 53
-3.909543 5.0280333 1.3372102 0 54
-3.9155087 5.035706 1.4006273 0 55
-3.9157295 5.0359898 1.4623346 0 56
-3.9162693 5.036684 1.5244335 0 57
-3.904495 5.0215411 1.5818334 0 58
-3.9112737 5.0302596 1.6469553 0 59
-3.9087229 5.026979 1.708513 0 60
0 0 0 0 61
0 0 0 0 62
0 0 0 0 63
-1.5386646 1.9294319 -0.73569369 0 0
-1.5923531 1.9967555 -0.73585564 0 1
-1.6566635 2.0773985 -0.73917615 0 2
-1.7101257 2.144438 -0.73591876 0 3
-1.7616528 2.2090514 -0.7303018 0 4
-1.8432146 2.311327 -0.73517424 0 5
-1.9147274 2.4010015 -0.7337724 0 6
-1.9997606 2.5076303 -0.73524243 0 7
-2.0911021 2.6221695 -0.73642427 0 8
-2.1726997 2.7244897 -0.73163056 0 9
-2.2816019 2.8610494 -0.73322731 0 10
-2.3972256 3.0060375 -0.73366803 0 11
-2.5318794 3.1748888 -0.7362355 0 12
-2.6628318 3.3390985 -0.7338081 0 13
-2.817461 3.5329981 -0.7336964 0 14
-3.0040717 3.7670014 -0.7368744 0 15
-3.1778786 3.9849494 -0.73159778 0 16
-3.4204183 4.2890854 -0.73600352 0 17
-3.6466296 4.5727468 -0.72998261 0 18
-3.8911316 4.879344 -0.72069663 0 19
-3.9017065 4.8926044 -0.66439044 0 20
-3.9063969 4.8984857 -0.60696816 0 21
-3.9021938 4.8932152 -0.54826027 0 22
-3.8919914 4.8804221 -0.48901701 0 23
-3.8980415 4.8880081 -0.43196091 0 24
-3.9058807 4.8978386 -0.37497064 0 25
-3.8994029 4.8897157 -0.31664932 0 26
-3.8988426 4.8890128 -0.25896639 0 27
-3.8942239 4.8832211 -0.20113429 0 28
-3.8969865 4.8866854 -0.14374493 0 29
-3.9049242 4.8966389 -0.086412884 0 30
-3.9025786 4.8936977 -0.02878537 0 31
-3.8968179 4.8864741 0.02874288 0 32
-3.9037938 4.8952217 0.086387873 0 33
-3.9122672 4.9058471 0.14430858 0 34
-3.909236 4.9020457 0.20190965 0 35
-3.9018774 4.8928185 0.25916797 0 36
-3.9012992 4.8920937 0.31680334 0 37
-3.9162672 4.9108629 0.37596777 0 38
-3.8893099 4.8770595 0.43099332 0 39
-3.906662 4.8988185 0.49086034 0 40
-3.9052136 4.8970022 0.54868454 0 41
-3.8999579 4.8904114 0.60596764 0 42
-3.903585 4.8949599 0.66471034 0 43
-3.9065366 4.8986611 0.72354984 0 44
-3.8996298 4.8899999 0.7806282 0 45
-3.9038117 4.8952441 0.84001982 0 46
-3.902056 4.8930426 0.89831483 0 47
-3.9053781 4.8972082 0.95795757 0 48
-3.908112 4.9006367 1.0177134 0 49
-3.9002781 4.8908134 1.0748165 0 50
-3.9009693 4.8916798 1.1343479 0 51
-3.9098618 4.9028306 1.1966085 0 52
-3.9065154 4.8986344 1.2554178 0 53
-3.9058704 4.8978257 1.315255 0 54
-3.9015336 4.8923874 1.3740045 0 55
-3.8948874 4.8840532 1.4320146 0 56
-3.9090273 4.9017844 1.498039 0 57
-3.9044716 4.8960714 1.5573156 0 58
-3.9031293 4.8943887 1.6180613 0 59
-3.9037056 4.8951111 1.6798825 0 60
-3.9073386 4.8996668 1.7433904 0 61
0 0 0 0 62
0 0 0 0 63
-1.5489507 1.8940783 -0.72942066 0 0
-1.6150014 1.9748459 -0.7350443 0 1
-1.6668028 2.0381894 -0.73246223 0 2
-1.7352761 2.1219196 -0.73545796 0 3
-1.791883 2.1911392 -0.73160911 0 4
-1.8651826 2.280771 -0.7326948 0 5
-1.9524275 2.3874552 -0.73691392 0 6
-2.0341749 2.487417 -0.73659408 0 7
-2.1150103 2.5862634 -0.73358876 0 8
-2.208693 2.7008202 -0.73251224 0 9
-2.3088799 2.8233302 -0.73078144 0 10
-2.4504871 2.9964895 -0.73863614 0 11
-2.5575554 3.1274137 -0.73246378 0 12
-2.7021544 3.3042314 -0.73339224 0 13
-2.8787916 3.520226 -0.73833954 0 14
-3.0223529 3.6957748 -0.73015618 0 15
-3.2435517 3.9662597 -0.73543328 0 16
-3.47574 4.2501826 -0.73660618 0 17
-3.7206733 4.5496907 -0.73355013 0 18
-3.9076862 4.7783723 -0.71282619 0 19
-3.9076672 4.7783489 -0.65535069 0 20
-3.9088748 4.7798257 -0.59817559 0 21
-3.903384 4.7731118 -0.54014033 0 22
-3.9015548 4.770875 -0.48281106 0 23
-3.8919492 4.759129 -0.42476875 0 24
-3.9105222 4.7818403 -0.36974344 0 25
-3.8962121 4.7643418 -0.31160933 0 26
-3.8891001 4.7556448 -0.25441587 0 27
-3.9073374 4.777946 -0.19876207 0 28
-3.9012201 4.7704654 -0.14172664 0 29
-3.9029105 4.7725325 -0.085063234 0 30
-3.9019084 4.771307 -0.028345533 0 31
-3.8925653 4.7598825 0.02827766 0 32
-3.8917937 4.7589388 0.084820949 0 33
-3.8990889 4.7678595 0.14164922 0 34
-3.9081712 4.7789655 0.19880448 0 35
-3.9049389 4.775013 0.25545201 0 36
-3.8903301 4.7571487 0.3111389 0 37
-3.9062252 4.7765861 0.36933714 0 38
-3.905066 4.7751684 0.4262003 0 39
-3.8972421 4.7656012 0.48227736 0 40
-3.8999116 4.7688656 0.5396598 0 41
-3.9086113 4.7795038 0.59813523 0 42
-3.8910601 4.7580419 0.65256548 0 43
-3.9064286 4.7768345 0.71259677 0 44
-3.9015183 4.7708302 0.76920468 0 45
-3.9076276 4.7783008 0.82813519 0 46
-3.9047937 4.7748356 0.88536137 0 47
-3.8998091 4.7687402 0.94213676 0 48
-3.9061801 4.7765307 1.0018395 0 49
-3.9010148 4.7702146 1.0587752 0 50
-3.9016232 4.7709584 1.1173943 0 51
-3.9134662 4.7854404 1.1796134 0 52
-3.9088182 4.779757 1.2371764 0 53
-3.9024158 4.7719274 1.2942348 0 54
-3.8990383 4.7677979 1.3523768 0 55
-3.8989391 4.7676764 1.4118429 0 56
-3.9152305 4.7875977 1.4777439 0 57
-3.909956 4.781148 1.5359377 0 58
-3.908215 4.7790194 1.5956876 0 59
-3.903018 4.7726641 1.6542069 0 60
-3.9061253 4.7764635 1.7165134 0 61
0 0 0 0 62
0 0 0 0 63
-1.5888749 1.8948689 -0.73719341 0 0
-1.6324829 1.946875 -0.73204958 0 1
-1.6905862 2.0161681 -0.73196381 0 2
-1.7485331 2.0852749 -0.73015386 0 3
-1.8325272 2.1854448 -0.73717588 0 4
-1.8986464 2.2642977 -0.73484731 0 5
-1.9871048 2.3697917 -0.73894793 0 6
-2.0544469 2.450103 -0.73296988 0 7
-2.1484113 2.5621636 -0.73419076 0 8
-2.2477925 2.6806841 -0.73449188 0 9
-2.360435 2.8150198 -0.7360875 0 10
-2.4655797 2.940414 -0.7322315 0 11
-2.5938864 3.0934308 -0.73191953 0 12
-2.7504258 3.2801173 -0.73549098 0 13
-2.9225626 3.4854052 -0.73851782 0 14
-3.0835071 3.677345 -0.73395056 0 15
-3.2933071 3.9275491 -0.73570877 0 16
-3.4951 4.1682043 -0.7297917 0 17
-3.7747412 4.5017004 -0.7332409 0 18
-3.9033608 4.6550908 -0.70154238 0 19
-3.8927543 4.6424413 -0.64322722 0 20
-3.8983047 4.6490607 -0.58776534 0 21
-3.8979111 4.648591 -0.53143299 0 22
-3.890872 4.6401963 -0.47439238 0 23
-3.8934915 4.6433206 -0.4186739 0 24
-3.8966389 4.6470742 -0.36300042 0 25
-3.8990562 4.6499567 -0.30724061 0 26
-3.892308 4.6419091 -0.25087279 0 27
-3.8906302 4.6399083 -0.19499515 0 28
-3.8941631 4.6441212 -0.13938513 0 29
-3.8954425 4.645647 -0.083649121 0 30
-3.9012074 4.6525226 -0.027922729 0 31
-3.9069099 4.6593232 0.027963545 0 32
-3.8954768 4.6456881 0.083649859 0 33
-3.8916814 4.6411614 0.13929629 0 34
-3.8943269 4.6443167 0.19518043 0 35
-3.8945732 4.6446104 0.25101879 0 36
-3.8944275 4.6444368 0.30687588 0 37
-3.8972275 4.6477761 0.36305526 0 38
-3.892328 4.641933 0.41854879 0 39
-3.8927402 4.6424246 0.47462013 0 40
-3.8891561 4.6381502 0.53023934 0 41
-3.8990288 4.6499243 0.58787447 0 42
-3.8982503 4.6489959 0.64413542 0 43
-3.8933713 4.643177 0.69974703 0 44
-3.9003637 4.651516 0.75764304 0 45
-3.9075432 4.6600785 0.81591165 0 46
-3.8951604 4.6453109 0.87015992 0 47
-3.8936207 4.6434746 0.92677754 0 48
-3.8916731 4.6411519 0.98340744 0 49
-3.8957324 4.6459928 1.0417572 0 50
-3.8952427 4.6454091 1.0991246 0 51
-3.8971131 4.6476398 1.1573703 0 52
-3.889991 4.6391459 1.2130704 0 53
-3.8843672 4.6324391 1.2692614 0 54
-3.8861246 4.6345348 1.3280309 0 55
-3.8916445 4.6411176 1.3884312 0 56
-3.9015074 4.6528797 1.45086 0 57
-3.8904865 4.6397367 1.5057641 0 58
-3.8891568 4.6381512 1.5645021 0 59
-3.8980782 4.6487904 1.6277626 0 60
-3.8919461 4.6414776 1.6850744 0 61
-3.8929176 4.6426358 1.7456899 0 62
0 0 0 0 63
-1.6038634 1.8656627 -0.73344815 0 0
-1.6580993 1.9287516 -0.73284602 0 1
-1.7300912 2.0124948 -0.73829788 0 2
-1.7850969 2.0764792 -0.73470438 0 3
-1.8505591 2.1526268 -0.73372608 0 4
-1.9137379 2.2261183 -0.73003858 0 5
-2.0011537 2.3278031 -0.73347259 0 6
-2.0875053 2.4282496 -0.73405582 0 7
-2.1849716 2.5416255 -0.7359488 0 8
-2.2926896 2.6669261 -0.73839092 0 9
-2.3823371 2.7712071 -0.73223579 0 10
-2.5059023 2.9149418 -0.7335062 0 11
-2.6445754 3.0762506 -0.73549318 0 12
-2.7902164 3.2456646 -0.73540336 0 13
-2.9418416 3.4220397 -0.73270094 0 14
-3.1389999 3.6513803 -0.73641646 0 15
-3.3476479 3.8940859 -0.73709559 0 16
-3.5586572 4.1395383 -0.7323789 0 17
-3.8421519 4.4693079 -0.73560447 0 18
-3.8984349 4.5347781 -0.69058287 0 19
-3.8994992 4.536016 -0.6350773 0 20
-3.9013915 4.5382175 -0.57977307 0 21
-3.8943639 4.5300426 -0.52331531 0 22
-3.8957164 4.5316162 -0.46815366 0 23
-3.8909583 4.5260811 -0.41238564 0 24
-3.895293 4.5311236 -0.35765758 0 25
-3.8948243 4.5305781 -0.30249438 0 26
-3.9102724 4.5485477 -0.24840693 0 27
-3.8896775 4.5245914 -0.19214442 0 28
-3.893054 4.5285192 -0.1373419 0 29
-3.8990552 4.5355 -0.082522862 0 30
-3.8900535 4.5250287 -0.027442567 0 31
-3.9004376 4.5371079 0.027515821 0 32
-3.8949995 4.5307817 0.082437024 0 33
-3.8914657 4.5266714 0.13728587 0 34
-3.8877437 4.5223417 0.19204889 0 35
-3.8992271 4.5356998 0.24770525 0 36
-3.8945441 4.5302525 0.30247262 0 37
-3.8975599 4.5337605 0.35786572 0 38
-3.9019804 4.5389023 0.41355383 0 39
-3.8938863 4.5294871 0.46793374 0 40
-3.9012353 4.5380359 0.52423865 0 41
-3.8939562 4.5295682 0.57866812 0 42
-3.8950129 4.5307975 0.63434666 0 43
-3.8920043 4.527298 0.68944377 0 44
-3.8918123 4.5270748 0.7451123 0 45
-3.8995471 4.5360718 0.8025347 0 46
-3.8982387 4.5345502 0.85832644 0 47
-3.8863714 4.5207458 0.91175151 0 48
-3.8986924 4.5350776 0.97101611 0 49
-3.8904917 4.5255384 1.0253974 0 50
-3.8973041 4.5334625 1.0838945 0 51
-3.8950477 4.530838 1.1401249 0 52
-3.8854332 4.5196543 1.1942278 0 53
-3.9035411 4.5407181 1.257187 0 54
-3.8900263 4.5249972 1.3102505 0 55
-3.8980262 4.5343027 1.3707122 0 56
-3.8985195 4.5348768 1.4289042 0 57
-3.8901684 4.5251627 1.4839927 0 58
-3.8932457 4.5287423 1.5436287 0 59
-3.8949425 4.5307159 1.6030678 0 60
-3.8906233 4.5256915 1.6602818 0 61
-3.8849664 4.5191112 1.7170758 0 62
0 0 0 0 63
-1.6257471 1.8447411 -0.73302686 0 0
-1.6776742 1.903663 -0.73109651 0 1
-1.7502198 1.9859807 -0.73641062 0 2
-1.8018582 2.044575 -0.73120016 0 3
-1.871292 2.1233618 -0.73153895 0 4
-1.9520752 2.2150269 -0.73421752 0 5
-2.0304728 2.3039849 -0.73377925 0 6
-2.121212 2.4069469 -0.73544544 0 7
-2.21578 2.5142536 -0.73585677 0 8
-2.3134921 2.6251278 -0.73463905 0 9
-2.4183946 2.7441611 -0.73289162 0 10
-2.5493414 2.8927469 -0.73575383 0 11
-2.6914384 3.0539849 -0.73802662 0 12
-2.8184004 3.1980491 -0.73241174 0 13
-2.9859409 3.3881578 -0.73325247 0 14
-3.1834373 3.6122577 -0.73636532 0 15
-3.3604684 3.8131356 -0.72953933 0 16
-3.6074374 4.0933719 -0.73200375 0 17
-3.8824425 4.4054217 -0.73289156 0 18
-3.8906682 4.4147549 -0.67953932 0 19
-3.8891962 4.413085 -0.6245144 0 20
-3.881942 4.4048538 -0.56879061 0 21
-3.8848739 4.4081802 -0.51471716 0 22
-3.8974133 4.4224086 -0.46178773 0 23
-3.8846941 4.4079766 -0.40594637 0 24
-3.8786771 4.4011488 -0.35113633 0 25
-3.8875945 4.4112673 -0.29769754 0 26
-3.8812239 4.4040384 -0.24310295 0 27
-3.8838732 4.4070449 -0.18916644 0 28
-3.884037 4.4072309 -0.13510172 0 29
-3.8821666 4.4051085 -0.081012852 0 30
-3.8857436 4.4091673 -0.02702764 0 31
-3.8910222 4.4151568 0.027064355 0 32
-3.8870544 4.4106545 0.081114851 0 33
-3.8840261 4.407218 0.13510132 0 34
-3.8860772 4.4095459 0.18927379 0 35
-3.8839076 4.407084 0.24327105 0 36
-3.8908904 4.4150071 0.29794994 0 37
-3.8895218 4.4134545 0.3521181 0 38
-3.882797 4.4058237 0.40574813 0 39
-3.8855226 4.4089165 0.46037886 0 40
-3.881958 4.4048719 0.51433086 0 41
-3.8855767 4.408978 0.56932318 0 42
-3.8869586 4.4105458 0.6241551 0 43
-3.8817294 4.4046125 0.6779781 0 44
-3.8884382 4.4122248 0.73402339 0 45
-3.8898783 4.4138589 0.78931528 0 46
-3.8835909 4.4067245 0.84310639 0 47
-3.8863289 4.4098315 0.89895219 0 48
-3.892514 4.4168496 0.95587814 0 49
-3.8896976 4.4136539 1.0108074 0 50
-3.8795643 4.4021559 1.0638258 0 51
-3.8902597 4.4142919 1.1227502 0 52
-3.8821914 4.4051366 1.1764935 0 53
-3.8804247 4.403132 1.2322115 0 54
-3.8781834 4.4005885 1.2879381 0 55
-3.8860807 4.4095497 1.3473431 0 56
-3.8888955 4.4127436 1.4053824 0 57
-3.8895376 4.4134722 1.4629388 0 58
-3.8918791 4.4161291 1.5214413 0 59
-3.8791518 4.4016876 1.574173 0 60
-3.893801 4.4183102 1.6383294 0 61
-3.8801937 4.4028697 1.69091 0 62
-3.8963954 4.4212542 1.7568308 0 63
-1.656523 1.8337078 -0.73668092 0 0
-1.7118281 1.8949285 -0.73577034 0 1
-1.7723399 1.9619128 -0.73551166 0 2
-1.8311547 2.0270185 -0.73291868 0 3
-1.9114274 2.1158772 -0.73700213 0 4
-1.9830697 2.1951826 -0.73566693 0 5
-2.0720801 2.2937138 -0.73856699 0 6
-2.1371427 2.3657355 -0.73082769 0 7
-2.2450535 2.4851885 -0.73537421 0 8
-2.3388352 2.5890014 -0.73252201 0 9
-2.4578745 2.7207735 -0.73466164 0 10
-2.5981233 2.8760235 -0.73957014 0 11
-2.7116418 3.001684 -0.73338997 0 12
-2.8624663 3.1686411 -0.73368233 0 13
-3.0420392 3.3674212 -0.73680437 0 14
-3.2280512 3.5733294 -0.73646563 0 15
-3.4239354 3.7901659 -0.7331444 0 16
-3.6752529 4.0683651 -0.73555785 0 17
-3.8879917 4.3038588 -0.72389424 0 18
-3.8931346 4.3095517 -0.67066383 0 19
-3.8937831 4.3102694 -0.61669362 0 20
-3.8966069 4.313395 -0.56312525 0 21
-3.8798239 4.294817 -0.50701272 0 22
-3.8873341 4.3031306 -0.4542897 0 23
-3.8829098 4.298233 -0.40020657 0 24
-3.8858907 4.3015327 -0.34697467 0 25
-3.888921 4.3048873 -0.29372337 0 26
-3.8968718 4.3136883 -0.24074247 0 27
-3.8956687 4.3123569 -0.1871441 0 28
-3.8917036 4.3079677 -0.1335157 0 29
-3.8887706 4.3047209 -0.080040008 0 30
-3.8918896 4.3081732 -0.026699895 0 31
-3.8903122 4.306427 0.026689075 0 32
-3.8934352 4.3098841 0.080136016 0 33
-3.8895121 4.3055415 0.13344051 0 34
-3.8864002 4.3020968 0.18669884 0 35
-3.8884435 4.3043585 0.2402218 0 36
-3.8943512 4.3108983 0.29413348 0 37
-3.8896646 4.3057103 0.34731168 0 38
-3.8892331 4.3052325 0.40085828 0 39
-3.8957291 4.3124232 0.45527074 0 40
-3.8879092 4.3037672 0.50806928 0 41
-3.891593 4.3078451 0.5624007 0 42
-3.8823876 4.2976551 0.61488879 0 43
-3.8882012 4.3040905 0.66981393 0 44
-3.8898485 4.3059139 0.72423995 0 45
-3.8810747 4.2962017 0.77675056 0 46
-3.8935103 4.3099675 0.83369136 0 47
-3.8867414 4.3024745 0.88674301 0 48
-3.8861144 4.3017802 0.94124562 0 49
-3.8989763 4.3160181 0.99935144 0 50
-3.8986752 4.3156848 1.0544347 0 51
-3.8849781 4.3005223 1.1058804 0 52
-3.8998969 4.3170371 1.1656839 0 53
-3.8948758 4.3114791 1.2198731 0 54
-3.8864388 4.3021398 1.2730151 0 55
-3.8898058 4.3058667 1.3301767 0 56
-3.8893285 4.3053384 1.3863024 0 57
-3.8854737 4.3010712 1.441409 0 58
-3.8850503 4.3006024 1.4979855 0 59
-3.8825705 4.2978573 1.5539967 0 60
-3.8854074 4.3009977 1.6124234 0 61
-3.8899932 4.3060741 1.6719795 0 62
-3.8849187 4.300457 1.7276824 0 63
-1.6698265 1.8033546 -0.73268032 0 0
-1.7274244 1.8655583 -0.73255861 0 1
-1.7841475 1.9268172 -0.730524 0 2
-1.8494984 1.9973938 -0.73037499 0 3
-1.9210383 2.0746546 -0.73081619 0 4
-2.0051804 2.165525 -0.73393548 0 5
-2.0828204 2.2493737 -0.732481 0 6
-2.1810505 2.3554587 -0.73588234 0 7
-2.2687814 2.4502048 -0.73322219 0 8
-2.393729 2.5851438 -0.7397027 0 9
-2.4985299 2.6983252 -0.73684037 0 10
-2.612802 2.8217354 -0.73381627 0 11
-2.7501156 2.9700291 -0.73386264 0 12
-2.9176095 3.1509166 -0.73782951 0 13
-3.0817511 3.3281841 -0.73645496 0 14
-3.2484512 3.5082142 -0.73122269 0 15
-3.482991 3.7615092 -0.73583007 0 16
-3.7384946 4.0374441 -0.73822296 0 17
-3.8875353 4.1984029 -0.71414322 0 18
-3.8883998 4.1993365 -0.6609028 0 19
-3.8828218 4.1933122 -0.60674518 0 20
-3.886308 4.1970773 -0.55413657 0 21
-3.888648 4.1996045 -0.50137961 0 22
-3.8899281 4.2009869 -0.44852203 0 23
-3.8873708 4.198225 -0.39531571 0 24
-3.881043 4.1913915 -0.34191397 0 25
-3.8860846 4.196836 -0.28958952 0 26
-3.882473 4.1929355 -0.23664986 0 27
-3.881969 4.1923914 -0.18399557 0 28
-3.887383 4.1982384 -0.13158643 0 29
-3.8849308 4.19559 -0.078893147 0 30
-3.8792655 4.1894717 -0.026257887 0 31
-3.8843112 4.194921 0.026292039 0 32
-3.8804662 4.1907682 0.078802489 0 33
-3.8754897 4.1853943 0.13118385 0 34
-3.8866515 4.1974483 0.18421751 0 35
-3.8846004 4.1952333 0.23677953 0 36
-3.8821766 4.1926155 0.2892983 0 37
-3.8817637 4.1921697 0.34197748 0 38
-3.8868821 4.1976972 0.395266 0 39
-3.8810542 4.1914034 0.44749883 0 40
-3.8754244 4.1853232 0.49967465 0 41
-3.8791018 4.1892948 0.55310911 0 42
-3.8902462 4.2013307 0.60790539 0 43
-3.8880336 4.1989408 0.66084051 0 44
-3.8826559 4.1931329 0.71324682 0 45
-3.876281 4.1862488 0.76543099 0 46
-3.8811486 4.1915054 0.81994635 0 47
-3.8863602 4.197134 0.87481529 0 48
-3.8968735 4.2084875 0.931247 0 49
-3.8765705 4.1865611 0.98033959 0 50
-3.8823268 4.1927781 1.035991 0 51
-3.8796587 4.1898966 1.0896182 0 52
-3.887054 4.1978831 1.1463294 0 53
-3.8914275 4.2026062 1.2025169 0 54
-3.8833079 4.1938372 1.255003 0 55
-3.8860989 4.1968517 1.3111625 0 56
-3.88341 4.1939473 1.3657078 0 57
-3.8886757 4.1996346 1.423332 0 58
-3.8853245 4.1960154 1.4780852 0 59
-3.8811522 4.1915092 1.532684 0 60
-3.8852723 4.1959591 1.5908352 0 61
-3.8943095 4.205719 1.6514819 0 62
-3.880013 4.190279 1.7024578 0 63
-1.6961286 1.7871703 -0.734523 0 0
-1.7544484 1.8486205 -0.7343235 0 1
-1.8112084 1.9084271 -0.73194027 0 2
-1.8972361 1.9990724 -0.73946363 0 3
-1.9554635 2.0604253 -0.73421854 0 4
-2.0462532 2.1560881 -0.73920906 0 5
-2.1265185 2.2406619 -0.73810333 0 6
-2.2147799 2.3336606 -0.73752487 0 7
-2.3026998 2.4263 -0.73448634 0 8
-2.4014435 2.5303438 -0.73241645 0 9
-2.5192077 2.654429 -0.73325711 0 10
-2.6529877 2.7953899 -0.73539299 0 11
-2.7894616 2.9391892 -0.73466223 0 12
-2.9607179 3.1196377 -0.73897433 0 13
-3.1038799 3.2704842 -0.73207736 0 14
-3.3048654 3.4822578 -0.73422736 0 15
-3.5254335 3.7146654 -0.73509109 0 16
-3.7466269 3.9477313 -0.73018801 0 17
-3.882143 4.0905213 -0.70385945 0 18
-3.8794227 4.0876551 -0.65078455 0 19
-3.8831594 4.0915923 -0.59889072 0 20
-3.8815672 4.0899148 -0.54624844 0 21
-3.8927443 4.1016917 -0.49536735 0 22
-3.8773048 4.0854235 -0.44124076 0 23
-3.8868999 4.0955338 -0.39011705 0 24
-3.8901281 4.0989351 -0.33824843 0 25
-3.8905473 4.0993772 -0.28614408 0 26
-3.8814881 4.0898314 -0.2335068 0 27
-3.8907566 4.0995975 -0.18200898 0 28
-3.8862164 4.0948133 -0.12983273 0 29
-3.8808701 4.0891805 -0.077783696 0 30
-3.8961751 4.1053071 -0.026028683 0 31
-3.8832259 4.0916624 0.025942175 0 32
-3.878355 4.0865302 0.077733286 0 33
-3.8775327 4.0856638 0.12954262 0 34
-3.8756211 4.0836496 0.18130095 0 35
-3.8869483 4.0955849 0.23383528 0 36
-3.890933 4.0997834 0.28617242 0 37
-3.8710375 4.0788198 0.33658847 0 38
-3.8890705 4.0978212 0.3903349 0 39
-3.8887417 4.0974746 0.44254228 0 40
-3.8867612 4.0953875 0.49460596 0 41
-3.883755 4.0922203 0.54655635 0 42
-3.8776486 4.0857859 0.59804082 0 43
-3.887774 4.0964551 0.6521855 0 44
-3.8749421 4.0829339 0.70255393 0 45
-3.8817835 4.0901427 0.75652897 0 46
-3.8865187 4.0951319 0.81038129 0 47
-3.8984632 4.1077175 0.8661043 0 48
-3.8822882 4.0906744 0.91567177 0 49
-3.8893616 4.0981274 0.97075725 0 50
-3.8819742 4.0903435 1.0223979 0 51
-3.8942306 4.1032581 1.0794585 0 52
-3.8864024 4.0950093 1.1312019 0 53
-3.8882163 4.096921 1.1858674 0 54
-3.8954437 4.1045361 1.2425199 0 55
-3.8971589 4.1063433 1.2977595 0 56
-3.8864348 4.0950437 1.348961 0 57
-3.8852844 4.0938315 1.4035592 0 58
-3.8793323 4.0875602 1.4565742 0 59
-3.8766785 4.0847635 1.5109679 0 60
-3.8815653 4.0899129 1.5686069 0 61
-3.8821049 4.0904813 1.6248529 0 62
-3.8883419 4.0970531 1.6838799 0 63
-1.7092232 1.7571833 -0.73078132 0 0
-1.7800406 1.8299879 -0.73556107 0 1
-1.8416922 1.8933694 -0.73479515 0 2
-1.9009403 1.95428 -0.7314859 0 3
-1.9750106 2.0304286 -0.73212814 0 4
-2.0528834 2.1104867 -0.73217392 0 5
-2.1425755 2.2026954 -0.73421991 0 6
-2.2362592 2.2990077 -0.73520809 0 7
-2.3300326 2.3954124 -0.73375392 0 8
-2.4385221 2.5069461 -0.73426777 0 9
-2.5577757 2.6295462 -0.73501611 0 10
-2.6930044 2.7685692 -0.73699301 0 11
-2.8153937 2.8943925 -0.732063 0 12
-2.9824302 3.0661161 -0.73492777 0 13
-3.162663 3.2514062 -0.73645633 0 14
-3.3568611 3.4510534 -0.73629552 0 15
-3.554539 3.654278 -0.73173523 0 16
-3.8146863 3.921725 -0.73399842 0 17
-3.8773372 3.9861341 -0.69404888 0 18
-3.8747277 3.9834511 -0.6417315 0 19
-3.8722537 3.9809077 -0.58961451 0 20
-3.8782017 3.9870226 -0.53883469 0 21
-3.8721566 3.980808 -0.48648164 0 22
-3.8697736 3.978358 -0.4347837 0 23
-3.879879 3.9887471 -0.38446057 0 24
-3.8702292 3.9788263 -0.33223897 0 25
-3.8858268 3.9948618 -0.28216264 0 26
-3.8721783 3.9808302 -0.22998454 0 27
-3.8781285 3.9869475 -0.17911132 0 28
-3.8825204 3.9914625 -0.12805985 0 29
-3.8808622 3.9897578 -0.076794438 0 30
-3.8822713 3.9912064 -0.025605993 0 31
-3.8739495 3.982651 0.025551107 0 32
-3.8772252 3.9860187 0.076722465 0 33
-3.8663523 3.9748406 0.12752657 0 34
-3.8588407 3.9671185 0.1782205 0 35
-3.8804533 3.9893374 0.23047604 0 36
-3.875813 3.9845667 0.28143549 0 37
-3.8858392 3.9948745 0.33357903 0 38
-3.8767955 3.9855771 0.38415501 0 39
-3.888906 3.9980273 0.43693331 0 40
-3.8720026 3.9806497 0.4864623 0 41
-3.8777153 3.9865227 0.5387671 0 42
-3.8858032 3.9948375 0.59167773 0 43
-3.8687372 3.9772925 0.64073938 0 44
-3.8830776 3.9920354 0.69507641 0 45
-3.8825917 3.9915359 0.74706435 0 46
-3.8831341 3.9920933 0.79937959 0 47
-3.8755488 3.9842954 0.85006475 0 48
-3.8772511 3.9860454 0.90285504 0 49
-3.8717282 3.9803674 0.95406777 0 50
-3.8815734 3.990489 1.0092927 0 51
-3.8748527 3.9835796 1.0604287 0 52
-3.8843071 3.9932992 1.1162151 0 53
-3.8742421 3.9829519 1.16658 0 54
-3.884532 3.9935308 1.2232835 0 55
-3.8725524 3.981215 1.2731673 0 56
-3.8739119 3.9826124 1.327516 0 57
-3.8785501 3.987381 1.3833096 0 58
-3.885603 3.9946315 1.4403766 0 59
-3.875442 3.9841855 1.4912783 0 60
-3.8797119 3.9885752 1.5479207 0 61
-3.8769703 3.9857566 1.6020694 0 62
-3.8759844 3.9847431 1.6571839 0 63
-1.7384398 1.7437989 -0.73404962 0 0
-1.7991532 1.8046994 -0.73423332 0 1
-1.8657306 1.8714821 -0.73514885 0 2
-1.930878 1.9368304 -0.73378599 0 3
-2.0032718 2.0094473 -0.73338938 0 4
-2.091429 2.0978761 -0.73666525 0 5
-2.1767554 2.1834655 -0.73667639 0 6
-2.2654531 2.2724369 -0.73556381 0 7
-2.3656979 2.3729906 -0.73574078 0 8
-2.4754164 2.4830475 -0.73612767 0 9
-2.581754 2.5897126 -0.73270023 0 10
-2.7179506 2.7263291 -0.73458993 0 11
-2.8512447 2.860034 -0.73218518 0 12
-3.0189667 3.0282731 -0.73469955 0 13
-3.1965003 3.2063539 -0.7350992 0 14
-3.3737874 3.3841877 -0.73082536 0 15
-3.6051126 3.616226 -0.73293692 0 16
-3.8802712 3.8922329 -0.73735303 0 17
-3.882951 3.8949208 -0.68642879 0 18
-3.8732648 3.8852048 -0.63352895 0 19
-3.8834479 3.8954194 -0.58398139 0 20
-3.8846769 3.8966522 -0.53303677 0 21
-3.8856938 3.8976722 -0.48212454 0 22
-3.8662295 3.8781478 -0.42899522 0 23
-3.8833721 3.8953433 -0.38003162 0 24
-3.8761411 3.8880899 -0.32861742 0 25
-3.8650129 3.8769276 -0.27716866 0 26
-3.8660729 3.877991 -0.22677255 0 27
-3.8773031 3.8892555 -0.17685105 0 28
-3.876617 3.8885674 -0.12627846 0 29
-3.8761456 3.8880947 -0.075749315 0 30
-3.871331 3.883265 -0.025216985 0 31
-3.8707619 3.8826942 0.025213279 0 32
-3.8690348 3.8809619 0.075610355 0 33
-3.8779836 3.8899381 0.12632297 0 34
-3.8751085 3.8870542 0.17675096 0 35
-3.8839734 3.8959463 0.22782253 0 36
-3.8746841 3.8866284 0.27786219 0 37
-3.8756709 3.8876185 0.32857758 0 38
-3.8787639 3.8907211 0.37958065 0 39
-3.8658955 3.8778129 0.42895815 0 40
-3.8684156 3.8803408 0.47998071 0 41
-3.8725183 3.8844562 0.53136837 0 42
-3.8748765 3.8868215 0.58269244 0 43
-3.8715189 3.8834534 0.63324338 0 44
-3.8748703 3.8868153 0.6850003 0 45
-3.8735707 3.8855119 0.73607975 0 46
-3.876651 3.8886015 0.78814203 0 47
-3.8726106 3.8845487 0.83887982 0 48
-3.866833 3.8787532 0.88925564 0 49
-3.8733456 3.8852859 0.9426223 0 50
-3.8803847 3.8923469 0.99646312 0 51
-3.8811696 3.8931341 1.0489771 0 52
-3.885114 3.8970904 1.1025929 0 53
-3.8764033 3.8883531 1.1527466 0 54
-3.8633003 3.8752098 1.2015007 0 55
-3.8716762 3.8836114 1.257084 0 56
-3.8728833 3.8848221 1.3106947 0 57
-3.8721113 3.884048 1.3638761 0 58
-3.8749495 3.8868947 1.4186027 0 59
-3.8782046 3.8901601 1.4738228 0 60
-3.877728 3.8896818 1.5279307 0 61
-3.8673906 3.8793125 1.5782797 0 62
-3.8773921 3.8893449 1.6372142 0 63
-1.7622304 1.7247202 -0.73508459 0 0
-1.8153747 1.7767333 -0.73188198 0 1
-1.888276 1.8480829 -0.73502254 0 2
-1.9522287 1.9106743 -0.73291582 0 3
-2.0258238 1.9827029 -0.7326647 0 4
-2.1068261 2.061981 -0.73310232 0 5
-2.2000027 2.1531742 -0.73552793 0 6
-2.2850912 2.2364516 -0.73295552 0 7
-2.3880613 2.33723 -0.7337023 0 8
-2.5128005 2.4593139 -0.73819602 0 9
-2.6259663 2.570071 -0.7362231 0 10
-2.7576346 2.6989367 -0.7362901 0 11
-2.902354 2.8405757 -0.73628455 0 12
-3.0742967 3.0088584 -0.73910493 0 13
-3.2220972 3.1535127 -0.73201281 0 14
-3.4341173 3.3610201 -0.73488587 0 15
-3.6591203 3.5812337 -0.73490858 0 16
-3.8768311 3.7943103 -0.72777832 0 17
-3.871408 3.7890027 -0.67610067 0 18
-3.8667617 3.7844553 -0.62480646 0 19
-3.8623686 3.7801559 -0.57377821 0 20
-3.8658605 3.7835732 -0.52403134 0 21
-3.863446 3.7812102 -0.47355926 0 22
-3.866924 3.7846143 -0.42387646 0 23
-3.8662932 3.7839968 -0.37377852 0 24
-3.868511 3.7861674 -0.32399902 0 25
-3.8708744 3.7884805 -0.27422756 0 26
-3.8647301 3.7824669 -0.22394864 0 27
-3.8754861 3.792994 -0.17462763 0 28
-3.8667116 3.7844064 -0.12443054 0 29
-3.8639567 3.7817099 -0.074596718 0 30
-3.8779213 3.7953775 -0.024954032 0 31
-3.859874 3.7777143 0.024837898 0 32
-3.8654892 3.7832098 0.074626304 0 33
-3.8791118 3.7965426 0.12482958 0 34
-3.8588939 3.7767549 0.17387998 0 35
-3.8710325 3.7886353 0.22431384 0 36
-3.8790929 3.796524 0.27480981 0 37
-3.8613424 3.7791514 0.32339862 0 38
-3.8661327 3.7838397 0.37376302 0 39
-3.8668413 3.7845333 0.4238674 0 40
-3.8721583 3.789737 0.47462717 0 41
-3.8705359 3.7881491 0.52466512 0 42
-3.8643236 3.7820692 0.57406867 0 43
-3.8725777 3.7901475 0.62574625 0 44
-3.8675954 3.7852714 0.67543483 0 45
-3.8752344 3.7927475 0.72747856 0 46
-3.8726394 3.7902079 0.77779233 0 47
-3.8701715 3.7877927 0.82819951 0 48
-3.8722391 3.7898161 0.87971544 0 49
-3.8660257 3.7837348 0.92944789 0 50
-3.8650208 3.7827516 0.98049897 0 51
-3.8622329 3.7800229 1.0312185 0 52
-3.8666847 3.78438 1.0840744 0 53
-3.8736353 3.7911828 1.1379743 0 54
-3.8729396 3.7905016 1.1899127 0 55
-3.8647733 3.7825091 1.2396473 0 56
-3.8725731 3.7901433 1.2947193 0 57
-3.8636889 3.7814481 1.3444296 0 58
-3.8748181 3.79234 1.4013767 0 59
-3.8726685 3.7902365 1.4538974 0 60
-3.8688512 3.7865005 1.5059731 0 61
-3.877142 3.7946146 1.563099 0 62
-3.8663123 3.7840157 1.6127667 0 63
-1.7773533 1.6972402 -0.73263186 0 0
-1.8448226 1.7616684 -0.73496526 0 1
-1.9205328 1.833966 -0.73874462 0 2
-1.9829695 1.8935884 -0.73565954 0 3
-2.052151 1.9596515 -0.73341584 0 4
-2.1316042 2.0355237 -0.73295939 0 5
-2.2214513 2.1213207 -0.73392248 0 6
-2.3219478 2.2172875 -0.73597658 0 7
-2.4273667 2.3179548 -0.73696554 0 8
-2.5339375 2.4197218 -0.73560894 0 9
-2.6595917 2.5397122 -0.73683918 0 10
-2.767386 2.6426477 -0.73016226 0 11
-2.9296815 2.7976279 -0.73443455 0 12
-3.0867102 2.9475787 -0.73332012 0 13
-3.2829075 3.1349328 -0.73701465 0 14
-3.4899485 3.3326414 -0.7380082 0 15
-3.7239857 3.5561295 -0.73909801 0 16
-3.866308 3.6920366 -0.71722615 0 17
-3.8639381 3.6897736 -0.66682208 0 18
-3.8715746 3.6970658 -0.61819172 0 19
-3.8554616 3.6816792 -0.56598401 0 20
-3.864975 3.6907637 -0.51772028 0 21
-3.8678968 3.6935539 -0.46850237 0 22
-3.8674552 3.6931322 -0.41892511 0 23
-3.8670785 3.6927724 -0.36943662 0 24
-3.8702404 3.6957917 -0.32031348 0 25
-3.8716333 3.6971219 -0.27104017 0 26
-3.8684313 3.6940641 -0.2215142 0 27
-3.868072 3.6937213 -0.17223394 0 28
-3.8731792 3.6985981 -0.12316583 0 29
-3.8739548 3.6993389 -0.07390596 0 30
-3.8552742 3.6815002 -0.024515143 0 31
-3.8663223 3.6920502 0.024585394 0 32
-3.8580127 3.6841152 0.07360182 0 33
-3.8622673 3.6881781 0.12281884 0 34
-3.8604827 3.6864738 0.171896 0 35
-3.8715444 3.697037 0.22169246 0 36
-3.8590417 3.6850979 0.27015868 0 37
-3.8676116 3.6932814 0.3200959 0 38
-3.872541 3.6979887 0.36995849 0 39
-3.875561 3.7008727 0.41980311 0 40
-3.8626235 3.688518 0.46786362 0 41
-3.8699563 3.6955204 0.51838756 0 42
-3.8588235 3.6848896 0.56647754 0 43
-3.8613241 3.6872773 0.61655492 0 44
-3.8643734 3.6901894 0.66689724 0 45
-3.8663228 3.6920507 0.71722883 0 46
-3.8661277 3.6918645 0.76730889 0 47
-3.8667004 3.6924114 0.81767875 0 48
-3.8702586 3.6958091 0.86887527 0 49
-3.8656847 3.6914415 0.91838372 0 50
-3.8706627 3.6961951 0.97032684 0 51
-3.8605547 3.6865425 1.01859 0 52
-3.8610687 3.6870337 1.0697081 0 53
-3.8701453 3.6957011 1.1235138 0 54
-3.8711708 3.6966801 1.1753145 0 55
-3.8680484 3.6936986 1.2260365 0 56
-3.8612506 3.6872072 1.2756789 0 57
-3.8554051 3.6816251 1.3256941 0 58
-3.8584192 3.6845033 1.378956 0 59
-3.8766589 3.701921 1.4381971 0 60
-3.8627138 3.6886046 1.4858164 0 61
-3.8620045 3.6879272 1.5385973 0 62
-3.8675492 3.6932218 1.5942186 0 63
-1.8035471 1.6803452 -0.73485643 0 0
-1.8677983 1.7402073 -0.73553801 0 1
-1.9295617 1.7977515 -0.73365897 0 2
-2.0017989 1.8650542 -0.73408145 0 3
-2.0659027 1.9247791 -0.72981679 0 4
-2.1609385 2.0133228 -0.73447782 0 5
-2.2532499 2.0993283 -0.7358439 0 6
-2.3373098 2.1776459 -0.7323029 0 7
-2.4577291 2.2898393 -0.73757941 0 8
-2.5609894 2.3860459 -0.73488921 0 9
-2.6763403 2.4935172 -0.73292923 0 10
-2.8115234 2.6194656 -0.73325378 0 11
-2.9632921 2.7608669 -0.73429424 0 12
-3.1463246 2.9313962 -0.73886353 0 13
-3.325243 3.0980926 -0.73791069 0 14
-3.5033832 3.2640638 -0.7323063 0 15
-3.7321818 3.4772332 -0.73218328 0 16
-3.8569868 3.5935125 -0.70724642 0 17
-3.85938 3.5957422 -0.6583553 0 18
-3.8662672 3.602159 -0.6102255 0 19
-3.8611789 3.5974181 -0.56028712 0 20
-3.8593085 3.5956757 -0.5110001 0 21
-3.8565679 3.5931222 -0.46174356 0 22
-3.8588698 3.5952668 -0.41317514 0 23
-3.8681223 3.6038873 -0.36527514 0 24
-3.8635008 3.5995817 -0.31606853 0 25
-3.8583086 3.594744 -0.26699269 0 26
-3.85409 3.5908134 -0.21814813 0 27
-3.8577113 3.5941875 -0.16979186 0 28
-3.8581176 3.5945659 -0.12127214 0 29
-3.8631454 3.5992503 -0.072849892 0 30
-3.8672438 3.6030688 -0.024307687 0 31
-3.8759899 3.6112175 0.024362661 0 32
-3.8678842 3.6036654 0.072939247 0 33
-3.8569324 3.5934618 0.12123489 0 34
-3.8598127 3.5961454 0.16988435 0 35
-3.8605444 3.5968273 0.21851346 0 36
-3.8609524 3.5972073 0.26717564 0 37
-3.8625891 3.598732 0.31599393 0 38
-3.8610051 3.5972562 0.36460304 0 39
-3.8561387 3.5927224 0.41288272 0 40
-3.8584008 3.5948298 0.461963 0 41
-3.8603377 3.5966346 0.51113635 0 42
-3.8529932 3.5897915 0.55909932 0 43
-3.8623581 3.5985169 0.60960853 0 44
-3.8523161 3.5891609 0.65715033 0 45
-3.8570118 3.5935359 0.70725101 0 46
-3.8577909 3.5942616 0.75682539 0 47
-3.8641484 3.6001847 0.80771643 0 48
-3.8684127 3.6041577 0.85844648 0 49
-3.8603253 3.5966229 0.90653509 0 50
-3.8563528 3.5929217 0.9555918 0 51
-3.8612258 3.5974619 1.0070194 0 52
-3.8653464 3.6013012 1.0585445 0 53
-3.8630271 3.5991402 1.1085156 0 54
-3.853708 3.5904577 1.1565211 0 55
-3.8569248 3.5934546 1.2084137 0 56
-3.8695543 3.6052215 1.2636806 0 57
-3.8605087 3.5967937 1.3121419 0 58
-3.8616228 3.5978317 1.3641868 0 59
-3.8691397 3.6048353 1.4188555 0 60
-3.8533947 3.5901659 1.4651397 0 61
-3.8619595 3.5981455 1.5208377 0 62
-3.8729804 3.6084137 1.5780483 0 63
-1.8233981 1.6574304 -0.73458511 0 0
-1.8763468 1.7055596 -0.73059028 0 1
-1.9501197 1.7726177 -0.73313248 0 2
-2.0287826 1.8441206 -0.73560542 0 3
-2.1099765 1.9179242 -0.73699957 0 4
-2.1955471 1.995706 -0.73784417 0 5
-2.2846406 2.0766902 -0.73770016 0 6
-2.3836319 2.1666713 -0.73841298 0 7
-2.4761887 2.2508032 -0.7347576 0 8
-2.6010795 2.3643262 -0.73799485 0 9
-2.7310698 2.4824848 -0.7395016 0 10
-2.8619695 2.6014698 -0.73801166 0 11
-2.9921279 2.7197812 -0.73309702 0 12
-3.1582458 2.8707788 -0.73331779 0 13
-3.3445904 3.0401621 -0.73385286 0 14
-3.5497935 3.2266872 -0.73365831 0 15
-3.7927685 3.4475465 -0.73569697 0 16
-3.8512342 3.5006907 -0.69824553 0 17
-3.856596 3.5055645 -0.65047795 0 18
-3.8650756 3.513272 -0.60317332 0 19
-3.8660533 3.5141609 -0.55468214 0 20
-3.8607366 3.5093281 -0.50543725 0 21
-3.8568497 3.505795 -0.45658138 0 22
-3.8503819 3.4999158 -0.40762746 0 23
-3.8584025 3.5072064 -0.36025754 0 24
-3.8652134 3.5133975 -0.31265065 0 25
-3.8501999 3.4997506 -0.26343369 0 26
-3.8726525 3.5201592 -0.21673237 0 27
-3.8609612 3.5095322 -0.1680228 0 28
-3.8564258 3.5054097 -0.11985501 0 29
-3.8635504 3.5118859 -0.072037742 0 30
-3.8731089 3.5205743 -0.024070628 0 31
-3.8563898 3.5053771 0.023966722 0 32
-3.8609278 3.5095019 0.071988836 0 33
-3.8640542 3.5123439 0.1200921 0 34
-3.8581786 3.5070028 0.16790169 0 35
-3.8712068 3.5188453 0.21665147 0 36
-3.8635902 3.5119221 0.26434988 0 37
-3.8586981 3.5074751 0.31212363 0 38
-3.8643672 3.5126283 0.36081448 0 39
-3.8568037 3.505753 0.40830734 0 40
-3.8501647 3.4997184 0.45579001 0 41
-3.862781 3.5111866 0.50570494 0 42
-3.8543301 3.5035048 0.55300015 0 43
-3.8590624 3.5078063 0.6022349 0 44
-3.8543026 3.5034797 0.65009111 0 45
-3.8555536 3.504617 0.69902867 0 46
-3.8629572 3.5113466 0.74931169 0 47
-3.8597848 3.5084629 0.79772621 0 48
-3.8613763 3.5099094 0.84724337 0 49
-3.8663609 3.5144405 0.89773613 0 50
-3.8544848 3.5036454 0.94438183 0 51
-3.8449814 3.495007 0.99149948 0 52
-3.8608327 3.5094154 1.0454116 0 53
-3.8663449 3.514426 1.096984 0 54
-3.8531392 3.5024221 1.1433392 0 55
-3.8538036 3.503026 1.1938497 0 56
-3.8597491 3.5084305 1.2462956 0 57
-3.8658369 3.5139642 1.2991683 0 58
-3.8548763 3.5040011 1.3464804 0 59
-3.8607171 3.5093105 1.3998368 0 60
-3.8618784 3.510366 1.4518435 0 61
-3.8579705 3.5068138 1.5021721 0 62
-3.8632898 3.5116489 1.5563881 0 63
-1.8424951 1.6338708 -0.73412919 0 0
-1.9075514 1.6915609 -0.73458588 0 1
-1.9789511 1.754876 -0.73580343 0 2
-2.0583758 1.8253076 -0.73814154 0 3
-2.1373439 1.895334 -0.73836231 0 4
-2.1998243 1.95074 -0.73116511 0 5
-2.2854331 2.0266552 -0.72985405 0 6
-2.3927302 2.1218033 -0.7330935 0 7
-2.4988086 2.2158704 -0.73332912 0 8
-2.6116331 2.3159199 -0.73285389 0 9
-2.7385924 2.4285038 -0.73339725 0 10
-2.8830235 2.556581 -0.73527873 0 11
-3.0302355 2.6871245 -0.73428261 0 12
-3.1988716 2.8366659 -0.73459619 0 13
-3.3834672 3.00036 -0.73423249 0 14
-3.6103859 3.2015848 -0.73798907 0 15
-3.8576086 3.4208148 -0.74005902 0 16
-3.858526 3.421628 -0.69188708 0 17
-3.8576753 3.4208736 -0.64351642 0 18
-3.8640397 3.4265175 -0.5963912 0 19
-3.8542986 3.4178793 -0.54692435 0 20
-3.856071 3.4194512 -0.49928403 0 21
-3.8597217 3.4226885 -0.45190489 0 22
-3.8582695 3.4214005 -0.40397805 0 23
-3.8615396 3.4243004 -0.356592 0 24
-3.8473024 3.4116755 -0.30778521 0 25
-3.8674166 3.4295123 -0.26170653 0 26
-3.8608849 3.4237199 -0.21370155 0 27
-3.854691 3.4182274 -0.16590822 0 28
-3.8665581 3.4287508 -0.11885058 0 29
-3.8560553 3.4194372 -0.071108624 0 30
-3.8580244 3.4211833 -0.023713641 0 31
-3.852766 3.4165204 0.02368132 0 32
-3.8573627 3.4205966 0.071132734 0 33
-3.8525357 3.4163163 0.11841956 0 34
-3.8631821 3.4257569 0.16627367 0 35
-3.8444102 3.4091105 0.21278965 0 36
-3.8631117 3.4256945 0.26141521 0 37
-3.8574505 3.4206743 0.30859706 0 38
-3.8546739 3.4182122 0.35595798 0 39
-3.8598063 3.4227636 0.40413898 0 40
-3.8615832 3.4243393 0.45212284 0 41
-3.8579495 3.4211168 0.49952722 0 42
-3.8534613 3.4171369 0.5468055 0 43
-3.8638921 3.4263866 0.59636843 0 44
-3.8494272 3.4135597 0.64214057 0 45
-3.8525918 3.4163659 0.69082296 0 46
-3.8567717 3.4200726 0.73989844 0 47
-3.8578761 3.421052 0.78857785 0 48
-3.8640203 3.4265003 0.83851534 0 49
-3.855737 3.4191549 0.88544029 0 50
-3.8606801 3.4235384 0.93551481 0 51
-3.8459542 3.4104798 0.98086202 0 52
-3.8552477 3.418721 1.0324384 0 53
-3.8463943 3.4108701 1.079342 0 54
-3.8584485 3.4215593 1.1323447 0 55
-3.8568943 3.4201813 1.1816895 0 56
-3.8620427 3.4247468 1.233345 0 57
-3.856163 3.4195328 1.2816895 0 58
-3.8506904 3.4146798 1.3302515 0 59
-3.8612003 3.4239995 1.3846413 0 60
-3.8670945 3.4292264 1.4378432 0 61
-3.8590326 3.4220774 1.4860889 0 62
-3.860096 3.4230204 1.5380281 0 63
-1.8609539 1.6098028 -0.73354143 0 0
-1.9391946 1.6774843 -0.73877221 0 1
-2.0037909 1.7333629 -0.73705858 0 2
-2.0672483 1.7882562 -0.7333824 0 3
-2.1429708 1.8537593 -0.73237628 0 4
-2.223274 1.9232249 -0.7310437 0 5
-2.3226681 2.0092049 -0.7337997 0 6
-2.4246004 2.0973806 -0.73490071 0 7
-2.5389123 2.1962652 -0.73711711 0 8
-2.6597972 2.3008356 -0.73837435 0 9
-2.7872231 2.4110644 -0.73842508 0 10
-2.9273851 2.5323102 -0.73859525 0 11
-3.0734231 2.6586394 -0.73677021 0 12
-3.2260566 2.7906737 -0.7329033 0 13
-3.4040852 2.9446757 -0.73079383 0 14
-3.6242821 3.1351554 -0.732894 0 15
-3.8507309 3.331043 -0.73082632 0 16
-3.8634105 3.3420115 -0.68534225 0 17
-3.8602645 3.3392901 -0.63705057 0 18
-3.8574021 3.3368139 -0.58898932 0 19
-3.8617122 3.3405423 -0.54210651 0 20
-3.8552606 3.3349617 -0.49383202 0 21
-3.8535886 3.3335152 -0.44635379 0 22
-3.8644109 3.3428769 -0.40028688 0 23
-3.851862 3.3320215 -0.35188818 0 24
-3.8697443 3.3474905 -0.3062644 0 25
-3.8504937 3.3308377 -0.25777027 0 26
-3.8455093 3.3265262 -0.2105705 0 27
-3.8531268 3.3331156 -0.16406444 0 28
-3.8592086 3.3383765 -0.11735399 0 29
-3.867415 3.3454754 -0.07055416 0 30
-3.8550913 3.334815 -0.023441792 0 31
-3.8494709 3.3299532 0.023407616 0 32
-3.8555202 3.335186 0.070337161 0 33
-3.8504508 3.3308008 0.11708768 0 34
-3.863215 3.3418424 0.16449399 0 35
-3.8550804 3.3348055 0.21109459 0 36
-3.8577993 3.3371575 0.25825936 0 37
-3.859437 3.3385742 0.30544865 0 38
-3.857914 3.3372567 0.35244104 0 39
-3.8620276 3.3408151 0.40004 0 40
-3.861903 3.3407073 0.44731683 0 41
-3.8506148 3.3309426 0.4932369 0 42
-3.8536799 3.3335941 0.54097897 0 43
-3.8550262 3.3347585 0.58862656 0 44
-3.863214 3.3418415 0.6375373 0 45
-3.8591542 3.3383296 0.68458718 0 46
-3.8579037 3.3372478 0.73218763 0 47
-3.8491025 3.3296344 0.77835661 0 48
-3.8490016 3.3295472 0.82630914 0 49
-3.8465958 3.327466 0.87387896 0 50
-3.8597329 3.33883 0.92526668 0 51
-3.8534918 3.3334315 0.97225708 0 52
-3.8524091 3.3324947 1.0206271 0 53
-3.8479283 3.3286188 1.0682062 0 54
-3.8517692 3.3319411 1.1182761 0 55
-3.8487961 3.3293693 1.166577 0 56
-3.8594563 3.3385909 1.2193166 0 57
-3.8527229 3.3327663 1.2668293 0 58
-3.8526728 3.3327229 1.3166796 0 59
-3.8544164 3.3342311 1.3674027 0 60
-3.8603587 3.3393714 1.4199637 0 61
-3.8488555 3.3294206 1.4662931 0 62
-3.85692 3.3363969 1.5203013 0 63
-1.8996189 1.6028417 -0.74095726 0 0
-1.9463319 1.6422567 -0.73374259 0 1
-2.023602 1.7074549 -0.73656714 0 2
-2.0885551 1.7622604 -0.73319823 0 3
-2.1857967 1.8443102 -0.73920596 0 4
-2.2564833 1.9039533 -0.73420972 0 5
-2.3587487 1.9902418 -0.7374112 0 6
-2.4566433 2.0728424 -0.73683161 0 7
-2.5637624 2.1632261 -0.73655337 0 8
-2.6706042 2.2533762 -0.73362702 0 9
-2.7969179 2.359956 -0.73325008 0 10
-2.940419 2.4810376 -0.73413092 0 11
-3.0898697 2.6071398 -0.73297226 0 12
-3.2602217 2.7508776 -0.73292494 0 13
-3.4624491 2.9215112 -0.73555559 0 14
-3.6800387 3.1051068 -0.73639226 0 15
-3.8572478 3.2546306 -0.72441298 0 16
-3.8481238 3.246932 -0.67549688 0 17
-3.8532946 3.2512949 -0.629255 0 18
-3.8543308 3.2521691 -0.58237022 0 19
-3.8490317 3.2476981 -0.53467995 0 20
-3.8542945 3.2521389 -0.4885489 0 21
-3.8618011 3.2584727 -0.44263062 0 22
-3.8589551 3.2560711 -0.39554459 0 23
-3.8418825 3.2416658 -0.34730873 0 24
-3.8530071 3.2510524 -0.3017531 0 25
-3.8563302 3.2538562 -0.25546315 0 26
-3.866509 3.2624447 -0.20950787 0 27
-3.8501086 3.2486067 -0.16222276 0 28
-3.8601854 3.2571092 -0.11615701 0 29
-3.8577518 3.2550557 -0.06964241 0 30
-3.8603301 3.2572312 -0.023228342 0 31
-3.8495119 3.2481031 0.023163246 0 32
-3.846288 3.245383 0.069435462 0 33
-3.851959 3.2501681 0.11590947 0 34
-3.8582556 3.2554808 0.16256604 0 35
-3.8500044 3.2485189 0.20861357 0 36
-3.8604558 3.2573373 0.25573647 0 37
-3.8502278 3.2487073 0.30153543 0 38
-3.8539279 3.2518291 0.34839761 0 39
-3.8616183 3.2583182 0.39581755 0 40
-3.86096 3.2577629 0.44253421 0 41
-3.8464377 3.2455094 0.487553 0 42
-3.8559113 3.2535028 0.53563559 0 43
-3.8407776 3.2407334 0.58032238 0 44
-3.8536887 3.2516274 0.62931937 0 45
-3.8612161 3.2579789 0.67779505 0 46
-3.8600674 3.2570095 0.72494251 0 47
-3.8590724 3.25617 0.77221769 0 48
-3.8606818 3.2575281 0.82015532 0 49
-3.8501806 3.2486675 0.86555266 0 50
-3.8739142 3.268693 0.91896152 0 51
-3.8542604 3.2521098 0.96228862 0 52
-3.8435087 3.2430379 1.0076281 0 53
-3.8553476 3.2530272 1.0590813 0 54
-3.8628235 3.259335 1.1097656 0 55
-3.8591173 3.2562079 1.1574817 0 56
-3.8390372 3.239265 1.2001909 0 57
-3.8607354 3.2575734 1.2561978 0 58
-3.8480632 3.246881 1.3013612 0 59
-3.8505721 3.2489979 1.3517636 0 60
-3.8551412 3.2528529 1.4032257 0 61
-3.8569229 3.2543564 1.4540113 0 62
-3.8493137 3.247936 1.501447 0 63
-1.9039309 1.566812 -0.73506868 0 0
-1.9703833 1.6214981 -0.73523742 0 1
-2.0295672 1.6702027 -0.73120767 0 2
-2.1088419 1.7354406 -0.73277318 0 3
-2.1926112 1.8043774 -0.73395151 0 4
-2.2686803 1.8669772 -0.73065323 0 5
-2.3667946 1.9477191 -0.73238373 0 6
-2.4757469 2.0373797 -0.73499173 0 7
-2.5682156 2.1134756 -0.73031121 0 8
-2.6916306 2.2150381 -0.73186553 0 9
-2.8231773 2.3232925 -0.73258936 0 10
-2.993947 2.463825 -0.73987526 0 11
-3.1375723 2.5820193 -0.73670083 0 12
-3.3116956 2.7253115 -0.7369073 0 13
-3.4692314 2.8549533 -0.72948349 0 14
-3.6864638 3.0337217 -0.73015803 0 15
-3.8492432 3.1676784 -0.71554029 0 16
-3.8464637 3.1653912 -0.66832238 0 17
-3.85287 3.1706631 -0.62277174 0 18
-3.8520131 3.1699581 -0.57608694 0 19
-3.8641379 3.1799359 -0.53130645 0 20
-3.8533134 3.1710281 -0.48344553 0 21
-3.8549845 3.1724031 -0.43734509 0 22
-3.8511417 3.1692407 -0.39071965 0 23
-3.8559089 3.1731639 -0.34502333 0 24
-3.860172 3.1766722 -0.29923242 0 25
-3.84882 3.16733 -0.25236651 0 26
-3.8533008 3.1710176 -0.20666376 0 27
-3.8464479 3.1653781 -0.16041639 0 28
-3.8502216 3.1684837 -0.11467614 0 29
-3.8604398 3.1768925 -0.068980508 0 30
-3.8548095 3.1722593 -0.022958674 0 31
-3.8443794 3.163676 0.022896552 0 32
-3.8487959 3.1673102 0.068772443 0 33
-3.8444769 3.1637561 0.11450504 0 34
-3.8522725 3.1701713 0.1606593 0 35
-3.854073 3.1716533 0.20670517 0 36
-3.8618698 3.1780694 0.2532222 0 37
-3.8576868 3.1746271 0.29903975 0 38
-3.84761 3.1663346 0.34428075 0 39
-3.8534062 3.1711044 0.39094943 0 40
-3.8466601 3.1655529 0.43640068 0 41
-3.8528748 3.1706672 0.48339051 0 42
-3.8578355 3.1747494 0.53043991 0 43
-3.8504858 3.1687009 0.57585847 0 44
-3.8592865 3.1759434 0.62380892 0 45
-3.8430097 3.1625488 0.66772223 0 46
-3.8422589 3.1619308 0.71424198 0 47
-3.850879 3.1690247 0.76272285 0 48
-3.8544388 3.1719542 0.81048191 0 49
-3.8555927 3.1729038 0.8579334 0 50
-3.8512111 3.1692979 0.90426296 0 51
-3.842912 3.1624682 0.94967455 0 52
-3.857163 3.174196 1.0008994 0 53
-3.8522499 3.1701527 1.0474427 0 54
-3.8486516 3.1671917 1.0944228 0 55
-3.8573861 3.1743796 1.1451683 0 56
-3.8488696 3.167371 1.1909988 0 57
-3.8476284 3.1663494 1.2391707 0 58
-3.8605042 3.1769454 1.2922596 0 59
-3.8548632 3.1723034 1.3394747 0 60
-3.8650959 3.1807241 1.3925077 0 61
-3.8567977 3.1738954 1.4391423 0 62
-3.852098 3.170028 1.4872161 0 63
-1.9173733 1.5387268 -0.73289818 0 0
-1.9776137 1.5870707 -0.73059815 0 1
-2.0688255 1.6602699 -0.73794055 0 2
-2.1357541 1.7139812 -0.73474556 0 3
-2.2218606 1.7830833 -0.73634738 0 4
-2.3018532 1.8472788 -0.73396587 0 5
-2.3851638 1.9141371 -0.73072934 0 6
-2.4985421 2.0051253 -0.73438382 0 7
-2.621788 2.1040323 -0.73813242 0 8
-2.7286315 2.1897762 -0.73454922 0 9
-2.8682971 2.3018603 -0.73689699 0 10
-3.0081327 2.4140809 -0.73598945 0 11
-3.1603339 2.5362251 -0.73466712 0 12
-3.3300705 2.6724417 -0.73362827 0 13
-3.527118 2.8305759 -0.73428112 0 14
-3.7410727 3.0022786 -0.73360664 0 15
-3.8616917 3.0990775 -0.71071678 0 16
-3.8482912 3.0883234 -0.6619916 0 17
-3.8546774 3.0934484 -0.61686879 0 18
-3.851824 3.0911584 -0.57033086 0 19
-3.8505495 3.0901356 -0.52417392 0 20
-3.8406758 3.0822117 -0.47706884 0 21
-3.8496354 3.0894022 -0.43239576 0 22
-3.8531094 3.0921898 -0.38703239 0 23
-3.8434417 3.0844314 -0.34048828 0 24
-3.8493593 3.0891805 -0.29542732 0 25
-3.8462584 3.0866921 -0.24969096 0 26
