# .PCD v0.7 - Point Cloud Data file format
VERSION 0.7
FIELDS x y z intensity ring
SIZE 4 4 4 4 2
TYPE F F F F U
COUNT 1 1 1 1 1
WIDTH 1253
HEIGHT 1
VIEWPOINT 0 0 0 1 0 0 0
POINTS 1253
DATA ascii
-2.4864895 -1.9456775 0.54247212 0 50
-2.4913757 -1.949501 0.5735417 0 51
-2.493897 -1.9514738 0.60425639 0 52
-2.4918983 -1.9499098 0.63398808 0 53
-2.4932048 -1.9509324 0.66466403 0 54
-2.5048983 -1.9600824 0.69838512 0 55
-2.5000384 -1.9562795 0.72769815 0 56
-2.4999206 -1.9561874 0.75845999 0 57
-2.4940403 -1.951586 0.78753495 0 58
-2.5099428 -1.9640297 0.82375467 0 59
-2.5051329 -1.9602661 0.85346299 0 60
-2.5016801 -1.9575641 0.88368493 0 61
-2.4875085 -1.9464749 0.91005963 0 62
-2.4988942 -1.9553843 0.94591689 0 63
-1.9187421 -1.5398252 -0.73342139 0 0
-1.9923296 -1.5988805 -0.73603469 0 1
-2.0650756 -1.6572607 -0.73660302 0 2
-2.1314692 -1.7105426 -0.73327148 0 3
-2.2158685 -1.7782745 -0.73436153 0 4
-2.31387 -1.8569225 -0.73779756 0 5
-2.3786292 -1.908893 -0.72872734 0 6
-2.429755 -1.9499222 -0.71416551 0 7
-2.4277344 -1.9483007 -0.68349898 0 8
-2.4432597 -1.9607602 -0.657727 0 9
-2.4300938 -1.9501942 -0.62431777 0 10
-2.4193532 -1.9415747 -0.5919348 0 11
-2.4237545 -1.9451067 -0.56343812 0 12
-2.4275317 -1.9481381 -0.53479528 0 13
-2.4318304 -1.9515879 -0.50626242 0 14
-2.4222589 -1.9439064 -0.47499344 0 15
-2.4294789 -1.9497006 -0.44712821 0 16
-2.433656 -1.953053 -0.41864294 0 17
-2.4359496 -1.9548936 -0.38982803 0 18
-2.4367917 -1.9555693 -0.36081022 0 19
-2.4288077 -1.9491621 -0.33063272 0 20
-2.4490292 -1.9653902 -0.30420572 0 21
-2.439822 -1.9580014 -0.2740438 0 22
-2.4220941 -1.9437742 -0.24329153 0 23
-2.4255142 -1.946519 -0.21487491 0 24
-2.4300339 -1.9501461 -0.18649815 0 25
-2.4255888 -1.946579 -0.1574641 0 26
-2.4397149 -1.9579153 -0.12954798 0 27
-2.4327409 -1.9523185 -0.10044884 0 28
-2.4247859 -1.9459345 -0.071502455 0 29
-2.4293983 -1.949636 -0.042978227 0 30
-2.4352129 -1.9543023 -0.014359554 0 31
-2.4323635 -1.9520156 0.014342753 0 32
-2.4385352 -1.9569685 0.043139867 0 33
-2.4338601 -1.9532168 0.071770035 0 34
-2.4307289 -1.9507039 0.10036577 0 35
-2.4368522 -1.955618 0.12939598 0 36
-2.4313772 -1.9512241 0.15783986 0 37
-2.4341874 -1.9534794 0.18681692 0 38
-2.4204359 -1.9424435 0.21442501 0 39
-2.4246287 -1.9458085 0.24354614 0 40
-2.4398575 -1.9580299 0.27404779 0 41
-2.4153781 -1.9383847 0.30002576 0 42
-2.4397936 -1.9579785 0.3321282 0 43
-2.4254432 -1.946462 0.35912991 0 44
-2.4263434 -1.9471844 0.38829073 0 45
-2.4283645 -1.9488064 0.41773269 0 46
-2.427078 -1.9477739 0.44668633 0 47
-2.4333217 -1.9527845 0.47716281 0 48
-2.4247072 -1.9458714 0.50477946 0 49
-2.4235156 -1.9449151 0.53391051 0 50
-2.4321003 -1.9518044 0.56537825 0 51
-2.4372857 -1.9559659 0.5963223 0 52
-2.4334581 -1.9528941 0.62518203 0 53
-2.430443 -1.9504744 0.65427673 0 54
-2.4268143 -1.9475623 0.68323994 0 55
-2.4333484 -1.9528061 0.71522176 0 56
-2.4257591 -1.9467156 0.74316627 0 57
-2.4231732 -1.9446404 0.77264982 0 58
-2.4406922 -1.9586996 0.80887038 0 59
-2.4304562 -1.9504849 0.83612943 0 60
-2.4316952 -1.9514794 0.86737454 0 61
-2.4237003 -1.9450634 0.89539784 0 62
-2.4357886 -1.9547644 0.93105757 0 63
-1.9090109 -1.5709926 -0.73702997 0 0
-1.9731501 -1.6237751 -0.73626989 0 1
-2.0274708 -1.6684775 -0.73045242 0 2
-2.1191628 -1.743934 -0.73635942 0 3
-2.2014575 -1.8116574 -0.73691273 0 4
-2.2807431 -1.8769042 -0.73453826 0 5
-2.3672769 -1.9481159 -0.73253298 0 6
-2.3705115 -1.9507779 -0.70374984 0 7
-2.3769555 -1.9560808 -0.67592353 0 8
-2.3686247 -1.9492251 -0.64403886 0 9
-2.3736525 -1.9533626 -0.61594164 0 10
-2.3695233 -1.9499646 -0.58556533 0 11
-2.3640282 -1.9454424 -0.55507296 0 12
-2.3707583 -1.9509809 -0.52753311 0 13
-2.3686814 -1.9492719 -0.49806824 0 14
-2.360285 -1.9423621 -0.46748894 0 15
-2.3661659 -1.9472016 -0.43984932 0 16
-2.3733408 -1.9531063 -0.41236755 0 17
-2.3721838 -1.952154 -0.38343599 0 18
-2.3703358 -1.9506333 -0.35449502 0 19
-2.3769095 -1.956043 -0.32681736 0 20
-2.3729737 -1.9528041 -0.29771873 0 21
-2.3760841 -1.9553638 -0.26956496 0 22
-2.3737986 -1.953483 -0.24083504 0 23
-2.3809962 -1.959406 -0.21304943 0 24
-2.3738368 -1.9535142 -0.18401483 0 25
-2.3688509 -1.9494112 -0.15532517 0 26
-2.3635154 -1.9450206 -0.12676221 0 27
-2.3651826 -1.9463925 -0.098640114 0 28
-2.3661027 -1.9471496 -0.070472702 0 29
-2.3626096 -1.9442751 -0.042216435 0 30
-2.3790572 -1.9578104 -0.014169311 0 31
-2.3741927 -1.9538072 0.014140339 0 32
-2.3788667 -1.9576535 0.042506926 0 33
-2.3720794 -1.952068 0.070650712 0 34
-2.3740261 -1.9536701 0.099008933 0 35
-2.3677449 -1.9485011 0.12698907 0 36
-2.3624184 -1.9441178 0.15490341 0 37
-2.3709435 -1.9511334 0.18379056 0 38
-2.3744423 -1.9540125 0.21246299 0 39
-2.3706305 -1.9508759 0.24051362 0 40
-2.3678744 -1.9486076 0.26863354 0 41
-2.366163 -1.9471992 0.29686421 0 42
-2.3735325 -1.9532639 0.32635304 0 43
-2.3705792 -1.9508336 0.35453141 0 44
-2.3759563 -1.9552585 0.38404578 0 45
-2.3701615 -1.9504899 0.41181514 0 46
-2.3560905 -1.9389102 0.43797639 0 47
-2.3722191 -1.952183 0.46985263 0 48
-2.3611135 -1.9430438 0.49647689 0 49
-2.3605499 -1.94258 0.52526158 0 50
-2.3707874 -1.9510049 0.55666 0 51
-2.3706477 -1.9508898 0.58584321 0 52
-2.3655975 -1.946734 0.61385143 0 53
-2.3724101 -1.9523402 0.64506811 0 54
-2.3646784 -1.9459776 0.6724323 0 55
-2.3738503 -1.9535254 0.704741 0 56
-2.3694513 -1.9499053 0.7332058 0 57
-2.3618731 -1.943669 0.76066703 0 58
-2.3682091 -1.9488832 0.79273087 0 59
-2.3781221 -1.9570409 0.82634175 0 60
-2.3703887 -1.9506768 0.85399806 0 61
-2.3657587 -1.9468665 0.88276953 0 62
-2.3648229 -1.9460965 0.9130097 0 63
-1.8815074 -1.5875598 -0.73389274 0 0
-1.9528604 -1.6477653 -0.73620373 0 1
-2.015173 -1.7003428 -0.73349905 0 2
-2.1001713 -1.7720618 -0.73727614 0 3
-2.1765316 -1.8364923 -0.73607254 0 4
-2.2595062 -1.9065039 -0.73519325 0 5
-2.3160903 -1.9542478 -0.72407496 0 6
-2.3101687 -1.9492515 -0.69289887 0 7
-2.308378 -1.9477404 -0.66318297 0 8
-2.308769 -1.9480703 -0.63422918 0 9
-2.3061917 -1.9458957 -0.60459948 0 10
-2.3125625 -1.9512711 -0.5773747 0 11
-2.3123426 -1.9510858 -0.54852897 0 12
-2.3088679 -1.9481537 -0.51905268 0 13
-2.3145802 -1.9529736 -0.49170464 0 14
-2.3092794 -1.9485011 -0.46209717 0 15
-2.304822 -1.9447401 -0.43285862 0 16
-2.3007951 -1.9413422 -0.40387988 0 17
-2.3095644 -1.9487416 -0.37715906 0 18
-2.3057287 -1.945505 -0.34838414 0 19
-2.3111238 -1.9500573 -0.32104477 0 20
-2.3049984 -1.9448889 -0.29216877 0 21
-2.3002608 -1.9408915 -0.26365051 0 22
-2.3107839 -1.9497706 -0.23685637 0 23
-2.3101943 -1.9492729 -0.20884308 0 24
-2.3085361 -1.9478738 -0.18079591 0 25
-2.3012879 -1.9417579 -0.15244915 0 26
-2.3119628 -1.9507654 -0.12527436 0 27
-2.3093152 -1.9485312 -0.097302057 0 28
-2.3007288 -1.9412862 -0.069231331 0 29
-2.3110156 -1.949966 -0.04171982 0 30
-2.3045223 -1.9444872 -0.013866751 0 31
-2.3147154 -1.9530877 0.013928083 0 32
-2.3213167 -1.9586576 0.041905779 0 33
-2.3003941 -1.9410039 0.069221266 0 34
-2.3169587 -1.9549806 0.097624116 0 35
-2.3131597 -1.9517751 0.12533921 0 36
-2.312675 -1.9513661 0.1532035 0 37
-2.3062322 -1.9459299 0.18061547 0 38
-2.3003514 -1.9409678 0.20795327 0 39
-2.3128736 -1.9515338 0.23707056 0 40
-2.3011787 -1.941666 0.26375574 0 41
-2.3141689 -1.9526266 0.29333115 0 42
-2.3170643 -1.9550697 0.32187 0 43
-2.3074298 -1.9469403 0.34864116 0 44
-2.3088071 -1.9481025 0.37703538 0 45
-2.3146548 -1.9530367 0.40631282 0 46
-2.2991729 -1.9399735 0.43179768 0 47
-2.3097785 -1.948922 0.46219701 0 48
-2.3155937 -1.9538288 0.49191996 0 49
-2.3125935 -1.9512973 0.51989025 0 50
-2.3020318 -1.9423857 0.54608297 0 51
-2.3109498 -1.9499104 0.57697207 0 52
-2.3167777 -1.9548279 0.60737479 0 53
-2.2988 -1.9396588 0.63149071 0 54
-2.3063297 -1.9460121 0.6625945 0 55
-2.317874 -1.9557528 0.69520992 0 56
-2.3075237 -1.9470196 0.7213968 0 57
-2.3189497 -1.9566604 0.75453478 0 58
-2.3139207 -1.9524173 0.78253561 0 59
-2.3095853 -1.9487591 0.81079203 0 60
-2.3129506 -1.9515986 0.84188658 0 61
-2.3162322 -1.9543675 0.87319034 0 62
-2.3015938 -1.9420161 0.8977499 0 63
-1.868252 -1.616116 -0.73641813 0 0
-1.9370836 -1.6756582 -0.73796803 0 1
-1.9970837 -1.7275609 -0.73459142 0 2
-2.0736144 -1.793763 -0.73564082 0 3
-2.1496506 -1.8595375 -0.73465914 0 4
-2.2159226 -1.9168655 -0.72862637 0 5
-2.2480202 -1.9446315 -0.71021622 0 6
-2.253566 -1.9494287 -0.68305987 0 7
-2.2516675 -1.9477865 -0.65372193 0 8
-2.2466447 -1.9434416 -0.62368101 0 9
-2.2494054 -1.9458296 -0.59593987 0 10
-2.2453458 -1.942318 -0.56651306 0 11
-2.250469 -1.9467498 -0.53948921 0 12
-2.2598281 -1.9548457 -0.51339322 0 13
-2.2453592 -1.9423295 -0.48203689 0 14
-2.2469287 -1.9436871 -0.45436871 0 15
-2.2584512 -1.9536546 -0.42862916 0 16
-2.2447014 -1.9417604 -0.39819443 0 17
-2.2530372 -1.9489713 -0.37181354 0 18
-2.256994 -1.9523941 -0.34462196 0 19
-2.244982 -1.9420033 -0.3151502 0 20
-2.2565317 -1.9519942 -0.28904596 0 21
-2.2438381 -1.9410137 -0.25989947 0 22
-2.2478914 -1.9445199 -0.2328431 0 23
-2.2476592 -1.9443191 -0.20533568 0 24
-2.2515438 -1.9476793 -0.17819464 0 25
-2.262161 -1.9568639 -0.15143977 0 26
-2.2501304 -1.9464569 -0.12321153 0 27
-2.2630446 -1.9576281 -0.096359439 0 28
-2.2494707 -1.9458861 -0.068403758 0 29
-2.2503803 -1.946673 -0.041054219 0 30
-2.2523549 -1.9483809 -0.013695974 0 31
-2.254535 -1.9502668 0.01370923 0 32
-2.2569239 -1.9523333 0.041173592 0 33
-2.2506912 -1.9469419 0.068440869 0 34
-2.2567372 -1.9521719 0.096090876 0 35
-2.2523682 -1.9483926 0.12333407 0 36
-2.2544894 -1.9502276 0.1509262 0 37
-2.2594919 -1.9545549 0.17882369 0 38
-2.2521911 -1.9482393 0.20574969 0 39
-2.2571359 -1.9525168 0.23380066 0 40
-2.243109 -1.9403828 0.25981501 0 41
-2.2518718 -1.9479632 0.28844908 0 42
-2.2588232 -1.9539764 0.31709322 0 43
-2.2544129 -1.9501613 0.34422782 0 44
-2.2440407 -1.9411891 0.37032887 0 45
-2.2561462 -1.9516606 0.40022466 0 46
-2.2519453 -1.9480267 0.42739442 0 47
-2.2444856 -1.9415739 0.45387471 0 48
-2.2526169 -1.9486078 0.48359501 0 49
-2.2550569 -1.9507184 0.51230925 0 50
-2.2457438 -1.9426622 0.53835642 0 51
-2.2458255 -1.9427329 0.56663406 0 52
-2.2572131 -1.9525836 0.59800839 0 53
-2.2452385 -1.9422252 0.62329066 0 54
-2.2554443 -1.9510536 0.65481848 0 55
-2.2539124 -1.9497284 0.68316489 0 56
-2.247932 -1.944555 0.71018839 0 57
-2.2580576 -1.9533142 0.74248099 0 58
-2.2482271 -1.9448104 0.7683484 0 59
-2.2617455 -1.9565043 0.80238271 0 60
-2.249141 -1.945601 0.82730621 0 61
-2.2394385 -1.9372079 0.85315579 0 62
-2.2443933 -1.9414939 0.88468361 0 63
-1.8431534 -1.6344546 -0.73439151 0 0
-1.8979443 -1.6830416 -0.73088628 0 1
-1.9804235 -1.7561817 -0.73635089 0 2
-2.0431187 -1.8117778 -0.73267025 0 3
-2.1325893 -1.8911179 -0.73671985 0 4
-2.1936314 -1.9452481 -0.72910672 0 5
-2.1867609 -1.9391557 -0.6983431 0 6
-2.1940074 -1.9455816 -0.67220807 0 7
-2.1853619 -1.937915 -0.64134139 0 8
-2.1964238 -1.9477243 -0.61634141 0 9
-2.190506 -1.9424766 -0.58661926 0 10
-2.1918185 -1.9436406 -0.5589956 0 11
-2.2007847 -1.9515915 -0.53329116 0 12
-2.1908596 -1.9427902 -0.50311399 0 13
-2.1930771 -1.9447566 -0.47591069 0 14
-2.1836207 -1.9363711 -0.44634792 0 15
-2.192626 -1.9443567 -0.42064208 0 16
-2.2003236 -1.9511826 -0.39454845 0 17
-2.1910832 -1.9429885 -0.36550459 0 18
-2.1875322 -1.9398396 -0.33763239 0 19
-2.2062345 -1.9564241 -0.31306431 0 20
-2.1864376 -1.938869 -0.28309992 0 21
-2.2015853 -1.9523014 -0.25776654 0 22
-2.1887157 -1.9408891 -0.22916831 0 23
-2.196799 -1.9480572 -0.20286234 0 24
-2.200552 -1.9513851 -0.17604473 0 25
-2.1918223 -1.943644 -0.14831974 0 26
-2.1896422 -1.9417107 -0.12119758 0 27
-2.2013102 -1.9520575 -0.094745703 0 28
-2.2077575 -1.9577749 -0.067862228 0 29
-2.1961114 -1.9474474 -0.040497981 0 30
-2.1872509 -1.9395901 -0.013444104 0 31
-2.1887753 -1.9409419 0.013453473 0 32
-2.1947374 -1.946229 0.040472642 0 33
-2.1937582 -1.9453608 0.067431927 0 34
-2.2054732 -1.9557493 0.09492489 0 35
-2.1920557 -1.943851 0.12133118 0 36
-2.1982613 -1.9493538 0.14875545 0 37
-2.1860683 -1.9385415 0.17488603 0 38
-2.192945 -1.9446394 0.20250644 0 39
-2.1935532 -1.9451789 0.22967482 0 40
-2.1883378 -1.9405541 0.25621551 0 41
-2.1976714 -1.9488307 0.28455445 0 42
-2.1939092 -1.9454947 0.31131536 0 43
-2.2112439 -1.9608663 0.34129214 0 44
-2.1895945 -1.9416685 0.36525628 0 45
-2.1919527 -1.9437597 0.39304745 0 46
-2.1996784 -1.9506105 0.42199504 0 47
-2.1866632 -1.939069 0.44696984 0 48
-2.2012517 -1.9520057 0.47768468 0 49
-2.1955917 -1.9469866 0.5042007 0 50
-2.1955943 -1.9469889 0.53203344 0 51
-2.1895962 -1.9416699 0.55842882 0 52
-2.1820278 -1.9349586 0.5843488 0 53
-2.198226 -1.9493226 0.61684722 0 54
-2.1819355 -1.9348767 0.64033592 0 55
-2.1848469 -1.9374584 0.66940147 0 56
-2.1974139 -1.9486026 0.70174515 0 57
-2.1980138 -1.9491343 0.73056334 0 58
-2.1915259 -1.9433811 0.75707996 0 59
-2.1926014 -1.944335 0.78627539 0 60
-2.2016096 -1.952323 0.81859112 0 61
-2.187242 -1.9395822 0.84229296 0 62
-2.1927891 -1.9445013 0.87370139 0 63
-1.8208524 -1.6551163 -0.73355955 0 0
-1.8910846 -1.718956 -0.73632872 0 1
-1.9413035 -1.7646039 -0.72981805 0 2
-2.0186486 -1.834909 -0.73193097 0 3
-2.1092854 -1.9172958 -0.73675811 0 4
-2.1359692 -1.941551 -0.71782225 0 5
-2.1403825 -1.9455626 -0.69111991 0 6
-2.1462357 -1.9508829 -0.66487116 0 7
-2.1476078 -1.9521302 -0.63725811 0 8
-2.1428564 -1.9478112 -0.60798484 0 9
-2.1411414 -1.9462523 -0.57976454 0 10
-2.1366541 -1.9421735 -0.55097574 0 11
-2.1437731 -1.9486444 -0.52524275 0 12
-2.1428885 -1.9478406 -0.49756053 0 13
-2.1363804 -1.9419247 -0.46875361 0 14
-2.1379821 -1.9433806 -0.4418703 0 15
-2.1433434 -1.9482541 -0.41575205 0 16
-2.1323762 -1.938285 -0.38660911 0 17
-2.1441646 -1.9490004 -0.36164838 0 18
-2.1354825 -1.9411087 -0.33325768 0 19
-2.1353443 -1.9409828 -0.30636859 0 20
-2.1305809 -1.936653 -0.27892992 0 21
-2.1418531 -1.9468993 -0.25355673 0 22
-2.1309814 -1.9370171 -0.22560011 0 23
-2.1498868 -1.9542017 -0.20073409 0 24
-2.1456316 -1.9503338 -0.17355655 0 25
-2.1388783 -1.9441952 -0.14634372 0 26
-2.145189 -1.9499316 -0.12005517 0 27
-2.1324944 -1.9383924 -0.092802711 0 28
-2.1388226 -1.9441445 -0.066473104 0 29
-2.1458611 -1.9505426 -0.040010605 0 30
-2.1439388 -1.948795 -0.013324168 0 31
-2.1378989 -1.943305 0.013286632 0 32
-2.1392922 -1.9445715 0.039888121 0 33
-2.1363664 -1.9419119 0.066396773 0 34
-2.1487041 -1.9531267 0.093508132 0 35
-2.1354351 -1.9410653 0.11950928 0 36
-2.1474199 -1.9519595 0.14692815 0 37
-2.1363726 -1.9419175 0.1728076 0 38
-2.1436703 -1.9485511 0.20015366 0 39
-2.1417294 -1.9467869 0.22673798 0 40
-2.1428943 -1.9478457 0.25368002 0 41
-2.1323407 -1.9382527 0.27916032 0 42
-2.1395323 -1.9447896 0.30696946 0 43
-2.1415613 -1.9466341 0.33420628 0 44
-2.1454515 -1.9501702 0.36186546 0 45
-2.138449 -1.9438049 0.38771009 0 46
-2.1519511 -1.9560782 0.4174217 0 47
-2.138006 -1.9434023 0.44187525 0 48
-2.1442192 -1.9490499 0.47047356 0 49
-2.1406031 -1.9457631 0.49702984 0 50
-2.1411557 -1.9462652 0.52460152 0 51
-2.133621 -1.9394164 0.55019361 0 52
-2.1394711 -1.9447341 0.57931232 0 53
-2.1290741 -1.9352834 0.60407448 0 54
-2.1406384 -1.9457949 0.63519001 0 55
-2.1451747 -1.9499186 0.66454256 0 56
-2.1440766 -1.9489204 0.69231266 0 57
-2.1371641 -1.9426371 0.71822375 0 58
-2.1392155 -1.9445018 0.74721253 0 59
-2.1410067 -1.94613 0.7762962 0 60
-2.1463897 -1.951023 0.80691868 0 61
-2.1393712 -1.9446434 0.8330037 0 62
-2.1364584 -1.9419956 0.86070645 0 63
-1.8047389 -1.6814555 -0.73534197 0 0
-1.8735977 -1.7456106 -0.73782188 0 1
-1.9272733 -1.7956195 -0.73278886 0 2
-2.0040219 -1.8671253 -0.7348966 0 3
-2.0752232 -1.9334627 -0.73310935 0 4
-2.0929573 -1.9499855 -0.71137184 0 5
-2.0829337 -1.9406465 -0.68022376 0 6
-2.0817027 -1.9394997 -0.65221864 0 7
-2.0792372 -1.9372026 -0.62399167 0 8
-2.0917282 -1.9488404 -0.6002323 0 9
-2.0895472 -1.9468082 -0.57223296 0 10
-2.0963826 -1.9531767 -0.54674292 0 11
-2.0824091 -1.9401579 -0.51601434 0 12
-2.087939 -1.94531 -0.49031875 0 13
-2.0848238 -1.9424076 -0.46264705 0 14
-2.079504 -1.9374512 -0.43467525 0 15
-2.0941944 -1.9511381 -0.41084123 0 16
-2.0927567 -1.9497986 -0.38374379 0 17
-2.0889239 -1.9462277 -0.35634071 0 18
-2.0756052 -1.9338187 -0.3275995 0 19
-2.0817969 -1.9395875 -0.30208495 0 20
-2.0779083 -1.9359643 -0.27512991 0 21
-2.0913675 -1.9485041 -0.25039762 0 22
-2.0847275 -1.9423177 -0.22321497 0 23
-2.0807791 -1.938639 -0.19649246 0 24
-2.0868611 -1.9443057 -0.17072369 0 25
-2.0854602 -1.9430004 -0.14431262 0 26
-2.0893631 -1.9466368 -0.11826155 0 27
-2.0811107 -1.9389482 -0.091597229 0 28
-2.0769851 -1.9351043 -0.065285832 0 29
-2.0801311 -1.9380354 -0.039226409 0 30
-2.0867708 -1.9442215 -0.013116466 0 31
-2.0817435 -1.9395375 0.013084866 0 32
-2.0880063 -1.9453727 0.039374918 0 33
-2.0892105 -1.9464945 0.065670118 0 34
-2.0800145 -1.9379267 0.091548972 0 35
-2.0919731 -1.9490684 0.11840928 0 36
-2.0853336 -1.9428825 0.14430386 0 37
-2.0950992 -1.9519811 0.17139764 0 38
-2.0872438 -1.9446622 0.19710293 0 39
-2.0941944 -1.951138 0.22422861 0 40
-2.0911322 -1.9482851 0.25036946 0 41
-2.0823207 -1.9400754 0.27571416 0 42
-2.0865848 -1.9440482 0.3027797 0 43
-2.0984676 -1.9551195 0.33120796 0 44
-2.0781822 -1.9362196 0.35450831 0 45
-2.0812843 -1.9391098 0.38164011 0 46
-2.084981 -1.942554 0.40903372 0 47
-2.09534 -1.9522054 0.43798542 0 48
-2.0928023 -1.949841 0.46441755 0 49
-2.086936 -1.9443754 0.49008319 0 50
-2.0784991 -1.936515 0.5150454 0 51
-2.0706289 -1.9291822 0.54002625 0 52
-2.0896966 -1.9469476 0.57227391 0 53
-2.0814764 -1.9392889 0.59729046 0 54
-2.0849409 -1.9425167 0.62570339 0 55
-2.0807025 -1.9385679 0.65190524 0 56
-2.08073 -1.9385934 0.6795041 0 57
-2.0833237 -1.9410099 0.70809746 0 58
-2.0954072 -1.9522681 0.7402398 0 59
-2.0828364 -1.9405559 0.76379877 0 60
-2.0898514 -1.9470918 0.79460442 0 61
-2.08745 -1.9448543 0.82203674 0 62
-2.0777769 -1.9358422 0.84659153 0 63
-1.7807455 -1.7004795 -0.73403013 0 0
-1.850319 -1.7669171 -0.73715502 0 1
-1.9172554 -1.8308363 -0.73748392 0 2
-1.9884412 -1.8988135 -0.7376895 0 3
-2.0262015 -1.9348717 -0.72414178 0 4
-2.0381651 -1.9462961 -0.70082998 0 5
-2.0422945 -1.9502393 -0.67473269 0 6
-2.0380833 -1.9462179 -0.64600134 0 7
-2.0383797 -1.9465011 -0.61886638 0 8
-2.0247574 -1.9334927 -0.58779258 0 9
-2.0269518 -1.9355882 -0.56156647 0 10
-2.0387433 -1.9468482 -0.5379132 0 11
-2.0419357 -1.9498967 -0.51188779 0 12
-2.0234039 -1.9322002 -0.48070684 0 13
-2.0299571 -1.938458 -0.45572653 0 14
-2.019037 -1.9280301 -0.42695928 0 15
-2.0272548 -1.9358776 -0.40234849 0 16
-2.0306499 -1.9391197 -0.37669921 0 17
-2.0292826 -1.9378139 -0.350205 0 18
-2.0411823 -1.9491773 -0.32592472 0 19
-2.0380626 -1.9461983 -0.29918876 0 20
-2.0309219 -1.9393795 -0.27204561 0 21
-2.0235653 -1.9323545 -0.24510612 0 22
-2.0284452 -1.9370143 -0.21972241 0 23
-2.0281808 -1.936762 -0.1937598 0 24
-2.043895 -1.9517678 -0.16915929 0 25
-2.0220881 -1.9309437 -0.14155966 0 26
-2.0244367 -1.9331867 -0.11592335 0 27
-2.0261395 -1.9348124 -0.09021806 0 28
-2.0339665 -1.9422867 -0.064679466 0 29
-2.0453527 -1.9531597 -0.039020523 0 30
-2.028208 -1.9367878 -0.012897087 0 31
-2.0387466 -1.9468515 0.012964101 0 32
-2.0333376 -1.9416863 0.038791306 0 33
-2.0379257 -1.9460675 0.064805366 0 34
-2.0383146 -1.9464389 0.090760186 0 35
-2.0313551 -1.9397931 0.1163195 0 36
-2.030473 -1.9389507 0.14214666 0 37
-2.028758 -1.9373132 0.16790651 0 38
-2.0338395 -1.9421656 0.19430038 0 39
-2.0419116 -1.9498737 0.22118109 0 40
-2.0244558 -1.9332047 0.24521396 0 41
-2.0276611 -1.9362657 0.27160883 0 42
-2.0363383 -1.9445516 0.29893562 0 43
-2.0321231 -1.9405265 0.32447824 0 44
-2.0422142 -1.9501626 0.35243669 0 45
-2.0372784 -1.9454494 0.37792885 0 46
-2.0324032 -1.940794 0.40337032 0 47
-2.031934 -1.9403459 0.42968658 0 48
-2.0276949 -1.9362979 0.45521867 0 49
-2.0369151 -1.9451023 0.48391673 0 50
-2.0266755 -1.9353242 0.50806218 0 51
-2.0343392 -1.9426426 0.53675121 0 52
-2.0331149 -1.9414736 0.56327397 0 53
-2.0292594 -1.9377918 0.58909953 0 54
-2.0308626 -1.9393227 0.61658412 0 55
-2.0350285 -1.9433008 0.64503312 0 56
-2.0258629 -1.9345484 0.66930401 0 57
-2.0352705 -1.943532 0.6998347 0 58
-2.0252836 -1.9339952 0.72381383 0 59
-2.0267479 -1.9353937 0.75190085 0 60
-2.0337703 -1.9420993 0.78230208 0 61
-2.0360925 -1.9443169 0.81116593 0 62
-2.0271387 -1.9357667 0.83559436 0 63
-1.771415 -1.7337093 -0.7389158 0 0
-1.8077396 -1.7692608 -0.72880381 0 1
-1.8812305 -1.8411874 -0.73228002 0 2
-1.9555843 -1.9139584 -0.73417556 0 3
-1.9748491 -1.9328132 -0.71422905 0 4
-1.9787424 -1.9366236 -0.6885336 0 5
-1.9738063 -1.9317925 -0.65990359 0 6
-1.990369 -1.9480027 -0.63842177 0 7
-1.9805579 -1.9384005 -0.60850191 0 8
-1.9783758 -1.9362649 -0.58119583 0 9
-1.9778779 -1.9357775 -0.55452329 0 10
-1.9786144 -1.9364984 -0.52829129 0 11
-1.9884785 -1.9461526 -0.50444776 0 12
-1.9806923 -1.9385321 -0.47618678 0 13
-1.9803439 -1.9381912 -0.44990486 0 14
-1.9899287 -1.9475719 -0.42583591 0 15
-1.9842299 -1.9419943 -0.39851862 0 16
-1.9862477 -1.9439692 -0.37286845 0 17
-1.9770416 -1.9349591 -0.3452695 0 18
-1.9827102 -1.9405071 -0.32037407 0 19
-1.9714113 -1.9294486 -0.2928651 0 20
-1.9780481 -1.9359441 -0.26813155 0 21
-1.9905441 -1.9481741 -0.24398959 0 22
-1.988439 -1.9461138 -0.21796459 0 23
-1.9803367 -1.938184 -0.19145142 0 24
-1.9775485 -1.9354551 -0.16562542 0 25
-1.9885353 -1.9462081 -0.14087546 0 26
-1.9807528 -1.9385912 -0.11477824 0 27
-1.9878433 -1.9455308 -0.089571305 0 28
-1.9885371 -1.9462099 -0.063991003 0 29
-1.9722774 -1.9302962 -0.038076364 0 30
-1.9698893 -1.927959 -0.012676039 0 31
-1.9799708 -1.9378259 0.012740912 0 32
-1.9753549 -1.9333082 0.038135778 0 33
-1.9707447 -1.9287962 0.063418448 0 34
-1.9832422 -1.9410276 0.089363977 0 35
-1.9868209 -1.9445302 0.11512987 0 36
-1.9768666 -1.9347879 0.1400488 0 37
-1.9930146 -1.950592 0.16692075 0 38
-1.9786062 -1.9364903 0.19128412 0 39
-1.9764724 -1.9344019 0.21665284 0 40
-1.9855212 -1.9432582 0.24337392 0 41
-1.9754492 -1.9334005 0.26777926 0 42
-1.9785423 -1.9364278 0.29392445 0 43
-1.9812933 -1.9391203 0.32014513 0 44
-1.9771059 -1.935022 0.34528074 0 45
-1.981849 -1.9396641 0.37204272 0 46
-1.9720385 -1.9300625 0.39607006 0 47
-1.9783702 -1.9362594 0.42336243 0 48
-1.9731686 -1.9311684 0.4482747 0 49
-1.9736804 -1.9316694 0.47450098 0 50
-1.9781618 -1.9360554 0.50183058 0 51
-1.9781489 -1.9360429 0.52816701 0 52
-1.9837561 -1.9415306 0.5561713 0 53
-1.9881935 -1.9458735 0.58408004 0 54
-1.9921049 -1.9497017 0.61204958 0 55
-1.9821547 -1.9399633 0.63578701 0 56
-1.9863318 -1.9440516 0.66409129 0 57
-1.9889846 -1.9466479 0.6920976 0 58
-1.981723 -1.9395407 0.7167151 0 59
-1.9719968 -1.9300216 0.74033731 0 60
-1.9892552 -1.9469128 0.7743293 0 61
-1.9724171 -1.930433 0.7951948 0 62
-1.9800121 -1.9378662 0.82592851 0 63
-1.7434784 -1.748853 -0.73617715 0 0
-1.7975045 -1.8030457 -0.7335605 0 1
-1.8702222 -1.8759875 -0.73691869 0 2
-1.9333687 -1.9393287 -0.73473245 0 3
-1.9254376 -1.931373 -0.7048946 0 4
-1.9309891 -1.9369417 -0.68015343 0 5
-1.9335399 -1.9395003 -0.6543653 0 6
-1.9297643 -1.9357132 -0.62656987 0 7
-1.93285 -1.9388084 -0.60112351 0 8
-1.9295619 -1.93551 -0.57380396 0 9
-1.9307469 -1.9366988 -0.54794484 0 10
-1.9409434 -1.9469267 -0.52458549 0 11
-1.9276125 -1.9335548 -0.49500114 0 12
-1.9414157 -1.9474005 -0.4724654 0 13
-1.931744 -1.937699 -0.44424319 0 14
-1.9360285 -1.9419966 -0.41937995 0 15
-1.937147 -1.9431187 -0.39383143 0 16
-1.9380746 -1.944049 -0.36828485 0 17
-1.9387703 -1.944747 -0.34273618 0 18
-1.9299511 -1.9359004 -0.31567162 0 19
-1.9356885 -1.9416556 -0.2910831 0 20
-1.9279106 -1.9338536 -0.26453865 0 21
-1.9211622 -1.9270846 -0.2383717 0 22
-1.9342724 -1.9402353 -0.21462606 0 23
-1.9349653 -1.9409301 -0.1893581 0 24
-1.9240787 -1.9300101 -0.16312249 0 25
-1.9239894 -1.9299204 -0.13797356 0 26
-1.9337791 -1.9397403 -0.11342983 0 27
-1.9305395 -1.9364908 -0.088055529 0 28
-1.9268306 -1.9327705 -0.062765345 0 29
-1.9334168 -1.939377 -0.037783667 0 30
-1.9355893 -1.9415562 -0.012607997 0 31
-1.9344513 -1.9404145 0.012600584 0 32
-1.9318382 -1.9377935 0.037752818 0 33
-1.9425813 -1.9485697 0.063278414 0 34
-1.9318531 -1.9378083 0.088115439 0 35
-1.9229029 -1.9288307 0.11279187 0 36
-1.9271621 -1.933103 0.13820107 0 37
-1.9315202 -1.9374745 0.16375338 0 38
-1.9261935 -1.9321314 0.18849969 0 39
-1.9324942 -1.9384515 0.21442875 0 40
-1.9288188 -1.9347649 0.23932171 0 41
-1.9246932 -1.9306264 0.26409718 0 42
-1.9341519 -1.9401143 0.29085201 0 43
-1.9248562 -1.9307899 0.31483832 0 44
-1.9287025 -1.934648 0.34095639 0 45
-1.9241383 -1.9300699 0.36563662 0 46
-1.9295499 -1.9354981 0.3922869 0 47
-1.9288298 -1.9347757 0.41782057 0 48
-1.9244559 -1.9303885 0.44256714 0 49
-1.9350123 -1.9409773 0.47090706 0 50
-1.9343814 -1.9403445 0.49673933 0 51
-1.9238743 -1.9298049 0.51997215 0 52
-1.9288741 -1.9348202 0.54741329 0 53
-1.9229112 -1.928839 0.57182628 0 54
-1.9318597 -1.9378151 0.60081547 0 55
-1.9239777 -1.9299088 0.62469107 0 56
-1.9310091 -1.9369618 0.65350884 0 57
-1.9335588 -1.9395194 0.68105859 0 58
-1.9329149 -1.9388734 0.70763201 0 59
-1.9315808 -1.9375353 0.73405308 0 60
-1.9314198 -1.9373739 0.76103222 0 61
-1.92937 -1.9353178 0.78737473 0 62
-1.9327978 -1.938756 0.81611657 0 63
-1.7171913 -1.7653751 -0.73418814 0 0
-1.7727177 -1.8224595 -0.73253506 0 1
-1.8387009 -1.8902942 -0.73360169 0 2
-1.8793339 -1.9320673 -0.72317165 0 3
-1.8774494 -1.9301299 -0.69596255 0 4
-1.8786029 -1.9313158 -0.67001563 0 5
-1.881662 -1.9344608 -0.64480984 0 6
-1.8802968 -1.9330572 -0.61817944 0 7
-1.8779331 -1.9306272 -0.59138262 0 8
-1.8748664 -1.9274744 -0.56454438 0 9
-1.8785772 -1.9312894 -0.53983796 0 10
-1.8805121 -1.9332786 -0.51463866 0 11
-1.8927093 -1.9458181 -0.49214521 0 12
-1.8765672 -1.9292231 -0.46242201 0 13
-1.8896512 -1.9426742 -0.44002336 0 14
-1.8785799 -1.9312921 -0.41204861 0 15
-1.8804005 -1.933164 -0.3870981 0 16
-1.8876307 -1.9405969 -0.36320627 0 17
-1.875033 -1.9276458 -0.33563358 0 18
-1.8858107 -1.9387259 -0.31232753 0 19
-1.8805896 -1.9333583 -0.28635082 0 20
-1.8762994 -1.9289476 -0.26069173 0 21
-1.881448 -1.9342407 -0.2363773 0 22
-1.8775061 -1.9301883 -0.21094492 0 23
-1.8774464 -1.9301269 -0.18603779 0 24
-1.8824457 -1.9352665 -0.16159815 0 25
-1.8814546 -1.9342475 -0.1366186 0 26
-1.8871998 -1.940154 -0.11208854 0 27
-1.8856061 -1.9385154 -0.087086685 0 28
-1.8875997 -1.940565 -0.062260006 0 29
-1.8694607 -1.9219171 -0.036992855 0 30
-1.888876 -1.9418771 -0.012458312 0 31
-1.8724293 -1.9249688 0.012349836 0 32
-1.8793644 -1.9320986 0.037188828 0 33
-1.8830403 -1.9358778 0.062109623 0 34
-1.8866844 -1.9396241 0.087136492 0 35
-1.8863792 -1.9393104 0.1120398 0 36
-1.8766047 -1.9292614 0.13626643 0 37
-1.8729956 -1.9255513 0.16078691 0 38
-1.8895848 -1.9426059 0.18724059 0 39
-1.8678595 -1.9202709 0.20986108 0 40
-1.8868653 -1.9398099 0.23705789 0 41
-1.8782554 -1.9309585 0.2609635 0 42
-1.8858764 -1.9387934 0.28715584 0 43
-1.8858985 -1.9388162 0.31234208 0 44
-1.8841397 -1.9370079 0.33726367 0 45
-1.8779958 -1.9306917 0.36135238 0 46
-1.8829112 -1.9357451 0.38761497 0 47
-1.8686742 -1.9211085 0.4098759 0 48
-1.8889149 -1.9419172 0.43985194 0 49
-1.8877664 -1.9407364 0.46518171 0 50
-1.8928372 -1.9459496 0.49217847 0 51
-1.8797925 -1.9325387 0.51444173 0 52
-1.8873013 -1.9402583 0.54234499 0 53
-1.8887963 -1.9417952 0.56873882 0 54
-1.8815551 -1.9343508 0.59252322 0 55
-1.8880079 -1.9409847 0.6207146 0 56
-1.8780395 -1.9307365 0.64356846 0 57
-1.884306 -1.937179 0.6720497 0 58
-1.8780928 -1.9307914 0.69620109 0 59
-1.8843644 -1.9372391 0.72510743 0 60
-1.8735048 -1.9260746 0.74748766 0 61
-1.8876135 -1.9405793 0.78001314 0 62
-1.8765315 -1.9291863 0.80231428 0 63
-1.6973753 -1.7884839 -0.7350629 0 0
-1.760932 -1.8554521 -0.73703712 0 1
-1.8205398 -1.9182595 -0.73571122 0 2
-1.832026 -1.9303621 -0.71404743 0 3
-1.8272485 -1.9253281 -0.68607759 0 4
-1.831866 -1.9301937 -0.66176176 0 5
-1.8302138 -1.9284526 -0.63525754 0 6
-1.8341099 -1.9325579 -0.61076123 0 7
-1.8401904 -1.9389648 -0.58696091 0 8
-1.8361933 -1.9347531 -0.56002074 0 9
-1.8335736 -1.9319929 -0.533692 0 10
-1.8365186 -1.9350959 -0.50907248 0 11
-1.842682 -1.9415901 -0.48530829 0 12
-1.8364332 -1.9350059 -0.45836079 0 13
-1.833446 -1.9318584 -0.43243438 0 14
-1.8270166 -1.9250839 -0.40590021 0 15
-1.8399507 -1.9387121 -0.38364965 0 16
-1.8408892 -1.9397011 -0.35877478 0 17
-1.8320677 -1.9304061 -0.33216661 0 18
-1.8288133 -1.926977 -0.3067888 0 19
-1.8348844 -1.9333739 -0.28298998 0 20
-1.8294048 -1.9276003 -0.25745001 0 21
-1.8439822 -1.9429601 -0.23465414 0 22
-1.823754 -1.9216461 -0.20754483 0 23
-1.8283964 -1.9265376 -0.18351093 0 24
-1.8373768 -1.9360002 -0.15976076 0 25
-1.8322301 -1.9305772 -0.13475785 0 26
-1.8347297 -1.9332108 -0.11037567 0 27
-1.8322988 -1.9306495 -0.085714653 0 28
-1.8332369 -1.9316381 -0.061245732 0 29
-1.8319427 -1.9302742 -0.036717352 0 30
-1.8329848 -1.9313724 -0.01224539 0 31
-1.8301009 -1.9283338 0.012226123 0 32
-1.826015 -1.9240285 0.036598545 0 33
-1.8323963 -1.9307523 0.061217647 0 34
-1.8314152 -1.9297186 0.085673317 0 35
-1.838343 -1.9370183 0.11059305 0 36
-1.8326765 -1.9310476 0.13479067 0 37
-1.8355737 -1.9341003 0.15960397 0 38
-1.842528 -1.9414278 0.18492927 0 39
-1.8379184 -1.9365709 0.20915675 0 40
-1.8302169 -1.9284558 0.23290244 0 41
-1.8402497 -1.9390272 0.25897619 0 42
-1.834435 -1.9329004 0.28292069 0 43
-1.8387488 -1.9374458 0.30845553 0 44
-1.8301712 -1.9284078 0.33182275 0 45
-1.8420447 -1.9409187 0.35899997 0 46
-1.836282 -1.9348466 0.38288471 0 47
-1.8399786 -1.9387416 0.40877992 0 48
-1.8396353 -1.9383799 0.43389416 0 49
-1.8386922 -1.937386 0.45892462 0 50
-1.8367424 -1.9353317 0.48374397 0 51
-1.8334062 -1.9318163 0.50820971 0 52
-1.836646 -1.93523 0.53458625 0 53
-1.837499 -1.936129 0.56041896 0 54
-1.8323959 -1.9307518 0.58447468 0 55
-1.8355606 -1.9340864 0.61124432 0 56
-1.8318368 -1.9301628 0.63582087 0 57
-1.8409842 -1.9398012 0.66505569 0 58
-1.8222699 -1.9200823 0.68420827 0 59
-1.8340425 -1.9324869 0.71483338 0 60
-1.8333681 -1.9317762 0.74089533 0 61
-1.8250934 -1.9230574 0.76389188 0 62
-1.8283544 -1.9264934 0.79178452 0 63
-1.6675911 -1.8009404 -0.73169947 0 0
-1.7328241 -1.8713897 -0.7348485 0 1
-1.7841575 -1.926828 -0.73052812 0 2
-1.7834851 -1.9261018 -0.70430607 0 3
-1.7952938 -1.9388548 -0.68297952 0 4
-1.797397 -1.9411262 -0.65788275 0 5
-1.791729 -1.9350048 -0.63011068 0 6
-1.7885773 -1.9316013 -0.60346264 0 7
-1.7962114 -1.9398458 -0.5804975 0 8
-1.7889901 -1.932047 -0.55282819 0 9
-1.7897378 -1.9328545 -0.52781081 0 10
-1.8037651 -1.9480035 -0.5065949 0 11
-1.7972745 -1.9409938 -0.47959897 0 12
-1.7808707 -1.9232785 -0.45036149 0 13
-1.7853814 -1.9281498 -0.42665771 0 14
-1.793093 -1.936478 -0.40362319 0 15
-1.7942274 -1.9377031 -0.37905538 0 16
-1.7920784 -1.9353822 -0.35387328 0 17
-1.7947276 -1.9382433 -0.32969281 0 18
-1.7950945 -1.9386396 -0.30510828 0 19
-1.7884477 -1.9314612 -0.27946997 0 20
-1.7738773 -1.9157257 -0.25293165 0 21
-1.7879441 -1.9309174 -0.23052709 0 22
-1.7957298 -1.9393256 -0.2070538 0 23
-1.7879789 -1.9309549 -0.1818237 0 24
-1.7841991 -1.926873 -0.15718523 0 25
-1.7839031 -1.9265532 -0.13293576 0 26
-1.7848803 -1.9276086 -0.1087945 0 27
-1.7900174 -1.9331564 -0.084842324 0 28
-1.7995968 -1.9435018 -0.06091566 0 29
-1.7840785 -1.9267427 -0.036230139 0 30
-1.7914478 -1.9347012 -0.012125912 0 31
-1.7820848 -1.9245896 0.012062537 0 32
-1.7915204 -1.9347796 0.036381263 0 33
-1.7838061 -1.9264486 0.060381155 0 34
-1.789916 -1.9330471 0.084837519 0 35
-1.7959478 -1.9395611 0.10946909 0 36
-1.792985 -1.9363613 0.13361254 0 37
-1.7936203 -1.9370475 0.15801522 0 38
-1.801399 -1.9454483 0.18318842 0 39
-1.7866992 -1.9295729 0.20601253 0 40
-1.7914033 -1.9346533 0.23097309 0 41
-1.7977285 -1.9414842 0.25633255 0 42
-1.7927167 -1.9360718 0.28013706 0 43
-1.7864287 -1.9292808 0.30363536 0 44
-1.7934923 -1.9369093 0.32946593 0 45
-1.7868396 -1.9297246 0.35283881 0 46
-1.7907437 -1.9339409 0.37831941 0 47
-1.7829247 -1.9254966 0.40133432 0 48
-1.7792723 -1.9215522 0.42519781 0 49
-1.801265 -1.9453036 0.45551899 0 50
-1.7906963 -1.9338896 0.47784361 0 51
-1.7870615 -1.9299642 0.50190359 0 52
-1.7849194 -1.9276508 0.52638978 0 53
-1.7884982 -1.9315157 0.5526762 0 54
-1.7937407 -1.9371777 0.5796991 0 55
-1.7908708 -1.9340781 0.60423642 0 56
-1.7897363 -1.932853 0.62940991 0 57
-1.7890284 -1.9320885 0.65481967 0 58
-1.7922233 -1.9355388 0.68181139 0 59
-1.7911642 -1.934395 0.70733857 0 60
-1.7906111 -1.9337977 0.73317057 0 61
-1.7827501 -1.9253081 0.7560209 0 62
-1.7895466 -1.9326481 0.78521067 0 63
-1.6609334 -1.8385899 -0.73864233 0 0
-1.7119361 -1.895048 -0.73581678 0 1
-1.7335658 -1.9189912 -0.71942055 0 2
-1.7504207 -1.9376489 -0.70060492 0 3
-1.7351973 -1.9207972 -0.66905189 0 4
-1.7469143 -1.9337674 -0.64805943 0 5
-1.7421824 -1.9285294 -0.62097901 0 6
-1.744851 -1.9314835 -0.59667766 0 7
-1.7492093 -1.936308 -0.57295895 0 8
-1.7334952 -1.9189131 -0.54292983 0 9
-1.7454085 -1.9321008 -0.52170473 0 10
-1.7462823 -1.9330679 -0.49708891 0 11
-1.7570869 -1.9450281 -0.47522125 0 12
-1.7430815 -1.9295247 -0.44677138 0 13
-1.7503248 -1.9375429 -0.42394161 0 14
-1.7391278 -1.925148 -0.39677435 0 15
-1.7323298 -1.917623 -0.37093222 0 16
-1.7444643 -1.9310554 -0.34913361 0 17
-1.7517684 -1.9391408 -0.3261568 0 18
-1.7506933 -1.9379507 -0.30158904 0 19
-1.7399138 -1.9260182 -0.27556586 0 20
-1.743088 -1.9295319 -0.25190556 0 21
-1.7530307 -1.9405382 -0.22908483 0 22
-1.742125 -1.928466 -0.20359181 0 23
-1.7426237 -1.9290179 -0.17961 0 24
-1.7490069 -1.9360839 -0.1561704 0 25
-1.7414553 -1.9277246 -0.13152906 0 26
-1.7511183 -1.9384211 -0.10818128 0 27
-1.7412028 -1.9274452 -0.083645672 0 28
-1.7519448 -1.9393361 -0.060105331 0 29
-1.7524045 -1.9398448 -0.036068588 0 30
-1.7396814 -1.9257609 -0.0119349 0 31
-1.7443293 -1.9309061 0.011966787 0 32
-1.7383066 -1.9242392 0.035778426 0 33
-1.7454373 -1.9321325 0.059882067 0 34
-1.7465148 -1.9333253 0.083900854 0 35
-1.7359595 -1.9216409 0.10724479 0 36
-1.7409729 -1.9271905 0.13149261 0 37
-1.7391361 -1.9251574 0.15528904 0 38
-1.738075 -1.9239827 0.17914118 0 39
-1.7354524 -1.9210796 0.20281203 0 40
-1.7499418 -1.9371188 0.22868119 0 41
-1.7454215 -1.9321151 0.2522428 0 42
-1.7416253 -1.9279128 0.27583694 0 43
-1.7468617 -1.9337093 0.30092898 0 44
-1.7368201 -1.9225936 0.32337362 0 45
-1.751237 -1.9385526 0.35048908 0 46
-1.7419926 -1.9283193 0.37300125 0 47
-1.7350802 -1.9206676 0.39585093 0 48
-1.7335645 -1.9189898 0.41988215 0 49
-1.7452546 -1.9319303 0.44732839 0 50
-1.7395518 -1.9256176 0.47047874 0 51
-1.7358968 -1.9215716 0.49413261 0 52
-1.7448068 -1.9314345 0.52152485 0 53
-1.7462758 -1.9330606 0.5469327 0 54
-1.7536143 -1.9411842 0.5744018 0 55
-1.7401215 -1.9262481 0.59506035 0 56
-1.7430452 -1.9294846 0.62128663 0 57
-1.7460126 -1.9327693 0.64772493 0 58
-1.7416484 -1.9279385 0.67153931 0 59
-1.7557707 -1.9435711 0.70274627 0 60
-1.7468776 -1.9337268 0.72494489 0 61
-1.7444721 -1.9310641 0.74980128 0 62
-1.7458183 -1.9325541 0.77639186 0 63
-1.6353557 -1.855644 -0.73735923 0 0
-1.6789596 -1.9051216 -0.73165661 0 1
-1.7002558 -1.9292864 -0.71538812 0 2
-1.7027016 -1.9320616 -0.69096208 0 3
-1.703482 -1.9329472 -0.66593742 0 4
-1.7012959 -1.9304665 -0.63989401 0 5
-1.7035456 -1.9330193 -0.61563313 0 6
-1.7006497 -1.9297334 -0.58963227 0 7
-1.6981086 -1.92685 -0.56393898 0 8
-1.7014289 -1.9306176 -0.54028112 0 9
-1.7007626 -1.9298614 -0.51541412 0 10
-1.6997031 -1.9286592 -0.49054357 0 11
-1.7083915 -1.938518 -0.46846268 0 12
-1.6987373 -1.9275632 -0.44144723 0 13
-1.700279 -1.9293127 -0.41753465 0 14
-1.6998435 -1.9288186 -0.39319319 0 15
-1.7068074 -1.9367205 -0.37053856 0 16
-1.7007774 -1.9298782 -0.34511355 0 17
-1.7014018 -1.9305868 -0.32117492 0 18
-1.7019981 -1.9312634 -0.2972689 0 19
-1.6987165 -1.9275397 -0.27277434 0 20
-1.7001501 -1.9291664 -0.2491097 0 21
-1.6978457 -1.9265516 -0.22495206 0 22
-1.7028904 -1.9322759 -0.20176816 0 23
-1.6977274 -1.9264175 -0.17741071 0 24
-1.6983119 -1.9270806 -0.15374805 0 25
-1.6976268 -1.9263033 -0.12999795 0 26
-1.7124331 -1.943104 -0.10725935 0 27
-1.7008547 -1.9299659 -0.082841173 0 28
-1.6950008 -1.9233234 -0.058958631 0 29
-1.7027631 -1.9321314 -0.035533171 0 30
-1.7009186 -1.9300385 -0.011830892 0 31
-1.69871 -1.9275323 0.01181553 0 32
-1.6991509 -1.9280328 0.035457794 0 33
-1.6936702 -1.9218136 0.058912344 0 34
-1.7044001 -1.9339889 0.083013855 0 35
-1.6975566 -1.9262236 0.10632755 0 36
-1.7045346 -1.9341416 0.13052693 0 37
-1.7105833 -1.941005 0.15485896 0 38
-1.6955736 -1.9239734 0.17718562 0 39
-1.7048371 -1.9344847 0.20199881 0 40
-1.7135955 -1.944423 0.2270388 0 41
-1.705596 -1.9353459 0.24990763 0 42
-1.7004642 -1.929523 0.27305499 0 43
-1.7014216 -1.9306092 0.2971682 0 44
-1.7101053 -1.9404626 0.32281786 0 45
-1.6994989 -1.9284275 0.34485409 0 46
-1.7039627 -1.9334925 0.369921 0 47
-1.7082412 -1.9383475 0.39513564 0 48
-1.6927967 -1.9208225 0.41569722 0 49
-1.6987873 -1.9276201 0.44146025 0 50
-1.7095017 -1.9397779 0.46876711 0 51
-1.6928792 -1.9209161 0.48857415 0 52
-1.6975749 -1.9262443 0.51444805 0 53
-1.6982259 -1.926983 0.53926396 0 54
-1.7051005 -1.9347837 0.56626099 0 55
-1.7034223 -1.9328793 0.59059352 0 56
-1.6945866 -1.9228536 0.61239552 0 57
-1.7026186 -1.9319675 0.64039153 0 58
-1.7076719 -1.9377015 0.66757536 0 59
-1.697503 -1.9261627 0.68885249 0 60
-1.6967598 -1.9253194 0.7139172 0 61
-1.7111416 -1.9416385 0.74568087 0 62
-1.7010242 -1.9301583 0.76696825 0 63
-1.6066364 -1.8688884 -0.73471624 0 0
-1.6611687 -1.9323219 -0.73420262 0 1
-1.6679486 -1.9402086 -0.71177918 0 2
-1.6566831 -1.9271041 -0.68185222 0 3
-1.6542231 -1.9242427 -0.65588111 0 4
-1.6601087 -1.9310889 -0.63328594 0 5
-1.6572345 -1.9277457 -0.60741758 0 6
-1.6498284 -1.9191307 -0.58015001 0 7
-1.6550404 -1.9251934 -0.55745578 0 8
-1.6669472 -1.9390438 -0.53686237 0 9
-1.6519725 -1.9216247 -0.50775069 0 10
-1.6566108 -1.9270202 -0.48490894 0 11
-1.6616931 -1.9329319 -0.46213996 0 12
-1.6576663 -1.9282479 -0.43690282 0 13
-1.6597066 -1.9306213 -0.41336983 0 14
-1.6510767 -1.9205827 -0.3873463 0 15
-1.656185 -1.9265249 -0.36466402 0 16
-1.6537663 -1.9237113 -0.34034845 0 17
-1.6604147 -1.931445 -0.31789699 0 18
-1.6586367 -1.9293767 -0.29381692 0 19
-1.6505914 -1.9200182 -0.26881737 0 20
-1.6599826 -1.9309422 -0.2466846 0 21
-1.6539725 -1.9239511 -0.22225687 0 22
-1.6594535 -1.9303268 -0.19941883 0 23
-1.6567785 -1.9272151 -0.1755947 0 24
-1.6585276 -1.9292498 -0.15228249 0 25
-1.6661165 -1.9380774 -0.12940016 0 26
-1.6584873 -1.9292029 -0.10535832 0 27
-1.6555402 -1.9257748 -0.081781283 0 28
-1.6587131 -1.9294657 -0.058517251 0 29
-1.6537628 -1.9237072 -0.035001617 0 30
-1.660762 -1.9318489 -0.011715923 0 31
-1.6600981 -1.9310766 0.011711241 0 32
-1.6617247 -1.9329687 0.03517013 0 33
-1.6450745 -1.9136007 0.058036096 0 34
-1.6560361 -1.9263517 0.081805781 0 35
-1.6552427 -1.9254287 0.1051522 0 36
-1.6524111 -1.9221349 0.12833571 0 37
-1.6665823 -1.9386194 0.15302207 0 38
-1.664392 -1.9360715 0.17640163 0 39
-1.6558063 -1.9260843 0.19898054 0 40
-1.6637542 -1.9353296 0.22357132 0 41
-1.6657418 -1.9376415 0.24754046 0 42
-1.6614927 -1.932699 0.27059278 0 43
-1.6586787 -1.9294255 0.29382434 0 44
-1.6575748 -1.9281414 0.31735325 0 45
-1.6558411 -1.9261247 0.34077546 0 46
-1.6625166 -1.93389 0.36605811 0 47
-1.6616246 -1.9328523 0.38982084 0 48
-1.6481177 -1.9171407 0.41048348 0 49
-1.656984 -1.9274541 0.43672296 0 50
-1.6547769 -1.9248869 0.46021649 0 51
-1.6559347 -1.9262336 0.48471102 0 52
-1.6663489 -1.9383478 0.51216948 0 53
-1.6513196 -1.9208653 0.5318293 0 54
-1.6580439 -1.9286872 0.55846739 0 55
-1.6592076 -1.9300408 0.58344811 0 56
-1.6668165 -1.9388916 0.61092961 0 57
-1.654907 -1.9250381 0.63130164 0 58
-1.6503817 -1.9197743 0.65435803 0 59
-1.6588935 -1.9296753 0.68276197 0 60
-1.6568295 -1.9272745 0.70703423 0 61
-1.6573539 -1.9278845 0.73251659 0 62
-1.659995 -1.9309566 0.75911713 0 63
-1.5895853 -1.895716 -0.73752296 0 0
-1.6222818 -1.9347092 -0.72747517 0 1
-1.6094998 -1.9194657 -0.69685626 0 2
-1.6220919 -1.9344829 -0.67735445 0 3
-1.6158839 -1.9270793 -0.6500262 0 4
-1.6179544 -1.9295484 -0.62620896 0 5
-1.6208093 -1.9329532 -0.60273308 0 6
-1.6193687 -1.9312352 -0.57774597 0 7
-1.615759 -1.9269304 -0.55216402 0 8
-1.6244671 -1.9373155 -0.53081322 0 9
-1.6062539 -1.9155947 -0.50090069 0 10
-1.6219091 -1.9342648 -0.48167694 0 11
-1.6120985 -1.9225649 -0.45488745 0 12
-1.6203604 -1.9324179 -0.43330035 0 13
-1.6133409 -1.9240465 -0.40768364 0 14
-1.6179481 -1.929541 -0.38511145 0 15
-1.6112428 -1.9215444 -0.35994381 0 16
-1.6171948 -1.9286426 -0.33767715 0 17
-1.6154274 -1.9265348 -0.31379569 0 18
-1.6144238 -1.9253379 -0.29015678 0 19
-1.6127081 -1.9232918 -0.26647913 0 20
-1.6146306 -1.9255846 -0.24344528 0 21
-1.6208473 -1.9329987 -0.22098292 0 22
-1.6139045 -1.9247186 -0.19677439 0 23
-1.6199962 -1.9319835 -0.174201 0 24
-1.6133112 -1.924011 -0.15029173 0 25
-1.6208532 -1.9330055 -0.12772115 0 26
-1.6162937 -1.927568 -0.10417575 0 27
-1.611006 -1.921262 -0.080742285 0 28
-1.6188474 -1.9306134 -0.057943966 0 29
-1.6156429 -1.9267918 -0.034693647 0 30
-1.6114455 -1.9217862 -0.011533855 0 31
-1.6148434 -1.9258384 0.011558174 0 32
-1.6147255 -1.9256977 0.034673944 0 33
-1.6175897 -1.9291135 0.05789895 0 34
-1.613472 -1.9242028 0.080865875 0 35
-1.6189109 -1.9306892 0.10434444 0 36
-1.6164478 -1.9277518 0.12737401 0 37
-1.619819 -1.9317722 0.15089799 0 38
-1.618524 -1.9302276 0.17404269 0 39
-1.6171039 -1.9285343 0.19716449 0 40
-1.612695 -1.9232762 0.21987143 0 41
-1.6201721 -1.9321933 0.2442808 0 42
-1.617738 -1.9292904 0.26731026 0 43
-1.6184036 -1.9300841 0.29087207 0 44
-1.6153944 -1.9264954 0.31378928 0 45
-1.6153982 -1.9265 0.337302 0 46
-1.6171669 -1.9286094 0.36126724 0 47
-1.6173023 -1.9287709 0.38495776 0 48
-1.6152296 -1.926299 0.40816092 0 49
-1.61606 -1.9272894 0.43215039 0 50
-1.6161581 -1.9274063 0.45603296 0 51
-1.6221478 -1.9345496 0.48174784 0 52
-1.6165216 -1.9278398 0.50410259 0 53
-1.6160526 -1.9272804 0.52806365 0 54
-1.6142942 -1.9251834 0.5516634 0 55
-1.6187605 -1.9305098 0.57752901 0 56
-1.6175698 -1.9290898 0.60152835 0 57
-1.619199 -1.9310329 0.62669069 0 58
-1.6253585 -1.9383785 0.65383756 0 59
-1.6230794 -1.9356606 0.6777668 0 60
-1.6197379 -1.9316754 0.701289 0 61
-1.6239119 -1.9366533 0.72820616 0 62
-1.627491 -1.9409218 0.7551102 0 63
-1.5603014 -1.9079581 -0.73476589 0 0
-1.571656 -1.9218426 -0.7153163 0 1
-1.5676094 -1.9168944 -0.68887258 0 2
-1.5759786 -1.9271283 -0.66794324 0 3
-1.5724379 -1.9227986 -0.6420117 0 4
-1.5788014 -1.9305801 -0.6201964 0 5
-1.58654 -1.9400429 -0.5988152 0 6
-1.5777285 -1.9292681 -0.57131046 0 7
-1.583675 -1.9365396 -0.54929584 0 8
-1.5706142 -1.9205687 -0.52089369 0 9
-1.5753958 -1.9264157 -0.49862707 0 10
-1.5709326 -1.9209579 -0.47351706 0 11
-1.5771439 -1.9285533 -0.45168167 0 12
-1.5710418 -1.9210916 -0.42639676 0 13
-1.5720211 -1.922289 -0.40318492 0 14
-1.5698515 -1.9196361 -0.37925315 0 15
-1.5759342 -1.927074 -0.35732263 0 16
-1.5841514 -1.9371221 -0.33572581 0 17
-1.5705868 -1.9205351 -0.30964938 0 18
-1.5770489 -1.9284371 -0.28767964 0 19
-1.5740894 -1.9248182 -0.26398885 0 20
-1.5781388 -1.9297699 -0.24150276 0 21
-1.5816488 -1.934062 -0.21886453 0 22
-1.5712746 -1.9213762 -0.19444267 0 23
-1.5846796 -1.937768 -0.1729525 0 24
-1.571436 -1.9215736 -0.1485807 0 25
-1.5832735 -1.9360487 -0.12662627 0 26
-1.5639256 -1.9123898 -0.10230838 0 27
-1.5723101 -1.9226425 -0.079981729 0 28
-1.5650157 -1.9137226 -0.056855142 0 29
-1.5751613 -1.9261289 -0.034330361 0 30
-1.5856732 -1.938983 -0.011519171 0 31
-1.5748941 -1.9258022 0.011440867 0 32
-1.5737687 -1.9244261 0.034300007 0 33
-1.5733037 -1.9238575 0.057156235 0 34
-1.5712774 -1.9213796 0.079929195 0 35
-1.5755728 -1.9266322 0.10307031 0 36
-1.5710924 -1.9211533 0.12565205 0 37
-1.5836949 -1.936564 0.14973979 0 38
-1.5751238 -1.926083 0.17190957 0 39
-1.5636393 -1.9120396 0.19349782 0 40
-1.5733159 -1.9238722 0.21771143 0 41
-1.5746428 -1.9254949 0.24096778 0 42
-1.5738984 -1.9245846 0.26395682 0 43
-1.5808698 -1.9331093 0.28837663 0 44
-1.5731884 -1.9237164 0.31016228 0 45
-1.5777512 -1.9292958 0.33436942 0 46
-1.5720015 -1.9222651 0.35643095 0 47
-1.5644174 -1.912991 0.37794033 0 48
-1.5769494 -1.9283154 0.4044489 0 49
-1.579422 -1.931339 0.42867124 0 50
-1.5763434 -1.9275744 0.4514524 0 51
-1.5674518 -1.9167017 0.47246787 0 52
-1.5726799 -1.9230946 0.49776745 0 53
-1.5730656 -1.9235663 0.52170664 0 54
-1.5756723 -1.9267536 0.54652005 0 55
-1.5756454 -1.9267209 0.57055616 0 56
-1.5660701 -1.9150121 0.59108919 0 57
-1.575816 -1.9269295 0.61902368 0 58
-1.572769 -1.9232037 0.64214689 0 59
-1.5714607 -1.9216038 0.66602844 0 60
-1.5741811 -1.9249302 0.69176042 0 61
-1.5694122 -1.9190987 0.71429503 0 62
-1.5655895 -1.9144244 0.73725611 0 63
-1.5257041 -1.9131799 -0.72949678 0 0
-1.5300819 -1.9186695 -0.70707893 0 1
-1.531613 -1.9205894 -0.68338066 0 2
-1.5385365 -1.9292713 -0.6620788 0 3
-1.5416025 -1.933116 -0.63907886 0 4
-1.5428967 -1.9347389 -0.61539114 0 5
-1.5337552 -1.9232757 -0.58777416 0 6
-1.5338944 -1.9234502 -0.5639596 0 7
-1.535067 -1.9249206 -0.54060507 0 8
-1.5370517 -1.9274094 -0.51758373 0 9
-1.5324999 -1.9217016 -0.49249202 0 10
-1.5276808 -1.9156586 -0.46754488 0 11
-1.5373292 -1.9277574 -0.44703406 0 12
-1.5356424 -1.925642 -0.42318359 0 13
-1.53929 -1.9302161 -0.40084726 0 14
-1.5374775 -1.9279432 -0.37713078 0 15
-1.5407006 -1.9319848 -0.35469356 0 16
-1.5375776 -1.9280689 -0.33085504 0 17
-1.5373197 -1.9277453 -0.30774078 0 18
-1.5414708 -1.9329506 -0.28550377 0 19
-1.5352867 -1.9251961 -0.26143169 0 20
-1.5325222 -1.9217296 -0.23812024 0 21
-1.5340978 -1.9237053 -0.21554154 0 22
-1.5376024 -1.9280999 -0.19319512 0 23
-1.5282309 -1.9163485 -0.1693507 0 24
-1.5352155 -1.9251068 -0.14738308 0 25
-1.5356487 -1.92565 -0.12470169 0 26
-1.5269651 -1.9147612 -0.10142308 0 27
-1.537979 -1.9285722 -0.079435676 0 28
-1.5329026 -1.9222065 -0.056542918 0 29
-1.5250207 -1.9123229 -0.033747502 0 30
-1.5306128 -1.9193351 -0.01128978 0 31
-1.5327621 -1.9220303 0.011305634 0 32
-1.5352498 -1.9251499 0.033973865 0 33
-1.5404404 -1.9316586 0.056820959 0 34
-1.5263317 -1.9139669 0.078834102 0 35
-1.5406023 -1.9318618 0.10232889 0 36
-1.5379753 -1.9285675 0.12489063 0 37
-1.5272005 -1.9150563 0.14661364 0 38
-1.5340191 -1.9236066 0.16999212 0 39
-1.5332191 -1.9226035 0.19264437 0 40
-1.5278114 -1.9158224 0.21465829 0 41
-1.5344839 -1.9241894 0.23842505 0 42
-1.5372837 -1.9277002 0.26177177 0 43
-1.543051 -1.9349324 0.28579646 0 44
-1.5335795 -1.9230553 0.30699205 0 45
-1.5356916 -1.9257038 0.33044916 0 46
-1.5356714 -1.9256785 0.35353577 0 47
-1.5358437 -1.9258946 0.37673002 0 48
-1.5314828 -1.9204262 0.3988142 0 49
-1.5319531 -1.9210159 0.42216694 0 50
-1.5372056 -1.9276024 0.44699812 0 51
-1.5297276 -1.9182252 0.4681713 0 52
-1.5348814 -1.9246879 0.49325734 0 53
-1.5446749 -1.9369686 0.52015072 0 54
-1.5456909 -1.9382426 0.54434651 0 55
-1.5366185 -1.9268661 0.56496114 0 56
-1.5376318 -1.9281367 0.58925968 0 57
-1.5359139 -1.9259826 0.61260599 0 58
-1.5378754 -1.9284424 0.63753378 0 59
-1.5368026 -1.9270971 0.66133267 0 60
-1.5272838 -1.9151607 0.681449 0 61
-1.5442209 -1.9363993 0.71361285 0 62
-1.5397619 -1.9308079 0.73621833 0 63
-1.4966768 -1.9248646 -0.72687984 0 0
-1.4888256 -1.9147671 -0.69884127 0 1
-1.4979089 -1.9264493 -0.67886055 0 2
-1.4990028 -1.9278562 -0.65521801 0 3
-1.4918141 -1.9186108 -0.62817162 0 4
-1.4948816 -1.9225559 -0.60562348 0 5
-1.5010216 -1.9304525 -0.58428252 0 6
-1.4951156 -1.9228568 -0.55835301 0 7
-1.4939944 -1.9214147 -0.53442073 0 8
-1.4905369 -1.9169681 -0.50981945 0 9
-1.4844115 -1.9090903 -0.48454553 0 10
-1.4976724 -1.9261451 -0.46557435 0 11
-1.4885926 -1.9144676 -0.43967435 0 12
-1.4866623 -1.911985 -0.41613343 0 13
-1.4977845 -1.9262893 -0.39617708 0 14
-1.4889345 -1.9149073 -0.37097132 0 15
-1.4955304 -1.9233903 -0.34971306 0 16
-1.4895381 -1.9156835 -0.32556209 0 17
-1.4928493 -1.9199423 -0.30354172 0 18
-1.4925253 -1.9195255 -0.28078881 0 19
-1.4928951 -1.920001 -0.25821391 0 20
-1.4992325 -1.9281516 -0.2366138 0 21
-1.4998522 -1.9289484 -0.21404639 0 22
